ply
format ascii 1.0
element vertex 1121
property float x
property float y
property float z
property uchar red
property uchar green
property uchar blue
property uchar alpha
end_header
0.080698 1.049070 21.097436 212 212 212 0
0.161790 1.051637 21.149064 213 213 213 0
0.242492 1.050799 21.132216 211 211 211 0
0.323751 1.052192 21.160218 212 212 212 0
0.405813 1.055114 21.218990 212 212 212 0
0.487745 1.056781 21.252510 212 212 212 0
0.569268 1.057212 21.261175 212 212 212 0
0.652729 1.060684 21.331005 212 212 212 0
0.735166 1.061906 21.355576 211 211 211 0
0.818550 1.064115 21.400000 211 211 211 0
0.902757 1.066894 21.455892 212 212 212 0
0.987463 1.069751 21.513346 212 212 212 0
1.071070 1.071070 21.539863 211 211 211 0
1.156218 1.073631 21.591370 211 211 211 0
1.243507 1.077706 21.673333 210 210 210 0
1.330789 1.081266 21.744919 211 211 211 0
1.417618 1.084061 21.801125 210 210 210 0
1.505975 1.087648 21.873270 210 210 210 0
1.594888 1.091239 21.945488 210 210 210 0
1.686671 1.096336 22.047993 209 209 209 0
1.775591 1.099175 22.105087 208 208 208 0
1.869353 1.104618 22.214537 208 208 208 0
1.963205 1.109638 22.315486 208 208 208 0
2.059139 1.115367 22.430704 207 207 207 0
2.154588 1.120386 22.531643 207 207 207 0
2.252635 1.126318 22.650935 206 206 206 0
2.355029 1.133903 22.803478 204 204 204 0
2.457071 1.140783 22.941841 203 203 203 0
2.559794 1.147494 23.076800 202 202 202 0
2.671581 1.157685 23.281749 200 200 200 0
2.784425 1.167662 23.482392 199 199 199 0
2.903827 1.179680 23.724076 195 195 195 0
3.036099 1.196039 24.053073 192 192 192 0
3.182037 1.216661 24.467798 186 186 186 0
3.322594 1.234106 24.818631 142 142 142 0
-7.049593 1.233679 23.037885 145 145 145 0
-6.888985 1.220833 22.797999 153 153 153 0
-6.716213 1.205474 22.511189 159 159 159 0
-6.582804 1.196873 22.350578 163 163 163 0
-6.471085 1.192042 22.260354 167 167 167 0
-6.368625 1.188810 22.200000 172 172 172 0
-6.276157 1.187381 22.173317 174 174 174 0
-6.166733 1.182661 22.085176 177 177 177 0
-6.046348 1.175679 21.954787 178 178 178 0
-5.909330 1.165220 21.759476 178 178 178 0
-5.820840 1.164168 21.739831 181 181 181 0
-5.742955 1.165237 21.759800 185 185 185 0
-5.653215 1.163897 21.734777 187 187 187 0
-5.557627 1.161295 21.686186 187 187 187 0
-5.443640 1.154711 21.563239 187 187 187 0
-5.332247 1.148484 21.446945 188 188 188 0
-5.248501 1.148110 21.439957 190 190 190 0
-5.166013 1.148003 21.437963 190 190 190 0
-5.101661 1.151988 21.512382 190 190 190 0
-5.008988 1.149604 21.467857 192 192 192 0
-4.901539 1.143692 21.357468 194 194 194 0
-4.792977 1.137317 21.238404 195 195 195 0
-4.729294 1.141554 21.317532 195 195 195 0
-4.656640 1.143736 21.358286 196 196 196 0
-4.563600 1.140900 21.305323 198 198 198 0
-4.485960 1.141881 21.323637 198 198 198 0
-4.386490 1.137238 21.236942 198 198 198 0
-4.296845 1.135016 21.195437 199 199 199 0
-4.220624 1.136322 21.219830 200 200 200 0
-4.161163 1.142280 21.331095 200 200 200 0
-4.090079 1.145222 21.386037 200 200 200 0
-4.017791 1.147940 21.436793 201 201 201 0
-3.927795 1.145607 21.393217 201 201 201 0
-3.834216 1.142107 21.327858 203 203 203 0
-3.756189 1.143188 21.348048 203 203 203 0
-3.676370 1.143759 21.358720 204 204 204 0
-3.612115 1.149309 21.462360 204 204 204 0
-3.534889 1.150894 21.491955 203 203 203 0
-3.453358 1.151119 21.496160 205 205 205 0
-3.363855 1.148633 21.449738 205 205 205 0
-3.283591 1.149257 21.461382 206 206 206 0
-3.203233 1.149878 21.472986 207 207 207 0
-3.113901 1.147227 21.423470 206 206 206 0
-3.019778 1.142619 21.337420 205 205 205 0
-2.913961 1.133207 21.161664 206 206 206 0
-2.836478 1.134591 21.187512 205 205 205 0
-2.751477 1.132961 21.157071 205 205 205 0
-2.669097 1.132344 21.145554 205 205 205 0
-2.575909 1.126960 21.045011 205 205 205 0
-2.487424 1.123353 20.977640 205 205 205 0
-2.403543 1.121653 20.945906 206 206 206 0
-2.328366 1.124039 20.990452 207 207 207 0
-2.249357 1.124679 21.002403 207 207 207 0
-2.167752 1.124019 20.990093 206 206 206 0
-2.082234 1.121203 20.937495 207 207 207 0
-2.000637 1.120357 20.921695 207 207 207 0
-1.926842 1.123991 20.989569 207 207 207 0
-1.834574 1.116697 20.853358 208 208 208 0
-1.757789 1.118593 20.888754 208 208 208 0
-1.683039 1.122026 20.952863 208 208 208 0
-1.598767 1.119137 20.898915 209 209 209 0
-1.520477 1.120352 20.921600 209 209 209 0
-1.437417 1.117991 20.877511 209 209 209 0
-1.357505 1.117946 20.876669 210 210 210 0
-1.277303 1.117640 20.870962 210 210 210 0
-1.198190 1.118310 20.883482 210 210 210 0
-1.118204 1.118204 20.881498 210 210 210 0
-1.039261 1.119205 20.900181 211 211 211 0
-0.956894 1.116376 20.847360 211 211 211 0
-0.879236 1.119027 20.896868 210 210 210 0
-0.799273 1.118982 20.896016 210 210 210 0
-0.719376 1.119029 20.896904 211 211 211 0
-0.639978 1.119962 20.914316 212 212 212 0
-0.559122 1.118244 20.882239 211 211 211 0
-0.480469 1.121094 20.935466 212 212 212 0
-0.400643 1.121800 20.948639 211 211 211 0
-0.320858 1.123003 20.971109 211 211 211 0
-0.240614 1.122866 20.968553 211 211 211 0
-0.160682 1.124776 21.004223 212 212 212 0
-0.080360 1.125034 21.009036 211 211 211 0
0.000000 1.126085 21.028663 212 212 212 0
0.080526 1.127358 21.052446 212 212 212 0
0.161425 1.129976 21.101330 212 212 212 0
0.242292 1.130697 21.114781 212 212 212 0
0.323266 1.131432 21.128520 212 212 212 0
0.404987 1.133963 21.175774 212 212 212 0
0.487242 1.136897 21.230577 212 212 212 0
0.569656 1.139312 21.275662 212 212 212 0
0.651417 1.139980 21.288136 212 212 212 0
0.734221 1.142122 21.328138 212 212 212 0
0.817822 1.144951 21.380974 212 212 212 0
0.902025 1.148031 21.438496 212 212 212 0
0.986155 1.150514 21.484861 212 212 212 0
1.070711 1.153073 21.532645 211 211 211 0
1.154914 1.154914 21.567017 212 212 212 0
1.242315 1.159494 21.652558 210 210 210 0
1.329332 1.163166 21.721114 210 210 210 0
1.415096 1.165373 21.762333 211 211 211 0
1.504041 1.169810 21.845182 210 210 210 0
1.592815 1.173653 21.916959 210 210 210 0
1.682997 1.178098 21.999966 209 209 209 0
1.774397 1.182931 22.090221 208 208 208 0
1.866491 1.187767 22.180527 209 209 209 0
1.959230 1.192575 22.270307 208 208 208 0
2.054451 1.198430 22.379641 207 207 207 0
2.151346 1.204754 22.497739 207 207 207 0
2.248341 1.210645 22.607755 206 206 206 0
2.348737 1.217864 22.742552 205 205 205 0
2.453661 1.226831 22.910005 203 203 203 0
2.555333 1.233609 23.036585 203 203 203 0
2.665018 1.243675 23.224556 201 201 201 0
2.778593 1.254848 23.433211 200 200 200 0
2.893778 1.266028 23.641975 197 197 197 0
3.026218 1.283850 23.974787 194 194 194 0
3.166640 1.303910 24.349402 188 188 188 0
3.317266 1.326907 24.778835 161 161 161 0
3.420048 1.330018 24.836947 79 79 79 0
-7.114432 1.333956 23.249777 136 136 136 0
-6.940646 1.317844 22.968962 144 144 144 0
-6.767557 1.301453 22.683280 153 153 153 0
-6.634398 1.292415 22.525756 162 162 162 0
-6.527435 1.288310 22.454198 163 163 163 0
-6.439158 1.287832 22.445868 165 165 165 0
-6.311179 1.279293 22.297048 170 170 170 0
-6.209989 1.276025 22.240090 176 176 176 0
-6.062092 1.262936 22.011953 177 177 177 0
-5.941791 1.255308 21.879006 177 177 177 0
-5.859646 1.255638 21.884764 179 179 179 0
-5.775140 1.255465 21.881747 181 181 181 0
-5.681434 1.253257 21.843267 184 184 184 0
-5.582288 1.249766 21.782413 186 186 186 0
-5.465438 1.242145 21.649587 187 187 187 0
-5.369786 1.239181 21.597932 188 188 188 0
-5.269619 1.235067 21.526221 189 189 189 0
-5.196752 1.237322 21.565522 189 189 189 0
-5.118253 1.238287 21.582345 189 189 189 0
-5.021219 1.234726 21.520280 191 191 191 0
-4.916180 1.229045 21.421265 192 192 192 0
-4.824739 1.226629 21.379148 193 193 193 0
-4.746800 1.227621 21.396439 192 192 192 0
-4.667275 1.228230 21.407063 194 194 194 0
-4.602217 1.232737 21.485608 197 197 197 0
-4.502916 1.228068 21.404236 196 196 196 0
-4.408531 1.224592 21.343652 197 197 197 0
-4.314497 1.221084 21.282512 199 199 199 0
-4.244166 1.224279 21.338188 199 199 199 0
-4.171607 1.226943 21.384633 200 200 200 0
-4.105404 1.231621 21.466163 200 200 200 0
-4.043348 1.237760 21.573153 201 201 201 0
-3.934777 1.229618 21.431250 201 201 201 0
-3.855343 1.230429 21.445378 202 202 202 0
-3.768904 1.228990 21.420310 202 202 202 0
-3.696601 1.232200 21.476259 203 203 203 0
-3.631340 1.237957 21.576591 204 204 204 0
-3.564311 1.243364 21.670837 204 204 204 0
-3.458775 1.235277 21.529881 203 203 203 0
-3.378415 1.236006 21.542581 205 205 205 0
-3.286167 1.232313 21.478218 206 206 206 0
-3.194697 1.228730 21.415766 205 205 205 0
-3.098921 1.223258 21.320403 204 204 204 0
-3.003339 1.217570 21.221259 203 203 203 0
-2.902931 1.209555 21.081561 204 204 204 0
-2.823200 1.209943 21.088331 203 203 203 0
-2.749608 1.213062 21.142698 204 204 204 0
-2.663698 1.210772 21.102778 204 204 204 0
-2.575999 1.207500 21.045743 204 204 204 0
-2.492005 1.205809 21.016276 204 204 204 0
-2.402137 1.201069 20.933660 206 206 206 0
-2.326439 1.203331 20.973083 207 207 207 0
-2.249469 1.205072 21.003442 205 205 205 0
-2.166020 1.203345 20.973325 207 207 207 0
-2.084707 1.202715 20.962360 208 208 208 0
-1.996441 1.197865 20.877818 208 208 208 0
-1.918770 1.199231 20.901634 207 207 207 0
-1.835987 1.197383 20.869413 208 208 208 0
-1.757831 1.198521 20.889257 208 208 208 0
-1.678787 1.199134 20.899936 209 209 209 0
-1.597946 1.198460 20.888184 209 209 209 0
-1.518098 1.198498 20.888856 210 210 210 0
-1.436680 1.197234 20.866818 209 209 209 0
-1.356827 1.197200 20.866232 209 209 209 0
-1.276223 1.196459 20.853315 210 210 210 0
-1.196935 1.196935 20.861620 210 210 210 0
-1.117590 1.197417 20.870021 210 210 210 0
-1.037296 1.196880 20.860651 210 210 210 0
-0.956731 1.195914 20.843814 211 211 211 0
-0.877868 1.197093 20.864367 211 211 211 0
-0.798250 1.197375 20.869278 211 211 211 0
-0.718757 1.197929 20.878935 212 212 212 0
-0.639321 1.198727 20.892837 211 211 211 0
-0.559130 1.198135 20.882526 212 212 212 0
-0.478664 1.196661 20.856836 212 212 212 0
-0.400214 1.200642 20.926225 212 212 212 0
-0.320512 1.201920 20.948493 212 212 212 0
-0.240698 1.203488 20.975817 212 212 212 0
-0.160605 1.204537 20.994114 212 212 212 0
-0.080249 1.203729 20.980026 212 212 212 0
0.000000 1.205490 21.010726 212 212 212 0
0.080397 1.205958 21.018883 213 213 213 0
0.160984 1.207380 21.043666 213 213 213 0
0.242092 1.210459 21.097319 212 212 212 0
0.322897 1.210863 21.104365 212 212 212 0
0.404514 1.213542 21.151059 212 212 212 0
0.486615 1.216538 21.203280 212 212 212 0
0.568683 1.218607 21.239346 213 213 213 0
0.650730 1.220119 21.265692 212 212 212 0
0.733386 1.222311 21.303891 212 212 212 0
0.816079 1.224119 21.335409 213 213 213 0
0.900527 1.227991 21.402892 212 212 212 0
0.984709 1.230886 21.453352 211 211 211 0
1.068830 1.233265 21.494812 212 212 212 0
1.154220 1.236664 21.554060 211 211 211 0
1.240637 1.240637 21.623298 211 211 211 0
1.326887 1.243956 21.681158 211 211 211 0
1.413773 1.247447 21.741993 210 210 210 0
1.501788 1.251490 21.812458 210 210 210 0
1.590968 1.256028 21.891550 210 210 210 0
1.681415 1.261062 21.979286 210 210 210 0
1.771671 1.265479 22.056287 209 209 209 0
1.863180 1.270350 22.141173 208 208 208 0
1.957645 1.276725 22.252286 208 208 208 0
2.051469 1.282168 22.347160 207 207 207 0
2.148010 1.288806 22.462849 206 206 206 0
2.242251 1.293606 22.546515 206 206 206 0
2.343713 1.302063 22.693902 205 205 205 0
2.447741 1.311290 22.854723 204 204 204 0
2.551303 1.319640 23.000254 202 202 202 0
2.657906 1.328953 23.162584 202 202 202 0
2.772720 1.341639 23.383678 199 199 199 0
2.886684 1.353133 23.584017 198 198 198 0
3.017065 1.371393 23.902281 194 194 194 0
3.153214 1.391124 24.246168 190 190 190 0
3.299952 1.414265 24.649504 173 173 173 0
3.402128 1.417553 24.706812 85 85 85 0
-7.223166 1.444633 23.605118 116 116 116 0
-7.019459 1.421663 23.229782 135 135 135 0
-6.824020 1.399799 22.872533 146 146 146 0
-6.693730 1.390905 22.727203 155 155 155 0
-6.571473 1.383468 22.605687 161 161 161 0
-6.469530 1.380166 22.551738 163 163 163 0
-6.347911 1.372521 22.426818 165 165 165 0
-6.222463 1.363828 22.284764 170 170 170 0
-6.110064 1.357792 22.186145 175 175 175 0
-5.984980 1.348728 22.038039 176 176 176 0
-5.874692 1.342787 21.940962 178 178 178 0
-5.804744 1.346027 21.993913 179 179 179 0
-5.708041 1.343068 21.945563 181 181 181 0
-5.608958 1.339453 21.886480 182 182 182 0
-5.487503 1.330304 21.736989 185 185 185 0
-5.389373 1.326615 21.676712 187 187 187 0
-5.305837 1.326459 21.674171 189 189 189 0
-5.222292 1.326296 21.671510 190 190 190 0
-5.143949 1.327471 21.690697 189 189 189 0
-5.036153 1.320958 21.584286 191 191 191 0
-4.939101 1.317094 21.521137 192 192 192 0
-4.832816 1.310594 21.414936 191 191 191 0
-4.762144 1.313695 21.465601 192 192 192 0
-4.693696 1.317529 21.528245 193 193 193 0
-4.616912 1.319118 21.554209 194 194 194 0
-4.538618 1.320325 21.573942 195 195 195 0
-4.441547 1.316014 21.503495 195 195 195 0
-4.345219 1.311764 21.434056 196 196 196 0
-4.276784 1.315933 21.502181 197 197 197 0
-4.198114 1.317055 21.520511 197 197 197 0
-4.141194 1.325182 21.653303 198 198 198 0
-4.026279 1.314703 21.482078 199 199 199 0
-3.957524 1.319175 21.555144 199 199 199 0
-3.862832 1.315006 21.487034 200 200 200 0
-3.792649 1.319182 21.555263 200 200 200 0
-3.718273 1.322053 21.602166 202 202 202 0
-3.641287 1.324104 21.635692 202 202 202 0
-3.556450 1.323330 21.623043 203 203 203 0
-3.463322 1.319361 21.558185 204 204 204 0
-3.380709 1.319301 21.557209 205 205 205 0
-3.281066 1.312426 21.444876 205 205 205 0
-3.183519 1.306059 21.340832 202 202 202 0
-3.081955 1.297665 21.203681 201 201 201 0
-2.994182 1.294781 21.156557 202 202 202 0
-2.908193 1.292530 21.119776 204 204 204 0
-2.828068 1.292831 21.124693 203 203 203 0
-2.745482 1.291991 21.110971 203 203 203 0
-2.661954 1.290644 21.088959 203 203 203 0
-2.580214 1.290107 21.080183 204 204 204 0
-2.488832 1.284559 20.989519 204 204 204 0
-2.415672 1.288358 21.051604 206 206 206 0
-2.324572 1.282522 20.956248 206 206 206 0
-2.242897 1.281655 20.942082 206 206 206 0
-2.167528 1.284461 20.987927 206 206 206 0
-2.086680 1.284111 20.982200 206 206 206 0
-2.002777 1.281777 20.944075 206 206 206 0
-1.915953 1.277302 20.870946 207 207 207 0
-1.834790 1.276376 20.855816 208 208 208 0
-1.758467 1.278885 20.896819 208 208 208 0
-1.679121 1.279330 20.904092 209 209 209 0
-1.599008 1.279206 20.902066 208 208 208 0
-1.517702 1.278065 20.883413 209 209 209 0
-1.434588 1.275189 20.836428 210 210 210 0
-1.353862 1.274223 20.820639 210 210 210 0
-1.274812 1.274812 20.830267 209 209 209 0
-1.194471 1.274103 20.818668 210 210 210 0
-1.116778 1.276318 20.854870 211 211 211 0
-1.036408 1.275579 20.842789 211 211 211 0
-0.955843 1.274458 20.824475 210 210 210 0
-0.876800 1.275345 20.838976 211 211 211 0
-0.797463 1.275941 20.848710 212 212 212 0
-0.718645 1.277590 20.875659 212 212 212 0
-0.638974 1.277947 20.881488 212 212 212 0
-0.559122 1.277993 20.882239 212 212 212 0
-0.479021 1.277389 20.872365 212 212 212 0
-0.399398 1.278074 20.883565 212 212 212 0
-0.320068 1.280270 20.919446 212 212 212 0
-0.240288 1.281536 20.940136 212 212 212 0
-0.160295 1.282356 20.953536 212 212 212 0
-0.080179 1.282867 20.961883 213 213 213 0
0.000000 1.284622 20.990559 213 213 213 0
0.080409 1.286542 21.021925 212 212 212 0
0.160872 1.286977 21.029033 212 212 212 0
0.241734 1.289247 21.066130 213 213 213 0
0.322768 1.291074 21.095975 213 213 213 0
0.403937 1.292598 21.120875 212 212 212 0
0.485927 1.295804 21.173275 212 212 212 0
0.567490 1.297120 21.194777 212 212 212 0
0.650026 1.300052 21.242677 212 212 212 0
0.732661 1.302508 21.282814 212 212 212 0
0.815619 1.304990 21.323363 213 213 213 0
0.899336 1.308125 21.374588 212 212 212 0
0.983416 1.311221 21.425182 212 212 212 0
1.068166 1.314666 21.481470 212 212 212 0
1.152249 1.316856 21.517255 212 212 212 0
1.238391 1.320950 21.584148 211 211 211 0
1.325204 1.325204 21.653664 210 210 210 0
1.412008 1.328948 21.714841 210 210 210 0
1.500639 1.333902 21.795780 211 211 211 0
1.588731 1.337878 21.860760 211 211 211 0
1.677947 1.342357 21.933943 210 210 210 0
1.768429 1.347375 22.015927 209 209 209 0
1.860277 1.352929 22.106684 209 209 209 0
1.953754 1.359133 22.208057 209 209 209 0
2.046650 1.364433 22.294660 208 208 208 0
2.142439 1.371161 22.404593 207 207 207 0
2.239059 1.377882 22.514415 206 206 206 0
2.340628 1.387039 22.664029 206 206 206 0
2.443896 1.396512 22.818826 204 204 204 0
2.546042 1.404713 22.952821 204 204 204 0
2.654274 1.415613 23.130929 202 202 202 0
2.767468 1.428371 23.339392 199 199 199 0
2.880871 1.440436 23.536529 199 199 199 0
3.006330 1.457615 23.817231 195 195 195 0
3.139121 1.477234 24.137802 192 192 192 0
3.291367 1.504625 24.585372 179 179 179 0
3.401878 1.511946 24.704998 101 101 101 0
-7.344000 1.560600 24.000000 83 83 83 0
-7.137255 1.535865 23.619609 113 113 113 0
-6.929153 1.510200 23.224912 136 136 136 0
-6.756426 1.491679 22.940078 147 147 147 0
-6.633482 1.483805 22.818996 152 152 152 0
-6.522221 1.478370 22.735412 159 159 159 0
-6.402695 1.470889 22.620367 164 164 164 0
-6.298161 1.466695 22.555862 166 166 166 0
-6.154478 1.453141 22.347415 169 169 169 0
-6.027331 1.443164 22.193982 173 173 173 0
-5.925482 1.439046 22.130650 176 176 176 0
-5.846793 1.440514 22.153235 179 179 179 0
-5.750742 1.437686 22.109735 180 180 180 0
-5.630782 1.428706 21.971638 181 181 181 0
-5.521631 1.422238 21.872178 181 181 181 0
-5.414768 1.416170 21.778856 183 183 183 0
-5.317798 1.412540 21.723032 186 186 186 0
-5.246885 1.415826 21.773565 188 188 188 0
-5.156042 1.413753 21.741691 189 189 189 0
-5.073027 1.413794 21.742320 190 190 190 0
-4.966769 1.407251 21.641693 191 191 191 0
-4.871321 1.403601 21.585558 192 192 192 0
-4.793576 1.405014 21.607286 192 192 192 0
-4.717099 1.406854 21.635589 193 193 193 0
-4.644446 1.409921 21.682755 193 193 193 0
-4.559475 1.409292 21.673085 194 194 194 0
-4.463570 1.405198 21.610117 194 194 194 0
-4.368566 1.401238 21.549223 195 195 195 0
-4.291805 1.403090 21.577704 196 196 196 0
-4.228625 1.409542 21.676920 197 197 197 0
-4.153183 1.412082 21.715992 197 197 197 0
-4.073071 1.413106 21.731738 197 197 197 0
-3.986139 1.411758 21.710997 199 199 199 0
-3.893398 1.408250 21.657059 200 200 200 0
-3.820379 1.411879 21.712868 201 201 201 0
-3.724114 1.406888 21.636104 201 201 201 0
-3.650814 1.410542 21.692300 203 203 203 0
-3.552553 1.404498 21.599349 204 204 204 0
-3.464617 1.402345 21.566245 205 205 205 0
-3.359986 1.393165 21.425063 200 200 200 0
-3.270891 1.390129 21.378371 200 200 200 0
-3.170519 1.382021 21.253692 201 201 201 0
-3.082556 1.379038 21.207816 202 202 202 0
-2.994033 1.375637 21.155509 202 202 202 0
-2.898284 1.368634 21.047812 203 203 203 0
-2.821192 1.370293 21.073328 203 203 203 0
-2.746532 1.373266 21.119045 204 204 204 0
-2.659732 1.370165 21.071358 203 203 203 0
-2.578665 1.369916 21.067521 203 203 203 0
-2.493964 1.367658 21.032801 206 206 206 0
-2.399918 1.359954 20.914321 205 205 205 0
-2.320242 1.360142 20.917214 206 206 206 0
-2.240626 1.360380 20.920882 205 205 205 0
-2.163890 1.362449 20.952702 206 206 206 0
-2.080416 1.360272 20.919212 206 206 206 0
-2.001066 1.360725 20.926178 207 207 207 0
-1.914634 1.356199 20.856575 208 208 208 0
-1.833244 1.355006 20.838234 209 209 209 0
-1.755311 1.356377 20.859309 208 208 208 0
-1.675680 1.356503 20.861249 209 209 209 0
-1.595642 1.356296 20.858069 209 209 209 0
-1.518039 1.358245 20.888045 210 210 210 0
-1.430170 1.350716 20.772254 209 209 209 0
-1.353792 1.353792 20.819554 210 210 210 0
-1.274518 1.354175 20.825459 210 210 210 0
-1.196349 1.355862 20.851391 210 210 210 0
-1.116000 1.355143 20.840339 210 210 210 0
-1.034501 1.352809 20.804442 211 211 211 0
-0.953533 1.350838 20.774140 211 211 211 0
-0.875651 1.353279 20.811673 211 211 211 0
-0.796985 1.354875 20.836214 211 211 211 0
-0.717699 1.355653 20.848177 211 211 211 0
-0.637474 1.354632 20.832476 211 211 211 0
-0.558493 1.356340 20.858742 211 211 211 0
-0.478439 1.355578 20.847029 212 212 212 0
-0.399128 1.357034 20.869414 212 212 212 0
-0.319453 1.357675 20.879280 212 212 212 0
-0.240037 1.360211 20.918271 212 212 212 0
-0.160066 1.360562 20.923675 212 212 212 0
-0.080040 1.360674 20.925403 213 213 213 0
0.000000 1.363399 20.967312 213 213 213 0
0.080288 1.364904 20.990448 212 212 212 0
0.160835 1.367096 21.024162 213 213 213 0
0.241593 1.369026 21.053844 212 212 212 0
0.322378 1.370107 21.070472 212 212 212 0
0.403713 1.372624 21.109174 212 212 212 0
0.485416 1.375346 21.151038 212 212 212 0
0.567499 1.378212 21.195109 212 212 212 0
0.649188 1.379524 21.215291 212 212 212 0
0.731194 1.381145 21.240209 213 213 213 0
0.814895 1.385322 21.304457 212 212 212 0
0.897831 1.387557 21.338826 212 212 212 0
0.981710 1.390756 21.388022 212 212 212 0
1.065462 1.393296 21.427089 211 211 211 0
1.151493 1.398241 21.503133 212 212 212 0
1.238201 1.403294 21.580843 212 212 212 0
1.322992 1.405679 21.617511 211 211 211 0
1.410288 1.410288 21.688401 211 211 211 0
1.497958 1.414738 21.756837 211 211 211 0
1.587274 1.420193 21.840721 211 211 211 0
1.676208 1.424777 21.911220 211 211 211 0
1.766539 1.430055 21.992390 210 210 210 0
1.856740 1.434753 22.064641 209 209 209 0
1.950604 1.441751 22.172259 208 208 208 0
2.044929 1.448491 22.275913 208 208 208 0
2.140973 1.455861 22.389257 207 207 207 0
2.237623 1.463061 22.499984 207 207 207 0
2.336138 1.470901 22.620552 206 206 206 0
2.438760 1.480676 22.770873 205 205 205 0
2.542326 1.490329 22.919325 203 203 203 0
2.649559 1.501417 23.089841 203 203 203 0
2.760447 1.513793 23.280177 200 200 200 0
2.873947 1.526784 23.479961 198 198 198 0
2.996795 1.543803 23.741691 196 196 196 0
3.130650 1.565325 24.072666 192 192 192 0
3.282544 1.594379 24.519473 183 183 183 0
3.407231 1.608970 24.743872 113 113 113 0
-7.464927 1.700869 24.703987 80 80 80 0
-7.041821 1.625036 23.602551 114 114 114 0
-6.880627 1.608458 23.361777 135 135 135 0
-6.735586 1.595270 23.170230 146 146 146 0
-6.584775 1.580346 22.953464 150 150 150 0
-6.471921 1.574251 22.864938 156 156 156 0
-6.316411 1.557471 22.621224 166 166 166 0
-6.172113 1.543028 22.411449 167 167 167 0
-6.080047 1.541420 22.388094 168 168 168 0
-5.974144 1.536208 22.312394 170 170 170 0
-5.876950 1.533117 22.267500 177 177 177 0
-5.770970 1.527610 22.187504 180 180 180 0
-5.664631 1.521841 22.103721 180 180 180 0
-5.547715 1.513013 21.975499 180 180 180 0
-5.443353 1.507390 21.893828 182 182 182 0
-5.356484 1.506511 21.881061 183 183 183 0
-5.280779 1.508794 21.914218 184 184 184 0
-5.196440 1.508644 21.912041 185 185 185 0
-5.100999 1.505213 21.862204 188 188 188 0
-4.975610 1.492683 21.680218 189 189 189 0
-4.887480 1.491096 21.657163 191 191 191 0
-4.821907 1.496454 21.734989 191 191 191 0
-4.740244 1.496919 21.741745 192 192 192 0
-4.667488 1.500264 21.790325 193 193 193 0
-4.591569 1.502695 21.825641 195 195 195 0
-4.479260 1.493087 21.686082 195 195 195 0
-4.396002 1.492982 21.684560 195 195 195 0
-4.320492 1.495555 21.721932 197 197 197 0
-4.245333 1.498353 21.762568 197 197 197 0
-4.170780 1.501481 21.808000 196 196 196 0
-4.088756 1.501992 21.815423 198 198 198 0
-3.994962 1.498111 21.759051 199 199 199 0
-3.911059 1.497853 21.755302 200 200 200 0
-3.825564 1.496960 21.742336 200 200 200 0
-3.739140 1.495656 21.723399 201 201 201 0
-3.653217 1.494498 21.706578 201 201 201 0
-3.556003 1.488559 21.620324 201 201 201 0
-3.445107 1.476474 21.444797 200 200 200 0
-3.354870 1.472870 21.392441 199 199 199 0
-3.269178 1.471130 21.367178 199 199 199 0
-3.172138 1.464064 21.264543 200 200 200 0
-3.094590 1.465858 21.290608 200 200 200 0
-2.993983 1.456532 21.155152 203 203 203 0
-2.892694 1.446347 21.007217 203 203 203 0
-2.824117 1.452403 21.095181 202 202 202 0
-2.743434 1.452406 21.095225 203 203 203 0
-2.661826 1.451905 21.087946 203 203 203 0
-2.576818 1.449460 21.052434 204 204 204 0
-2.490665 1.446193 21.004979 205 205 205 0
-2.406642 1.443985 20.972917 205 205 205 0
-2.326554 1.444068 20.974122 206 206 206 0
-2.242933 1.441885 20.942414 206 206 206 0
-2.163414 1.442276 20.948093 206 206 206 0
-2.081462 1.441012 20.929730 207 207 207 0
-1.998227 1.438723 20.896490 208 208 208 0
-1.911354 1.433516 20.820854 208 208 208 0
-1.834495 1.435692 20.852455 208 208 208 0
-1.751101 1.432719 20.809281 208 208 208 0
-1.674601 1.435372 20.847819 209 209 209 0
-1.593006 1.433706 20.823614 209 209 209 0
-1.514219 1.434523 20.835485 209 209 209 0
-1.432107 1.432107 20.800389 210 210 210 0
-1.350555 1.430000 20.769788 210 210 210 0
-1.272154 1.431174 20.786835 209 209 209 0
-1.193417 1.432100 20.800293 210 210 210 0
-1.113020 1.431025 20.784681 211 211 211 0
-1.032409 1.429490 20.762375 212 212 212 0
-0.954374 1.431560 20.792453 210 210 210 0
-0.873977 1.430145 20.771894 211 211 211 0
-0.794776 1.430598 20.778470 211 211 211 0
-0.716958 1.433917 20.826676 212 212 212 0
-0.637153 1.433594 20.821984 212 212 212 0
-0.558924 1.437233 20.874841 212 212 212 0
-0.478203 1.434608 20.836712 212 212 212 0
-0.398725 1.435409 20.848355 212 212 212 0
-0.319527 1.437871 20.884115 213 213 213 0
-0.239819 1.438914 20.899262 212 212 212 0
-0.160002 1.440014 20.915229 212 212 212 0
-0.079987 1.439767 20.911642 213 213 213 0
0.000000 1.441839 20.941739 213 213 213 0
0.080242 1.444356 20.978295 212 212 212 0
0.160617 1.445554 20.995707 212 212 212 0
0.241241 1.447445 21.023168 213 213 213 0
0.322253 1.450138 21.062283 213 213 213 0
0.403279 1.451806 21.086503 213 213 213 0
0.484593 1.453780 21.115178 212 212 212 0
0.566551 1.456844 21.159684 213 213 213 0
0.648636 1.459430 21.197247 212 212 212 0
0.730895 1.461789 21.231505 213 213 213 0
0.813559 1.464405 21.269506 213 213 213 0
0.896822 1.467528 21.314852 213 213 213 0
0.981002 1.471503 21.372587 212 212 212 0
1.065816 1.475745 21.434204 211 211 211 0
1.149729 1.478223 21.470195 211 211 211 0
1.235887 1.483064 21.540510 212 212 212 0
1.322309 1.487597 21.606351 211 211 211 0
1.408324 1.491166 21.658187 211 211 211 0
1.497237 1.497237 21.746356 211 211 211 0
1.585454 1.502009 21.815666 210 210 210 0
1.674266 1.506840 21.885834 210 210 210 0
1.763512 1.511582 21.954710 210 210 210 0
1.856023 1.518564 22.056121 209 209 209 0
1.948160 1.524647 22.144472 208 208 208 0
2.042760 1.532070 22.252289 209 209 209 0
2.137876 1.539270 22.356869 208 208 208 0
2.234474 1.546943 22.468312 206 206 206 0
2.333507 1.555671 22.595083 206 206 206 0
2.434303 1.564909 22.729251 205 205 205 0
2.535854 1.573978 22.860975 203 203 203 0
2.644342 1.586605 23.044375 204 204 204 0
2.757782 1.601293 23.257700 201 201 201 0
2.868395 1.613472 23.434603 199 199 199 0
2.992143 1.632078 23.704838 196 196 196 0
3.125069 1.654448 24.029749 193 193 193 0
3.272103 1.682796 24.441479 185 185 185 0
3.407398 1.703699 24.745082 132 132 132 0
-7.387494 1.799518 24.761165 79 79 79 0
-6.989994 1.724804 23.733110 111 111 111 0
-6.815152 1.703788 23.443935 130 130 130 0
-6.686844 1.694000 23.309260 144 144 144 0
-6.538842 1.678892 23.101367 151 151 151 0
-6.368842 1.657644 22.808998 157 157 157 0
-6.235684 1.645528 22.642281 163 163 163 0
-6.116442 1.636794 22.522111 167 167 167 0
-6.022911 1.634790 22.494531 167 167 167 0
-5.922900 1.630943 22.441602 171 171 171 0
-5.815811 1.625006 22.359902 174 174 174 0
-5.688810 1.613244 22.198067 176 176 176 0
-5.576018 1.605217 22.087615 179 179 179 0
-5.460324 1.596095 21.962086 182 182 182 0
-5.401668 1.603620 22.065636 183 183 183 0
-5.304926 1.599898 22.014426 183 183 183 0
-5.225814 1.601459 22.035903 184 184 184 0
-5.109353 1.591438 21.898010 185 185 185 0
-5.006834 1.585497 21.816270 186 186 186 0
-4.908418 1.580677 21.749940 188 188 188 0
-4.845362 1.587274 21.840711 188 188 188 0
-4.779086 1.593029 21.919897 190 190 190 0
-4.704078 1.596026 21.961148 192 192 192 0
-4.592533 1.586511 21.830221 193 193 193 0
-4.491064 1.580189 21.743229 194 194 194 0
-4.418248 1.583900 21.794294 194 194 194 0
-4.346959 1.588312 21.854999 196 196 196 0
-4.269840 1.590725 21.888198 196 196 196 0
-4.188296 1.591553 21.899588 198 198 198 0
-4.107155 1.592570 21.913591 197 197 197 0
-4.018136 1.590512 21.885273 199 199 199 0
-3.917800 1.583791 21.792794 200 200 200 0
-3.831958 1.582765 21.778674 200 200 200 0
-3.746059 1.581669 21.763596 200 200 200 0
-3.633932 1.569198 21.591991 199 199 199 0
-3.532281 1.560775 21.476095 197 197 197 0
-3.437507 1.555063 21.397489 199 199 199 0
-3.346028 1.550598 21.336061 199 199 199 0
-3.248591 1.543081 21.232620 199 199 199 0
-3.176494 1.547523 21.293743 199 199 199 0
-3.083675 1.541837 21.215513 200 200 200 0
-2.995613 1.538288 21.166671 201 201 201 0
-2.909520 1.535580 21.129411 202 202 202 0
-2.823519 1.532767 21.090709 202 202 202 0
-2.742146 1.532376 21.085321 202 202 202 0
-2.665597 1.534738 21.117824 203 203 203 0
-2.573408 1.527961 21.024579 204 204 204 0
-2.491847 1.527261 21.014946 205 205 205 0
-2.411837 1.527497 21.018190 205 205 205 0
-2.318561 1.519057 20.902059 206 206 206 0
-2.238427 1.518933 20.900345 205 205 205 0
-2.160561 1.520395 20.920468 206 206 206 0
-2.084371 1.523194 20.958988 207 207 207 0
-1.997165 1.517846 20.885388 207 207 207 0
-1.912289 1.513895 20.831034 207 207 207 0
-1.831316 1.512826 20.816326 208 208 208 0
-1.751371 1.512548 20.812489 208 208 208 0
-1.672828 1.513511 20.825749 208 208 208 0
-1.593116 1.513460 20.825042 209 209 209 0
-1.509453 1.509453 20.769911 209 209 209 0
-1.430784 1.510272 20.781180 210 210 210 0
-1.349321 1.508065 20.750803 210 210 210 0
-1.269981 1.508102 20.751317 210 210 210 0
-1.190468 1.507926 20.748892 211 211 211 0
-1.114436 1.512448 20.811123 211 211 211 0
-1.032525 1.509076 20.764716 211 211 211 0
-0.953587 1.509846 20.775313 212 212 212 0
-0.872469 1.506992 20.736046 211 211 211 0
-0.795067 1.510627 20.786058 211 211 211 0
-0.715995 1.511545 20.798699 212 212 212 0
-0.637170 1.513278 20.822544 212 212 212 0
-0.557398 1.512938 20.817859 212 212 212 0
-0.477655 1.512573 20.812837 212 212 212 0
-0.398396 1.513905 20.831168 213 213 213 0
-0.319206 1.516227 20.863111 212 212 212 0
-0.239451 1.516524 20.867196 213 213 213 0
-0.159724 1.517382 20.879007 213 213 213 0
-0.079972 1.519464 20.907664 213 213 213 0
0.000000 1.519650 20.910216 213 213 213 0
0.080125 1.522382 20.947802 213 213 213 0
0.160498 1.524730 20.980123 212 212 212 0
0.241064 1.526739 21.007767 213 213 213 0
0.321672 1.527941 21.024299 212 212 212 0
0.403037 1.531542 21.073845 213 213 213 0
0.484109 1.533011 21.094068 213 213 213 0
0.566023 1.536347 21.139971 213 213 213 0
0.648300 1.539712 21.186273 212 212 212 0
0.730254 1.541647 21.212889 212 212 212 0
0.813210 1.545099 21.260392 213 213 213 0
0.896499 1.548498 21.307169 213 213 213 0
0.980031 1.551716 21.351443 212 212 212 0
1.064763 1.556193 21.413041 212 212 212 0
1.149393 1.559890 21.463913 212 212 212 0
1.235547 1.565026 21.534592 211 211 211 0
1.320562 1.568167 21.577807 212 212 212 0
1.408108 1.573768 21.654877 211 211 211 0
1.494567 1.577599 21.707588 211 211 211 0
1.582231 1.582231 21.771321 211 211 211 0
1.672152 1.588544 21.858190 211 211 211 0
1.762372 1.594527 21.940519 210 210 210 0
1.854461 1.601580 22.037559 209 209 209 0
1.946700 1.608143 22.127872 209 209 209 0
2.039319 1.614461 22.214806 209 209 209 0
2.135950 1.623322 22.336734 208 208 208 0
2.230993 1.630341 22.433310 206 206 206 0
2.330729 1.640142 22.568178 206 206 206 0
2.432202 1.650423 22.709635 206 206 206 0
2.532689 1.659348 22.832443 204 204 204 0
2.640605 1.672383 23.011805 203 203 203 0
2.751045 1.686124 23.200881 201 201 201 0
2.865689 1.701503 23.412493 199 199 199 0
2.985743 1.719064 23.654134 197 197 197 0
3.117268 1.742003 23.969763 194 194 194 0
3.263260 1.771484 24.375427 188 188 188 0
3.405920 1.797569 24.734353 147 147 147 0
-7.135694 1.853427 24.227805 78 78 78 0
-6.953628 1.829902 23.920288 105 105 105 0
-6.762055 1.803215 23.571432 126 126 126 0
-6.588016 1.780545 23.275097 142 142 142 0
-6.436719 1.763485 23.052086 152 152 152 0
-6.302556 1.750710 22.885098 155 155 155 0
-6.161213 1.735553 22.686967 159 159 159 0
-6.058000 1.730857 22.625582 166 166 166 0
-5.970611 1.730612 22.622379 170 170 170 0
-5.851632 1.721068 22.497623 171 171 171 0
-5.734974 1.711933 22.378205 171 171 171 0
-5.605533 1.698646 22.204529 173 173 173 0
-5.504415 1.693666 22.139426 179 179 179 0
-5.441524 1.700476 22.228447 182 182 182 0
-5.339245 1.694999 22.156844 183 183 183 0
-5.245853 1.692211 22.120401 183 183 183 0
-5.130572 1.682155 21.988951 184 184 184 0
-5.037109 1.679036 21.948185 186 186 186 0
-4.958224 1.680754 21.970637 186 186 186 0
-4.883406 1.683933 22.012198 187 187 187 0
-4.808747 1.687280 22.055943 187 187 187 0
-4.738584 1.692351 22.122240 189 189 189 0
-4.648446 1.690344 22.096002 190 190 190 0
-4.543540 1.682793 21.997289 190 190 190 0
-4.449783 1.679163 21.949847 192 192 192 0
-4.378510 1.684042 22.013623 193 193 193 0
-4.298703 1.685766 22.036154 194 194 194 0
-4.215319 1.686128 22.040885 195 195 195 0
-4.126947 1.684468 22.019190 196 196 196 0
-4.016917 1.673715 21.878634 197 197 197 0
-3.938962 1.676154 21.910511 198 198 198 0
-3.834749 1.667282 21.794541 198 198 198 0
-3.728231 1.656992 21.660022 196 196 196 0
-3.621828 1.646285 21.520070 195 195 195 0
-3.519362 1.636913 21.397551 195 195 195 0
-3.422635 1.629826 21.304918 198 198 198 0
-3.344110 1.631273 21.323832 198 198 198 0
-3.260886 1.630443 21.312981 199 199 199 0
-3.169747 1.625511 21.248512 199 199 199 0
-3.084837 1.623598 21.223506 201 201 201 0
-2.986220 1.614173 21.100302 201 201 201 0
-2.911104 1.617280 21.140915 202 202 202 0
-2.827844 1.615911 21.123014 203 203 203 0
-2.738035 1.610609 21.053714 202 202 202 0
-2.664690 1.614964 21.110634 203 203 203 0
-2.575915 1.609947 21.045057 205 205 205 0
-2.487551 1.604872 20.978715 204 204 204 0
-2.407921 1.605281 20.984064 205 205 205 0
-2.319750 1.599828 20.912779 205 205 205 0
-2.236492 1.597494 20.882280 205 205 205 0
-2.159954 1.599966 20.914584 207 207 207 0
-2.077526 1.598097 20.890159 207 207 207 0
-1.996162 1.596929 20.874892 207 207 207 0
-1.916234 1.596862 20.874008 208 208 208 0
-1.829280 1.590678 20.793176 207 207 207 0
-1.747052 1.588229 20.761168 209 209 209 0
-1.673017 1.593350 20.828103 208 208 208 0
-1.589780 1.589780 20.781433 209 209 209 0
-1.510393 1.589888 20.782844 210 210 210 0
-1.428959 1.587732 20.754664 210 210 210 0
-1.350873 1.589262 20.774664 210 210 210 0
-1.270507 1.588134 20.759924 211 211 211 0
-1.189920 1.586560 20.739346 210 210 210 0
-1.113213 1.590304 20.788294 211 211 211 0
-1.032768 1.588873 20.769583 211 211 211 0
-0.953573 1.589288 20.775009 211 211 211 0
-0.873254 1.587734 20.754691 212 212 212 0
-0.794657 1.589314 20.775350 212 212 212 0
-0.715912 1.590915 20.796277 211 211 211 0
-0.636217 1.590543 20.791413 212 212 212 0
-0.556957 1.591306 20.801388 212 212 212 0
-0.476852 1.589507 20.777872 212 212 212 0
-0.398100 1.592402 20.815711 212 212 212 0
-0.319000 1.595002 20.849693 212 212 212 0
-0.239445 1.596297 20.866626 213 213 213 0
-0.159570 1.595701 20.858843 213 213 213 0
-0.079902 1.598034 20.889334 212 212 212 0
0.000000 1.599670 20.910720 213 213 213 0
0.080055 1.601092 20.929314 213 213 213 0
0.160457 1.604566 20.974724 213 213 213 0
0.240899 1.605996 20.993410 213 213 213 0
0.321696 1.608478 21.025852 213 213 213 0
0.402662 1.610647 21.054214 213 213 213 0
0.483976 1.613253 21.088274 213 213 213 0
0.565253 1.615010 21.111237 213 213 213 0
0.647776 1.619441 21.169166 213 213 213 0
0.729688 1.621528 21.196445 212 212 212 0
0.812519 1.625037 21.242318 213 213 213 0
0.895707 1.628559 21.288347 212 212 212 0
0.979081 1.631802 21.330742 213 213 213 0
1.063067 1.635488 21.378929 212 212 212 0
1.148264 1.640378 21.442844 213 213 213 0
1.233864 1.645152 21.505256 212 212 212 0
1.319950 1.649937 21.567803 212 212 212 0
1.406890 1.655165 21.636139 211 211 211 0
1.493497 1.659441 21.692040 211 211 211 0
1.581615 1.664857 21.762842 210 210 210 0
1.671271 1.671271 21.846683 211 211 211 0
1.759841 1.676039 21.909004 210 210 210 0
1.851171 1.682883 21.998466 210 210 210 0
1.942654 1.689264 22.081884 209 209 209 0
2.037477 1.697897 22.194734 209 209 209 0
2.132357 1.705885 22.299156 209 209 209 0
2.227941 1.713801 22.402627 206 206 206 0
2.328803 1.725040 22.549538 206 206 206 0
2.428933 1.734952 22.679109 206 206 206 0
2.531124 1.745603 22.818335 204 204 204 0
2.639361 1.759574 23.000964 203 203 203 0
2.748421 1.773175 23.178759 201 201 201 0
2.862373 1.788983 23.385403 200 200 200 0
2.980109 1.806127 23.609501 197 197 197 0
3.111827 1.830487 23.927928 194 194 194 0
3.253322 1.859041 24.301188 189 189 189 0
3.401169 1.889538 24.699845 155 155 155 0
-6.917834 1.936993 24.114453 93 93 93 0
-6.698773 1.901003 23.666394 121 121 121 0
-6.515937 1.874448 23.335795 139 139 139 0
-6.368495 1.857478 23.124526 149 149 149 0
-6.249162 1.848344 23.010816 154 154 154 0
-6.115648 1.834694 22.840890 157 157 157 0
-6.031324 1.835620 22.852416 165 165 165 0
-5.890795 1.819216 22.648194 169 169 169 0
-5.770934 1.808800 22.518522 171 171 171 0
-5.650585 1.797914 22.382989 172 172 172 0
-5.553463 1.794196 22.336704 174 174 174 0
-5.469809 1.794781 22.343992 176 176 176 0
-5.383862 1.794621 22.341995 178 178 178 0
-5.293886 1.793090 22.322943 181 181 181 0
-5.185828 1.785285 22.225773 182 182 182 0
-5.066538 1.773288 22.076417 186 186 186 0
-5.000833 1.779957 22.159445 187 187 187 0
-4.920233 1.781464 22.178197 186 186 186 0
-4.842971 1.784253 22.212917 187 187 187 0
-4.762485 1.785932 22.233825 189 189 189 0
-4.666791 1.781866 22.183201 189 189 189 0
-4.568815 1.776761 22.119655 190 190 190 0
-4.484654 1.776938 22.121858 191 191 191 0
-4.398546 1.776336 22.114358 192 192 192 0
-4.315205 1.776849 22.120748 193 193 193 0
-4.231685 1.777307 22.126455 194 194 194 0
-4.125471 1.768059 22.011316 195 195 195 0
-4.027148 1.761877 21.934359 195 195 195 0
-3.924244 1.753386 21.828642 195 195 195 0
-3.809589 1.739160 21.651542 194 194 194 0
-3.718836 1.735457 21.605437 194 194 194 0
-3.605914 1.721004 21.425514 194 194 194 0
-3.513233 1.715765 21.360285 197 197 197 0
-3.416333 1.708166 21.265689 198 198 198 0
-3.347724 1.714688 21.346877 198 198 198 0
-3.259409 1.711190 21.303324 198 198 198 0
-3.173407 1.708758 21.273050 198 198 198 0
-3.087705 1.706363 21.243242 201 201 201 0
-3.001459 1.703531 21.207979 201 201 201 0
-2.903059 1.693451 21.082494 201 201 201 0
-2.816874 1.690124 21.041074 200 200 200 0
-2.743152 1.694300 21.093059 202 202 202 0
-2.660102 1.692792 21.074291 204 204 204 0
-2.576864 1.691067 21.052809 204 204 204 0
-2.487846 1.685315 20.981198 205 205 205 0
-2.397764 1.678435 20.895546 204 204 204 0
-2.315263 1.676570 20.872332 204 204 204 0
-2.234414 1.675811 20.862879 207 207 207 0
-2.154037 1.675362 20.857296 207 207 207 0
-2.075612 1.676456 20.870911 207 207 207 0
-1.998066 1.678375 20.894803 208 208 208 0
-1.911770 1.672798 20.825377 207 207 207 0
-1.826588 1.667754 20.762583 207 207 207 0
-1.747054 1.667642 20.761183 208 208 208 0
-1.669725 1.669725 20.787114 209 209 209 0
-1.591005 1.670556 20.797457 209 209 209 0
-1.509473 1.668364 20.770177 210 210 210 0
-1.430865 1.669343 20.782358 210 210 210 0
-1.349254 1.666725 20.749766 210 210 210 0
-1.271019 1.668213 20.768288 210 210 210 0
-1.190011 1.666016 20.740934 211 211 211 0
-1.111388 1.667083 20.754219 211 211 211 0
-1.030192 1.664156 20.717781 211 211 211 0
-0.949955 1.662421 20.696187 212 212 212 0
-0.872953 1.666547 20.747557 212 212 212 0
-0.793124 1.665561 20.735279 212 212 212 0
-0.714798 1.667861 20.763913 211 211 211 0
-0.635496 1.668176 20.767828 211 211 211 0
-0.555798 1.667393 20.758084 212 212 212 0
-0.476736 1.668576 20.772816 212 212 212 0
-0.397612 1.669968 20.790144 213 213 213 0
-0.318488 1.672063 20.816227 212 212 212 0
-0.239188 1.674319 20.844309 213 213 213 0
-0.159587 1.675659 20.860995 213 213 213 0
-0.079859 1.677034 20.878109 212 212 212 0
0.000000 1.679078 20.903552 213 213 213 0
0.080026 1.680556 20.921951 213 213 213 0
0.160327 1.683434 20.957784 213 213 213 0
0.240736 1.685150 20.979145 213 213 213 0
0.321623 1.688519 21.021091 213 213 213 0
0.402129 1.688942 21.026358 213 213 213 0
0.483513 1.692296 21.068111 213 213 213 0
0.565440 1.696321 21.118224 213 213 213 0
0.647007 1.698394 21.144022 213 213 213 0
0.729035 1.701082 21.177491 212 212 212 0
0.811903 1.704997 21.226227 212 212 212 0
0.895026 1.708687 21.272164 213 213 213 0
0.978257 1.711949 21.312785 212 212 212 0
1.062729 1.716716 21.372130 212 212 212 0
1.147196 1.720795 21.422903 212 212 212 0
1.233319 1.726646 21.495748 212 212 212 0
1.319424 1.731744 21.559217 212 212 212 0
1.405213 1.735851 21.610344 211 211 211 0
1.491672 1.740284 21.665533 210 210 210 0
1.580914 1.747326 21.753201 211 211 211 0
1.670121 1.753627 21.831647 210 210 210 0
1.759333 1.759333 21.902684 211 211 211 0
1.850584 1.766466 21.991487 210 210 210 0
1.941986 1.773117 22.074292 209 209 209 0
2.036940 1.782322 22.188884 210 210 210 0
2.132281 1.791116 22.298360 208 208 208 0
2.226310 1.798174 22.386227 206 206 206 0
2.325377 1.808626 22.516358 206 206 206 0
2.426778 1.820084 22.658993 206 206 206 0
2.527307 1.830119 22.783925 204 204 204 0
2.634998 1.844499 22.962949 203 203 203 0
2.744695 1.859310 23.147334 202 202 202 0
2.858146 1.875658 23.350867 199 199 199 0
2.975840 1.893716 23.575676 198 198 198 0
3.105006 1.917798 23.875477 194 194 194 0
3.248230 1.948938 24.263157 189 189 189 0
3.401512 1.984215 24.702340 160 160 160 0
-6.991677 2.078607 24.701207 85 85 85 0
-6.662981 2.008022 23.862407 117 117 117 0
-6.474860 1.978430 23.510749 133 133 133 0
-6.335751 1.963190 23.329654 143 143 143 0
-6.201585 1.949070 23.161848 152 152 152 0
-6.094972 1.943324 23.093574 159 159 159 0
-5.946326 1.923811 22.861690 160 160 160 0
-5.795644 1.903047 22.614940 165 165 165 0
-5.690028 1.896676 22.539229 168 168 168 0
-5.606209 1.897486 22.548853 173 173 173 0
-5.522518 1.898365 22.559304 174 174 174 0
-5.425669 1.894678 22.515486 175 175 175 0
-5.322780 1.888728 22.444780 175 175 175 0
-5.216202 1.881253 22.355952 178 178 178 0
-5.111426 1.874190 22.272009 182 182 182 0
-5.029151 1.875277 22.284929 182 182 182 0
-4.954670 1.879358 22.333424 185 185 185 0
-4.878489 1.882926 22.375826 186 186 186 0
-4.804053 1.887306 22.427883 188 188 188 0
-4.695400 1.878160 22.319194 188 188 188 0
-4.599529 1.873882 22.268354 189 189 189 0
-4.509741 1.871968 22.245608 190 190 190 0
-4.419672 1.869861 22.220575 191 191 191 0
-4.343077 1.873484 22.263625 193 193 193 0
-4.236746 1.864168 22.152920 194 194 194 0
-4.133494 1.855854 22.054123 193 193 193 0
-4.016612 1.840947 21.876974 191 191 191 0
-3.906806 1.828718 21.731643 190 190 190 0
-3.814820 1.824479 21.681272 191 191 191 0
-3.711125 1.814328 21.560639 192 192 192 0
-3.613384 1.806692 21.469901 193 193 193 0
-3.534532 1.808365 21.489781 197 197 197 0
-3.426059 1.794602 21.326230 198 198 198 0
-3.338091 1.791171 21.285451 196 196 196 0
-3.250191 1.787605 21.243081 197 197 197 0
-3.177689 1.792542 21.301751 200 200 200 0
-3.081646 1.784111 21.201552 200 200 200 0
-2.995181 1.780919 21.163619 200 200 200 0
-2.907298 1.776682 21.113276 201 201 201 0
-2.817022 1.770700 21.042183 201 201 201 0
-2.735145 1.769800 21.031486 203 203 203 0
-2.659691 1.773127 21.071029 204 204 204 0
-2.580690 1.774225 21.084073 203 203 203 0
-2.488672 1.766154 20.988167 203 203 203 0
-2.400765 1.760561 20.921697 204 204 204 0
-2.316276 1.757175 20.881458 205 205 205 0
-2.234279 1.755505 20.861618 207 207 207 0
-2.155668 1.756470 20.873089 207 207 207 0
-2.076839 1.757326 20.883251 207 207 207 0
-1.993032 1.753868 20.842160 207 207 207 0
-1.911989 1.752656 20.827764 207 207 207 0
-1.827906 1.748432 20.777560 207 207 207 0
-1.746546 1.746546 20.755156 209 209 209 0
-1.670372 1.749914 20.795175 209 209 209 0
-1.590856 1.749942 20.795508 210 210 210 0
-1.509172 1.747463 20.766045 209 209 209 0
-1.426302 1.743258 20.716077 209 209 209 0
-1.348490 1.745104 20.738017 210 210 210 0
-1.268828 1.744638 20.732481 211 211 211 0
-1.189539 1.744657 20.732707 210 210 210 0
-1.111171 1.746127 20.750167 210 210 210 0
-1.031935 1.746352 20.752848 211 211 211 0
-0.951069 1.743627 20.720462 211 211 211 0
-0.872937 1.745874 20.747165 211 211 211 0
-0.794229 1.747303 20.764148 212 212 212 0
-0.715110 1.748048 20.772997 212 212 212 0
-0.635792 1.748428 20.777512 212 212 212 0
-0.556724 1.749704 20.792674 213 213 213 0
-0.477055 1.749202 20.786714 212 212 212 0
-0.397679 1.749788 20.793675 212 212 212 0
-0.318423 1.751328 20.811973 212 212 212 0
-0.238908 1.751995 20.819904 213 213 213 0
-0.159607 1.755678 20.863675 212 212 212 0
-0.079827 1.756195 20.869818 213 213 213 0
0.000000 1.758320 20.895064 213 213 213 0
0.079952 1.758935 20.902375 213 213 213 0
0.160178 1.761958 20.938300 213 213 213 0
0.240418 1.763063 20.951427 212 212 212 0
0.321260 1.766931 20.997395 213 213 213 0
0.402227 1.769799 21.031484 212 212 212 0
0.483693 1.773543 21.075966 213 213 213 0
0.564900 1.775401 21.098048 213 213 213 0
0.646686 1.778387 21.133534 213 213 213 0
0.728800 1.781510 21.170652 213 213 213 0
0.811272 1.784798 21.209722 213 213 213 0
0.895112 1.790224 21.274206 212 212 212 0
0.978081 1.793148 21.308946 213 213 213 0
1.062402 1.797911 21.365553 212 212 212 0
1.146387 1.801465 21.407782 212 212 212 0
1.232312 1.807390 21.478199 212 212 212 0
1.318473 1.812900 21.543669 212 212 212 0
1.404397 1.817455 21.597801 212 212 212 0
1.490022 1.821138 21.641574 210 210 210 0
1.579709 1.829136 21.736619 211 211 211 0
1.668397 1.835236 21.809107 210 210 210 0
1.757749 1.841451 21.882959 210 210 210 0
1.847900 1.847900 21.959592 210 210 210 0
1.940556 1.856184 22.058034 209 209 209 0
2.033848 1.864361 22.155211 209 209 209 0
2.128511 1.873090 22.258938 209 209 209 0
2.225209 1.882869 22.375151 207 207 207 0
2.323663 1.893355 22.499763 206 206 206 0
2.423869 1.904469 22.631831 206 206 206 0
2.526649 1.916768 22.777997 204 204 204 0
2.632051 1.930171 22.937265 204 204 204 0
2.741242 1.945398 23.118213 203 203 203 0
2.853224 1.961591 23.310653 199 199 199 0
2.973118 1.982079 23.554117 198 198 198 0
3.103626 2.008229 23.864867 194 194 194 0
3.245807 2.040222 24.245060 190 190 190 0
3.393974 2.074095 24.647597 163 163 163 0
-6.888802 2.170444 24.671150 79 79 79 0
-6.625505 2.116481 24.057751 103 103 103 0
-6.448705 2.089017 23.745576 126 126 126 0
-6.293629 2.067907 23.505617 137 137 137 0
-6.161947 2.053982 23.347341 150 150 150 0
-5.997412 2.028536 23.058100 156 156 156 0
-5.870102 2.015110 22.905479 159 159 159 0
-5.754622 2.005398 22.795095 161 161 161 0
-5.666251 2.004981 22.790349 166 166 166 0
-5.584634 2.006978 22.813049 171 171 171 0
-5.483375 2.001867 22.754952 174 174 174 0
-5.369725 1.991995 22.642738 174 174 174 0
-5.262114 1.984076 22.552721 176 176 176 0
-5.164437 1.979701 22.502992 179 179 179 0
-5.083969 1.981886 22.527833 179 179 179 0
-5.014779 1.988619 22.604369 180 180 180 0
-4.935213 1.991402 22.635996 182 182 182 0
-4.838274 1.987148 22.587649 184 184 184 0
-4.733305 1.979382 22.499370 186 186 186 0
-4.617999 1.966925 22.357776 188 188 188 0
-4.536397 1.968625 22.377095 189 189 189 0
-4.445376 1.966224 22.349802 189 189 189 0
-4.351798 1.962576 22.308333 192 192 192 0
-4.217683 1.940134 22.053246 190 190 190 0
-4.080523 1.915347 21.771497 188 188 188 0
-3.998910 1.916144 21.780554 187 187 187 0
-3.901068 1.909033 21.699724 190 190 190 0
-3.810275 1.905137 21.655441 191 191 191 0
-3.716618 1.899605 21.592552 192 192 192 0
-3.608862 1.886451 21.443031 192 192 192 0
-3.526813 1.886435 21.442852 196 196 196 0
-3.430772 1.878756 21.355565 196 196 196 0
-3.343842 1.875814 21.322126 196 196 196 0
-3.253265 1.870627 21.263171 196 196 196 0
-3.180853 1.875888 21.322965 200 200 200 0
-3.090911 1.870814 21.265294 200 200 200 0
-2.987651 1.857188 21.110409 200 200 200 0
-2.905837 1.856507 21.102667 200 200 200 0
-2.816809 1.851046 21.040593 200 200 200 0
-2.735735 1.850645 21.036028 203 203 203 0
-2.653422 1.849355 21.021368 204 204 204 0
-2.572492 1.848979 21.017091 204 204 204 0
-2.486316 1.844686 20.968301 204 204 204 0
-2.403072 1.842355 20.941801 204 204 204 0
-2.313489 1.834836 20.856337 205 205 205 0
-2.235021 1.835910 20.868540 206 206 206 0
-2.155795 1.836418 20.874317 206 206 206 0
-2.074908 1.835495 20.863829 206 206 206 0
-1.995604 1.835956 20.869060 207 207 207 0
-1.908649 1.829122 20.791384 207 207 207 0
