ply
format ascii 1.0
element vertex 1122
property float x
property float y
property float z
property uchar red
property uchar green
property uchar blue
property uchar alpha
end_header
-4.540827 3.425536 20.827094 210 210 210 0
-4.461450 3.425757 20.828433 210 210 210 0
-4.384430 3.427827 20.841023 209 209 209 0
-4.291281 3.417131 20.775993 203 203 203 0
-4.196738 3.404900 20.701628 200 200 200 0
-4.105579 3.394998 20.641422 201 201 201 0
-4.013321 3.383781 20.573221 202 202 202 0
-3.940590 3.388907 20.604390 202 202 202 0
-3.868025 3.394389 20.637723 202 202 202 0
-3.792495 3.397443 20.656290 203 203 203 0
-3.696422 3.381833 20.561378 203 203 203 0
-3.605550 3.370406 20.491902 204 204 204 0
-3.525704 3.369006 20.483395 204 204 204 0
-3.446462 3.368133 20.478085 205 205 205 0
-3.369023 3.369023 20.483494 206 206 206 0
-3.288685 3.366987 20.471116 205 205 205 0
-3.212440 3.369144 20.484233 206 206 206 0
-3.118327 3.352202 20.381223 206 206 206 0
-3.043993 3.356197 20.405517 206 206 206 0
-2.958693 3.347994 20.355642 207 207 207 0
-2.883573 3.351179 20.375008 208 208 208 0
-2.807834 3.353801 20.390948 208 208 208 0
-2.727543 3.350982 20.373806 208 208 208 0
-2.648353 3.349387 20.364111 208 208 208 0
-2.565757 3.343260 20.326855 208 208 208 0
-2.490480 3.346582 20.347056 209 209 209 0
-2.413593 3.347887 20.354989 209 209 209 0
-2.336201 3.348555 20.359051 209 209 209 0
-2.256531 3.345890 20.342849 209 209 209 0
-2.177412 3.343883 20.330647 210 210 210 0
-2.099298 3.343327 20.327264 210 210 210 0
-2.023667 3.346834 20.348589 210 210 210 0
-1.947455 3.349622 20.365538 210 210 210 0
-1.869617 3.349731 20.366200 211 211 211 0
-1.791977 3.350218 20.369165 211 211 211 0
-1.713722 3.349548 20.365087 211 211 211 0
-1.637193 3.352347 20.382108 211 211 211 0
-1.561677 3.357606 20.414084 210 210 210 0
-1.483689 3.357822 20.415394 211 211 211 0
-1.406848 3.360805 20.433529 211 211 211 0
-1.331307 3.367424 20.473774 211 211 211 0
-1.252261 3.365451 20.461778 211 211 211 0
-1.175249 3.369047 20.483642 212 212 212 0
-1.097161 3.369853 20.488543 212 212 212 0
-1.020343 3.374980 20.519712 212 212 212 0
-0.941147 3.372445 20.504301 212 212 212 0
-0.865639 3.383863 20.573721 212 212 212 0
-0.787519 3.386331 20.588728 212 212 212 0
-0.710264 3.393485 20.632222 212 212 212 0
-0.631998 3.396987 20.653516 212 212 212 0
-0.553713 3.401381 20.680231 212 212 212 0
-0.475220 3.405746 20.706773 212 212 212 0
-0.396727 3.411853 20.743899 212 212 212 0
-0.317758 3.415902 20.768521 213 213 213 0
-0.238666 3.420876 20.798762 212 212 212 0
-0.160058 3.441243 20.922590 213 213 213 0
-0.079899 3.435640 20.888522 213 213 213 0
0.000000 3.448413 20.966184 212 212 212 0
0.080338 3.454548 21.003481 213 213 213 0
0.160922 3.459815 21.035509 213 213 213 0
0.241427 3.460459 21.039422 212 212 212 0
0.323154 3.473907 21.121185 212 212 212 0
0.405049 3.483425 21.179052 212 212 212 0
0.488365 3.499946 21.279500 212 212 212 0
0.571034 3.507779 21.327127 212 212 212 0
0.654885 3.520006 21.401466 213 213 213 0
0.739209 3.531778 21.473036 212 212 212 0
0.821353 3.531819 21.473288 212 212 212 0
0.904244 3.534773 21.491246 212 212 212 0
0.985535 3.531500 21.471348 213 213 213 0
1.068886 3.535545 21.495944 212 212 212 0
1.152065 3.538485 21.513820 212 212 212 0
1.236133 3.543580 21.544794 212 212 212 0
1.318950 3.544678 21.551467 213 213 213 0
1.401424 3.544778 21.552081 213 213 213 0
1.483757 3.544531 21.550578 212 212 212 0
1.568345 3.549412 21.580253 212 212 212 0
1.651631 3.551007 21.589950 212 212 212 0
1.735459 3.553559 21.605467 213 213 213 0
1.819189 3.555688 21.618410 213 213 213 0
1.903434 3.558593 21.636075 213 213 213 0
1.985617 3.557563 21.629811 213 213 213 0
2.067561 3.556204 21.621550 212 212 212 0
2.153791 3.562039 21.657022 213 213 213 0
2.236707 3.562163 21.657779 213 213 213 0
2.321243 3.564766 21.673604 213 213 213 0
2.404805 3.565746 21.679560 213 213 213 0
2.489055 3.567646 21.691111 213 213 213 0
2.572950 3.568930 21.698921 212 212 212 0
2.658582 3.572470 21.720443 213 213 213 0
2.741276 3.571966 21.717380 213 213 213 0
2.825256 3.573118 21.724384 213 213 213 0
2.909211 3.574173 21.730798 212 212 212 0
2.995236 3.577642 21.751892 213 213 213 0
3.078928 3.578214 21.755366 213 213 213 0
3.164621 3.581019 21.772419 213 213 213 0
3.253441 3.587127 21.809557 212 212 212 0
3.334424 3.584506 21.793624 213 213 213 0
3.419773 3.586591 21.806299 213 213 213 0
3.504988 3.588440 21.817543 213 213 213 0
3.590623 3.590623 21.830813 213 213 213 0
3.677315 3.593740 21.849763 213 213 213 0
3.757797 3.590784 21.831791 213 213 213 0
3.831698 3.581805 21.777199 182 182 182 0
-6.305225 3.467874 20.605311 208 208 208 0
-6.205396 3.456170 20.535769 207 207 207 0
-6.141911 3.464668 20.586263 208 208 208 0
-6.071729 3.469559 20.615326 208 208 208 0
-5.980411 3.462343 20.572448 208 208 208 0
-5.921858 3.474157 20.642643 208 208 208 0
-5.839329 3.472033 20.630026 208 208 208 0
-5.757393 3.470210 20.619189 208 208 208 0
-5.683829 3.473451 20.638448 209 209 209 0
-5.602637 3.472057 20.630166 208 208 208 0
-5.531706 3.477072 20.659966 209 209 209 0
-5.457538 3.480169 20.678367 209 209 209 0
-5.385180 3.484528 20.704268 209 209 209 0
-5.310872 3.487737 20.723333 209 209 209 0
-5.212121 3.474748 20.646154 208 208 208 0
-5.136142 3.476773 20.658187 208 208 208 0
-5.071245 3.486481 20.715869 209 209 209 0
-5.000360 3.492315 20.750536 208 208 208 0
-4.919932 3.491564 20.746075 209 209 209 0
-4.854017 3.501259 20.803675 210 210 210 0
-4.778676 3.504362 20.822116 209 209 209 0
-4.708000 3.511050 20.861857 209 209 209 0
-4.617487 3.502921 20.813555 209 209 209 0
-4.545549 3.508844 20.848749 209 209 209 0
-4.458973 3.503479 20.816867 209 209 209 0
-4.373654 3.498923 20.789798 209 209 209 0
-4.297349 3.501544 20.805370 207 207 207 0
-4.176038 3.466899 20.599519 201 201 201 0
-4.126713 3.491834 20.747675 201 201 201 0
-4.016206 3.464962 20.588010 201 201 201 0
-3.943747 3.470497 20.620900 203 203 203 0
-3.883954 3.487633 20.722713 202 202 202 0
-3.794249 3.478062 20.665845 201 201 201 0
-3.698258 3.462199 20.571591 203 203 203 0
-3.609668 3.452726 20.515308 203 203 203 0
-3.521382 3.443129 20.458281 204 204 204 0
-3.447180 3.447180 20.482356 205 205 205 0
-3.369717 3.448082 20.487713 205 205 205 0
-3.291778 3.448530 20.490373 205 205 205 0
-3.204930 3.439437 20.436343 206 206 206 0
-3.125078 3.437586 20.425348 206 206 206 0
-3.043957 3.434208 20.405277 206 206 206 0
-2.966305 3.434669 20.408015 206 206 206 0
-2.889348 3.435981 20.415812 207 207 207 0
-2.808803 3.432982 20.397991 207 207 207 0
-2.728864 3.430572 20.383670 208 208 208 0
-2.646351 3.424689 20.348720 208 208 208 0
-2.567317 3.423089 20.339209 208 208 208 0
-2.490313 3.424180 20.345693 209 209 209 0
-2.414667 3.427269 20.364049 209 209 209 0
-2.336354 3.426653 20.360384 210 210 210 0
-2.255988 3.422879 20.337960 209 209 209 0
-2.181656 3.428316 20.370269 209 209 209 0
-2.099741 3.421800 20.331552 210 210 210 0
-2.025484 3.427743 20.366862 209 209 209 0
-1.947455 3.427520 20.365538 211 211 211 0
-1.870955 3.430084 20.380772 210 210 210 0
-1.791098 3.426449 20.359173 211 211 211 0
-1.714232 3.428463 20.371143 211 211 211 0
-1.638161 3.432337 20.394160 211 211 211 0
-1.561661 3.435655 20.413872 211 211 211 0
-1.483170 3.434708 20.408249 211 211 211 0
-1.406995 3.439320 20.435651 211 211 211 0
-1.330649 3.444032 20.463651 211 211 211 0
-1.252461 3.444269 20.465054 212 212 212 0
-1.175259 3.447427 20.483821 212 212 212 0
-1.099430 3.455350 20.530900 211 211 211 0
-1.021168 3.456261 20.536311 211 211 211 0
-0.943196 3.458386 20.548937 212 212 212 0
-0.865862 3.463448 20.579014 212 212 212 0
-0.788088 3.467587 20.603606 212 212 212 0
-0.710585 3.473971 20.641536 212 212 212 0
-0.632677 3.479724 20.675719 212 212 212 0
-0.554649 3.486367 20.715193 212 212 212 0
-0.474948 3.482948 20.694881 212 212 212 0
-0.397146 3.494881 20.765780 212 212 212 0
-0.318194 3.500132 20.796980 212 212 212 0
-0.239170 3.507823 20.842682 212 212 212 0
-0.159806 3.515737 20.889705 212 212 212 0
-0.079922 3.516571 20.894660 212 212 212 0
0.000000 3.528168 20.963567 212 212 212 0
0.080342 3.535037 21.004378 213 213 213 0
0.160872 3.539186 21.029033 212 212 212 0
0.242305 3.553804 21.115886 212 212 212 0
0.323193 3.555120 21.123706 212 212 212 0
0.405506 3.568455 21.202943 212 212 212 0
0.489167 3.587223 21.314455 212 212 212 0
0.572256 3.597039 21.372782 213 213 213 0
0.655323 3.604278 21.415791 212 212 212 0
0.738384 3.609879 21.449073 211 211 211 0
0.821265 3.613564 21.470970 212 212 212 0
0.903065 3.612261 21.463226 212 212 212 0
0.986742 3.618056 21.497657 212 212 212 0
1.068435 3.616241 21.486872 213 213 213 0
1.151154 3.617911 21.496800 212 212 212 0
1.236133 3.625991 21.544806 212 212 212 0
1.319288 3.628042 21.556994 212 212 212 0
1.401719 3.627979 21.556617 212 212 212 0
1.484745 3.629376 21.564919 213 213 213 0
1.568369 3.632013 21.580587 212 212 212 0
1.652104 3.634629 21.596135 212 212 212 0
1.735880 3.637081 21.610700 212 212 212 0
1.819347 3.638694 21.620286 212 212 212 0
1.901156 3.636993 21.610179 213 213 213 0
1.986109 3.641200 21.635174 213 213 213 0
2.068567 3.640678 21.632076 213 213 213 0
2.154547 3.646156 21.664623 212 212 212 0
2.237827 3.646830 21.668625 212 212 212 0
2.318688 3.643653 21.649750 212 212 212 0
2.404177 3.647717 21.673901 212 212 212 0
2.489831 3.651753 21.697876 213 213 213 0
2.573405 3.652575 21.702761 212 212 212 0
2.659046 3.656188 21.724230 212 212 212 0
2.741514 3.655352 21.719263 213 213 213 0
2.827945 3.659694 21.745063 213 213 213 0
2.909512 3.657673 21.733053 213 213 213 0
2.995866 3.661615 21.756474 213 213 213 0
3.081128 3.664044 21.770908 213 213 213 0
3.163948 3.663519 21.767792 212 212 212 0
3.249846 3.666493 21.785459 213 213 213 0
3.336054 3.669659 21.804273 212 212 212 0
3.421892 3.672274 21.819810 213 213 213 0
3.509393 3.676507 21.844961 213 213 213 0
3.589954 3.673442 21.826747 213 213 213 0
3.674903 3.674903 21.835431 214 214 214 0
3.761062 3.677482 21.850758 212 212 212 0
3.834432 3.667718 21.792739 182 182 182 0
3.890938 3.642580 21.643376 77 77 77 0
-6.283363 3.534392 20.533867 208 208 208 0
-6.224805 3.545775 20.600000 208 208 208 0
-6.149571 3.547829 20.611934 208 208 208 0
-6.073512 3.549455 20.621382 208 208 208 0
-5.973041 3.536669 20.547096 208 208 208 0
-5.920712 3.552427 20.638649 208 208 208 0
-5.838807 3.550626 20.628184 208 208 208 0
-5.766750 3.554846 20.652698 208 208 208 0
-5.687776 3.554860 20.652783 208 208 208 0
-5.618482 3.561009 20.688508 209 209 209 0
-5.538293 3.560331 20.684568 208 208 208 0
-5.443420 3.550056 20.624873 208 208 208 0
-5.390242 3.567072 20.723731 209 209 209 0
-5.294372 3.555922 20.658950 209 209 209 0
-5.231161 3.566701 20.721572 209 209 209 0
-5.132116 3.553003 20.641993 209 209 209 0
-5.066552 3.562420 20.696700 209 209 209 0
-4.986730 3.561950 20.693974 209 209 209 0
-4.923926 3.573817 20.762919 210 210 210 0
-4.846955 3.575623 20.773407 209 209 209 0
-4.759247 3.569435 20.737461 209 209 209 0
-4.681848 3.570901 20.745976 209 209 209 0
-4.611720 3.578059 20.787559 210 210 210 0
-4.534967 3.580237 20.800214 209 209 209 0
-4.466691 3.589305 20.852897 209 209 209 0
-4.376980 3.581166 20.805611 210 210 210 0
-4.303934 3.586612 20.837251 209 209 209 0
-4.213045 3.577113 20.782068 201 201 201 0
-4.104365 3.551855 20.635321 202 202 202 0
-4.018455 3.545695 20.599537 202 202 202 0
-3.951741 3.556567 20.662699 202 202 202 0
-3.881446 3.564594 20.709331 201 201 201 0
-3.778131 3.541998 20.578054 203 203 203 0
-3.719014 3.560758 20.687050 203 203 203 0
-3.621524 3.542796 20.582691 202 202 202 0
-3.530311 3.530311 20.510161 204 204 204 0
-3.451491 3.529934 20.507969 205 205 205 0
-3.372099 3.528940 20.502196 205 205 205 0
-3.292314 3.527479 20.493704 206 206 206 0
-3.209926 3.523089 20.468202 206 206 206 0
-3.126410 3.517211 20.434052 206 206 206 0
-3.044385 3.512752 20.408145 206 206 206 0
-2.966806 3.513322 20.411459 207 207 207 0
-2.888646 3.513218 20.410854 206 206 206 0
-2.808706 3.510883 20.397286 207 207 207 0
-2.730268 3.510344 20.394157 207 207 207 0
-2.648020 3.504733 20.361556 209 209 209 0
-2.570533 3.505272 20.364688 208 208 208 0
-2.493355 3.506280 20.370545 208 208 208 0
-2.416572 3.507927 20.380116 208 208 208 0
-2.339259 3.508889 20.385700 210 210 210 0
-2.259592 3.506263 20.370448 210 210 210 0
-2.181393 3.505810 20.367816 210 210 210 0
-2.103984 3.506640 20.372636 209 209 209 0
-2.024185 3.503397 20.353793 210 210 210 0
-1.948395 3.507112 20.375376 210 210 210 0
-1.872309 3.510579 20.395519 210 210 210 0
-1.793579 3.509176 20.387369 211 211 211 0
-1.717045 3.512137 20.404571 210 210 210 0
-1.637959 3.509913 20.391651 211 211 211 0
-1.564524 3.520179 20.451297 210 210 210 0
-1.486149 3.519826 20.449242 211 211 211 0
-1.409885 3.524712 20.477631 211 211 211 0
-1.331650 3.524956 20.479050 211 211 211 0
-1.253619 3.525804 20.483974 211 211 211 0
-1.176674 3.530023 20.508486 211 211 211 0
-1.099585 3.534381 20.533802 211 211 211 0
-1.022558 3.539624 20.564266 211 211 211 0
-0.943949 3.539808 20.565331 212 212 212 0
-0.867151 3.547437 20.609654 212 212 212 0
-0.789653 3.553437 20.644516 212 212 212 0
-0.711799 3.558993 20.676795 212 212 212 0
-0.633360 3.562653 20.698055 212 212 212 0
-0.554821 3.566705 20.721598 213 213 213 0
-0.475372 3.565287 20.713358 211 211 211 0
-0.397211 3.574902 20.769218 211 211 211 0
-0.318602 3.584269 20.823639 212 212 212 0
-0.239408 3.591120 20.863445 212 212 212 0
-0.159922 3.598238 20.904796 212 212 212 0
-0.080079 3.603536 20.935576 211 211 211 0
0.000000 3.607574 20.959035 212 212 212 0
0.080448 3.620180 21.032273 211 211 211 0
0.161365 3.630708 21.093435 212 212 212 0
0.242151 3.632258 21.102442 212 212 212 0
0.323420 3.638471 21.138537 212 212 212 0
0.406108 3.654974 21.234419 212 212 212 0
0.489324 3.669927 21.321289 212 212 212 0
0.573255 3.685211 21.410086 212 212 212 0
0.655528 3.687342 21.422468 211 211 211 0
0.739824 3.699119 21.490887 213 213 213 0
0.822016 3.699071 21.490610 213 213 213 0
0.902903 3.693696 21.459381 212 212 212 0
0.985207 3.694528 21.464213 212 212 212 0
1.068503 3.698664 21.488246 212 212 212 0
1.151286 3.700562 21.499272 213 213 213 0
1.236228 3.708683 21.546453 212 212 212 0
1.320065 3.712682 21.569685 212 212 212 0
1.402406 3.712252 21.567187 213 213 213 0
1.483757 3.709393 21.550578 212 212 212 0
1.568239 3.714250 21.578795 212 212 212 0
1.651812 3.716577 21.592313 212 212 212 0
1.736099 3.720211 21.613429 212 212 212 0
1.820531 3.723812 21.634349 213 213 213 0
1.901176 3.719692 21.610409 213 213 213 0
1.984005 3.720009 21.612254 213 213 213 0
2.068819 3.723875 21.634712 212 212 212 0
2.153149 3.726604 21.650570 213 213 213 0
2.236748 3.727913 21.658172 213 213 213 0
2.321297 3.730656 21.674110 213 213 213 0
2.402108 3.727409 21.655246 213 213 213 0
2.488487 3.732731 21.686165 213 213 213 0
2.574456 3.737114 21.711628 212 212 212 0
2.659814 3.740363 21.730504 212 212 212 0
2.745980 3.744518 21.754642 212 212 212 0
2.823742 3.737306 21.712742 213 213 213 0
2.909005 3.740149 21.729261 213 213 213 0
2.997136 3.746420 21.765692 213 213 213 0
3.082976 3.749565 21.783967 212 212 212 0
3.163806 3.746612 21.766808 213 213 213 0
3.252466 3.752846 21.803025 213 213 213 0
3.336503 3.753566 21.807209 212 212 212 0
3.419996 3.753654 21.807723 213 213 213 0
3.504455 3.754773 21.814223 213 213 213 0
3.589844 3.756813 21.826077 213 213 213 0
3.674270 3.757776 21.831669 213 213 213 0
3.760787 3.760787 21.849159 213 213 213 0
3.833200 3.749870 21.785735 183 183 183 0
3.866900 3.702351 21.509666 77 77 77 0
-6.295626 3.619985 20.573940 207 207 207 0
-6.216860 3.619944 20.573708 208 208 208 0
-6.136751 3.619110 20.568966 208 208 208 0
-6.074850 3.629131 20.625924 207 207 207 0
-5.986912 3.623657 20.594813 208 208 208 0
-5.913671 3.627052 20.614105 208 208 208 0
-5.853190 3.638469 20.678997 209 209 209 0
-5.752035 3.624570 20.600000 207 207 207 0
-5.691944 3.636520 20.667915 208 208 208 0
-5.614176 3.637353 20.672654 209 209 209 0
-5.533432 3.636256 20.666414 208 208 208 0
-5.453181 3.635454 20.661857 208 208 208 0
-5.383519 3.641792 20.697880 208 208 208 0
-5.309583 3.645386 20.718304 209 209 209 0
-5.218835 3.637370 20.672745 209 209 209 0
-5.151993 3.646026 20.721943 208 208 208 0
-5.058932 3.636108 20.665573 209 209 209 0
-4.987431 3.641616 20.696881 209 209 209 0
-4.924469 3.653639 20.765210 208 208 208 0
-4.852940 3.659594 20.799058 209 209 209 0
-4.759435 3.648900 20.738279 209 209 209 0
-4.690161 3.656736 20.782814 209 209 209 0
-4.615784 3.660794 20.805876 209 209 209 0
-4.544100 3.667168 20.842105 209 209 209 0
-4.459758 3.663372 20.820530 209 209 209 0
-4.385159 3.667587 20.844485 210 210 210 0
-4.306669 3.668644 20.850490 209 209 209 0
-4.197400 3.643026 20.704895 205 205 205 0
-4.106154 3.632367 20.644312 200 200 200 0
-4.036816 3.641050 20.693663 201 201 201 0
-3.947015 3.631254 20.637989 203 203 203 0
-3.887607 3.649590 20.742200 203 203 203 0
-3.778831 3.621380 20.581870 202 202 202 0
-3.712905 3.633907 20.653069 202 202 202 0
-3.621524 3.621524 20.582691 202 202 202 0
-3.529241 3.607669 20.503943 203 203 203 0
-3.454042 3.611044 20.523125 205 205 205 0
-3.377967 3.613640 20.537877 205 205 205 0
-3.292371 3.605930 20.494059 205 205 205 0
-3.212659 3.604447 20.485631 205 205 205 0
-3.129726 3.599185 20.455724 206 206 206 0
-3.050440 3.597955 20.448736 205 205 205 0
-2.969779 3.594996 20.431919 206 206 206 0
-2.895597 3.599931 20.459966 206 206 206 0
-2.814528 3.596341 20.439564 207 207 207 0
-2.737761 3.598200 20.450130 207 207 207 0
-2.652561 3.588760 20.396474 207 207 207 0
-2.573124 3.586779 20.385220 207 207 207 0
-2.495885 3.587834 20.391216 208 208 208 0
-2.420450 3.591636 20.412820 208 208 208 0
-2.340888 3.589361 20.399894 209 209 209 0
-2.263736 3.590753 20.407805 209 209 209 0
-2.181258 3.583495 20.366551 209 209 209 0
-2.102386 3.581843 20.357165 209 209 209 0
-2.028540 3.588955 20.397586 210 210 210 0
-1.950936 3.589723 20.401949 209 209 209 0
-1.873637 3.591137 20.409984 210 210 210 0
-1.797511 3.595022 20.432066 210 210 210 0
-1.718079 3.592348 20.416866 210 210 210 0
-1.641361 3.595362 20.433996 211 211 211 0
-1.563021 3.594948 20.431644 210 210 210 0
-1.487820 3.602090 20.472234 211 211 211 0
-1.410976 3.605827 20.493478 211 211 211 0
-1.333907 3.609395 20.513751 211 211 211 0
-1.254380 3.606341 20.496397 212 212 212 0
-1.177337 3.610500 20.520034 212 212 212 0
-1.099527 3.612730 20.532709 212 212 212 0
-1.023138 3.620334 20.575925 211 211 211 0
-0.944789 3.621689 20.583628 211 211 211 0
-0.867953 3.629623 20.628716 211 211 211 0
-0.790710 3.637265 20.672152 212 212 212 0
-0.711906 3.638631 20.679913 212 212 212 0
-0.633571 3.643031 20.704920 212 212 212 0
-0.556257 3.655404 20.775244 212 212 212 0
-0.476062 3.649809 20.743442 212 212 212 0
-0.397907 3.660745 20.805600 212 212 212 0
-0.318924 3.667630 20.844726 211 211 211 0
-0.239958 3.679353 20.911354 212 212 212 0
-0.160240 3.685519 20.946400 211 211 211 0
-0.080103 3.684753 20.942045 211 211 211 0
0.000000 3.695618 21.003796 212 212 212 0
0.080479 3.702029 21.040235 212 212 212 0
0.161429 3.712868 21.101838 211 211 211 0
0.242354 3.716100 21.120206 212 212 212 0
0.323952 3.725447 21.173327 211 211 211 0
0.407158 3.745853 21.289305 211 211 211 0
0.490467 3.760247 21.371113 212 212 212 0
0.572783 3.764003 21.392460 211 211 211 0
0.657106 3.778360 21.474056 211 211 211 0
0.739409 3.779200 21.478828 213 213 213 0
0.821289 3.777931 21.471616 213 213 213 0
0.904543 3.782633 21.498338 212 212 212 0
0.985773 3.778797 21.476541 213 213 213 0
1.069632 3.784850 21.510940 212 212 212 0
1.151889 3.784777 21.510528 212 212 212 0
1.235873 3.790012 21.540278 213 213 213 0
1.318956 3.791998 21.551565 212 212 212 0
1.404142 3.799443 21.593879 212 212 212 0
1.485205 3.795525 21.571609 212 212 212 0
1.568260 3.796840 21.579083 212 212 212 0
1.651399 3.798218 21.586919 213 213 213 0
1.736908 3.804656 21.623504 213 213 213 0
1.817431 3.800083 21.597515 212 212 212 0
1.902846 3.805691 21.629391 212 212 212 0
1.984372 3.803379 21.616251 213 213 213 0
2.069766 3.808369 21.644608 212 212 212 0
2.154789 3.812319 21.667060 213 213 213 0
2.239733 3.815842 21.687079 213 213 213 0
2.321554 3.813982 21.676509 212 212 212 0
2.404384 3.813850 21.675759 213 213 213 0
2.489399 3.817079 21.694109 212 212 212 0
2.573351 3.818520 21.702304 212 212 212 0
2.660366 3.824276 21.735014 213 213 213 0
2.742692 3.823147 21.728600 213 213 213 0
2.827765 3.825799 21.743672 213 213 213 0
2.910018 3.824595 21.736831 213 213 213 0
2.994774 3.826656 21.748543 212 212 212 0
3.084544 3.834839 21.795050 212 212 212 0
3.167111 3.833871 21.789546 213 213 213 0
3.252922 3.836780 21.806083 212 212 212 0
3.335400 3.835710 21.800000 213 213 213 0
3.420958 3.838148 21.813857 213 213 213 0
3.507232 3.841254 21.831511 213 213 213 0
3.589799 3.840250 21.825802 213 213 213 0
3.674619 3.841647 21.833745 213 213 213 0
3.761965 3.845564 21.856004 213 213 213 0
3.833008 3.833008 21.784643 182 182 182 0
3.867753 3.785460 21.514408 77 77 77 0
-6.282871 3.691187 20.532259 208 208 208 0
-6.223508 3.702594 20.595709 207 207 207 0
-6.136740 3.697779 20.568930 208 208 208 0
-6.072378 3.706516 20.617529 207 207 207 0
-5.986818 3.702374 20.594490 209 209 209 0
-5.913357 3.705704 20.613010 209 209 209 0
-5.830830 3.703365 20.600000 208 208 208 0
-5.767737 3.713475 20.656235 208 208 208 0
-5.688700 3.713457 20.656138 208 208 208 0
-5.624328 3.723147 20.710036 208 208 208 0
-5.549151 3.725858 20.725120 208 208 208 0
-5.461194 3.719944 20.692221 208 208 208 0
-5.382934 3.720557 20.695631 209 209 209 0
-5.296429 3.715405 20.666974 208 208 208 0
-5.229459 3.724009 20.714831 209 209 209 0
-5.136891 3.714368 20.661203 208 208 208 0
-5.066697 3.720855 20.697290 209 209 209 0
-4.989153 3.722067 20.704028 209 209 209 0
-4.916728 3.727197 20.732567 209 209 209 0
-4.853088 3.739264 20.799690 209 209 209 0
-4.772998 3.738848 20.797375 209 209 209 0
-4.698435 3.742821 20.819475 210 210 210 0
-4.619022 3.743000 20.820472 209 209 209 0
-4.548039 3.750138 20.860174 210 210 210 0
-4.459528 3.742818 20.819458 209 209 209 0
-4.382875 3.745366 20.833633 210 210 210 0
-4.311447 3.752556 20.873623 209 209 209 0
-4.229917 3.751058 20.865294 209 209 209 0
-4.103203 3.708664 20.629476 201 201 201 0
-4.030909 3.714760 20.663383 201 201 201 0
-3.959848 3.722257 20.705090 203 203 203 0
-3.884122 3.725587 20.723609 203 203 203 0
-3.796501 3.717407 20.678109 203 203 203 0
-3.716145 3.716145 20.671091 203 203 203 0
-3.608205 3.686644 20.506991 203 203 203 0
-3.526722 3.683465 20.489305 202 202 202 0
-3.458083 3.693861 20.547135 203 203 203 0
-3.380489 3.694953 20.553206 205 205 205 0
-3.306788 3.700453 20.583801 206 206 206 0
-3.222023 3.693539 20.545340 206 206 206 0
-3.126520 3.673661 20.434772 205 205 205 0
-3.050025 3.675671 20.445954 206 206 206 0
-2.968293 3.671309 20.421691 205 205 205 0
-2.901643 3.685871 20.502689 207 207 207 0
-2.821164 3.683187 20.487758 206 206 206 0
-2.738858 3.677895 20.458320 207 207 207 0
-2.652320 3.666442 20.394616 207 207 207 0
-2.572936 3.664484 20.383725 207 207 207 0
-2.498172 3.669190 20.409903 207 207 207 0
-2.420975 3.670510 20.417246 208 208 208 0
-2.344929 3.673723 20.435114 208 208 208 0
-2.262912 3.667478 20.400377 208 208 208 0
-2.185644 3.668759 20.407503 209 209 209 0
-2.110257 3.673410 20.433373 209 209 209 0
-2.027879 3.665782 20.390944 210 210 210 0
-1.952094 3.669937 20.414056 209 209 209 0
-1.877460 3.676692 20.451630 209 209 209 0
-1.797627 3.673412 20.433386 210 210 210 0
-1.719768 3.674050 20.436936 210 210 210 0
-1.645057 3.681795 20.480017 210 210 210 0
-1.566220 3.680617 20.473464 211 211 211 0
-1.488735 3.682660 20.484827 211 211 211 0
-1.413249 3.690150 20.526492 211 211 211 0
-1.332967 3.685260 20.499293 211 211 211 0
-1.256350 3.690529 20.528602 211 211 211 0
-1.178127 3.691466 20.533811 212 212 212 0
-1.102044 3.699719 20.579719 211 211 211 0
-1.023455 3.700184 20.582304 211 211 211 0
-0.946403 3.706743 20.618792 211 211 211 0
-0.869842 3.716598 20.673611 211 211 211 0
-0.790724 3.716405 20.672532 211 211 211 0
-0.712583 3.721267 20.699583 212 212 212 0
-0.634443 3.727350 20.733415 212 212 212 0
-0.555857 3.732181 20.760287 212 212 212 0
-0.476502 3.732603 20.762636 212 212 212 0
-0.398319 3.744198 20.827135 212 212 212 0
-0.319241 3.751086 20.865447 212 212 212 0
-0.239898 3.758395 20.906107 211 211 211 0
-0.160309 3.767271 20.955475 212 212 212 0
-0.080269 3.772636 20.985320 212 212 212 0
0.000000 3.775667 21.002178 212 212 212 0
0.080688 3.792323 21.094831 211 211 211 0
0.161673 3.799326 21.133785 212 212 212 0
0.243611 3.816576 21.229739 212 212 212 0
0.324567 3.813657 21.213503 212 212 212 0
0.407351 3.829103 21.299420 211 211 211 0
0.491321 3.848683 21.408334 212 212 212 0
0.575798 3.866075 21.505077 212 212 212 0
0.656343 3.856016 21.449124 212 212 212 0
0.739205 3.860291 21.472904 213 213 213 0
0.821360 3.860393 21.473471 213 213 213 0
0.904424 3.864358 21.495526 212 212 212 0
0.984950 3.857721 21.458604 213 213 213 0
1.069153 3.865399 21.501315 213 213 213 0
1.152226 3.868187 21.516823 212 212 212 0
1.235389 3.870885 21.531832 212 212 212 0
1.319810 3.876941 21.565518 212 212 212 0
1.402069 3.876310 21.562006 213 213 213 0
1.483556 3.873729 21.547653 213 213 213 0
1.567383 3.877211 21.567019 211 211 211 0
1.651330 3.880625 21.586012 212 212 212 0
1.736601 3.886679 21.619686 213 213 213 0
1.819806 3.887768 21.625742 213 213 213 0
1.902166 3.887035 21.621664 212 212 212 0
1.985415 3.888105 21.627620 212 212 212 0
2.068488 3.888757 21.631242 213 213 213 0
2.154994 3.895566 21.669120 212 212 212 0
2.238544 3.896725 21.675566 213 213 213 0
2.321088 3.896112 21.672155 212 212 212 0
2.402914 3.894378 21.662511 212 212 212 0
2.489415 3.900083 21.694245 213 213 213 0
2.574046 3.902585 21.708164 212 212 212 0
2.657293 3.902899 21.709911 213 213 213 0
2.741069 3.903946 21.715735 213 213 213 0
2.828593 3.910114 21.750043 212 212 212 0
2.911092 3.909180 21.744850 212 212 212 0
2.995926 3.911348 21.756905 213 213 213 0
3.082416 3.915501 21.780009 212 212 212 0
3.167816 3.918088 21.794397 213 213 213 0
3.251475 3.918444 21.796380 213 213 213 0
3.336632 3.920542 21.808052 212 212 212 0
3.420703 3.921293 21.812228 213 213 213 0
3.506201 3.923606 21.825091 213 213 213 0
3.589028 3.922891 21.821113 213 213 213 0
3.676403 3.927067 21.844343 213 213 213 0
3.760806 3.927953 21.849274 213 213 213 0
3.831802 3.915102 21.777790 181 181 181 0
-6.296136 3.777681 20.575607 208 208 208 0
-6.216844 3.777323 20.573655 208 208 208 0
-6.141911 3.779638 20.586263 207 207 207 0
-6.060964 3.778263 20.578777 208 208 208 0
-5.988420 3.782160 20.600000 208 208 208 0
-5.920712 3.789256 20.638649 208 208 208 0
-5.838272 3.786987 20.626291 208 208 208 0
-5.759267 3.786915 20.625901 208 208 208 0
-5.687237 3.791491 20.650823 208 208 208 0
-5.613000 3.794704 20.668324 208 208 208 0
-5.542212 3.800374 20.699203 209 209 209 0
-5.458984 3.797554 20.683846 209 209 209 0
-5.382934 3.799718 20.695631 208 208 208 0
-5.311542 3.805284 20.725946 209 209 209 0
-5.225516 3.800375 20.699212 208 208 208 0
-5.154333 3.806277 20.731355 208 208 208 0
-5.083796 3.812847 20.767139 209 209 209 0
-4.993605 3.804651 20.722501 209 209 209 0
-4.917678 3.807234 20.736571 210 210 210 0
-4.854096 3.819617 20.804013 209 209 209 0
-4.761360 3.809088 20.746667 209 209 209 0
-4.688056 3.814012 20.773483 209 209 209 0
-4.618687 3.822362 20.818962 210 210 210 0
-4.530343 3.815026 20.779007 209 209 209 0
-4.466691 3.828592 20.852897 209 209 209 0
-4.389397 3.830747 20.864634 209 209 209 0
-4.308372 3.829664 20.858735 210 210 210 0
-4.221265 3.823033 20.822618 210 210 210 0
-4.131035 3.813263 20.769406 206 206 206 0
-4.032294 3.795101 20.670483 200 200 200 0
-3.959692 3.801304 20.704272 201 201 201 0
-3.894287 3.814812 20.777843 202 202 202 0
-3.783381 3.783381 20.606649 203 203 203 0
-3.701524 3.780280 20.589759 203 203 203 0
-3.624667 3.782262 20.600553 202 202 202 0
-3.542259 3.778410 20.579573 202 202 202 0
-3.472410 3.788084 20.632267 203 203 203 0
-3.384535 3.778086 20.577808 203 203 203 0
-3.305327 3.777516 20.574706 205 205 205 0
-3.222356 3.772515 20.547466 206 206 206 0
-3.133039 3.759647 20.477380 206 206 206 0
-3.050151 3.754032 20.446796 206 206 206 0
-2.978569 3.762403 20.492392 206 206 206 0
-2.900185 3.762402 20.492388 207 207 207 0
-2.825819 3.767759 20.521561 207 207 207 0
-2.733990 3.749472 20.421961 207 207 207 0
-2.659624 3.754764 20.450782 207 207 207 0
-2.579892 3.752571 20.438839 207 207 207 0
-2.503504 3.755257 20.453468 207 207 207 0
-2.423352 3.752287 20.437292 208 208 208 0
-2.346302 3.754084 20.447079 208 208 208 0
-2.265324 3.749502 20.422125 208 208 208 0
-2.186195 3.747763 20.412653 208 208 208 0
-2.109126 3.749558 20.422427 209 209 209 0
-2.032887 3.753021 20.441293 209 209 209 0
-1.955520 3.754598 20.449881 209 209 209 0
-1.878594 3.757188 20.463986 210 210 210 0
-1.801846 3.760374 20.481340 209 209 209 0
-1.720662 3.754171 20.447554 210 210 210 0
-1.645937 3.762141 20.490966 210 210 210 0
-1.569085 3.765803 20.510911 210 210 210 0
-1.489915 3.763996 20.501069 210 210 210 0
-1.412285 3.766095 20.512498 210 210 210 0
-1.334819 3.768900 20.527776 210 210 210 0
-1.256887 3.770660 20.537365 211 211 211 0
-1.179260 3.773632 20.553552 211 211 211 0
-1.104125 3.785571 20.618578 210 210 210 0
-1.024722 3.783587 20.607774 211 211 211 0
-0.947196 3.788783 20.636072 211 211 211 0
-0.868664 3.790533 20.645607 212 212 212 0
-0.791271 3.798099 20.686813 211 211 211 0
-0.713847 3.807183 20.736289 211 211 211 0
-0.635187 3.811125 20.757760 212 212 212 0
-0.555986 3.812475 20.765113 211 211 211 0
-0.477425 3.819403 20.802850 211 211 211 0
-0.398683 3.827356 20.846168 211 211 211 0
-0.320028 3.840334 20.916852 211 211 211 0
-0.240053 3.840849 20.919656 212 212 212 0
-0.160361 3.848668 20.962246 211 211 211 0
-0.080439 3.861081 21.029854 211 211 211 0
0.000000 3.865638 21.054672 212 212 212 0
0.080754 3.876175 21.112066 211 211 211 0
0.162197 3.892734 21.202254 211 211 211 0
0.243432 3.894916 21.214137 212 212 212 0
0.325245 3.902942 21.257854 212 212 212 0
0.408071 3.917479 21.337031 212 212 212 0
0.491144 3.929153 21.400615 211 211 211 0
0.574115 3.936788 21.442201 211 211 211 0
0.656457 3.938741 21.452839 213 213 213 0
0.738839 3.940473 21.462273 213 213 213 0
0.822144 3.946292 21.493966 212 212 212 0
0.903182 3.941156 21.465994 212 212 212 0
0.985077 3.940309 21.461377 212 212 212 0
1.069197 3.947803 21.502195 213 213 213 0
1.151918 3.949433 21.511075 212 212 212 0
1.236158 3.955706 21.545240 212 212 212 0
1.319477 3.958432 21.560088 213 213 213 0
1.402958 3.961294 21.575678 212 212 212 0
1.484704 3.959210 21.564324 212 212 212 0
1.567876 3.960950 21.573802 212 212 212 0
1.652040 3.964895 21.595290 212 212 212 0
1.736468 3.969071 21.618032 212 212 212 0
1.819192 3.969147 21.618446 213 213 213 0
1.903455 3.972428 21.636318 212 212 212 0
1.986381 3.972762 21.638136 212 212 212 0
2.069112 3.972695 21.637773 212 212 212 0
2.154302 3.977174 21.662167 212 212 212 0
2.237302 3.977426 21.663538 212 212 212 0
2.321457 3.979640 21.675601 212 212 212 0
2.405086 3.980832 21.682093 213 213 213 0
2.490171 3.984273 21.700835 213 213 213 0
2.574254 3.985942 21.709924 212 212 212 0
2.660760 3.991140 21.738236 212 212 212 0
2.742718 3.989407 21.728799 213 213 213 0
2.829639 3.994785 21.758088 213 213 213 0
2.911089 3.992350 21.744827 212 212 212 0
2.998257 3.997676 21.773832 213 213 213 0
3.084200 4.001124 21.792617 213 213 213 0
3.166200 3.999410 21.783280 212 212 212 0
3.252015 4.002480 21.800000 213 213 213 0
3.335638 4.002766 21.801557 213 213 213 0
3.421493 4.005651 21.817269 212 212 212 0
3.507552 4.008631 21.833504 213 213 213 0
3.593234 4.011052 21.846690 213 213 213 0
3.676566 4.010799 21.845309 213 213 213 0
3.761031 4.011767 21.850581 212 212 212 0
3.834870 4.001604 21.795228 180 180 180 0
3.866890 3.949165 21.509612 77 77 77 0
-6.305225 3.861950 20.605311 208 208 208 0
-6.220957 3.858568 20.587265 207 207 207 0
-6.146010 3.860955 20.600000 208 208 208 0
-6.069039 3.862116 20.606194 207 207 207 0
-5.988420 3.860955 20.600000 208 208 208 0
-5.904801 3.857804 20.583185 207 207 207 0
-5.838272 3.865883 20.626291 208 208 208 0
-5.766392 3.870592 20.651419 208 208 208 0
-5.684407 3.868555 20.640548 208 208 208 0
-5.629504 3.885151 20.729094 208 208 208 0
-5.542098 3.879469 20.698779 208 208 208 0
-5.460167 3.877510 20.688330 209 209 209 0
-5.377339 3.874848 20.674123 208 208 208 0
-5.310261 3.883624 20.720948 209 209 209 0
-5.225716 3.879698 20.700004 208 208 208 0
-5.151385 3.883352 20.719497 209 209 209 0
-5.066194 3.878805 20.695238 209 209 209 0
-4.999222 3.888284 20.745811 209 209 209 0
-4.918638 3.887311 20.740621 209 209 209 0
-4.840421 3.888207 20.745404 209 209 209 0
-4.774101 3.898849 20.802183 210 210 210 0
-4.701607 3.904724 20.833530 208 208 208 0
-4.616999 3.900568 20.811356 210 210 210 0
-4.538455 3.901479 20.816215 209 209 209 0
-4.464008 3.906007 20.840376 210 210 210 0
-4.386640 3.908097 20.851527 210 210 210 0
-4.310721 3.911580 20.870107 210 210 210 0
-4.234076 3.914523 20.885812 210 210 210 0
-4.145978 3.906787 20.844535 209 209 209 0
-4.049091 3.890303 20.756585 201 201 201 0
-3.965292 3.885986 20.733552 201 201 201 0
-3.898986 3.898986 20.802911 202 202 202 0
-3.802286 3.881501 20.709620 203 203 203 0
-3.716537 3.874688 20.673270 203 203 203 0
-3.628083 3.864697 20.619967 203 203 203 0
-3.553880 3.869781 20.647091 202 202 202 0
-3.472574 3.867184 20.633235 203 203 203 0
-3.383582 3.855710 20.572016 204 204 204 0
-3.308778 3.860241 20.596192 204 204 204 0
-3.230792 3.861191 20.601259 204 204 204 0
-3.143668 3.850994 20.546852 206 206 206 0
-3.061229 3.846160 20.521062 206 206 206 0
-2.981179 3.844152 20.510351 206 206 206 0
-2.904865 3.846983 20.525454 206 206 206 0
-2.823051 3.842486 20.501460 206 206 206 0
-2.742631 3.839684 20.486508 206 206 206 0
-2.662640 3.837334 20.473971 207 207 207 0
-2.580335 3.831406 20.442342 207 207 207 0
-2.505250 3.836165 20.467732 207 207 207 0
-2.427256 3.836631 20.470221 207 207 207 0
-2.347236 3.833818 20.455213 208 208 208 0
-2.269609 3.834857 20.460753 208 208 208 0
-2.189885 3.832298 20.447103 209 209 209 0
-2.112012 3.832911 20.450375 208 208 208 0
-2.036067 3.837204 20.473277 209 209 209 0
-1.957822 3.837332 20.473958 209 209 209 0
-1.881815 3.842040 20.499078 210 210 210 0
-1.800986 3.836883 20.471565 210 210 210 0
-1.724494 3.840919 20.493099 210 210 210 0
-1.647866 3.845021 20.514987 210 210 210 0
-1.569749 3.845885 20.519596 210 210 210 0
-1.491071 3.845393 20.516968 210 210 210 0
-1.415101 3.852220 20.553395 211 211 211 0
-1.337371 3.854776 20.567032 211 211 211 0
-1.258376 3.853777 20.561703 211 211 211 0
-1.182557 3.863019 20.611011 210 210 210 0
-1.104178 3.864622 20.619567 211 211 211 0
-1.026106 3.867631 20.635622 211 211 211 0
-0.946640 3.865448 20.623971 211 211 211 0
-0.870198 3.876337 20.682068 211 211 211 0
-0.792356 3.882547 20.715203 212 212 212 0
-0.714007 3.887371 20.740942 211 211 211 0
-0.637004 3.901650 20.817128 211 211 211 0
-0.556442 3.895095 20.782150 211 211 211 0
-0.477222 3.897310 20.793969 212 212 212 0
-0.398944 3.909647 20.859794 210 210 210 0
-0.319763 3.917100 20.899559 212 212 212 0
-0.240224 3.923660 20.934560 212 212 212 0
-0.160608 3.934897 20.994514 212 212 212 0
-0.080416 3.940394 21.023846 212 212 212 0
0.000000 3.951131 21.081133 212 212 212 0
0.080982 3.968112 21.171732 211 211 211 0
0.162295 3.976230 21.215046 212 212 212 0
0.243623 3.979175 21.230757 212 212 212 0
0.325762 3.990588 21.291653 212 212 212 0
0.408603 4.004305 21.364839 211 211 211 0
0.491751 4.015970 21.427076 211 211 211 0
0.574352 4.020465 21.451060 213 213 213 0
0.656225 4.019378 21.445262 214 214 214 0
0.738646 4.021517 21.456673 212 212 212 0
0.821438 4.025046 21.475504 213 213 213 0
0.904412 4.028745 21.495236 212 212 212 0
0.987736 4.033254 21.519296 213 213 213 0
1.070213 4.033881 21.522640 213 213 213 0
1.151119 4.028918 21.496159 212 212 212 0
1.236083 4.037873 21.543938 212 212 212 0
1.319460 4.040845 21.559799 212 212 212 0
1.404575 4.048480 21.600532 212 212 212 0
1.487604 4.049589 21.606452 213 213 213 0
1.568541 4.045186 21.582956 212 212 212 0
1.652052 4.047528 21.595453 212 212 212 0
1.735831 4.050272 21.610094 213 213 213 0
1.820844 4.055516 21.638073 212 212 212 0
1.902367 4.052870 21.623955 212 212 212 0
1.984130 4.050933 21.613621 213 213 213 0
2.068289 4.053847 21.629168 213 213 213 0
2.154787 4.060945 21.667039 213 213 213 0
2.237175 4.060057 21.662305 212 212 212 0
2.322226 4.063895 21.682782 212 212 212 0
2.404396 4.062601 21.675875 212 212 212 0
2.489744 4.066583 21.697119 212 212 212 0
2.573189 4.067298 21.700938 212 212 212 0
2.660419 4.073767 21.735451 212 212 212 0
2.741167 4.070217 21.716510 212 212 212 0
2.827315 4.074660 21.740215 213 213 213 0
2.911077 4.075507 21.744738 213 213 213 0
2.996798 4.078974 21.763235 213 213 213 0
3.080591 4.079702 21.767116 212 212 212 0
3.165401 4.081702 21.777787 212 212 212 0
3.250428 4.083872 21.789364 213 213 213 0
3.337558 4.088509 21.814108 213 213 213 0
3.420200 4.087556 21.809020 213 213 213 0
3.509119 4.093973 21.843258 212 212 212 0
3.592441 4.093712 21.841869 213 213 213 0
3.676777 4.094592 21.846563 213 213 213 0
3.760724 4.095010 21.848793 212 212 212 0
3.836402 4.086602 21.803931 182 182 182 0
-6.295617 3.934760 20.573911 208 208 208 0
-6.237999 3.948101 20.643664 208 208 208 0
-6.137020 3.933987 20.569867 208 208 208 0
-6.068926 3.940861 20.605810 208 208 208 0
-6.000638 3.947788 20.642029 208 208 208 0
-5.909625 3.939750 20.600000 208 208 208 0
-5.830830 3.939750 20.600000 208 208 208 0
-5.757697 3.943628 20.620279 208 208 208 0
-5.688671 3.950466 20.656033 208 208 208 0
-5.615245 3.954398 20.676590 207 207 207 0
-5.534732 3.953380 20.671269 208 208 208 0
-5.458984 3.955786 20.683846 209 209 209 0
-5.380088 3.955947 20.684692 208 208 208 0
-5.303892 3.958128 20.696095 209 209 209 0
-5.224817 3.958195 20.696444 208 208 208 0
-5.148562 3.960432 20.708142 209 209 209 0
-5.073116 3.963372 20.723511 209 209 209 0
-4.997258 3.966078 20.737661 209 209 209 0
-4.919577 3.967401 20.744580 209 209 209 0
-4.853088 3.977941 20.799690 209 209 209 0
-4.765335 3.971112 20.763986 209 209 209 0
-4.676563 3.963189 20.722555 209 209 209 0
-4.614864 3.978331 20.801729 209 209 209 0
-4.542377 3.984541 20.834202 209 209 209 0
-4.459709 3.981883 20.820303 209 209 209 0
-4.380251 3.982047 20.821159 210 210 210 0
-4.306879 3.987851 20.851507 210 210 210 0
-4.240005 4.000004 20.915056 210 210 210 0
-4.149803 3.990195 20.863765 210 210 210 0
-4.061815 3.982172 20.821814 206 206 206 0
-3.963701 3.963701 20.725235 200 200 200 0
-3.900694 3.980299 20.812023 201 201 201 0
-3.792587 3.950611 20.656791 202 202 202 0
-3.715108 3.952242 20.665319 203 203 203 0
-3.635210 3.951316 20.660474 203 203 203 0
-3.548006 3.942228 20.612959 203 203 203 0
-3.476730 3.950830 20.657934 203 203 203 0
-3.396534 3.949458 20.650759 203 203 203 0
-3.315591 3.947133 20.638602 203 203 203 0
-3.240618 3.951973 20.663912 204 204 204 0
-3.150364 3.937955 20.590615 204 204 204 0
-3.059380 3.922282 20.508665 205 205 205 0
-2.985338 3.928076 20.538961 206 206 206 0
-2.904974 3.925640 20.526223 206 206 206 0
-2.827765 3.927452 20.535696 206 206 206 0
-2.739473 3.913532 20.462914 207 207 207 0
-2.665812 3.920312 20.498365 207 207 207 0
-2.582930 3.913531 20.462905 207 207 207 0
-2.508823 3.920036 20.496922 207 207 207 0
-2.428919 3.917612 20.484245 208 208 208 0
-2.353139 3.921898 20.506654 208 208 208 0
-2.273801 3.920346 20.498542 208 208 208 0
-2.191870 3.914054 20.465643 208 208 208 0
-2.115803 3.918153 20.487075 208 208 208 0
-2.037460 3.918191 20.487275 209 209 209 0
-1.963257 3.926514 20.530794 209 209 209 0
-1.884095 3.925197 20.523907 209 209 209 0
-1.804672 3.923200 20.513465 210 210 210 0
-1.724439 3.919179 20.492438 209 209 209 0
-1.648542 3.925099 20.523394 210 210 210 0
-1.571722 3.929305 20.545388 210 210 210 0
-1.493517 3.930308 20.550632 210 210 210 0
-1.413999 3.927776 20.537393 211 211 211 0
-1.338078 3.935525 20.577907 210 210 210 0
-1.259811 3.936911 20.585154 210 210 210 0
-1.183842 3.946140 20.633413 211 211 211 0
-1.107133 3.954046 20.674751 210 210 210 0
-1.027774 3.952976 20.669154 211 211 211 0
-0.951417 3.964237 20.728037 211 211 211 0
-0.870889 3.958586 20.698491 211 211 211 0
-0.793766 3.968832 20.752061 211 211 211 0
-0.715830 3.976831 20.793888 211 211 211 0
-0.637203 3.982517 20.823617 211 211 211 0
-0.557647 3.983193 20.827151 210 210 210 0
-0.478280 3.985669 20.840100 211 211 211 0
-0.400281 4.002813 20.929739 211 211 211 0
-0.320561 4.007012 20.951699 211 211 211 0
-0.241289 4.021490 21.027397 211 211 211 0
-0.161039 4.025963 21.050785 211 211 211 0
-0.080591 4.029574 21.069668 212 212 212 0
0.000000 4.034509 21.095470 211 211 211 0
0.081049 4.052467 21.189372 211 211 211 0
0.162733 4.068335 21.272341 211 211 211 0
0.244113 4.068558 21.273506 211 211 211 0
0.326551 4.081886 21.343196 212 212 212 0
0.409521 4.095206 21.412843 212 212 212 0
0.493367 4.111394 21.497486 212 212 212 0
0.573333 4.095239 21.413012 213 213 213 0
0.656558 4.103489 21.456151 212 212 212 0
0.738466 4.102588 21.451440 212 212 212 0
0.821066 4.105332 21.465786 212 212 212 0
0.904416 4.110983 21.495337 212 212 212 0
0.985966 4.108193 21.480750 212 212 212 0
1.068590 4.109963 21.490001 213 213 213 0
1.152066 4.114520 21.513830 212 212 212 0
1.236943 4.123144 21.558923 213 213 213 0
1.320695 4.127172 21.579982 212 212 212 0
1.404048 4.129554 21.592437 212 212 212 0
1.484675 4.124098 21.563913 213 213 213 0
1.568975 4.128881 21.588921 212 212 212 0
1.651426 4.128565 21.587268 213 213 213 0
1.735355 4.131797 21.604167 212 212 212 0
1.821613 4.140029 21.647212 212 212 212 0
1.904048 4.139236 21.643062 212 212 212 0
1.987398 4.140412 21.649213 212 212 212 0
2.070539 4.141078 21.652697 212 212 212 0
2.156027 4.146205 21.679503 213 213 213 0
2.238414 4.145211 21.674308 212 212 212 0
2.320815 4.144312 21.669606 212 212 212 0
2.405968 4.148221 21.690046 212 212 212 0
2.489305 4.148842 21.693290 213 213 213 0
2.574323 4.152134 21.710507 213 213 213 0
2.660291 4.156704 21.734401 212 212 212 0
2.740769 4.152681 21.713363 213 213 213 0
2.827566 4.158185 21.742142 213 213 213 0
2.912017 4.160024 21.751761 212 212 212 0
2.998290 4.164291 21.774072 213 213 213 0
3.084906 4.168792 21.797606 212 212 212 0
3.165524 4.165163 21.778629 213 213 213 0
3.253895 4.171660 21.812601 213 213 213 0
3.337656 4.172070 21.814746 212 212 212 0
3.423821 4.175392 21.832113 213 213 213 0
3.508385 4.176649 21.838689 212 212 212 0
3.588893 4.173132 21.820297 213 213 213 0
3.676392 4.177718 21.844275 213 213 213 0
3.761845 4.179827 21.855306 212 212 212 0
3.833798 4.167172 21.789135 180 180 180 0
3.866755 4.113569 21.508858 77 77 77 0
-6.303600 4.018545 20.600000 208 208 208 0
-6.214332 4.011784 20.565342 208 208 208 0
-6.146826 4.019078 20.602735 208 208 208 0
-6.076495 4.024692 20.631509 208 208 208 0
-5.973993 4.008864 20.550373 208 208 208 0
-5.913357 4.021083 20.613010 208 208 208 0
-5.839934 4.024819 20.632164 208 208 208 0
-5.752035 4.018545 20.600000 209 209 209 0
-5.687776 4.028842 20.652783 208 208 208 0
-5.624990 4.040486 20.712475 208 208 208 0
-5.538341 4.035077 20.684746 208 208 208 0
-5.461633 4.036859 20.693882 208 208 208 0
-5.370945 4.028209 20.649540 209 209 209 0
-5.313827 4.044854 20.734864 208 208 208 0
-5.228168 4.039948 20.709718 208 208 208 0
-5.147324 4.038670 20.703165 209 209 209 0
-5.092701 4.058246 20.803517 209 209 209 0
-4.999754 4.047420 20.748019 209 209 209 0
-4.921847 4.048616 20.754150 208 208 208 0
-4.855879 4.059833 20.811652 208 208 208 0
-4.768106 4.052890 20.776060 209 209 209 0
-4.696447 4.059640 20.810664 209 209 209 0
-4.605652 4.049797 20.760207 209 209 209 0
-4.530578 4.053675 20.780083 209 209 209 0
-4.461711 4.063344 20.829648 208 208 208 0
-4.388216 4.069073 20.859021 209 209 209 0
-4.319588 4.079611 20.913040 209 209 209 0
-4.234686 4.074887 20.888820 210 210 210 0
-4.153459 4.073585 20.882147 210 210 210 0
-4.073479 4.073479 20.881606 209 209 209 0
-3.977356 4.056903 20.796631 205 205 205 0
-3.891170 4.049993 20.761211 200 200 200 0
-3.794377 4.031526 20.666543 201 201 201 0
-3.724264 4.041222 20.716250 202 202 202 0
-3.633786 4.028763 20.652381 202 202 202 0
-3.553416 4.027205 20.644394 204 204 204 0
-3.472976 4.025495 20.635628 203 203 203 0
-3.406996 4.040855 20.714368 203 203 203 0
-3.321091 4.032754 20.672838 204 204 204 0
-3.241761 4.032435 20.671203 204 204 204 0
-3.144062 4.008679 20.549426 204 204 204 0
-3.067748 4.011671 20.564762 204 204 204 0
-2.982886 4.003347 20.522090 205 205 205 0
-2.907910 4.008201 20.546973 205 205 205 0
-2.833783 4.014526 20.579396 206 206 206 0
-2.748677 4.005215 20.531666 206 206 206 0
-2.671585 4.007378 20.542756 207 207 207 0
-2.586898 3.997934 20.494343 208 208 208 0
-2.511694 4.003013 20.520378 207 207 207 0
-2.431634 4.000429 20.507135 207 207 207 0
-2.354247 4.002220 20.516313 208 208 208 0
-2.272642 3.996715 20.488093 208 208 208 0
-2.196284 4.000375 20.506857 208 208 208 0
-2.117643 3.999991 20.504890 208 208 208 0
-2.041382 4.004250 20.526721 208 208 208 0
-1.962282 4.003056 20.520598 209 209 209 0
-1.885520 4.006730 20.539435 210 210 210 0
-1.803303 3.998628 20.497902 210 210 210 0
-1.728589 4.007184 20.541759 209 209 209 0
-1.650777 4.009029 20.551221 209 209 209 0
-1.574790 4.015715 20.585494 210 210 210 0
-1.493992 4.010189 20.557166 209 209 209 0
-1.420905 4.025896 20.637684 210 210 210 0
-1.341604 4.024813 20.632133 211 211 211 0
-1.261737 4.021787 20.616617 210 210 210 0
-1.184127 4.026030 20.638372 210 210 210 0
-1.108701 4.038840 20.704035 211 211 211 0
-1.029291 4.037986 20.699659 210 210 210 0
-0.951815 4.045214 20.736709 210 210 210 0
-0.871380 4.040033 20.710152 210 210 210 0
-0.794182 4.050327 20.762920 211 211 211 0
-0.716304 4.059059 20.807683 210 210 210 0
-0.638805 4.072379 20.875967 211 211 211 0
-0.558237 4.067153 20.849177 211 211 211 0
-0.478947 4.071051 20.869159 210 210 210 0
-0.400216 4.082205 20.926338 211 211 211 0
-0.321411 4.097984 21.007225 210 210 210 0
-0.241472 4.105020 21.043291 211 211 211 0
-0.160782 4.099936 21.017228 211 211 211 0
-0.080641 4.112686 21.082587 211 211 211 0
0.000000 4.127274 21.157370 211 211 211 0
0.081207 4.141548 21.230543 210 210 210 0
0.162372 4.140497 21.225152 211 211 211 0
0.244870 4.162793 21.339451 211 211 211 0
0.326908 4.168075 21.366525 211 211 211 0
0.409980 4.181793 21.436848 210 210 210 0
0.492188 4.183596 21.446092 213 213 213 0
0.574241 4.183754 21.446902 213 213 213 0
0.656831 4.187296 21.465057 212 212 212 0
0.738661 4.185747 21.457117 212 212 212 0
0.821753 4.190940 21.483737 212 212 212 0
0.904137 4.191906 21.488690 212 212 212 0
0.987078 4.195081 21.504963 212 212 212 0
1.069720 4.196595 21.512728 212 212 212 0
1.151885 4.196152 21.510457 213 213 213 0
1.236519 4.204166 21.551535 212 212 212 0
1.319754 4.206716 21.564606 213 213 213 0
1.403262 4.209785 21.580342 213 213 213 0
1.485949 4.210189 21.582412 212 212 212 0
1.568071 4.209032 21.576479 213 213 213 0
1.652918 4.214940 21.606769 212 212 212 0
1.737876 4.220556 21.635555 212 212 212 0
1.819395 4.217688 21.620853 213 213 213 0
1.902044 4.217576 21.620278 212 212 212 0
1.985213 4.218578 21.625415 212 212 212 0
2.069145 4.221056 21.638117 213 213 213 0
2.154283 4.225709 21.661969 213 213 213 0
2.238726 4.228705 21.677328 212 212 212 0
2.320988 4.227514 21.671221 212 212 212 0
2.405044 4.229560 21.681713 212 212 212 0
2.489379 4.231945 21.693936 212 212 212 0
2.576101 4.238102 21.725499 213 213 213 0
2.660291 4.239838 21.734401 212 212 212 0
2.744773 4.241922 21.745085 212 212 212 0
2.829127 4.243690 21.754146 213 213 213 0
2.912882 4.244485 21.758221 213 213 213 0
2.997226 4.246070 21.766347 212 212 212 0
3.082935 4.249452 21.783681 212 212 212 0
3.167901 4.251656 21.794982 213 213 213 0
3.252486 4.253251 21.803160 212 212 212 0
3.337937 4.255869 21.816579 213 213 213 0
3.420753 4.255083 21.812549 213 213 213 0
3.510225 4.262416 21.850139 212 212 212 0
3.594111 4.262783 21.852019 212 212 212 0
