ply
    format ascii 1.0
    element vertex 14814
    property float x
    property float y
    property float z
    property uchar red
    property uchar green
    property uchar blue
    property uchar alpha
    end_header
0.410364 -4.616592 26.821159 207 207 207 0
0.511588 -4.604292 26.749698 207 207 207 0
0.614063 -4.605475 26.756574 207 207 207 0
0.721759 -4.639882 26.956469 207 207 207 0
0.825924 -4.645825 26.990992 207 207 207 0
0.926531 -4.632656 26.914488 207 207 207 0
1.030186 -4.635838 26.932973 207 207 207 0
1.136060 -4.647518 27.000829 207 207 207 0
1.241764 -4.656615 27.053682 206 206 206 0
1.345653 -4.658028 27.061893 207 207 207 0
1.448605 -4.656230 27.051446 207 207 207 0
1.552540 -4.657621 27.059526 207 207 207 0
1.659845 -4.668315 27.121658 207 207 207 0
1.769759 -4.684657 27.216596 206 206 206 0
1.876121 -4.690302 27.249394 207 207 207 0
1.979542 -4.688390 27.238285 207 207 207 0
2.083170 -4.687132 27.230979 207 207 207 0
2.190862 -4.694704 27.274969 207 207 207 0
2.304595 -4.713945 27.386752 207 207 207 0
2.405928 -4.707251 27.347865 207 207 207 0
2.507664 -4.701869 27.316596 207 207 207 0
2.612302 -4.702143 27.318187 207 207 207 0
2.722271 -4.711623 27.373263 207 207 207 0
2.832343 -4.720571 27.425250 207 207 207 0
2.942757 -4.729431 27.476723 206 206 206 0
3.048582 -4.730558 27.483270 207 207 207 0
3.151741 -4.727611 27.466150 208 208 208 0
3.258604 -4.730232 27.481378 208 208 208 0
3.374463 -4.745339 27.569145 207 207 207 0
3.481535 -4.747548 27.581978 207 207 207 0
3.587442 -4.748085 27.585100 208 208 208 0
3.697203 -4.753546 27.616826 207 207 207 0
3.822519 -4.778149 27.759760 207 207 207 0
3.929433 -4.779040 27.764938 207 207 207 0
4.026291 -4.767976 27.700659 207 207 207 0
4.130102 -4.765503 27.686289 207 207 207 0
4.266624 -4.799952 27.886432 207 207 207 0
4.371763 -4.798277 27.876700 207 207 207 0
4.468349 -4.787517 27.814185 207 207 207 0
4.565122 -4.777453 27.755720 207 207 207 0
4.676505 -4.782789 27.786721 207 207 207 0
4.804309 -4.804309 27.911746 207 207 207 0
4.910218 -4.803474 27.906895 207 207 207 0
5.010873 -4.797645 27.873026 207 207 207 0
5.123443 -4.803228 27.905462 207 207 207 0
5.240989 -4.813154 27.963129 207 207 207 0
5.358116 -4.822305 28.016295 208 208 208 0
5.465866 -4.822823 28.019305 208 208 208 0
5.573444 -4.823173 28.021338 208 208 208 0
5.694083 -4.834599 28.087719 207 207 207 0
5.821276 -4.851063 28.183373 207 207 207 0
5.924166 -4.847045 28.160026 208 208 208 0
6.025363 -4.841809 28.129611 207 207 207 0
6.146170 -4.852240 28.190209 207 207 207 0
6.276867 -4.869983 28.293291 207 207 207 0
6.374065 -4.861575 28.244444 208 208 208 0
6.468542 -4.851407 28.185368 207 207 207 0
6.584625 -4.857511 28.220831 207 207 207 0
6.702927 -4.865028 28.264503 208 208 208 0
6.819863 -4.871331 28.301124 208 208 208 0
6.918821 -4.864796 28.263157 208 208 208 0
7.028597 -4.865952 28.269873 207 207 207 0
7.135180 -4.864896 28.263736 208 208 208 0
7.231684 -4.857101 28.218452 207 207 207 0
7.333829 -4.853269 28.196189 208 208 208 0
7.436209 -4.849701 28.175462 207 207 207 0
7.522429 -4.835847 28.094972 206 206 206 0
7.630920 -4.836499 28.098758 206 206 206 0
7.758753 -4.849221 28.172669 206 206 206 0
7.896024 -4.867412 28.278357 206 206 206 0
8.011106 -4.871618 28.302794 205 205 205 0
8.130375 -4.878225 28.341176 205 205 205 0
8.279067 -4.902079 28.479763 205 205 205 0
8.406745 -4.913033 28.543402 205 205 205 0
8.510641 -4.909985 28.525694 205 205 205 0
8.642219 -4.922783 28.600047 205 205 205 0
-6.288019 -5.886656 34.977161 92 92 92 0
-6.155275 -5.887654 34.983090 122 122 122 0
-6.022917 -5.889074 34.991527 131 131 131 0
-5.889664 -5.889664 34.995031 84 84 84 0
-3.254195 -4.338926 25.780903 163 163 163 0
-3.120907 -4.291247 25.497608 205 205 205 0
-3.032303 -4.303915 25.572874 205 205 205 0
-2.933945 -4.303119 25.568146 206 206 206 0
-2.847484 -4.320320 25.670352 205 205 205 0
-2.758352 -4.334553 25.754919 205 205 205 0
-2.663732 -4.340897 25.792612 206 206 206 0
-2.570145 -4.349475 25.843586 206 206 206 0
-2.477099 -4.359694 25.904302 206 206 206 0
-2.382938 -4.368720 25.957933 206 206 206 0
-2.284640 -4.370616 25.969201 205 205 205 0
-2.195705 -4.391410 26.092748 206 206 206 0
-2.104850 -4.410163 26.204174 205 205 205 0
-2.000002 -4.400005 26.143818 206 206 206 0
-1.895960 -4.390644 26.088199 206 206 206 0
-1.796504 -4.391453 26.093008 206 206 206 0
-1.705354 -4.413858 26.226130 205 205 205 0
-1.606475 -4.417808 26.249600 205 205 205 0
-1.502602 -4.407633 26.189143 206 206 206 0
-1.399572 -4.398655 26.135797 206 206 206 0
-1.299614 -4.398695 26.136036 206 206 206 0
-1.205889 -4.421593 26.272089 206 206 206 0
-1.110915 -4.443659 26.403202 206 206 206 0
-1.008277 -4.436420 26.360187 206 206 206 0
-0.906412 -4.431347 26.330049 207 207 207 0
-0.807051 -4.438781 26.374220 206 206 206 0
-0.708284 -4.452069 26.453172 206 206 206 0
-0.609408 -4.468993 26.553729 206 206 206 0
-0.506767 -4.459546 26.497598 206 206 206 0
-0.405015 -4.455161 26.471544 207 207 207 0
-0.304769 -4.469939 26.559353 206 206 206 0
-0.204547 -4.500033 26.738162 206 206 206 0
-0.102352 -4.503488 26.758693 206 206 206 0
0.000000 -4.488035 26.666874 207 207 207 0
0.101742 -4.476668 26.599337 207 207 207 0
0.204398 -4.496751 26.718665 207 207 207 0
0.308708 -4.527712 26.902627 207 207 207 0
0.409864 -4.508499 26.788468 206 206 206 0
0.510694 -4.494110 26.702972 206 206 206 0
0.612834 -4.494118 26.703020 206 206 206 0
0.719622 -4.523337 26.876630 207 207 207 0
0.823810 -4.530956 26.921903 207 207 207 0
0.925000 -4.522222 26.870008 207 207 207 0
1.028634 -4.525991 26.892402 206 206 206 0
1.132499 -4.529994 26.916186 207 207 207 0
1.238820 -4.542339 26.989536 207 207 207 0
1.342726 -4.544612 27.003040 207 207 207 0
1.445489 -4.542967 26.993266 207 207 207 0
1.550664 -4.548614 27.026821 208 208 208 0
1.655926 -4.553795 27.057608 207 207 207 0
1.766822 -4.572950 27.171420 207 207 207 0
1.873217 -4.578975 27.207219 206 206 206 0
1.976445 -4.577030 27.195663 206 206 206 0
2.080330 -4.576726 27.193857 207 207 207 0
2.185960 -4.580106 27.213941 207 207 207 0
2.299402 -4.598805 27.325044 207 207 207 0
2.400000 -4.591304 27.280478 207 207 207 0
2.503144 -4.589098 27.267365 207 207 207 0
2.607514 -4.589225 27.268125 207 207 207 0
2.715623 -4.595670 27.306417 207 207 207 0
2.827118 -4.607155 27.374661 208 208 208 0
2.935909 -4.613571 27.412783 207 207 207 0
3.043305 -4.617428 27.435700 207 207 207 0
3.146226 -4.614465 27.418090 207 207 207 0
3.254481 -4.619263 27.446602 207 207 207 0
3.366709 -4.629224 27.505789 208 208 208 0
3.478772 -4.638362 27.560084 207 207 207 0
3.581532 -4.634924 27.539655 208 208 208 0
3.690822 -4.639891 27.569167 207 207 207 0
3.814976 -4.662748 27.704979 207 207 207 0
3.923587 -4.665887 27.723633 207 207 207 0
4.023297 -4.658554 27.680059 208 208 208 0
4.120787 -4.649093 27.623844 207 207 207 0
4.672528 -5.139780 30.539396 208 208 208 0
4.361655 -4.680800 27.812243 207 207 207 0
4.461128 -4.673563 27.769240 207 207 207 0
4.554646 -4.660568 27.692029 207 207 207 0
4.665252 -4.665252 27.719857 208 208 208 0
4.794008 -4.687474 27.851898 208 208 208 0
4.903673 -4.690470 27.869698 207 207 207 0
4.999837 -4.680699 27.811638 207 207 207 0
5.110760 -4.684863 27.836381 207 207 207 0
5.234905 -4.700731 27.930668 207 207 207 0
5.347915 -4.706165 27.962954 207 207 207 0
5.455228 -4.706471 27.964770 207 207 207 0
5.561552 -4.705929 27.961549 208 208 208 0
5.682975 -4.717942 28.032928 208 208 208 0
5.810905 -4.734811 28.133162 208 208 208 0
5.916656 -4.733325 28.124332 208 208 208 0
6.020265 -4.730208 28.105812 207 207 207 0
6.132103 -4.733554 28.125689 208 208 208 0
6.283530 -4.766816 28.323325 207 207 207 0
6.365607 -4.747232 28.206965 207 207 207 0
6.461121 -4.738155 28.153033 208 208 208 0
6.570617 -4.739462 28.160794 208 208 208 0
6.688730 -4.746841 28.204638 207 207 207 0
6.808973 -4.755473 28.255932 207 207 207 0
6.909828 -4.750506 28.226420 208 208 208 0
7.015826 -4.749175 28.218507 208 208 208 0
7.124389 -4.749592 28.220988 208 208 208 0
7.224407 -4.744386 28.190056 207 207 207 0
7.327766 -4.741496 28.172879 207 207 207 0
7.429646 -4.737745 28.150597 207 207 207 0
7.519502 -4.726544 28.084043 205 205 205 0
7.629698 -4.728264 28.094259 206 206 206 0
7.755606 -4.739537 28.161240 205 205 205 0
7.888800 -4.754893 28.252484 205 205 205 0
8.007508 -4.761221 28.290082 206 206 206 0
8.125074 -4.766710 28.322696 206 206 206 0
8.308323 -4.810082 28.580401 206 206 206 0
8.398044 -4.798882 28.513858 206 206 206 0
8.502033 -4.796019 28.496843 206 206 206 0
8.636664 -4.810294 28.581664 206 206 206 0
-6.420675 -5.751855 34.970999 75 75 75 0
-6.289429 -5.754158 34.985004 106 106 106 0
-6.155984 -5.754507 34.987121 127 127 127 0
-6.023365 -5.755660 34.994133 137 137 137 0
-5.890045 -5.756181 34.997298 84 84 84 0
-3.568686 -4.513338 27.440876 72 72 72 0
-3.242594 -4.225199 25.689003 169 169 169 0
-3.120389 -4.193023 25.493376 205 205 205 0
-3.022233 -4.192130 25.487946 205 205 205 0
-2.923345 -4.190128 25.475772 206 206 206 0
-2.840609 -4.211937 25.608375 206 206 206 0
-2.749244 -4.222053 25.669875 206 206 206 0
-2.653502 -4.225948 25.693561 206 206 206 0
-2.561127 -4.235710 25.752914 205 205 205 0
-2.473221 -4.253939 25.863744 205 205 205 0
-2.379394 -4.263080 25.919320 206 206 206 0
-2.280895 -4.264282 25.926626 206 206 206 0
-2.191296 -4.282988 26.040357 206 206 206 0
-2.100162 -4.300332 26.145807 206 206 206 0
-1.995168 -4.289611 26.080628 205 205 205 0
-1.892430 -4.282867 26.039626 206 206 206 0
-1.793840 -4.285284 26.054318 206 206 206 0
-1.701924 -4.304867 26.173380 206 206 206 0
-1.603839 -4.310316 26.206513 206 206 206 0
-1.500453 -4.301299 26.151688 206 206 206 0
-1.397690 -4.292905 26.100654 207 207 207 0
-1.296971 -4.289982 26.082880 206 206 206 0
-1.204071 -4.314586 26.232474 206 206 206 0
-1.108123 -4.331752 26.336842 207 207 207 0
-1.006958 -4.329920 26.325704 206 206 206 0
-0.904723 -4.322565 26.280987 206 206 206 0
-0.804734 -4.325445 26.298497 206 206 206 0
-0.706989 -4.342934 26.404828 206 206 206 0
-0.608083 -4.357928 26.495987 206 206 206 0
-0.506221 -4.353503 26.469088 206 206 206 0
-0.404737 -4.350922 26.453393 207 207 207 0
-0.304200 -4.360204 26.509826 207 207 207 0
-0.204164 -4.389531 26.688138 206 206 206 0
-0.102167 -4.393196 26.710417 207 207 207 0
0.000000 -4.374984 26.599690 207 207 207 0
0.101673 -4.371955 26.581271 206 206 206 0
0.203791 -4.381499 26.639304 207 207 207 0
0.308007 -4.414765 26.841557 206 206 206 0
0.409235 -4.399271 26.747355 207 207 207 0
0.509879 -4.384960 26.660345 207 207 207 0
0.611585 -4.383024 26.648571 207 207 207 0
0.717720 -4.408852 26.805608 206 206 206 0
0.822343 -4.420094 26.873955 206 206 206 0
0.923477 -4.412169 26.825771 207 207 207 0
1.026327 -4.413208 26.832089 207 207 207 0
1.130555 -4.419442 26.869994 207 207 207 0
1.236317 -4.430136 26.935013 207 207 207 0
1.339957 -4.432165 26.947346 207 207 207 0
1.442504 -4.430548 26.937518 207 207 207 0
1.546877 -4.434381 26.960820 207 207 207 0
1.651777 -4.439150 26.989814 207 207 207 0
1.762853 -4.458980 27.110384 207 207 207 0
1.870310 -4.467962 27.164990 207 207 207 0
1.973005 -4.465222 27.148331 206 206 206 0
2.076947 -4.465436 27.149633 207 207 207 0
2.182812 -4.469567 27.174751 207 207 207 0
2.295761 -4.487170 27.281776 206 206 206 0
2.396448 -4.480316 27.240101 208 208 208 0
2.498484 -4.476450 27.216596 208 208 208 0
2.602162 -4.475718 27.212147 207 207 207 0
2.709675 -4.481385 27.246604 207 207 207 0
2.820949 -4.492623 27.314930 207 207 207 0
2.927884 -4.496393 27.337848 207 207 207 0
3.035093 -4.500311 27.361672 208 208 208 0
3.140059 -4.500751 27.364346 208 208 208 0
3.249428 -4.507271 27.403989 207 207 207 0
3.362243 -4.518014 27.469303 207 207 207 0
3.473894 -4.526589 27.521442 207 207 207 0
3.578055 -4.525187 27.512916 207 207 207 0
3.683599 -4.525564 27.515211 208 208 208 0
3.803594 -4.543182 27.622327 207 207 207 0
3.918644 -4.554100 27.688708 207 207 207 0
4.013956 -4.542108 27.615795 207 207 207 0
4.115117 -4.537180 27.585834 207 207 207 0
4.227268 -4.544313 27.629205 207 207 207 0
4.355621 -4.568091 27.773769 208 208 208 0
4.455610 -4.561696 27.734891 208 208 208 0
4.547260 -4.547260 27.647120 207 207 207 0
4.653434 -4.547675 27.649640 207 207 207 0
4.784652 -4.572001 27.797545 208 208 208 0
4.893594 -4.574446 27.812412 207 207 207 0
4.991842 -4.567004 27.767165 207 207 207 0
5.100294 -4.569013 27.779377 207 207 207 0
5.224165 -4.584471 27.873361 208 208 208 0
5.339367 -4.591856 27.918261 208 208 208 0
5.447753 -4.593204 27.926455 207 207 207 0
5.547615 -4.587451 27.891478 208 208 208 0
5.664442 -4.595679 27.941507 208 208 208 0
5.797933 -4.616873 28.070362 208 208 208 0
5.908113 -4.619071 28.083724 207 207 207 0
6.006046 -4.611786 28.039433 208 208 208 0
6.117083 -4.614641 28.056795 207 207 207 0
6.215642 -4.608148 28.017319 207 207 207 0
6.353517 -4.630529 28.153392 207 207 207 0
6.454705 -4.625872 28.125078 208 208 208 0
6.554009 -4.620039 28.089613 208 208 208 0
6.672090 -4.627417 28.134472 207 207 207 0
6.797928 -4.639856 28.210097 208 208 208 0
6.902826 -4.637836 28.197817 208 208 208 0
7.007529 -4.635750 28.185135 207 207 207 0
7.118707 -4.637946 28.198484 208 208 208 0
7.214084 -4.629935 28.149777 207 207 207 0
7.321195 -4.629579 28.147615 208 208 208 0
7.427567 -4.628774 28.142718 207 207 207 0
7.523209 -4.621400 28.097887 206 206 206 0
7.625611 -4.618328 28.079210 205 205 205 0
7.749705 -4.628296 28.139817 205 205 205 0
7.880786 -4.642107 28.223783 206 206 206 0
8.005470 -4.651827 28.282882 205 205 205 0
8.119268 -4.655047 28.302460 206 206 206 0
8.647443 -4.892632 29.746968 206 206 206 0
8.384431 -4.682215 28.467639 206 206 206 0
8.495850 -4.683610 28.476118 206 206 206 0
8.629066 -4.696833 28.556519 206 206 206 0
-6.423102 -5.620214 34.984213 83 83 83 0
-6.290262 -5.621085 34.989636 116 116 116 0
-6.156555 -5.621202 34.990367 132 132 132 0
-6.023780 -5.622195 34.996545 140 140 140 0
-5.890319 -5.622577 34.998923 82 82 82 0
-3.241174 -4.125131 25.677753 172 172 172 0
-3.117807 -4.092122 25.472279 205 205 205 0
-3.016549 -4.086937 25.440007 206 206 206 0
-2.921717 -4.090403 25.461584 206 206 206 0
-2.836711 -4.108340 25.573232 206 206 206 0
-2.745568 -4.118353 25.635560 205 205 205 0
-2.649295 -4.121125 25.652818 205 205 205 0
-2.558535 -4.133019 25.726851 206 206 206 0
-2.468558 -4.147178 25.814987 206 206 206 0
-2.374788 -4.155879 25.869150 205 205 205 0
-2.275777 -4.155768 25.868457 206 206 206 0
-2.185068 -4.171494 25.966346 206 206 206 0
-2.094336 -4.188672 26.073275 206 206 206 0
-1.993247 -4.185820 26.055522 206 206 206 0
-1.890599 -4.179219 26.014432 206 206 206 0
-1.790882 -4.178724 26.011354 206 206 206 0
-1.699354 -4.198405 26.133860 206 206 206 0
-1.601534 -4.204028 26.168863 206 206 206 0
-1.498157 -4.194839 26.111665 206 206 206 0
-1.394756 -4.184267 26.045858 206 206 206 0
-1.293324 -4.178430 26.009524 206 206 206 0
-1.200867 -4.203034 26.162677 206 206 206 0
-1.106246 -4.223847 26.292232 207 207 207 0
-1.004907 -4.220610 26.272081 206 206 206 0
-0.903176 -4.214823 26.236057 206 206 206 0
-0.803597 -4.218884 26.261341 206 206 206 0
-0.705520 -4.233120 26.349952 206 206 206 0
-0.607105 -4.249735 26.453376 206 206 206 0
-0.505609 -4.247114 26.437060 207 207 207 0
-0.403881 -4.240747 26.397432 207 207 207 0
-0.303639 -4.250947 26.460923 206 206 206 0
-0.203803 -4.279857 26.640879 207 207 207 0
-0.102038 -4.285588 26.676548 206 206 206 0
0.000000 -4.269899 26.578890 206 206 206 0
0.101542 -4.264750 26.546841 206 206 206 0
0.203563 -4.274814 26.609485 207 207 207 0
0.307337 -4.302717 26.783174 207 207 207 0
0.408674 -4.291077 26.710719 207 207 207 0
0.509055 -4.276066 26.617278 207 207 207 0
0.610201 -4.271410 26.588298 207 207 207 0
0.715227 -4.291360 26.712480 207 207 207 0
0.820499 -4.307622 26.813707 207 207 207 0
0.921962 -4.302487 26.781744 207 207 207 0
1.023761 -4.299798 26.765004 207 207 207 0
1.127082 -4.303404 26.787452 207 207 207 0
1.233680 -4.317879 26.877556 207 207 207 0
1.337094 -4.319842 26.889770 206 206 206 0
1.440006 -4.320019 26.890874 206 206 206 0
1.543879 -4.322861 26.908566 207 207 207 0
1.649390 -4.329649 26.950821 207 207 207 0
1.760691 -4.349943 27.077146 207 207 207 0
1.867628 -4.357798 27.126039 207 207 207 0
1.970024 -4.354790 27.107317 207 207 207 0
2.073861 -4.355109 27.109298 207 207 207 0
2.178578 -4.357156 27.122041 207 207 207 0
2.291737 -4.375134 27.233946 207 207 207 0
2.392544 -4.368992 27.195720 207 207 207 0
2.493734 -4.364035 27.164863 208 208 208 0
2.597045 -4.363035 27.158639 207 207 207 0
2.703156 -4.366636 27.181053 207 207 207 0
2.815655 -4.379908 27.263666 207 207 207 0
2.924603 -4.386904 27.307214 207 207 207 0
3.026877 -4.383752 27.287596 207 207 207 0
3.133588 -4.387023 27.307954 207 207 207 0
3.242775 -4.393437 27.347878 207 207 207 0
3.357362 -4.406538 27.429429 208 208 208 0
3.467428 -4.413090 27.470212 207 207 207 0
3.571439 -4.411777 27.462043 208 208 208 0
3.672157 -4.406589 27.429745 208 208 208 0
3.796036 -4.428708 27.567435 207 207 207 0
3.910474 -4.438916 27.630976 207 207 207 0
4.009048 -4.431053 27.582029 208 208 208 0
4.108849 -4.424914 27.543817 208 208 208 0
4.219426 -4.430398 27.577951 207 207 207 0
4.350993 -4.457115 27.744255 207 207 207 0
4.449348 -4.449348 27.695913 207 207 207 0
4.542716 -4.437071 27.619491 207 207 207 0
4.647223 -4.435985 27.612732 207 207 207 0
4.772554 -4.454383 27.727254 207 207 207 0
4.887950 -4.462911 27.780336 207 207 207 0
4.984153 -4.453924 27.724396 208 208 208 0
5.091008 -4.454632 27.728802 208 208 208 0
5.212374 -4.467749 27.810452 207 207 207 0
5.328438 -4.475888 27.861116 208 208 208 0
5.437500 -4.477941 27.873892 207 207 207 0
5.532918 -4.468895 27.817585 207 207 207 0
5.649465 -4.476935 27.867629 208 208 208 0
5.784311 -4.498909 28.004413 208 208 208 0
5.897150 -4.503278 28.031608 207 207 207 0
5.996272 -4.497204 27.993799 207 207 207 0
6.106876 -4.499804 28.009982 207 207 207 0
6.222979 -4.506295 28.050391 207 207 207 0
6.347241 -4.518375 28.125582 208 208 208 0
6.439619 -4.507733 28.059341 208 208 208 0
6.541490 -4.503977 28.035960 208 208 208 0
6.658215 -4.510403 28.075963 208 208 208 0
6.779262 -4.519508 28.132635 207 207 207 0
6.891931 -4.522829 28.153311 207 207 207 0
6.995242 -4.520003 28.135714 207 207 207 0
7.103421 -4.520359 28.137934 208 208 208 0
7.207166 -4.517925 28.122784 208 208 208 0
7.314262 -4.517633 28.120963 208 208 208 0
7.423068 -4.518389 28.125670 207 207 207 0
7.521826 -4.513096 28.092722 206 206 206 0
7.631378 -4.514336 28.100444 207 207 207 0
7.749005 -4.520253 28.137275 205 205 205 0
7.874247 -4.530388 28.200364 206 206 206 0
7.994247 -4.537275 28.243233 205 205 205 0
8.102850 -4.537596 28.245229 205 205 205 0
7.840599 -4.332962 26.971444 205 205 205 0
8.383813 -4.572989 28.465540 205 205 205 0
8.484024 -4.568321 28.436480 205 205 205 0
8.621628 -4.583650 28.531904 206 206 206 0
-6.423993 -5.487160 34.989066 95 95 95 0
-6.290906 -5.487812 34.993222 123 123 123 0
-6.157155 -5.487899 34.993775 139 139 139 0
-6.023949 -5.488487 34.997524 140 140 140 0
-5.889645 -5.488078 34.994919 79 79 79 0
-3.235947 -4.020419 25.636340 177 177 177 0
-3.117768 -3.994641 25.471962 205 205 205 0
-3.012032 -3.983656 25.401918 206 206 206 0
-2.913898 -3.982327 25.393446 206 206 206 0
-2.829520 -4.000356 25.508408 206 206 206 0
-2.740684 -4.013144 25.589950 206 206 206 0
-2.646536 -4.018815 25.626109 205 205 205 0
-2.550915 -4.022597 25.650226 206 206 206 0
-2.464873 -4.042392 25.776448 206 206 206 0
-2.371207 -4.050812 25.830144 206 206 206 0
-2.271596 -4.049367 25.820928 206 206 206 0
-2.181054 -4.064691 25.918641 206 206 206 0
-2.090544 -4.081538 26.026070 206 206 206 0
-1.989256 -4.077975 26.003348 206 206 206 0
-1.887454 -4.072927 25.971160 206 206 206 0
-1.787642 -4.071851 25.964298 206 206 206 0
-1.696938 -4.092614 26.096697 206 206 206 0
-1.598222 -4.095444 26.114737 206 206 206 0
-1.497068 -4.091987 26.092696 207 207 207 0
-1.393292 -4.080355 26.018523 207 207 207 0
-1.291050 -4.071774 25.963809 206 206 206 0
-1.198502 -4.094882 26.111153 207 207 207 0
-1.104257 -4.115865 26.244958 207 207 207 0
-1.003632 -4.114892 26.238749 207 207 207 0
-0.901329 -4.106053 26.182386 206 206 206 0
-0.801722 -4.108826 26.200071 206 206 206 0
-0.703933 -4.123036 26.290684 206 206 206 0
-0.605855 -4.140006 26.398892 206 206 206 0
-0.504807 -4.139416 26.395126 207 207 207 0
-0.403291 -4.133728 26.358859 207 207 207 0
-0.302558 -4.134959 26.366711 206 206 206 0
-0.203359 -4.168861 26.582888 207 207 207 0
-0.101904 -4.178066 26.641580 207 207 207 0
0.000000 -4.162976 26.545363 207 207 207 0
0.101391 -4.157018 26.507367 207 207 207 0
0.203119 -4.163930 26.551444 206 206 206 0
0.306939 -4.194834 26.748503 206 206 206 0
0.408311 -4.185184 26.686968 207 207 207 0
0.508407 -4.168940 26.583389 207 207 207 0
0.608907 -4.160865 26.531901 207 207 207 0
0.712924 -4.175699 26.626489 206 206 206 0
0.818870 -4.196708 26.760450 207 207 207 0
0.920848 -4.194975 26.749404 207 207 207 0
1.021944 -4.189971 26.717496 207 207 207 0
1.124925 -4.192904 26.736196 207 207 207 0
1.232016 -4.209388 26.841310 207 207 207 0
1.335152 -4.210864 26.850717 207 207 207 0
1.438289 -4.212133 26.858813 207 207 207 0
1.539887 -4.209024 26.838989 207 207 207 0
1.648266 -4.223681 26.932447 207 207 207 0
1.757046 -4.237582 27.021089 207 207 207 0
1.863504 -4.244648 27.066144 208 208 208 0
1.967558 -4.245782 27.073377 207 207 207 0
2.071356 -4.246280 27.076551 207 207 207 0
2.178476 -4.253216 27.120778 208 208 208 0
2.289877 -4.267498 27.211847 208 208 208 0
2.389382 -4.259334 27.159788 207 207 207 0
2.489316 -4.252582 27.116733 207 207 207 0
2.593824 -4.253872 27.124961 207 207 207 0
2.696433 -4.252068 27.113455 207 207 207 0
2.807625 -4.263430 27.185908 208 208 208 0
2.919083 -4.274372 27.255680 208 208 208 0
3.021287 -4.271475 27.237206 207 207 207 0
3.130938 -4.278948 27.284859 207 207 207 0
3.236990 -4.281181 27.299097 208 208 208 0
3.348532 -4.290307 27.357291 207 207 207 0
3.460810 -4.299794 27.417785 208 208 208 0
3.564376 -4.298218 27.407734 208 208 208 0
3.664879 -4.293144 27.375380 207 207 207 0
3.783840 -4.309373 27.478864 208 208 208 0
3.903950 -4.325999 27.584880 207 207 207 0
4.003007 -4.319034 27.540468 208 208 208 0
4.102255 -4.312627 27.499615 207 207 207 0
4.208509 -4.313722 27.506598 208 208 208 0
4.341969 -4.341969 27.686712 207 207 207 0
4.441222 -4.335479 27.645329 207 207 207 0
4.534672 -4.323757 27.570586 207 207 207 0
4.637684 -4.321478 27.556054 208 208 208 0
4.762385 -4.339062 27.668176 208 208 208 0
4.881231 -4.350663 27.742149 208 208 208 0
4.977840 -4.342371 27.689281 208 208 208 0
5.083200 -4.341900 27.686272 208 208 208 0
5.201232 -4.352051 27.751004 208 208 208 0
5.316780 -4.359760 27.800158 208 208 208 0
5.427573 -4.363343 27.823009 208 208 208 0
5.527286 -4.358052 27.789269 208 208 208 0
5.642103 -4.364646 27.831315 209 209 209 0
5.770087 -4.380992 27.935543 208 208 208 0
5.887689 -4.389005 27.986638 207 207 207 0
5.987659 -4.383822 27.953589 208 208 208 0
6.091692 -4.381743 27.940337 207 207 207 0
6.206163 -4.387115 27.974591 207 207 207 0
6.336657 -4.403439 28.078682 208 208 208 0
6.432258 -4.395376 28.027266 208 208 208 0
6.528928 -4.388296 27.982118 207 207 207 0
6.642401 -4.392556 28.009282 208 208 208 0
6.770072 -4.405920 28.094498 208 208 208 0
6.882393 -4.409033 28.114350 208 208 208 0
6.984393 -4.405540 28.092080 208 208 208 0
7.090806 -4.404895 28.087963 207 207 207 0
7.201228 -4.406721 28.099610 207 207 207 0
7.308586 -4.406648 28.099140 207 207 207 0
7.418375 -4.408020 28.107892 207 207 207 0
7.521224 -4.405288 28.090472 206 206 206 0
7.620779 -4.400731 28.061416 205 205 205 0
7.737172 -4.405890 28.094306 205 205 205 0
7.869520 -4.419868 28.183438 206 206 206 0
7.992559 -4.428310 28.237270 205 205 205 0
8.101997 -4.429092 28.242256 205 205 205 0
8.185141 -4.415668 28.156660 205 205 205 0
8.369306 -4.456384 28.416284 206 206 206 0
8.476227 -4.455453 28.410348 205 205 205 0
8.614476 -4.470804 28.508236 206 206 206 0
-6.555609 -5.351517 34.977238 76 76 76 0
-6.424527 -5.353772 34.991975 106 106 106 0
-6.291418 -5.354398 34.996065 127 127 127 0
-6.157699 -5.354521 34.996866 142 142 142 0
-6.024137 -5.354788 34.998615 140 140 140 0
-5.872320 -5.338472 34.891976 77 77 77 0
-3.230704 -3.916005 25.594802 183 183 183 0
-3.104496 -3.880620 25.363532 206 206 206 0
-3.007852 -3.881099 25.366660 205 205 205 0
-2.911156 -3.881541 25.369549 206 206 206 0
-2.821705 -3.892007 25.437953 206 206 206 0
-2.735456 -3.907794 25.541138 206 206 206 0
-2.641590 -3.913466 25.578209 206 206 206 0
-2.547966 -3.919948 25.620576 206 206 206 0
-2.458874 -3.934198 25.713713 206 206 206 0
-2.364488 -3.940813 25.756946 206 206 206 0
-2.266204 -3.941224 25.759633 206 206 206 0
-2.174302 -3.953276 25.838408 206 206 206 0
-2.086347 -3.973994 25.973817 206 206 206 0
-1.986581 -3.973161 25.968375 206 206 206 0
-1.885217 -3.968877 25.940374 206 206 206 0
-1.783120 -3.962489 25.898620 207 207 207 0
-1.694746 -3.987638 26.062995 207 207 207 0
-1.594071 -3.985176 26.046904 207 207 207 0
-1.495489 -3.987970 26.065165 206 206 206 0
-1.391216 -3.974902 25.979754 206 206 206 0
-1.290347 -3.970299 25.949667 207 207 207 0
-1.195312 -3.984374 26.041659 207 207 207 0
-1.102260 -4.008217 26.197499 207 207 207 0
-1.002176 -4.008704 26.200677 206 206 206 0
-0.900018 -4.000078 26.144303 207 207 207 0
-0.800390 -4.001951 26.156545 207 207 207 0
-0.702484 -4.014194 26.236560 207 207 207 0
-0.604891 -4.032607 26.356907 206 206 206 0
-0.504360 -4.034882 26.371779 206 206 206 0
-0.402421 -4.024212 26.302038 207 207 207 0
-0.301365 -4.018199 26.262739 207 207 207 0
-0.202788 -4.055756 26.508210 207 207 207 0
-0.101764 -4.070543 26.604856 206 206 206 0
0.000000 -4.056268 26.511553 207 207 207 0
0.101210 -4.048414 26.460223 207 207 207 0
0.202758 -4.055165 26.504347 207 207 207 0
0.306151 -4.082020 26.679869 207 207 207 0
0.407779 -4.077794 26.652246 206 206 206 0
0.507944 -4.063549 26.559146 207 207 207 0
0.607703 -4.051356 26.479449 207 207 207 0
0.710574 -4.060425 26.538724 207 207 207 0
0.817158 -4.085791 26.704516 207 207 207 0
0.919413 -4.086282 26.707723 207 207 207 0
1.020006 -4.080025 26.666828 208 208 208 0
1.122710 -4.082581 26.683537 207 207 207 0
1.228713 -4.095711 26.769350 207 207 207 0
1.332713 -4.100656 26.801676 207 207 207 0
1.435710 -4.102030 26.810653 207 207 207 0
1.538901 -4.103736 26.821805 208 208 208 0
1.644528 -4.111320 26.871371 207 207 207 0
1.752904 -4.124480 26.957386 207 207 207 0
1.861439 -4.136531 27.036150 207 207 207 0
1.964288 -4.135343 27.028383 207 207 207 0
2.070089 -4.140179 27.059992 208 208 208 0
2.176144 -4.145036 27.091739 208 208 208 0
2.324211 -4.225838 27.619854 208 208 208 0
2.388293 -4.153554 27.147411 207 207 207 0
2.488573 -4.147622 27.108638 208 208 208 0
2.587036 -4.139257 27.053968 207 207 207 0
2.692320 -4.142031 27.072097 207 207 207 0
2.802862 -4.152388 27.139794 207 207 207 0
2.913363 -4.161947 27.202267 207 207 207 0
3.015389 -4.159158 27.184036 208 208 208 0
3.123573 -4.164764 27.220681 207 207 207 0
3.229838 -4.167533 27.238778 208 208 208 0
3.338488 -4.173110 27.275227 208 208 208 0
3.452914 -4.185350 27.355230 207 207 207 0
3.555771 -4.183260 27.341568 207 207 207 0
3.658267 -4.180876 27.325990 208 208 208 0
3.776124 -4.195693 27.422831 208 208 208 0
3.897226 -4.213217 27.537367 207 207 207 0
3.999478 -4.209977 27.516191 207 207 207 0
4.096563 -4.201603 27.461455 208 208 208 0
4.202499 -4.202499 27.467317 207 207 207 0
4.333080 -4.227395 27.630031 207 207 207 0
4.435691 -4.224468 27.610900 208 208 208 0
4.529257 -4.213263 27.537665 207 207 207 0
4.629149 -4.208317 27.505340 208 208 208 0
4.751371 -4.223440 27.604186 208 208 208 0
4.870711 -4.235400 27.682356 208 208 208 0
4.971894 -4.231399 27.656203 208 208 208 0
5.075039 -4.229199 27.641822 208 208 208 0
5.189387 -4.236234 27.687806 207 207 207 0
5.306455 -4.245164 27.746168 208 208 208 0
5.418209 -4.249576 27.775006 208 208 208 0
5.520013 -4.246164 27.752707 208 208 208 0
5.630060 -4.249102 27.771907 208 208 208 0
5.759551 -4.266334 27.884537 208 208 208 0
5.878712 -4.275427 27.943969 208 208 208 0
5.978641 -4.270458 27.911488 208 208 208 0
6.078340 -4.265502 27.879096 208 208 208 0
6.193464 -4.271354 27.917348 207 207 207 0
6.325049 -4.288169 28.027249 208 208 208 0
6.422283 -4.281522 27.983804 208 208 208 0
6.519126 -4.274837 27.940109 208 208 208 0
6.632387 -4.278960 27.967056 208 208 208 0
6.756586 -4.289896 28.038533 207 207 207 0
6.869211 -4.293257 28.060502 208 208 208 0
6.971488 -4.290146 28.040171 208 208 208 0
7.079093 -4.290359 28.041565 208 208 208 0
7.189842 -4.292443 28.055183 208 208 208 0
7.296291 -4.291936 28.051870 207 207 207 0
7.408709 -4.294904 28.071267 208 208 208 0
7.513879 -4.293645 28.063039 206 206 206 0
7.616988 -4.291261 28.047456 206 206 206 0
7.735568 -4.297538 28.088481 206 206 206 0
7.867319 -4.310860 28.175555 206 206 206 0
7.993222 -4.320661 28.239613 206 206 206 0
8.100276 -4.320147 28.236256 206 206 206 0
8.221070 -4.326879 28.280254 206 206 206 0
8.368337 -4.347188 28.412993 206 206 206 0
8.470672 -4.343934 28.391728 206 206 206 0
8.603598 -4.356252 28.472235 206 206 206 0
-6.556761 -5.218646 34.983385 82 82 82 0
-6.424874 -5.220210 34.993866 114 114 114 0
-6.291698 -5.220770 34.997623 130 130 130 0
-6.158018 -5.220929 34.998683 144 144 144 0
-6.024294 -5.221055 34.999530 138 138 138 0
-5.868095 -5.201266 34.866872 74 74 74 0
-3.353471 -3.846628 25.786012 75 75 75 0
-3.213973 -3.798332 25.462252 186 186 186 0
-3.103955 -3.782945 25.359107 206 206 206 0
-3.004740 -3.780156 25.340415 206 206 206 0
-2.907089 -3.779215 25.334105 206 206 206 0
-2.819131 -3.791245 25.414746 206 206 206 0
-2.729254 -3.801461 25.483234 206 206 206 0
-2.637706 -3.810019 25.540600 206 206 206 0
-2.543890 -3.815835 25.579591 206 206 206 0
-2.453213 -3.827012 25.654515 205 205 205 0
-2.360422 -3.835686 25.712658 205 205 205 0
-2.261200 -3.834209 25.702761 206 206 206 0
-2.168394 -3.843971 25.768195 206 206 206 0
-2.079817 -3.862517 25.892525 206 206 206 0
-1.983360 -3.867551 25.926268 206 206 206 0
-1.882974 -3.865052 25.909518 206 206 206 0
-1.779203 -3.854940 25.841728 206 206 206 0
-1.705194 -3.911915 26.223660 206 206 206 0
-1.594594 -3.886822 26.055454 206 206 206 0
-1.493389 -3.882813 26.028575 207 207 207 0
-1.389199 -3.869912 25.942097 206 206 206 0
-1.288390 -3.865169 25.910303 206 206 206 0
-1.193271 -3.878132 25.997199 207 207 207 0
-1.100545 -3.901932 26.156744 207 207 207 0
-0.999919 -3.899683 26.141668 206 206 206 0
-0.898796 -3.894783 26.108816 206 206 206 0
-0.798714 -3.893732 26.101770 207 207 207 0
-0.701557 -3.908674 26.201939 207 207 207 0
-0.604059 -3.926381 26.320636 206 206 206 0
-0.503452 -3.926927 26.324295 207 207 207 0
-0.402250 -3.921938 26.290850 207 207 207 0
-0.301043 -3.913558 26.234675 207 207 207 0
-0.202267 -3.944201 26.440094 207 207 207 0
-0.101510 -3.958878 26.538485 207 207 207 0
0.000000 -3.950948 26.485325 206 206 206 0
0.101049 -3.940897 26.417947 206 206 206 0
0.202348 -3.945778 26.450664 207 207 207 0
0.306084 -3.979089 26.673965 207 207 207 0
0.406676 -3.965088 26.580109 207 207 207 0
0.507020 -3.954754 26.510837 207 207 207 0
0.606979 -3.945362 26.447879 207 207 207 0
0.708842 -3.949262 26.474018 207 207 207 0
0.815534 -3.975731 26.651453 208 208 208 0
0.918364 -3.979576 26.677230 207 207 207 0
1.018197 -3.970968 26.619531 207 207 207 0
1.121167 -3.975048 26.646877 207 207 207 0
1.226818 -3.987158 26.728058 207 207 207 0
1.331004 -3.993012 26.767298 207 207 207 0
1.433199 -3.992483 26.763752 208 208 208 0
1.536495 -3.994886 26.779865 208 208 208 0
1.641971 -4.002305 26.829595 207 207 207 0
1.749523 -4.013611 26.905384 207 207 207 0
1.858164 -4.026023 26.988587 207 207 207 0
1.961508 -4.026254 26.990139 207 207 207 0
2.064207 -4.025204 26.983101 207 207 207 0
2.167976 -4.026241 26.990054 207 207 207 0
2.271334 -4.026457 26.991497 208 208 208 0
2.385519 -4.045011 27.115878 207 207 207 0
2.485224 -4.038489 27.072156 207 207 207 0
2.583833 -4.030779 27.020476 208 208 208 0
2.688444 -4.032666 27.033122 207 207 207 0
2.797647 -4.041046 27.089300 208 208 208 0
2.906984 -4.049013 27.142707 207 207 207 0
3.010368 -4.048426 27.138770 207 207 207 0
3.117122 -4.052259 27.164463 207 207 207 0
3.223100 -4.054867 27.181949 208 208 208 0
3.333229 -4.062373 27.232265 208 208 208 0
3.444509 -4.070783 27.288642 208 208 208 0
3.551464 -4.073738 27.308453 208 208 208 0
3.654525 -4.072185 27.298038 208 208 208 0
3.767169 -4.081099 27.357798 208 208 208 0
3.888883 -4.099093 27.478420 208 208 208 0
3.992905 -4.097981 27.470967 208 208 208 0
4.091190 -4.091190 27.425440 207 207 207 0
4.194228 -4.089372 27.413253 207 207 207 0
4.323325 -4.112432 27.567834 208 208 208 0
4.428087 -4.111796 27.563570 207 207 207 0
4.525072 -4.104135 27.512215 208 208 208 0
4.621081 -4.095958 27.457403 208 208 208 0
4.738530 -4.106726 27.529588 208 208 208 0
4.862797 -4.122806 27.637378 207 207 207 0
4.965508 -4.120315 27.620681 208 208 208 0
5.070714 -4.119955 27.618270 207 207 207 0
5.179380 -4.122364 27.634414 208 208 208 0
5.297167 -4.131790 27.697606 208 208 208 0
5.406117 -4.134090 27.713020 208 208 208 0
5.513571 -4.135178 27.720315 208 208 208 0
5.620278 -4.135676 27.723653 209 209 209 0
5.743545 -4.148116 27.807042 207 207 207 0
5.868209 -4.161094 27.894041 207 207 207 0
5.972374 -4.159332 27.882232 209 209 209 0
6.071160 -4.153952 27.846165 209 209 209 0
6.179405 -4.155117 27.853979 208 208 208 0
6.315402 -4.174588 27.984499 208 208 208 0
6.410957 -4.167122 27.934455 208 208 208 0
6.510775 -4.162626 27.904317 208 208 208 0
6.620782 -4.164685 27.918118 208 208 208 0
6.742731 -4.174072 27.981040 208 208 208 0
6.861807 -4.181414 28.030259 207 207 207 0
6.964553 -4.178732 28.012279 207 207 207 0
7.073346 -4.179704 28.018798 208 208 208 0
7.179992 -4.179398 28.016747 208 208 208 0
7.290342 -4.181225 28.028995 208 208 208 0
7.401925 -4.183697 28.045563 208 208 208 0
7.510702 -4.184534 28.051174 207 207 207 0
7.613326 -4.181968 28.033973 206 206 206 0
7.729794 -4.186972 28.067515 207 207 207 0
7.864638 -4.201656 28.165950 206 206 206 0
7.989097 -4.210470 28.225038 205 205 205 0
8.096236 -4.210043 28.222173 205 205 205 0
8.215424 -4.215809 28.260831 205 205 205 0
8.365564 -4.237104 28.403579 206 206 206 0
8.469746 -4.234873 28.388624 206 206 206 0
8.596810 -4.243995 28.449771 206 206 206 0
-6.557360 -5.085300 34.986581 90 90 90 0
-6.425217 -5.086630 34.995736 121 121 121 0
-6.291856 -5.087032 34.998504 135 135 135 0
-6.157954 -5.087006 34.998319 145 145 145 0
-6.018843 -5.082578 34.967860 137 137 137 0
-5.857015 -5.058331 34.801040 72 72 72 0
-3.893309 -4.227021 29.081675 69 69 69 0
-3.343061 -3.736363 25.705968 79 79 79 0
-3.210917 -3.697419 25.438042 189 189 189 0
-3.095760 -3.676215 25.292155 206 206 206 0
-3.003785 -3.682059 25.332363 205 205 205 0
-2.903178 -3.677359 25.300030 206 206 206 0
-2.818844 -3.693658 25.412164 206 206 206 0
-2.725118 -3.698375 25.444616 206 206 206 0
-2.635507 -3.709232 25.519310 206 206 206 0
-2.539391 -3.711418 25.534350 206 206 206 0
-2.448261 -3.721357 25.602732 206 206 206 0
-2.356254 -3.730736 25.667255 206 206 206 0
-2.255758 -3.726904 25.640897 207 207 207 0
-2.163663 -3.737236 25.711976 205 205 205 0
-2.076475 -3.757431 25.850922 206 206 206 0
-1.979221 -3.760519 25.872164 206 206 206 0
-1.878884 -3.757769 25.853241 207 207 207 0
-1.776357 -3.750088 25.800396 207 207 207 0
-1.659032 -3.708424 25.513755 207 207 207 0
-1.592104 -3.781246 26.014766 207 207 207 0
-1.491956 -3.779621 26.003586 207 207 207 0
-1.387956 -3.767308 25.918874 207 207 207 0
-1.286653 -3.760984 25.875365 206 206 206 0
-1.190453 -3.769768 25.935796 207 207 207 0
-1.098083 -3.793376 26.098218 207 207 207 0
-0.998567 -3.794556 26.106338 206 206 206 0
-0.897286 -3.788539 26.064939 207 207 207 0
-0.797481 -3.788033 26.061462 206 206 206 0
-0.699580 -3.797720 26.128107 207 207 207 0
-0.602606 -3.816506 26.257354 206 206 206 0
-0.502609 -3.819825 26.280188 207 207 207 0
-0.401445 -3.813728 26.238239 207 207 207 0
-0.300598 -3.807574 26.195896 207 207 207 0
-0.201704 -3.832383 26.366583 207 207 207 0
-0.101357 -3.851570 26.498591 207 207 207 0
0.000000 -3.842283 26.434694 208 208 208 0
0.100911 -3.834605 26.381873 207 207 207 0
0.202032 -3.838608 26.409411 207 207 207 0
0.324772 -4.113773 28.302532 207 207 207 0
0.406553 -3.862256 26.572109 207 207 207 0
0.506634 -3.850418 26.490665 207 207 207 0
0.605871 -3.837181 26.399593 207 207 207 0
0.707265 -3.839440 26.415134 208 208 208 0
0.813714 -3.865140 26.591952 207 207 207 0
0.916539 -3.869832 26.624234 207 207 207 0
1.016862 -3.864076 26.584627 207 207 207 0
1.119326 -3.866762 26.603108 207 207 207 0
1.224550 -3.877741 26.678646 207 207 207 0
1.328058 -3.882016 26.708056 208 208 208 0
1.431273 -3.884885 26.727793 207 207 207 0
1.534043 -3.886243 26.737139 207 207 207 0
1.638889 -3.892362 26.779240 208 208 208 0
1.745470 -3.901638 26.843056 207 207 207 0
1.853312 -3.912547 26.918109 207 207 207 0
1.958165 -3.916330 26.944138 208 208 208 0
2.060851 -3.915617 26.939229 207 207 207 0
2.165151 -3.917892 26.954882 208 208 208 0
2.270279 -3.921390 26.978950 207 207 207 0
2.382825 -3.936841 27.085247 207 207 207 0
2.478668 -3.924558 27.000742 207 207 207 0
2.582140 -3.924854 27.002776 208 208 208 0
2.684702 -3.923795 26.995492 207 207 207 0
2.793362 -3.931398 27.047803 207 207 207 0
2.901841 -3.938213 27.094691 208 208 208 0
3.006072 -3.938991 27.100041 208 208 208 0
3.112973 -3.943099 27.128304 208 208 208 0
3.216936 -3.943341 27.129969 208 208 208 0
3.324269 -3.947569 27.159060 208 208 208 0
3.436818 -3.957548 27.227712 207 207 207 0
3.546059 -3.963243 27.266893 208 208 208 0
3.646553 -3.959115 27.238492 208 208 208 0
3.759397 -3.968252 27.301358 208 208 208 0
3.881032 -3.985925 27.422944 208 208 208 0
3.988345 -3.988345 27.439593 208 208 208 0
4.084025 -3.979307 27.377411 208 208 208 0
4.183656 -3.974473 27.344159 208 208 208 0
4.312708 -3.997144 27.500132 208 208 208 0
4.418367 -3.997570 27.503062 207 207 207 0
4.517386 -3.992109 27.465489 207 207 207 0
4.612194 -3.983259 27.404600 207 207 207 0
4.724370 -3.989468 27.447319 208 208 208 0
4.852753 -4.008796 27.580294 208 208 208 0
4.957654 -4.008316 27.576996 208 208 208 0
5.060651 -4.006348 27.563456 209 209 209 0
5.167174 -4.007196 27.569288 208 208 208 0
5.289159 -4.019761 27.655736 208 208 208 0
5.398027 -4.022059 27.671546 208 208 208 0
5.504127 -4.022247 27.672837 208 208 208 0
5.606969 -4.020091 27.658005 208 208 208 0
5.728620 -4.031251 27.734785 208 208 208 0
5.858330 -4.047573 27.847080 208 208 208 0
5.961328 -4.045187 27.830663 207 207 207 0
6.056947 -4.037964 27.780973 208 208 208 0
6.163139 -4.037919 27.780658 208 208 208 0
6.323471 -4.072744 28.020255 209 209 209 0
6.401079 -4.054017 27.891412 208 208 208 0
6.498823 -4.048447 27.853093 208 208 208 0
6.606162 -4.048938 27.856472 208 208 208 0
6.727027 -4.057572 27.915873 208 208 208 0
6.846687 -4.065220 27.968492 209 209 209 0
6.954361 -4.065626 27.971286 208 208 208 0
7.063593 -4.066917 27.980165 208 208 208 0
7.172070 -4.067741 27.985835 208 208 208 0
7.283863 -4.070394 28.004087 208 208 208 0
7.395319 -4.072784 28.020532 208 208 208 0
7.507864 -4.075698 28.040575 208 208 208 0
7.611551 -4.073788 28.027436 207 207 207 0
7.725407 -4.077298 28.051588 206 206 206 0
7.859628 -4.091313 28.148009 206 206 206 0
7.984981 -4.100396 28.210497 206 206 206 0
8.094603 -4.101266 28.216482 206 206 206 0
8.207869 -4.103935 28.234844 205 205 205 0
8.353940 -4.122724 28.364112 207 207 207 0
8.463643 -4.123313 28.368169 205 205 205 0
8.587834 -4.130857 28.420069 205 205 205 0
-6.557809 -4.951815 34.988975 98 98 98 0
-6.425462 -4.952960 34.997070 124 124 124 0
-6.287886 -4.950038 34.976421 140 140 140 0
-6.158132 -4.953280 34.999328 146 146 146 0
-6.001414 -4.934496 34.866603 137 137 137 0
-3.337793 -3.632304 25.665458 82 82 82 0
-3.206848 -3.595557 25.405808 193 193 193 0
-3.094850 -3.578420 25.284723 205 205 205 0
-3.003012 -3.584240 25.325841 206 206 206 0
-2.902889 -3.580230 25.297511 206 206 206 0
-2.809599 -3.584661 25.328816 206 206 206 0
-2.724119 -3.599728 25.435283 206 206 206 0
-2.632336 -3.607276 25.488611 206 206 206 0
-2.539013 -3.613211 25.530549 207 207 207 0
-2.444615 -3.618031 25.564604 206 206 206 0
-2.352601 -3.626927 25.627463 206 206 206 0
-2.253268 -3.624822 25.612594 206 206 206 0
-2.159408 -3.631731 25.661412 207 207 207 0
-2.069845 -3.646869 25.768373 206 206 206 0
-1.976213 -3.655993 25.832843 206 206 206 0
-1.875976 -3.653215 25.813217 206 206 206 0
-1.772682 -3.643845 25.747009 206 206 206 0
-1.680055 -3.656590 25.837062 206 206 206 0
-1.591184 -3.679612 25.999735 207 207 207 0
-1.489713 -3.674627 25.964505 206 206 206 0
-1.385885 -3.662697 25.880213 206 206 206 0
-1.285480 -3.658675 25.851793 206 206 206 0
-1.187329 -3.660931 25.867733 206 206 206 0
-1.096005 -3.686561 26.048833 207 207 207 0
-0.997336 -3.690143 26.074145 206 206 206 0
-0.895816 -3.682801 26.022262 206 206 206 0
-0.795947 -3.681256 26.011345 207 207 207 0
-0.698206 -3.690517 26.076784 207 207 207 0
-0.601171 -3.707219 26.194797 207 207 207 0
-0.501797 -3.713301 26.237772 207 207 207 0
-0.400583 -3.705391 26.181882 207 207 207 0
-0.300152 -3.701878 26.157058 207 207 207 0
-0.201242 -3.722970 26.306094 207 207 207 0
-0.101142 -3.742252 26.442336 207 207 207 0
0.000000 -3.738028 26.412490 207 207 207 0
0.100651 -3.724075 26.313905 207 207 207 0
0.201194 -3.722082 26.299823 207 207 207 0
0.303231 -3.739848 26.425353 207 207 207 0
0.406296 -3.758234 26.555267 207 207 207 0
0.506003 -3.744420 26.457659 208 208 208 0
0.605578 -3.734397 26.386838 207 207 207 0
0.706548 -3.734613 26.388365 207 207 207 0
0.812649 -3.758504 26.557173 207 207 207 0
0.915005 -3.761687 26.579662 208 208 208 0
1.015217 -3.756303 26.541622 207 207 207 0
1.117141 -3.757656 26.551180 207 207 207 0
1.222505 -3.769390 26.634093 207 207 207 0
1.326804 -3.776289 26.682842 207 207 207 0
1.429388 -3.777668 26.692587 207 207 207 0
1.531657 -3.778088 26.695550 208 208 208 0
1.635785 -3.782752 26.728509 207 207 207 0
1.741293 -3.789872 26.778818 208 208 208 0
1.849589 -3.801932 26.864031 207 207 207 0
1.954723 -3.806565 26.896768 208 208 208 0
2.056898 -3.805260 26.887550 207 207 207 0
2.159890 -3.805521 26.889388 208 208 208 0
2.264511 -3.808496 26.910410 208 208 208 0
2.377859 -3.825251 27.028799 208 208 208 0
2.475404 -3.816248 26.965184 208 208 208 0
2.577617 -3.814873 26.955468 208 208 208 0
2.679598 -3.813274 26.944170 208 208 208 0
2.788966 -3.821917 27.005241 207 207 207 0
2.898520 -3.830187 27.063678 208 208 208 0
3.002495 -3.830770 27.067794 208 208 208 0
3.108664 -3.834019 27.090757 208 208 208 0
3.212954 -3.834816 27.096388 208 208 208 0
3.318004 -3.836442 27.107877 207 207 207 0
3.431713 -3.847678 27.187268 208 208 208 0
3.542777 -3.855374 27.241650 208 208 208 0
3.641186 -3.849254 27.198402 208 208 208 0
3.750506 -3.854687 27.236790 208 208 208 0
3.871656 -3.871656 27.356695 208 208 208 0
3.981361 -3.876588 27.391543 209 209 209 0
4.075208 -3.866223 27.318304 208 208 208 0
4.172764 -3.859807 27.272968 208 208 208 0
3.966526 -3.579548 25.292690 208 208 208 0
4.414257 -3.888751 27.477482 208 208 208 0
4.511546 -3.882028 27.429983 208 208 208 0
4.604819 -3.872234 27.360780 207 207 207 0
4.710758 -3.873290 27.368236 208 208 208 0
4.841262 -3.894059 27.514988 208 208 208 0
4.950861 -3.897486 27.539206 208 208 208 0
5.052448 -3.894595 27.518780 208 208 208 0
5.155751 -3.893118 27.508344 208 208 208 0
5.275501 -3.903871 27.584320 208 208 208 0
5.390083 -3.910453 27.630825 207 207 207 0
5.495981 -3.910602 27.631882 207 207 207 0
5.596799 -3.907199 27.607838 208 208 208 0
5.716813 -3.917076 27.677625 208 208 208 0
5.848723 -3.934595 27.801414 208 208 208 0
5.954578 -3.934275 27.799151 208 208 208 0
6.048249 -3.926057 27.741081 208 208 208 0
6.157898 -3.928314 27.757034 208 208 208 0
6.259094 -3.925195 27.734990 208 208 208 0
6.392366 -3.941959 27.853449 209 209 209 0
6.493070 -3.938419 27.828435 208 208 208 0
6.589491 -3.932438 27.786173 208 208 208 0
6.713279 -3.942719 27.858820 208 208 208 0
6.836364 -3.952273 27.926323 208 208 208 0
6.943947 -3.952708 27.929399 208 208 208 0
7.055366 -3.955281 27.947580 208 208 208 0
7.162725 -3.955534 27.949369 208 208 208 0
7.273592 -3.957690 27.964597 208 208 208 0
7.389126 -3.962285 27.997068 209 209 209 0
7.498894 -3.963701 28.007075 208 208 208 0
7.599611 -3.960361 27.983471 207 207 207 0
7.716869 -3.965613 28.020585 206 206 206 0
7.853223 -3.980401 28.125073 207 207 207 0
7.977729 -3.988864 28.184874 206 206 206 0
8.090467 -3.991297 28.202064 205 205 205 0
8.202398 -3.993273 28.216025 206 206 206 0
8.345508 -4.010179 28.335484 206 206 206 0
8.455049 -4.010728 28.339363 206 206 206 0
8.574556 -4.015931 28.376128 206 206 206 0
-6.686830 -4.814517 34.963816 74 74 74 0
-6.558055 -4.818163 34.990291 106 106 106 0
-6.425788 -4.819341 34.998844 128 128 128 0
-6.269599 -4.802246 34.874701 142 142 142 0
-6.140809 -4.805851 34.900876 147 147 147 0
-5.973216 -4.778573 34.702781 131 131 131 0
-3.336095 -3.532336 25.652400 91 91 91 0
-3.203881 -3.495143 25.382299 193 193 193 0
-3.092341 -3.478884 25.264224 206 206 206 0
-2.999983 -3.483851 25.300301 206 206 206 0
-2.901199 -3.481439 25.282783 206 206 206 0
-2.804362 -3.481276 25.281600 206 206 206 0
-2.720625 -3.497947 25.402664 206 206 206 0
-2.628123 -3.504164 25.447813 207 207 207 0
-2.531468 -3.505109 25.454680 206 206 206 0
-2.438566 -3.511536 25.501349 206 206 206 0
-2.344076 -3.516114 25.534596 206 206 206 0
-2.250362 -3.522306 25.579563 207 207 207 0
-2.155191 -3.526675 25.611296 207 207 207 0
-2.068059 -3.545244 25.746146 206 206 206 0
-1.974606 -3.554291 25.811843 206 206 206 0
-1.872883 -3.548620 25.770661 206 206 206 0
-1.770804 -3.541609 25.719744 207 207 207 0
-1.676234 -3.549673 25.778306 207 207 207 0
-1.588196 -3.573440 25.950911 207 207 207 0
-1.486935 -3.568644 25.916080 207 207 207 0
-1.384224 -3.559432 25.849180 207 207 207 0
-1.283032 -3.553012 25.802553 207 207 207 0
-1.183959 -3.551876 25.794306 207 207 207 0
-1.091910 -3.573524 25.951519 207 207 207 0
-0.995649 -3.584335 26.030032 207 207 207 0
-0.893890 -3.575560 25.966303 207 207 207 0
-0.794499 -3.575244 25.964008 207 207 207 0
-0.696712 -3.583088 26.020975 207 207 207 0
-0.599170 -3.595022 26.107637 206 206 206 0
-0.500826 -3.605944 26.186959 207 207 207 0
-0.400396 -3.603563 26.169667 206 206 206 0
-0.299816 -3.597796 26.127787 207 207 207 0
-0.200798 -3.614357 26.248053 207 207 207 0
-0.100949 -3.634164 26.391892 207 207 207 0
0.000000 -3.632635 26.380794 208 208 208 0
0.100581 -3.620922 26.295733 207 207 207 0
0.201022 -3.618393 26.277362 207 207 207 0
0.303375 -3.640495 26.437870 207 207 207 0
0.406116 -3.655040 26.543498 207 207 207 0
0.505532 -3.639831 26.433052 207 207 207 0
0.604527 -3.627164 26.341064 207 207 207 0
0.705311 -3.627316 26.342163 207 207 207 0
0.810033 -3.645148 26.471660 208 208 208 0
0.913623 -3.654492 26.539522 208 208 208 0
1.013430 -3.648348 26.494904 207 207 207 0
1.115792 -3.651683 26.519120 207 207 207 0
1.219521 -3.658564 26.569089 207 207 207 0
1.323891 -3.666161 26.624261 207 207 207 0
1.426632 -3.668483 26.641128 208 208 208 0
1.528968 -3.669524 26.648684 207 207 207 0
1.632465 -3.673047 26.674272 208 208 208 0
1.736658 -3.677628 26.707540 207 207 207 0
1.846989 -3.693979 26.826280 208 208 208 0
1.952456 -3.699391 26.865584 208 208 208 0
2.053788 -3.696818 26.846901 208 208 208 0
2.157221 -3.698094 26.856162 208 208 208 0
2.260730 -3.699376 26.865473 208 208 208 0
2.372553 -3.713561 26.968493 208 208 208 0
2.472147 -3.708220 26.929702 207 207 207 0
2.573268 -3.705505 26.909987 207 207 207 0
2.675699 -3.704815 26.904972 208 208 208 0
2.782725 -3.710300 26.944808 208 208 208 0
2.891932 -3.718198 27.002164 208 208 208 0
2.996188 -3.719406 27.010937 208 208 208 0
3.104353 -3.725224 27.053187 208 208 208 0
3.206452 -3.723621 27.041549 207 207 207 0
3.314745 -3.729088 27.081246 208 208 208 0
3.424974 -3.736335 27.133876 208 208 208 0
3.532865 -3.740681 27.165436 208 208 208 0
3.634922 -3.738777 27.151609 208 208 208 0
3.742117 -3.742117 27.175868 208 208 208 0
