ply
    format ascii 1.0
    element vertex 18404
    property float x
    property float y
    property float z
    property uchar red
    property uchar green
    property uchar blue
    property uchar alpha
    end_header
8.862861 0.607045 31.740930 194 194 194 0
9.104635 0.615178 32.166173 192 192 192 0
9.371883 0.624792 32.668875 189 189 189 0
9.658495 0.635427 33.224956 184 184 184 0
10.306468 0.669251 34.993526 150 150 150 0
-10.713659 0.803524 35.011958 188 188 188 0
-6.435149 0.488746 21.296101 189 189 189 0
-6.345430 0.488110 21.268411 188 188 188 0
-6.184700 0.481925 20.998898 193 193 193 0
-6.080797 0.480063 20.917774 195 195 195 0
-5.991057 0.479285 20.883860 194 194 194 0
-5.911704 0.479327 20.885723 195 195 195 0
-5.887882 0.483936 21.086516 195 195 195 0
-5.822915 0.485243 21.143482 198 198 198 0
-5.755124 0.486348 21.191654 199 199 199 0
-5.628673 0.482458 21.022123 199 199 199 0
-5.542505 0.481957 21.000303 199 199 199 0
-5.468814 0.482542 21.025815 200 200 200 0
-5.382507 0.482016 21.002855 201 201 201 0
-5.346978 0.486089 21.180344 203 203 203 0
-5.297034 0.488957 21.305314 203 203 203 0
-5.211160 0.488546 21.287419 203 203 203 0
-5.116838 0.487318 21.233894 204 204 204 0
-5.021444 0.485946 21.174124 204 204 204 0
-4.973782 0.489224 21.316971 205 205 205 0
-4.931122 0.493112 21.486372 206 206 206 0
-4.872576 0.495516 21.591118 206 206 206 0
-4.765727 0.493006 21.481756 207 207 207 0
-4.640680 0.488493 21.285082 207 207 207 0
-4.538645 0.486283 21.188818 207 207 207 0
-4.488746 0.489681 21.336880 207 207 207 0
-4.467696 0.496411 21.630095 208 208 208 0
-4.375912 0.495386 21.585457 209 209 209 0
-4.265758 0.492203 21.446748 209 209 209 0
-4.157195 0.489082 21.310755 209 209 209 0
-4.063224 0.487587 21.245617 209 209 209 0
-3.998543 0.489618 21.334096 210 210 210 0
-3.968283 0.496035 21.613740 210 210 210 0
-3.888513 0.496406 21.629887 210 210 210 0
-3.790323 0.494390 21.542044 210 210 210 0
-3.698019 0.493069 21.484498 210 210 210 0
-3.622826 0.494022 21.526003 211 211 211 0
-3.561965 0.497018 21.656577 211 211 211 0
-3.490245 0.498606 21.725773 212 212 212 0
-3.413656 0.499559 21.767292 212 212 212 0
-3.325056 0.498758 21.732391 211 211 211 0
-3.244612 0.499171 21.750375 212 212 212 0
-3.169943 0.500517 21.809035 211 211 211 0
-3.115510 0.505218 22.013849 212 212 212 0
-3.043619 0.507270 22.103258 212 212 212 0
-2.957603 0.507018 22.092270 212 212 212 0
-2.867095 0.505958 22.046095 213 213 213 0
-2.787954 0.506901 22.087180 212 212 212 0
-2.719374 0.509883 22.217108 213 213 213 0
-2.648683 0.512648 22.337614 212 212 212 0
-2.553004 0.510601 22.248402 213 213 213 0
-2.460805 0.509132 22.184403 212 212 212 0
-2.380081 0.510017 22.222979 212 212 212 0
-2.299776 0.511061 22.268467 212 212 212 0
-2.228612 0.514295 22.409368 213 213 213 0
-2.149007 0.515762 22.473277 213 213 213 0
-2.062962 0.515740 22.472353 212 212 212 0
-1.982270 0.517114 22.532193 213 213 213 0
-1.903915 0.519249 22.625250 213 213 213 0
-1.824263 0.521218 22.711023 212 212 212 0
-1.738480 0.521544 22.725235 212 212 212 0
-1.659317 0.523995 22.832014 212 212 212 0
-1.577274 0.525758 22.908851 212 212 212 0
-1.495109 0.527685 22.992830 212 212 212 0
-1.414159 0.530310 23.107175 212 212 212 0
-1.334076 0.533631 23.251876 212 212 212 0
-1.249829 0.535641 23.339474 211 211 211 0
-1.162156 0.536380 23.371656 212 212 212 0
-1.073537 0.536769 23.388607 211 211 211 0
-0.991967 0.541073 23.576162 211 211 211 0
-0.904225 0.542535 23.639868 210 210 210 0
-0.815255 0.543504 23.682076 211 211 211 0
-0.725606 0.544204 23.712606 210 210 210 0
-0.637132 0.546113 23.795766 210 210 210 0
-0.551644 0.551644 24.036788 210 210 210 0
-0.461205 0.553446 24.115295 210 210 210 0
-0.370197 0.555296 24.195897 209 209 209 0
-0.278989 0.557978 24.312784 209 209 209 0
-0.188030 0.564090 24.579079 210 210 210 0
-0.094527 0.567163 24.712994 209 209 209 0
0.000000 0.567744 24.738303 207 207 207 0
0.095227 0.571363 24.895983 207 207 207 0
0.192520 0.577561 25.166062 207 207 207 0
0.290843 0.581686 25.345811 206 206 206 0
0.388557 0.582835 25.395858 206 206 206 0
0.582832 0.699399 30.474888 205 205 205 0
0.598208 0.598208 26.065710 205 205 205 0
0.700767 0.600657 26.172420 205 205 205 0
0.815371 0.611528 26.646104 204 204 204 0
0.937115 0.624743 27.221926 204 204 204 0
1.044041 0.626425 27.295202 205 205 205 0
1.148892 0.626668 27.305815 210 210 210 0
1.257784 0.628892 27.402695 208 208 208 0
1.357607 0.626588 27.302312 207 207 207 0
1.463057 0.627024 27.321327 207 207 207 0
1.560810 0.624324 27.203669 207 207 207 0
1.677763 0.629161 27.414427 207 207 207 0
1.782867 0.629247 27.418172 207 207 207 0
1.885508 0.628503 27.385732 205 205 205 0
1.984241 0.626602 27.302936 206 206 206 0
2.085603 0.625681 27.262789 206 206 206 0
2.190261 0.625789 27.267493 205 205 205 0
2.299471 0.627128 27.325855 206 206 206 0
2.402555 0.626754 27.309522 207 207 207 0
2.499132 0.624783 27.223665 206 206 206 0
2.597237 0.623337 27.160651 206 206 206 0
2.699908 0.623056 27.148391 206 206 206 0
2.810035 0.624452 27.209246 205 205 205 0
2.915068 0.624657 27.218188 206 206 206 0
3.016746 0.624154 27.196267 206 206 206 0
3.116008 0.623202 27.154750 207 207 207 0
3.223190 0.623843 27.182707 206 206 206 0
3.335983 0.625497 27.254761 207 207 207 0
3.449306 0.627146 27.326644 206 206 206 0
3.547822 0.626086 27.280443 206 206 206 0
3.647399 0.625268 27.244810 206 206 206 0
3.761549 0.626925 27.316989 206 206 206 0
3.880963 0.629345 27.422458 206 206 206 0
3.991178 0.630186 27.459082 206 206 206 0
4.090216 0.629264 27.418909 207 207 207 0
4.194935 0.629240 27.417879 206 206 206 0
4.330995 0.633804 27.616738 207 207 207 0
4.431398 0.633057 27.584174 206 206 206 0
4.527976 0.631811 27.529871 206 206 206 0
4.631277 0.631538 27.517984 207 207 207 0
4.762854 0.635047 27.670901 206 206 206 0
4.885202 0.637200 27.764717 205 205 205 0
4.986968 0.636634 27.740055 205 205 205 0
5.099342 0.637418 27.774194 206 206 206 0
5.233263 0.640808 27.921902 205 205 205 0
5.363428 0.643611 28.044066 205 205 205 0
5.473785 0.643975 28.059901 205 205 205 0
5.599335 0.646077 28.151507 204 204 204 0
5.751651 0.651130 28.371691 204 204 204 0
5.880848 0.653428 28.471789 203 203 203 0
6.000461 0.654596 28.522689 203 203 203 0
6.619593 0.709242 30.903795 203 203 203 0
6.303471 0.663523 28.911687 201 201 201 0
6.443612 0.666581 29.044905 202 202 202 0
6.611933 0.672400 29.298472 200 200 200 0
6.765045 0.676505 29.477321 200 200 200 0
6.929186 0.681559 29.697572 202 202 202 0
7.081163 0.685274 29.859427 206 206 206 0
7.231476 0.688712 30.009236 206 206 206 0
7.394658 0.693249 30.206936 204 204 204 0
7.575109 0.699241 30.468011 204 204 204 0
7.727320 0.702484 30.609308 203 203 203 0
7.870591 0.704829 30.711506 203 203 203 0
8.056398 0.710859 30.974233 201 201 201 0
8.201364 0.713162 31.074602 199 199 199 0
8.352398 0.715920 31.194765 200 200 200 0
8.553384 0.722821 31.495478 197 197 197 0
8.717379 0.726448 31.653518 194 194 194 0
8.926357 0.733673 31.968329 194 194 194 0
9.156196 0.742394 32.348335 190 190 190 0
9.480065 0.758405 33.045977 186 186 186 0
9.699623 0.765760 33.366437 173 173 173 0
10.099542 0.786977 34.290949 106 106 106 0
-10.713685 0.937447 35.012043 189 189 189 0
-6.440808 0.570705 21.314828 188 188 188 0
-6.336663 0.568675 21.239024 189 189 189 0
-6.204483 0.564044 21.066067 191 191 191 0
-6.078996 0.559908 20.911581 195 195 195 0
-5.991886 0.559243 20.886747 194 194 194 0
-5.918574 0.559865 20.909996 194 194 194 0
-5.882189 0.564046 21.066127 196 196 196 0
-5.816354 0.565479 21.119657 198 198 198 0
-5.758807 0.567770 21.205219 199 199 199 0
-5.640907 0.564091 21.067814 200 200 200 0
-5.542005 0.562232 20.998410 199 199 199 0
-5.462771 0.562344 21.002579 199 199 199 0
-5.393746 0.563526 21.046712 201 201 201 0
-5.331611 0.565474 21.119474 203 203 203 0
-5.293928 0.570115 21.292823 203 203 203 0
-5.215436 0.570438 21.304884 203 203 203 0
-5.123707 0.569301 21.262400 204 204 204 0
-5.020886 0.566874 21.171774 204 204 204 0
-4.979814 0.571454 21.342821 205 205 205 0
-4.935825 0.575846 21.506865 206 206 206 0
-4.867560 0.577507 21.568894 206 206 206 0
-4.762059 0.574731 21.465220 207 207 207 0
-4.651661 0.571257 21.335446 206 206 206 0
-4.547737 0.568467 21.231266 206 206 206 0
-4.492428 0.571764 21.354382 207 207 207 0
-4.467094 0.579068 21.627179 208 208 208 0
-4.372010 0.577435 21.566209 208 208 208 0
-4.271376 0.574993 21.474991 209 209 209 0
-4.161379 0.571170 21.332201 209 209 209 0
-4.068906 0.569647 21.275323 209 209 209 0
-4.006472 0.572353 21.376403 209 209 209 0
-3.966673 0.578473 21.604975 209 209 209 0
-3.893130 0.579828 21.655570 210 210 210 0
-3.791135 0.576912 21.546660 211 211 211 0
-3.697992 0.575243 21.484340 210 210 210 0
-3.624632 0.576646 21.536733 210 210 210 0
-3.563506 0.580106 21.665943 211 211 211 0
-3.494525 0.582421 21.752409 211 211 211 0
-3.413867 0.582855 21.768642 211 211 211 0
-3.325648 0.581988 21.736259 211 211 211 0
-3.244493 0.582345 21.749578 212 212 212 0
-3.170615 0.584061 21.813657 211 211 211 0
-3.117965 0.589885 22.031194 211 211 211 0
-3.043033 0.591701 22.099007 212 212 212 0
-2.957496 0.591499 22.091477 212 212 212 0
-2.866297 0.590120 22.039962 212 212 212 0
-2.789035 0.591614 22.095744 213 213 213 0
-2.720344 0.595075 22.225032 213 213 213 0
-2.651996 0.598838 22.365559 213 213 213 0
-2.552306 0.595538 22.242322 213 213 213 0
-2.460579 0.593933 22.182371 213 213 213 0
-2.381420 0.595355 22.235482 212 212 212 0
-2.302122 0.596847 22.291188 213 213 213 0
-2.229409 0.600225 22.417381 213 213 213 0
-2.149023 0.601727 22.473447 213 213 213 0
-2.065750 0.602510 22.502722 213 213 213 0
-1.985504 0.604284 22.568961 212 212 212 0
-1.906113 0.606490 22.651367 212 212 212 0
-1.823558 0.607853 22.702250 212 212 212 0
-1.738549 0.608492 22.726129 213 213 213 0
-1.659584 0.611426 22.835698 212 212 212 0
-1.578100 0.613706 22.920842 212 212 212 0
-1.496814 0.616335 23.019060 212 212 212 0
-1.414946 0.619039 23.120025 212 212 212 0
-1.334879 0.622943 23.265859 212 212 212 0
-1.250701 0.625351 23.355766 212 212 212 0
-1.162434 0.625926 23.377258 212 212 212 0
-1.075021 0.627095 23.420933 211 211 211 0
-0.992301 0.631464 23.584094 211 211 211 0
-0.904333 0.633033 23.642706 211 211 211 0
-0.815351 0.634162 23.684847 211 211 211 0
-0.725717 0.635002 23.716229 210 210 210 0
-0.637428 0.637428 23.806843 209 209 209 0
-0.552360 0.644420 24.067976 210 210 210 0
-0.462016 0.646823 24.157722 210 210 210 0
-0.370443 0.648274 24.211932 210 210 210 0
-0.279278 0.651648 24.337928 209 209 209 0
-0.187711 0.656988 24.537364 208 208 208 0
-0.094602 0.662215 24.732589 208 208 208 0
0.000000 0.662750 24.752562 208 208 208 0
0.095210 0.666471 24.891540 206 206 206 0
0.192806 0.674821 25.203405 207 207 207 0
0.291119 0.679277 25.369824 206 206 206 0
0.388600 0.680051 25.398724 206 206 206 0
0.568014 0.795220 29.700096 205 205 205 0
0.598111 0.697797 26.061499 205 205 205 0
0.701803 0.701803 26.211148 205 205 205 0
0.819547 0.717104 26.782584 204 204 204 0
0.939487 0.730712 27.290833 204 204 204 0
1.043305 0.730313 27.275942 209 209 209 0
1.148311 0.730743 27.292001 210 210 210 0
1.254533 0.731811 27.331878 209 209 209 0
1.353628 0.728877 27.222287 208 208 208 0
1.457493 0.728746 27.217422 207 207 207 0
1.558289 0.727201 27.159719 208 208 208 0
1.672069 0.731530 27.321382 206 206 206 0
1.778967 0.732516 27.358204 207 207 207 0
1.881291 0.731613 27.324482 206 206 206 0
1.978926 0.729078 27.229805 206 206 206 0
2.080187 0.728065 27.191987 205 205 205 0
2.185391 0.728464 27.206865 206 206 206 0
2.293737 0.729826 27.257724 205 205 205 0
2.397183 0.729577 27.248457 205 205 205 0
2.492531 0.726988 27.151757 206 206 206 0
2.589689 0.725113 27.081714 208 208 208 0
2.691667 0.724680 27.065533 206 206 206 0
2.798998 0.725666 27.102380 207 207 207 0
2.904539 0.726135 27.119882 208 208 208 0
3.008044 0.726079 27.117814 206 206 206 0
3.107614 0.725110 27.081605 207 207 207 0
3.212651 0.725437 27.093834 209 209 209 0
3.322651 0.726830 27.145839 208 208 208 0
3.437984 0.729269 27.236951 207 207 207 0
3.541314 0.729094 27.230407 208 208 208 0
3.641364 0.728273 27.199727 207 207 207 0
3.748546 0.728884 27.222559 206 206 206 0
3.867179 0.731629 27.325063 208 208 208 0
3.979196 0.733010 27.376651 207 207 207 0
4.076649 0.731706 27.327964 206 206 206 0
4.181642 0.731787 27.330995 206 206 206 0
4.519189 0.771569 28.816765 206 206 206 0
4.423809 0.737301 27.536937 206 206 206 0
4.517206 0.735359 27.464392 207 207 207 0
4.615809 0.734333 27.426078 207 207 207 0
4.735744 0.736671 27.513403 206 206 206 0
4.862022 0.739873 27.632976 207 207 207 0
4.972130 0.740530 27.657514 206 206 206 0
5.083095 0.741285 27.685702 205 205 205 0
5.207834 0.743976 27.786227 206 206 206 0
5.345543 0.748376 27.950554 205 205 205 0
5.455713 0.748823 27.967259 206 206 206 0
5.582382 0.751475 28.066276 205 205 205 0
5.725367 0.756181 28.242036 205 205 205 0
5.860407 0.759682 28.372825 203 203 203 0
5.983405 0.761524 28.441615 203 203 203 0
6.136481 0.767060 28.648373 204 204 204 0
6.274844 0.770595 28.780389 202 202 202 0
6.407881 0.773365 28.883843 201 201 201 0
6.557851 0.778050 29.058829 201 201 201 0
6.719750 0.783971 29.279958 201 201 201 0
6.890794 0.790747 29.533028 199 199 199 0
7.055219 0.796557 29.750029 198 198 198 0
7.231129 0.803459 30.007799 201 201 201 0
7.408737 0.810331 30.264448 205 205 205 0
7.608062 0.819330 30.600551 204 204 204 0
7.758608 0.822883 30.733245 205 205 205 0
7.894792 0.824829 30.805939 202 202 202 0
8.075578 0.831309 31.047973 201 201 201 0
8.226292 0.834551 31.169051 200 200 200 0
8.398705 0.839871 31.367714 199 199 199 0
8.591254 0.847025 31.634920 195 195 195 0
8.743131 0.850027 31.747028 194 194 194 0
8.993135 0.862355 32.207486 192 192 192 0
9.250974 0.875092 32.683181 188 188 188 0
9.564940 0.892728 33.341838 181 181 181 0
9.700898 0.893504 33.370821 146 146 146 0
-10.713680 1.071368 35.012027 189 189 189 0
-6.433993 0.651544 21.292276 189 189 189 0
-6.356034 0.651901 21.303952 189 189 189 0
-6.190853 0.643206 21.019788 191 191 191 0
-6.060727 0.637971 20.848736 194 194 194 0
-5.988462 0.638769 20.874812 194 194 194 0
-5.918897 0.639881 20.911137 195 195 195 0
-5.896391 0.646180 21.116988 195 195 195 0
-5.831569 0.647952 21.174904 197 197 197 0
-5.767562 0.649866 21.237455 199 199 199 0
-5.644185 0.645050 21.080057 200 200 200 0
-5.539098 0.642214 20.987393 199 199 199 0
-5.466285 0.643092 21.016090 200 200 200 0
-5.390068 0.643590 21.032362 200 200 200 0
-5.342452 0.647570 21.162418 202 202 202 0
-5.298878 0.652170 21.312733 203 203 203 0
-5.221516 0.652690 21.329724 203 203 203 0
-5.119350 0.650076 21.244320 203 203 203 0
-5.021021 0.647874 21.172341 203 203 203 0
-4.981347 0.653291 21.349391 204 204 204 0
-4.939897 0.658653 21.524607 205 205 205 0
-4.872484 0.660676 21.590714 207 207 207 0
-4.763178 0.656990 21.470265 206 206 206 0
-4.652222 0.652943 21.338019 207 207 207 0
-4.551739 0.650248 21.249948 207 207 207 0
-4.492695 0.653483 21.355651 207 207 207 0
-4.470265 0.662261 21.642531 208 208 208 0
-4.378887 0.660964 21.600133 208 208 208 0
-4.272389 0.657291 21.480087 209 209 209 0
-4.166175 0.653518 21.356788 209 209 209 0
-4.071048 0.651368 21.286523 209 209 209 0
-4.004976 0.653874 21.368420 209 209 209 0
-3.966962 0.661160 21.606547 210 210 210 0
-3.892331 0.662525 21.651128 210 210 210 0
-3.790347 0.659191 21.542182 210 210 210 0
-3.699540 0.657696 21.493333 211 211 211 0
-3.625546 0.659190 21.542160 211 211 211 0
-3.565767 0.663399 21.679692 211 211 211 0
-3.496877 0.666072 21.767054 212 212 212 0
-3.420460 0.667407 21.810680 211 211 211 0
-3.326272 0.665254 21.740338 211 211 211 0
-3.249182 0.666499 21.781012 212 212 212 0
-3.175352 0.668495 21.846245 211 211 211 0
-3.120785 0.674764 22.051125 212 212 212 0
-3.044082 0.676463 22.106620 212 212 212 0
-2.959954 0.676561 22.109831 212 212 212 0
-2.870804 0.675483 22.074616 212 212 212 0
-2.793324 0.677169 22.129722 212 212 212 0
-2.719755 0.679939 22.220218 212 212 212 0
-2.653543 0.684785 22.378605 212 212 212 0
-2.555342 0.681425 22.268776 213 213 213 0
-2.461066 0.678915 22.186753 213 213 213 0
-2.381215 0.680347 22.233563 213 213 213 0
-2.303164 0.682419 22.301277 213 213 213 0
-2.230273 0.686238 22.426073 212 212 212 0
-2.149704 0.687905 22.480565 212 212 212 0
-2.066483 0.688828 22.510713 212 212 212 0
-1.985936 0.690760 22.573866 213 213 213 0
-1.906054 0.693111 22.650676 212 212 212 0
-1.824258 0.694956 22.710967 212 212 212 0
-1.740518 0.696207 22.751874 212 212 212 0
-1.660847 0.699304 22.853071 211 211 211 0
-1.579139 0.701839 22.935926 212 212 212 0
-1.496978 0.704460 23.021582 212 212 212 0
-1.415148 0.707574 23.123332 212 212 212 0
-1.335215 0.712115 23.271719 212 212 212 0
-1.250974 0.714842 23.360858 212 212 212 0
-1.162276 0.715247 23.374084 210 210 210 0
-1.075430 0.716953 23.429840 211 211 211 0
-0.992812 0.722045 23.596257 211 211 211 0
-0.905018 0.724014 23.660600 211 211 211 0
-0.816075 0.725400 23.705896 210 210 210 0
-0.726143 0.726143 23.730155 210 210 210 0
-0.638013 0.729158 23.828687 209 209 209 0
-0.552236 0.736314 24.062563 210 210 210 0
-0.461984 0.739175 24.156042 210 210 210 0
-0.370769 0.741537 24.233249 209 209 209 0
-0.279590 0.745573 24.365118 208 208 208 0
-0.187845 0.751382 24.554954 207 207 207 0
-0.094703 0.757621 24.758842 209 209 209 0
0.000000 0.758607 24.791090 207 207 207 0
0.095409 0.763274 24.943608 207 207 207 0
0.193270 0.773079 25.264008 207 207 207 0
0.291110 0.776293 25.369063 206 206 206 0
0.388969 0.777937 25.422786 206 206 206 0
0.662487 1.059979 34.639830 207 207 207 0
0.599181 0.798908 26.108097 203 203 203 0
0.703619 0.804136 26.278945 204 204 204 0
0.822199 0.822199 26.869241 205 205 205 0
0.940418 0.835927 27.317891 206 206 206 0
1.044570 0.835656 27.309021 208 208 208 0
1.149236 0.835808 27.313996 212 212 212 0
1.250563 0.833709 27.245381 208 208 208 0
1.352083 0.832051 27.191204 209 209 209 0
1.456125 0.832071 27.191877 207 207 207 0
1.553784 0.828685 27.081208 207 207 207 0
1.665994 0.832997 27.222131 207 207 207 0
1.776680 0.836085 27.323034 207 207 207 0
1.879438 0.835306 27.297570 206 206 206 0
1.977498 0.832631 27.210149 206 206 206 0
2.076698 0.830679 27.146375 206 206 206 0
2.178519 0.829912 27.121301 207 207 207 0
2.288700 0.832255 27.197866 207 207 207 0
2.389555 0.831149 27.161745 206 206 206 0
2.486718 0.828906 27.088430 207 207 207 0
2.582876 0.826520 27.010471 207 207 207 0
2.683257 0.825617 26.980962 207 207 207 0
2.789084 0.826395 27.006379 206 206 206 0
2.895558 0.827302 27.036018 207 207 207 0
2.998692 0.827226 27.033514 208 208 208 0
3.100542 0.826811 27.019971 207 207 207 0
3.199548 0.825690 26.983330 207 207 207 0
3.310081 0.827520 27.043148 207 207 207 0
3.423430 0.829922 27.121649 208 208 208 0
3.529831 0.830548 27.142108 208 208 208 0
3.631015 0.829946 27.122427 208 208 208 0
3.731542 0.829232 27.099069 207 207 207 0
3.852152 0.832898 27.218880 208 208 208 0
3.967284 0.835218 27.294699 207 207 207 0
4.066458 0.834145 27.259649 208 208 208 0
4.169001 0.833800 27.248371 207 207 207 0
4.285058 0.836109 27.323818 208 208 208 0
4.404437 0.838940 27.416355 207 207 207 0
4.507402 0.838586 27.404783 207 207 207 0
4.601798 0.836691 27.342829 207 207 207 0
4.711882 0.837668 27.374769 206 206 206 0
4.848620 0.843238 27.556808 207 207 207 0
4.958905 0.844069 27.583951 206 206 206 0
5.069237 0.844873 27.610222 207 207 207 0
5.186174 0.846722 27.670665 206 206 206 0
5.328134 0.852501 27.859522 206 206 206 0
5.442705 0.853758 27.900578 205 205 205 0
5.558936 0.855221 27.948396 206 206 206 0
5.696673 0.859875 28.100498 205 205 205 0
5.836715 0.864698 28.258121 205 205 205 0
5.962130 0.867219 28.340485 203 203 203 0
6.099806 0.871401 28.477152 204 204 204 0
6.256359 0.878085 28.695603 203 203 203 0
6.374601 0.879255 28.733836 203 203 203 0
6.507845 0.882420 28.837244 201 201 201 0
6.685062 0.891342 29.128808 201 201 201 0
6.838962 0.896913 29.310885 199 199 199 0
7.020446 0.905864 29.603400 198 198 198 0
7.202626 0.914619 29.889515 196 196 196 0
7.413140 0.926642 30.282433 200 200 200 0
7.635036 0.939697 30.709045 204 204 204 0
7.780286 0.943065 30.819118 203 203 203 0
8.867164 1.058766 34.600191 201 201 201 0
8.121503 0.955471 31.224539 200 200 200 0
8.266064 0.958384 31.319747 200 200 200 0
8.452731 0.966026 31.569491 196 196 196 0
8.629983 0.972392 31.777531 195 195 195 0
8.794829 0.977203 31.934747 193 193 193 0
9.051116 0.991903 32.415135 189 189 189 0
9.348801 1.010681 33.028799 186 186 186 0
9.629447 1.027141 33.566701 169 169 169 0
10.160508 1.069527 34.951869 93 93 93 0
-10.713691 1.205290 35.012061 188 188 188 0
-6.440956 0.733780 21.315316 188 188 188 0
-6.338255 0.731337 21.244359 189 189 189 0
-6.189968 0.723503 21.016782 191 191 191 0
-6.080598 0.720071 20.917091 194 194 194 0
-5.984450 0.718134 20.860827 195 195 195 0
-5.918188 0.719780 20.908630 194 194 194 0
-5.906289 0.728173 21.152436 195 195 195 0
-5.829028 0.728628 21.165678 197 197 197 0
-5.763369 0.730568 21.222015 200 200 200 0
-5.645731 0.725880 21.085829 199 199 199 0
-5.554973 0.724562 21.047545 199 199 199 0
-5.478541 0.725101 21.063210 200 200 200 0
-5.397120 0.724986 21.059875 200 200 200 0
-5.347755 0.729239 21.183422 202 202 202 0
-5.294705 0.733113 21.295949 204 204 204 0
-5.219965 0.734058 21.323386 203 203 203 0
-5.128461 0.732637 21.282129 203 203 203 0
-5.028735 0.729978 21.204869 203 203 203 0
-4.984266 0.735384 21.361904 204 204 204 0
-4.933894 0.740084 21.498448 206 206 206 0
-4.867400 0.742485 21.568186 206 206 206 0
-4.767221 0.739741 21.488489 206 206 206 0
-4.652810 0.734654 21.340717 207 207 207 0
-4.550084 0.731263 21.242221 207 207 207 0
-4.499542 0.736289 21.388198 208 208 208 0
-4.477665 0.746277 21.678358 207 207 207 0
-4.381044 0.743951 21.610775 207 207 207 0
-4.273806 0.739697 21.487208 208 208 208 0
-4.164081 0.734838 21.346053 208 208 208 0
-4.069320 0.732478 21.277493 209 209 209 0
-4.013663 0.737203 21.414768 209 209 209 0
-3.970827 0.744530 21.627596 209 209 209 0
-3.890867 0.745060 21.642982 210 210 210 0
-3.794098 0.742324 21.563503 210 210 210 0
-3.703521 0.740704 21.516462 210 210 210 0
-3.629767 0.742452 21.567246 211 211 211 0
-3.566259 0.746426 21.682682 211 211 211 0
-3.496433 0.749236 21.764292 211 211 211 0
-3.418728 0.750452 21.799636 211 211 211 0
-3.330897 0.749452 21.770566 211 211 211 0
-3.251040 0.750240 21.793467 212 212 212 0
-3.177493 0.752564 21.860979 212 212 212 0
-3.124086 0.759913 22.074449 212 212 212 0
-3.045992 0.761498 22.120497 212 212 212 0
-2.961150 0.761439 22.118771 212 212 212 0
-2.870760 0.759907 22.074283 212 212 212 0
-2.791937 0.761437 22.118732 212 212 212 0
-2.723080 0.765866 22.247385 212 212 212 0
-2.653698 0.770428 22.379908 213 213 213 0
-2.554045 0.766213 22.257469 212 212 212 0
-2.461694 0.763974 22.192418 213 213 213 0
-2.383155 0.766014 22.251681 212 212 212 0
-2.302531 0.767510 22.295144 212 212 212 0
-2.232219 0.772691 22.445642 213 213 213 0
-2.151976 0.774711 22.504328 212 212 212 0
-2.067286 0.775232 22.519459 212 212 212 0
-1.987153 0.777582 22.587702 212 212 212 0
-1.907495 0.780339 22.667797 212 212 212 0
-1.824922 0.782109 22.719225 212 212 212 0
-1.742604 0.784172 22.779132 213 213 213 0
-1.662126 0.787323 22.870670 211 211 211 0
-1.579990 0.789995 22.948293 212 212 212 0
-1.498444 0.793294 23.044114 212 212 212 0
-1.415824 0.796401 23.134385 212 212 212 0
-1.337048 0.802229 23.303671 212 212 212 0
-1.250918 0.804162 23.359816 212 212 212 0
-1.163360 0.805403 23.395884 211 211 211 0
-1.075708 0.806781 23.435914 211 211 211 0
-0.992945 0.812409 23.599403 210 210 210 0
-0.905106 0.814596 23.662912 211 211 211 0
-0.815919 0.815919 23.701345 211 211 211 0
-0.726239 0.817019 23.733299 210 210 210 0
-0.638523 0.820959 23.847749 210 210 210 0
-0.552900 0.829350 24.091501 210 210 210 0
-0.462386 0.832296 24.177067 209 209 209 0
-0.370670 0.834008 24.226824 208 208 208 0
-0.279747 0.839242 24.378854 209 209 209 0
-0.188215 0.846969 24.603304 208 208 208 0
-0.094722 0.852497 24.763878 208 208 208 0
0.000000 0.854384 24.818694 207 207 207 0
0.095492 0.859428 24.965226 206 206 206 0
0.193468 0.870605 25.289906 207 207 207 0
0.291370 0.874110 25.391730 206 206 206 0
0.389446 0.876254 25.454000 206 206 206 0
0.523236 0.941825 27.358746 206 206 206 0
0.599135 0.898703 26.106102 205 205 205 0
0.705436 0.906989 26.346801 204 204 204 0
0.824967 0.928087 26.959692 204 204 204 0
0.941173 0.941173 27.339798 207 207 207 0
1.045569 0.941012 27.335131 208 208 208 0
1.149892 0.940821 27.329580 210 210 210 0
1.251457 0.938593 27.264869 210 210 210 0
1.350631 0.935052 27.162006 209 209 209 0
1.448054 0.930892 27.041162 206 206 206 0
1.550519 0.930311 27.024292 207 207 207 0
1.659389 0.933407 27.114206 206 206 206 0
1.772898 0.938593 27.264875 207 207 207 0
1.875624 0.937812 27.242178 207 207 207 0
1.974580 0.935327 27.170000 207 207 207 0
2.073561 0.933102 27.105373 207 207 207 0
2.174315 0.931849 27.068973 207 207 207 0
1.985357 0.812191 23.593067 207 207 207 0
2.383365 0.932621 27.091387 208 208 208 0
2.478911 0.929592 27.003389 208 208 208 0
2.577136 0.927769 26.950446 208 208 208 0
2.674502 0.925789 26.892928 207 207 207 0
2.778799 0.926266 26.906794 208 208 208 0
2.886066 0.927664 26.947397 207 207 207 0
2.989924 0.927907 26.954463 207 207 207 0
3.095717 0.928715 26.977924 207 207 207 0
3.190008 0.926131 26.902872 208 208 208 0
3.297146 0.927322 26.937465 207 207 207 0
3.410515 0.930141 27.019333 208 208 208 0
3.522989 0.932556 27.089497 208 208 208 0
3.619693 0.930778 27.037855 208 208 208 0
3.720039 0.930010 27.015533 208 208 208 0
3.838181 0.933612 27.120166 207 207 207 0
3.953909 0.936452 27.202679 208 208 208 0
4.056243 0.936056 27.191174 207 207 207 0
4.155937 0.935086 27.162989 208 208 208 0
4.265378 0.936303 27.198332 208 208 208 0
4.397255 0.942269 27.371649 208 208 208 0
4.495307 0.940878 27.331251 208 208 208 0
4.591480 0.939166 27.281520 208 208 208 0
4.696012 0.939202 27.282569 206 206 206 0
4.827068 0.944426 27.434319 208 208 208 0
4.945240 0.946961 27.507939 207 207 207 0
5.054664 0.947749 27.530848 207 207 207 0
5.168361 0.949291 27.575622 207 207 207 0
5.311239 0.956023 27.771183 207 207 207 0
5.423700 0.957124 27.803153 205 205 205 0
5.536049 0.958162 27.833328 206 206 206 0
5.669634 0.962768 27.967119 205 205 205 0
5.812635 0.968773 28.141540 206 206 206 0
5.935150 0.971206 28.212238 205 205 205 0
6.059510 0.973850 28.289027 203 203 203 0
6.238452 0.985019 28.613469 204 204 204 0
6.350548 0.985430 28.625411 204 204 204 0
6.479094 0.988336 28.709842 201 201 201 0
6.642528 0.996379 28.943476 200 200 200 0
6.797088 1.002849 29.131416 199 199 199 0
6.971618 1.012009 29.397506 199 199 199 0
7.163722 1.023389 29.728070 197 197 197 0
7.383594 1.038318 30.161740 195 195 195 0
7.620742 1.055180 30.651550 198 198 198 0
7.800074 1.063646 30.897502 202 202 202 0
7.996382 1.074141 31.202349 201 201 201 0
8.147686 1.078370 31.325206 200 200 200 0
8.304992 1.083260 31.467241 197 197 197 0
8.512247 1.094432 31.791772 194 194 194 0
8.681583 1.100482 31.967535 194 194 194 0
8.904480 1.113060 32.332897 190 190 190 0
9.171547 1.130739 32.846440 187 187 187 0
9.487394 1.153872 33.518438 178 178 178 0
9.674721 1.160967 33.724518 129 129 129 0
-10.713687 1.339211 35.012051 188 188 188 0
-6.434799 0.814531 21.294940 189 189 189 0
-6.338786 0.812665 21.246141 189 189 189 0
-6.198457 0.804994 21.045606 190 190 190 0
-6.077893 0.799723 20.907786 194 194 194 0
-5.988457 0.798461 20.874797 195 195 195 0
-5.916650 0.799547 20.903198 195 195 195 0
-5.902750 0.808596 21.139761 195 195 195 0
-5.838297 0.810875 21.199335 196 196 196 0
-5.768599 0.812479 21.241275 199 199 199 0
-5.658557 0.808365 21.133733 199 199 199 0
-5.561189 0.805969 21.071097 199 199 199 0
-5.484334 0.806520 21.085482 200 200 200 0
-5.399839 0.805946 21.070487 200 200 200 0
-5.355989 0.811513 21.216039 201 201 201 0
-5.302603 0.815785 21.327713 203 203 203 0
-5.224467 0.816323 21.341778 203 203 203 0
-5.132370 0.814662 21.298349 204 204 204 0
-5.030792 0.811418 21.213543 204 204 204 0
-4.985805 0.817345 21.368500 203 203 203 0
-4.941854 0.823642 21.533132 204 204 204 0
-4.875491 0.826354 21.604038 206 206 206 0
-4.759461 0.820597 21.453507 206 206 206 0
-4.654093 0.816508 21.346603 206 206 206 0
-4.549952 0.812491 21.241604 207 207 207 0
-4.508494 0.819726 21.430752 208 208 208 0
-4.479960 0.829622 21.689470 208 208 208 0
-4.382679 0.826921 21.618837 208 208 208 0
-4.272950 0.821721 21.482906 208 208 208 0
-4.169386 0.817527 21.373246 209 209 209 0
-4.073868 0.814774 21.301271 208 208 208 0
-4.011964 0.818768 21.405705 210 210 210 0
-3.971765 0.827451 21.632708 210 210 210 0
-3.895747 0.828882 21.670128 210 210 210 0
-3.796982 0.825431 21.579890 210 210 210 0
-3.708219 0.824049 21.543754 210 210 210 0
-3.630530 0.825120 21.571775 211 211 211 0
-3.571419 0.830563 21.714052 211 211 211 0
-3.496635 0.832532 21.765548 210 210 210 0
-3.423177 0.834921 21.828005 211 211 211 0
-3.329103 0.832276 21.758846 211 211 211 0
-3.250360 0.833426 21.788904 212 212 212 0
-3.179382 0.836680 21.873975 211 211 211 0
-3.126024 0.844871 22.088143 212 212 212 0
-3.047118 0.846422 22.128670 212 212 212 0
-2.959808 0.845659 22.108742 212 212 212 0
-2.870132 0.844157 22.069452 212 212 212 0
-2.796649 0.847469 22.156060 212 212 212 0
-2.724014 0.851254 22.255012 212 212 212 0
-2.655513 0.856617 22.395217 212 212 212 0
-2.558852 0.852951 22.299360 213 213 213 0
-2.464315 0.849764 22.216044 213 213 213 0
-2.383572 0.851276 22.255570 212 212 212 0
-2.304427 0.853491 22.313501 212 212 212 0
-2.232387 0.858610 22.447330 213 213 213 0
-2.152833 0.861133 22.513282 212 212 212 0
-2.067562 0.861484 22.522464 212 212 212 0
-1.988879 0.864730 22.607320 212 212 212 0
-1.907718 0.867144 22.670444 212 212 212 0
-1.826180 0.869610 22.734892 212 212 212 0
-1.743445 0.871722 22.790127 212 212 212 0
-1.662211 0.874848 22.871845 211 211 211 0
-1.579978 0.877766 22.948124 212 212 212 0
-1.496980 0.880577 23.021613 212 212 212 0
-1.416440 0.885275 23.144446 212 212 212 0
-1.337300 0.891534 23.308066 211 211 211 0
-1.251141 0.893672 23.363973 212 212 212 0
-1.163937 0.895336 23.407481 211 211 211 0
-1.076233 0.896861 23.447352 211 211 211 0
-0.994509 0.904099 23.636573 211 211 211 0
-0.905813 0.905813 23.681398 211 211 211 0
-0.816562 0.907291 23.720027 210 210 210 0
-0.726794 0.908492 23.751427 210 210 210 0
-0.639100 0.913000 23.869291 210 210 210 0
-0.553621 0.922702 24.122917 210 210 210 0
-0.462418 0.924837 24.178734 209 209 209 0
-0.371009 0.927522 24.248940 209 209 209 0
-0.280174 0.933914 24.416062 208 208 208 0
-0.188780 0.943898 24.677066 208 208 208 0
-0.094841 0.948412 24.795095 208 208 208 0
0.000000 0.950546 24.850880 206 206 206 0
0.095596 0.955963 24.992505 207 207 207 0
0.193605 0.968025 25.307854 206 206 206 0
0.291538 0.971792 25.406322 206 206 206 0
0.390134 0.975334 25.498929 206 206 206 0
0.503887 1.007775 26.347053 206 206 206 0
0.600635 1.001059 26.171476 205 205 205 0
0.707953 1.011362 26.440827 206 206 206 0
0.826793 1.033492 27.019393 205 205 205 0
0.942879 1.047643 27.389359 206 206 206 0
1.046132 1.046132 27.349869 209 209 209 0
1.148113 1.043739 27.287304 210 210 210 0
1.246596 1.038830 27.158949 210 210 210 0
1.346476 1.035750 27.078444 209 209 209 0
1.444143 1.031531 26.968118 207 207 207 0
1.546932 1.031288 26.961784 208 208 208 0
1.655343 1.034589 27.048090 207 207 207 0
1.770119 1.041246 27.222127 209 209 209 0
1.873312 1.040729 27.208605 208 208 208 0
1.971457 1.037609 27.127034 208 208 208 0
2.067253 1.033626 27.022912 208 208 208 0
2.167755 1.032264 26.987306 208 208 208 0
2.262285 1.028311 26.883957 207 207 207 0
2.377167 1.033551 27.020935 208 208 208 0
2.475451 1.031438 26.965696 208 208 208 0
2.571399 1.028560 26.890450 208 208 208 0
2.668090 1.026189 26.828458 206 206 206 0
2.768001 1.025186 26.802241 208 208 208 0
2.878716 1.028113 26.878764 207 207 207 0
2.983332 1.028735 26.895041 207 207 207 0
3.083330 1.027777 26.869974 207 207 207 0
3.181855 1.026405 26.834112 207 207 207 0
3.287834 1.027448 26.861392 208 208 208 0
3.395735 1.029011 26.902238 208 208 208 0
3.508276 1.031846 26.976360 208 208 208 0
3.606265 1.030361 26.937553 208 208 208 0
3.709809 1.030503 26.941242 207 207 207 0
3.825625 1.033953 27.031445 207 207 207 0
3.945628 1.038323 27.145705 209 209 209 0
4.049401 1.038308 27.145307 208 208 208 0
4.143331 1.035833 27.080596 208 208 208 0
4.250007 1.036587 27.100315 208 208 208 0
4.384277 1.043875 27.290860 208 208 208 0
4.484658 1.042944 27.266505 208 208 208 0
4.581730 1.041302 27.223588 208 208 208 0
4.683521 1.040782 27.210000 207 207 207 0
4.810645 1.045792 27.340975 207 207 207 0
4.929715 1.048875 27.421580 208 208 208 0
5.036676 1.049308 27.432878 207 207 207 0
5.147382 1.050486 27.463690 207 207 207 0
5.283761 1.056752 27.627508 208 208 208 0
5.407863 1.060365 27.721967 207 207 207 0
5.515849 1.060740 27.731771 206 206 206 0
5.640322 1.064212 27.822529 206 206 206 0
5.790271 1.072272 28.033267 206 206 206 0
5.920031 1.076369 28.140373 205 205 205 0
6.043695 1.079231 28.215197 204 204 204 0
6.185946 1.085254 28.372643 203 203 203 0
6.318392 1.089378 28.480469 203 203 203 0
6.451732 1.093514 28.588600 203 203 203 0
6.603273 1.100546 28.772433 201 201 201 0
6.766356 1.109239 28.999703 201 201 201 0
6.936946 1.118862 29.251300 198 198 198 0
7.127415 1.131336 29.577406 197 197 197 0
7.338494 1.146640 29.977507 195 195 195 0
7.565903 1.163985 30.430981 194 194 194 0
7.799466 1.181737 30.895094 198 198 198 0
8.015039 1.196274 31.275148 202 202 202 0
8.186465 1.203892 31.474299 198 198 198 0
8.357588 1.211245 31.666528 196 196 196 0
8.565703 1.223672 31.991422 195 195 195 0
8.751770 1.232644 32.225977 192 192 192 0
9.003525 1.250490 32.692537 188 188 188 0
9.284229 1.271812 33.249992 183 183 183 0
9.545531 1.289937 33.723833 159 159 159 0
9.635032 1.284671 33.586167 85 85 85 0
-10.713661 1.473128 35.011965 187 187 187 0
-6.441177 0.896873 21.316047 188 188 188 0
-6.342834 0.894502 21.259710 189 189 189 0
-6.199116 0.885588 21.047842 189 189 189 0
-6.076075 0.879432 20.901532 192 192 192 0
-5.982326 0.877408 20.853423 195 195 195 0
-5.915540 0.879337 20.899275 195 195 195 0
-5.906049 0.889953 21.151576 195 195 195 0
-5.840943 0.892366 21.208942 196 196 196 0
-5.776878 0.895009 21.271759 198 198 198 0
-5.656197 0.888831 21.124919 199 199 199 0
-5.567090 0.887507 21.093454 200 200 200 0
-5.486961 0.887597 21.095582 201 201 201 0
-5.404736 0.887345 21.089597 200 200 200 0
-5.353683 0.892281 21.206904 200 200 200 0
-5.308216 0.898314 21.350292 202 202 202 0
-5.228282 0.898611 21.357361 204 204 204 0
-5.137232 0.896977 21.318525 203 203 203 0
-5.042502 0.894637 21.262921 204 204 204 0
-4.989884 0.899815 21.385979 205 205 205 0
-4.947747 0.907087 21.558811 204 204 204 0
-4.877986 0.909455 21.615092 205 205 205 0
-4.761015 0.902951 21.460513 206 206 206 0
-4.659512 0.899204 21.371457 207 207 207 0
-4.551724 0.894089 21.249880 207 207 207 0
-4.509484 0.901897 21.435454 207 207 207 0
-4.484036 0.913415 21.709202 207 207 207 0
-4.384345 0.909958 21.627057 207 207 207 0
-4.272282 0.903752 21.479547 208 208 208 0
-4.167975 0.898975 21.366011 209 209 209 0
-4.073738 0.896222 21.300593 209 209 209 0
-4.021522 0.902791 21.456698 208 208 208 0
-3.976389 0.911256 21.657893 209 209 209 0
-3.895161 0.911633 21.666866 209 209 209 0
-3.797047 0.907990 21.580263 210 210 210 0
-3.709972 0.906882 21.553940 210 210 210 0
-3.637002 0.909250 21.610229 210 210 210 0
-3.577770 0.915243 21.752667 210 210 210 0
-3.503828 0.917669 21.810323 210 210 210 0
-3.423231 0.918428 21.828348 211 211 211 0
-3.330754 0.915957 21.769635 210 210 210 0
-3.254918 0.918054 21.819461 211 211 211 0
-3.186213 0.922325 21.920969 211 211 211 0
-3.129739 0.930463 22.114388 212 212 212 0
-3.049344 0.931744 22.144834 212 212 212 0
-2.962433 0.931050 22.128351 212 212 212 0
-2.873187 0.929560 22.092939 212 212 212 0
-2.799048 0.933016 22.175070 212 212 212 0
-2.725247 0.936804 22.265087 211 211 211 0
-2.657824 0.943099 22.414710 212 212 212 0
-2.560135 0.938716 22.310544 212 212 212 0
-2.465000 0.935000 22.222221 212 212 212 0
-2.384738 0.936861 22.266464 212 212 212 0
-2.306791 0.939804 22.336391 212 212 212 0
-2.235054 0.945600 22.474149 213 213 213 0
-2.153242 0.947426 22.517561 212 212 212 0
-2.067564 0.947633 22.522479 212 212 212 0
-1.989886 0.951685 22.618765 213 213 213 0
-1.909208 0.954604 22.688151 212 212 212 0
-1.827280 0.957147 22.748589 212 212 212 0
-1.744587 0.959523 22.805065 212 212 212 0
-1.664936 0.963910 22.909331 211 211 211 0
-1.583021 0.967402 22.992320 212 212 212 0
-1.497039 0.968672 23.022509 211 211 211 0
-1.418109 0.974950 23.171721 211 211 211 0
-1.337204 0.980617 23.306396 212 212 212 0
-1.252950 0.984461 23.397767 211 211 211 0
-1.163966 0.984894 23.408069 210 210 210 0
-1.076770 0.987039 23.459039 211 211 211 0
-0.995170 0.995170 23.652277 211 211 211 0
-0.906539 0.997193 23.700379 211 211 211 0
-0.817156 0.998746 23.737290 210 210 210 0
-0.727783 1.000702 23.783761 209 209 209 0
-0.640247 1.006102 23.912119 210 210 210 0
-0.553617 1.014965 24.122754 210 210 210 0
-0.463189 1.019016 24.219038 209 209 209 0
-0.371266 1.020980 24.265722 208 208 208 0
-0.280402 1.028140 24.435888 208 208 208 0
-0.189161 1.040387 24.726957 209 209 209 0
-0.094981 1.044795 24.831740 208 208 208 0
0.000000 1.046929 24.882447 206 206 206 0
0.095827 1.054094 25.052745 207 207 207 0
0.194013 1.067074 25.361237 207 207 207 0
0.291526 1.068930 25.405341 205 205 205 0
0.390710 1.074453 25.536619 205 205 205 0
0.498282 1.096219 26.053936 205 205 205 0
0.601237 1.102267 26.197679 206 206 206 0
0.710358 1.116277 26.530645 204 204 204 0
0.829894 1.141104 27.120723 206 206 206 0
0.942638 1.152113 27.382361 205 205 205 0
1.045268 1.149795 27.327273 213 213 213 0
1.146201 1.146201 27.241865 211 211 211 0
1.244283 1.140592 27.108556 207 207 207 0
1.343709 1.136985 27.022805 209 209 209 0
1.441613 1.132696 26.920885 208 208 208 0
1.544199 1.132413 26.914149 208 208 208 0
1.652799 1.136300 27.006525 209 209 209 0
1.764770 1.141910 27.139868 208 208 208 0
1.868874 1.142089 27.144133 209 209 209 0
1.967358 1.138997 27.070629 207 207 207 0
2.064878 1.135683 26.991869 206 206 206 0
2.164737 1.133910 26.949732 206 206 206 0
2.265162 1.132581 26.918149 207 207 207 0
2.374026 1.135404 26.985240 206 206 206 0
2.470758 1.132431 26.914572 207 207 207 0
2.564531 1.128393 26.818621 207 207 207 0
2.660957 1.125789 26.756731 207 207 207 0
2.760854 1.124792 26.733035 208 208 208 0
2.870177 1.127569 26.799034 208 208 208 0
2.977080 1.129237 26.838671 209 209 209 0
3.078180 1.128666 26.825095 208 208 208 0
3.177011 1.127327 26.793265 208 208 208 0
3.278790 1.127084 26.787497 208 208 208 0
3.388011 1.129337 26.841046 209 209 209 0
3.499700 1.132256 26.910416 208 208 208 0
3.602333 1.132162 26.908181 209 209 209 0
3.703164 1.131522 26.892983 208 208 208 0
3.811971 1.133289 26.934966 208 208 208 0
3.934791 1.139018 27.071144 208 208 208 0
4.043571 1.140494 27.106227 208 208 208 0
4.138888 1.138194 27.051556 208 208 208 0
4.237755 1.136959 27.022189 209 209 209 0
4.387307 1.149057 27.309726 208 208 208 0
4.478407 1.145639 27.228495 208 208 208 0
4.573906 1.143477 27.177103 209 209 209 0
4.671175 1.141843 27.138270 208 208 208 0
4.790063 1.145450 27.224002 208 208 208 0
4.919008 1.151257 27.362022 207 207 207 0
5.023353 1.151185 27.360313 207 207 207 0
5.131456 1.151960 27.378718 208 208 208 0
5.256379 1.156403 27.484333 207 207 207 0
5.385099 1.161492 27.605274 207 207 207 0
5.498976 1.163245 27.646937 208 208 208 0
5.625229 1.167500 27.748076 206 206 206 0
5.769008 1.175168 27.930323 206 206 206 0
5.899236 1.179847 28.041526 206 206 206 0
6.019783 1.182457 28.103562 205 205 205 0
6.160177 1.188806 28.254454 204 204 204 0
6.304015 1.195589 28.415664 203 203 203 0
6.428186 1.198475 28.484265 203 203 203 0
6.572951 1.205041 28.640309 202 202 202 0
6.740225 1.215450 28.887708 200 200 200 0
6.903620 1.224836 29.110775 200 200 200 0
7.079687 1.236136 29.379342 198 198 198 0
7.261397 1.248053 29.662571 196 196 196 0
7.491291 1.267757 30.130883 194 194 194 0
7.759924 1.293321 30.738460 192 192 192 0
8.050058 1.321651 31.411796 198 198 198 0
8.218869 1.329523 31.598880 197 197 197 0
8.435540 1.344796 31.961884 195 195 195 0
8.642330 1.358080 32.277611 193 193 193 0
8.854557 1.371833 32.604462 189 189 189 0
9.109074 1.391664 33.075794 186 186 186 0
9.406936 1.417484 33.689449 172 172 172 0
9.568766 1.422384 33.805920 111 111 111 0
-10.713638 1.607046 35.011887 186 186 186 0
-6.434424 0.977381 21.293700 188 188 188 0
-6.343695 0.975953 21.262595 188 188 188 0
-6.201380 0.966449 21.055530 189 189 189 0
-6.088409 0.961328 20.943960 191 191 191 0
-5.993822 0.959011 20.893496 194 194 194 0
-5.914130 0.959048 20.894295 195 195 195 0
-5.897063 0.969380 21.119394 195 195 195 0
-5.843455 0.973909 21.218064 195 195 195 0
-5.781954 0.977232 21.290450 197 197 197 0
-5.658017 0.969946 21.131715 200 200 200 0
-5.566486 0.968085 21.091168 200 200 200 0
-5.486650 0.968232 21.094388 200 200 200 0
-5.413358 0.969557 21.123240 201 201 201 0
-5.366306 0.975692 21.256905 200 200 200 0
-5.312617 0.980791 21.367991 202 202 202 0
-5.237993 0.982124 21.397031 203 203 203 0
-5.134700 0.978038 21.308018 203 203 203 0
-5.046644 0.976770 21.280387 205 205 205 0
-4.995961 0.982812 21.412024 205 205 205 0
-4.951133 0.990227 21.573565 205 205 205 0
-4.880414 0.992627 21.625851 204 204 204 0
-4.766812 0.986237 21.486646 205 205 205 0
-4.658083 0.980649 21.364901 207 207 207 0
-4.558052 0.976726 21.279423 208 208 208 0
-4.509398 0.983869 21.435048 207 207 207 0
-4.493786 0.998619 21.756408 207 207 207 0
-4.384668 0.992755 21.628649 208 208 208 0
-4.278942 0.987448 21.513033 209 209 209 0
-4.169767 0.981122 21.375202 208 208 208 0
-4.079451 0.979068 21.330463 209 209 209 0
-4.020151 0.984527 21.449387 210 210 210 0
-3.977459 0.994365 21.663719 209 209 209 0
-3.899120 0.995520 21.688890 210 210 210 0
-3.796890 0.990493 21.579370 209 209 209 0
-3.714084 0.990422 21.577831 210 210 210 0
-3.639791 0.992670 21.626804 210 210 210 0
-3.577080 0.998255 21.748473 210 210 210 0
-3.506568 1.001877 21.827377 210 210 210 0
-3.426315 1.002824 21.848017 210 210 210 0
-3.337652 1.001296 21.814721 211 211 211 0
-3.259395 1.002891 21.849474 211 211 211 0
-3.190960 1.007672 21.953628 212 212 212 0
-3.133847 1.016383 22.143415 211 211 211 0
-3.050453 1.016818 22.152893 212 212 212 0
-2.963557 1.016077 22.136744 212 212 212 0
-2.874835 1.014647 22.105610 212 212 212 0
-2.796906 1.017057 22.158097 212 212 212 0
-2.727264 1.022724 22.281566 212 212 212 0
-2.658952 1.029272 22.424218 212 212 212 0
-2.561072 1.024429 22.318715 212 212 212 0
-2.467213 1.020916 22.242169 212 212 212 0
-2.387626 1.023268 22.293429 212 212 212 0
-2.308372 1.025943 22.351697 212 212 212 0
-2.235700 1.031861 22.480642 212 212 212 0
-2.156248 1.034999 22.548995 212 212 212 0
-2.070925 1.035462 22.559092 212 212 212 0
-1.991049 1.038808 22.631990 212 212 212 0
-1.911293 1.042524 22.712933 212 212 212 0
-1.831048 1.046313 22.795492 213 213 213 0
-1.747505 1.048503 22.843200 212 212 212 0
-1.667455 1.053130 22.944002 211 211 211 0
-1.583564 1.055709 23.000197 211 211 211 0
-1.498313 1.057633 23.042104 211 211 211 0
-1.420010 1.065008 23.202782 212 212 212 0
-1.338475 1.070780 23.328544 211 211 211 0
-1.253873 1.074748 23.414994 211 211 211 0
-1.165705 1.076035 23.443038 210 210 210 0
-1.076808 1.076808 23.459861 210 210 210 0
-0.995961 1.086503 23.671079 212 212 212 0
-0.907588 1.089105 23.727787 211 211 211 0
-0.818375 1.091167 23.772693 210 210 210 0
-0.728502 1.092752 23.807243 210 210 210 0
-0.641609 1.099901 23.962980 210 210 210 0
-0.554675 1.109349 24.168833 210 210 210 0
-0.463157 1.111577 24.217360 209 209 209 0
-0.371592 1.114775 24.287047 208 208 208 0
-0.280641 1.122563 24.456702 208 208 208 0
-0.189256 1.135539 24.739404 208 208 208 0
-0.095025 1.140297 24.843063 208 208 208 0
0.000000 1.143357 24.909743 206 206 206 0
0.096201 1.154416 25.150666 207 207 207 0
0.194384 1.166307 25.409735 207 207 207 0
0.291886 1.167545 25.436702 206 206 206 0
0.391827 1.175482 25.609632 206 206 206 0
0.497970 1.195129 26.037660 204 204 204 0
0.602243 1.204487 26.241537 205 205 205 0
0.713168 1.222574 26.635598 205 205 205 0
0.829844 1.244766 27.119082 205 205 205 0
0.942421 1.256561 27.376059 211 211 211 0
1.043007 1.251608 27.268148 211 211 211 0
1.142771 1.246659 27.160327 209 209 209 0
1.241707 1.241707 27.052444 208 208 208 0
1.340365 1.237260 26.955561 209 209 209 0
1.439312 1.233696 26.877911 209 209 209 0
1.542226 1.233781 26.879764 208 208 208 0
1.647248 1.235436 26.915813 207 207 207 0
1.761434 1.243365 27.088570 208 208 208 0
1.864788 1.243192 27.084787 206 206 206 0
1.964044 1.240449 27.025031 207 207 207 0
2.062685 1.237611 26.963198 208 208 208 0
2.160231 1.234418 26.893635 207 207 207 0
2.260675 1.233095 26.864819 208 208 208 0
2.366263 1.234572 26.896993 208 208 208 0
2.465058 1.232529 26.852484 208 208 208 0
2.559748 1.228679 26.768609 208 208 208 0
2.656566 1.226107 26.712575 209 209 209 0
2.755528 1.224679 26.681466 208 208 208 0
2.862486 1.226780 26.727230 209 209 209 0
2.967038 1.227740 26.748144 209 209 209 0
3.068284 1.227313 26.738854 209 209 209 0
3.170777 1.227397 26.740685 209 209 209 0
3.269639 1.226115 26.712739 209 209 209 0
3.377135 1.228049 26.754881 209 209 209 0
3.489242 1.231497 26.830004 209 209 209 0
3.595270 1.232664 26.855424 209 209 209 0
3.693633 1.231211 26.823766 209 209 209 0
3.801661 1.232971 26.862117 209 209 209 0
3.925479 1.239625 27.007076 209 209 209 0
4.035669 1.241744 27.053250 209 209 209 0
4.131474 1.239442 27.003097 208 208 208 0
4.231814 1.238580 26.984307 208 208 208 0
4.342785 1.240796 27.032585 208 208 208 0
4.466920 1.246582 27.158658 209 209 209 0
4.565958 1.245261 27.129874 208 208 208 0
4.657180 1.241915 27.056964 208 208 208 0
4.769186 1.244135 27.105347 208 208 208 0
4.900434 1.251175 27.258707 209 209 209 0
5.010781 1.252695 27.291837 208 208 208 0
5.118671 1.253552 27.310503 207 207 207 0
5.234136 1.256193 27.368030 208 208 208 0
5.366289 1.262656 27.508848 207 207 207 0
5.480083 1.264635 27.551952 207 207 207 0
5.597112 1.267271 27.609384 208 208 208 0
5.741961 1.275991 27.799373 206 206 206 0
5.878689 1.282623 27.943857 206 206 206 0
6.000690 1.285862 28.014424 206 206 206 0
6.135339 1.291650 28.140529 206 206 206 0
6.293960 1.302199 28.370342 205 205 205 0
6.410707 1.303873 28.406811 203 203 203 0
6.546289 1.309258 28.524134 203 203 203 0
6.717328 1.321442 28.789575 201 201 201 0
6.873149 1.330287 28.982284 200 200 200 0
7.036808 1.340344 29.201404 200 200 200 0
7.222974 1.354308 29.505612 197 197 197 0
7.431647 1.371996 29.890988 195 195 195 0
7.698177 1.399669 30.493868 192 192 192 0
8.110303 1.452592 31.646876 194 194 194 0
8.254936 1.456753 31.737547 196 196 196 0
8.509534 1.479919 32.242242 193 193 193 0
8.724551 1.495637 32.584692 190 190 190 0
8.951820 1.512984 32.962608 187 187 187 0
9.228620 1.538103 33.509876 178 178 178 0
9.460959 1.555226 33.882921 132 132 132 0
9.358379 1.517575 33.062636 76 76 76 0
-10.713599 1.740960 35.011762 184 184 184 0
-6.454799 1.062182 21.361129 189 189 189 0
-6.340800 1.056800 21.252892 189 189 189 0
-6.205924 1.047753 21.070957 189 189 189 0
-6.084542 1.040777 20.930659 190 190 190 0
-5.991939 1.038603 20.886934 194 194 194 0
-5.907582 1.037818 20.871160 195 195 195 0
-5.904954 1.051567 21.147656 196 196 196 0
-5.846389 1.055598 21.228719 195 195 195 0
-5.792717 1.060638 21.330081 196 196 196 0
-5.669904 1.052982 21.176113 198 198 198 0
-5.565895 1.048647 21.088926 200 200 200 0
-5.493845 1.050294 21.122051 200 200 200 0
-5.417567 1.051170 21.139664 200 200 200 0
-5.365927 1.056925 21.255404 201 201 201 0
-5.321780 1.064356 21.404848 201 201 201 0
-5.237821 1.063932 21.396327 203 203 203 0
-5.146248 1.061924 21.355940 204 204 204 0
-5.054215 1.059755 21.312311 204 204 204 0
-5.003525 1.066325 21.444443 204 204 204 0
-4.958563 1.074355 21.605940 205 205 205 0
-4.884692 1.076288 21.644808 205 205 205 0
-4.767838 1.068653 21.491271 205 205 205 0
-4.662311 1.063334 21.384297 206 206 206 0
