ply
    format ascii 1.0
    element vertex 11402
    property float x
    property float y
    property float z
    property uchar red
    property uchar green
    property uchar blue
    property uchar alpha
    end_header
7.812244 -4.086405 31.421796 205 205 205 0
7.989769 -4.115942 31.648916 205 205 205 0
8.128854 -4.125090 31.719262 203 203 203 0
8.262083 -4.131041 31.765025 203 203 203 0
8.449720 -4.163630 32.015610 203 203 203 0
8.596268 -4.175330 32.105576 201 201 201 0
8.749607 -4.189953 32.218013 201 201 201 0
8.968480 -4.235115 32.565286 200 200 200 0
9.153920 -4.263470 32.783312 197 197 197 0
9.403291 -4.320431 33.221305 196 196 196 0
9.604813 -4.354182 33.480829 193 193 193 0
10.125283 -4.529732 34.830697 192 192 192 0
10.107018 -4.462839 34.316332 186 186 186 0
10.422188 -4.543005 34.932755 158 158 158 0
-5.976281 -4.196112 33.243114 79 79 79 0
-5.732065 -4.112134 32.577807 112 112 112 0
-5.479615 -4.018385 31.835093 133 133 133 0
-5.270667 -3.953000 31.317096 147 147 147 0
-5.105884 -3.918469 31.043529 152 152 152 0
-4.963912 -3.900216 30.898921 162 162 162 0
-4.813568 -3.874335 30.693879 164 164 164 0
-4.685537 -3.865568 30.624424 170 170 170 0
-4.537966 -3.839818 30.420422 173 173 173 0
-4.376160 -3.800349 30.107738 175 175 175 0
-4.230621 -3.773256 29.893099 181 181 181 0
-4.105148 -3.763053 29.812261 182 182 182 0
-3.985677 -3.757924 29.771630 182 182 182 0
-3.857165 -3.743719 29.659095 186 186 186 0
-3.739814 -3.739814 29.628159 188 188 188 0
-3.621939 -3.735124 29.591002 188 188 188 0
-3.494247 -3.719682 29.468665 190 190 190 0
-3.369587 -3.706546 29.364596 193 193 193 0
-3.248438 -3.696499 29.284997 194 194 194 0
-3.143740 -3.705122 29.353316 194 194 194 0
-3.034484 -3.708813 29.382556 194 194 194 0
-2.909290 -3.692561 29.253797 197 197 197 0
-2.787994 -3.680152 29.155495 198 198 198 0
-2.670858 -3.672430 29.094318 197 197 197 0
-2.568067 -3.684618 29.190872 198 198 198 0
-2.455716 -3.683574 29.182603 200 200 200 0
-2.337925 -3.673881 29.105814 201 201 201 0
-2.216800 -3.657719 28.977773 200 200 200 0
-2.099223 -3.646019 28.885079 201 201 201 0
-1.991368 -3.650842 28.923285 202 202 202 0
-1.887042 -3.663081 29.020253 203 203 203 0
-1.777028 -3.665120 29.036404 203 203 203 0
-1.657699 -3.646938 28.892355 204 204 204 0
-1.543714 -3.638756 28.827534 203 203 203 0
-1.435673 -3.644400 28.872249 205 205 205 0
-1.330486 -3.658837 28.986630 205 205 205 0
-1.221337 -3.664010 29.027611 206 206 206 0
-1.105383 -3.647765 28.898910 205 205 205 0
-0.993911 -3.644341 28.871783 206 206 206 0
-0.887948 -3.662786 29.017909 206 206 206 0
-0.780253 -3.678334 29.141091 206 206 206 0
-0.667410 -3.670753 29.081029 207 207 207 0
-0.553873 -3.655565 28.960703 206 206 206 0
-0.443407 -3.658105 28.980828 207 207 207 0
-0.343919 -3.783106 29.971127 207 207 207 0
-0.223421 -3.686446 29.205356 208 208 208 0
-0.111282 -3.672290 29.093206 208 208 208 0
0.000000 -3.660296 28.998186 208 208 208 0
0.111282 -3.672294 29.093238 207 207 207 0
0.224155 -3.698552 29.301264 208 208 208 0
0.336141 -3.697547 29.293302 208 208 208 0
0.448075 -3.696623 29.285980 208 208 208 0
0.560913 -3.702023 29.328763 208 208 208 0
0.676081 -3.718446 29.458869 208 208 208 0
0.789870 -3.723673 29.500279 208 208 208 0
0.903331 -3.726241 29.520626 208 208 208 0
1.018857 -3.735807 29.596414 208 208 208 0
1.136922 -3.751842 29.723443 208 208 208 0
1.256289 -3.768867 29.858321 209 209 209 0
1.375444 -3.782471 29.966103 208 208 208 0
1.496523 -3.798866 30.095987 209 209 209 0
1.638977 -3.863304 30.606488 209 209 209 0
1.739464 -3.826822 30.317462 207 207 207 0
1.855717 -3.827415 30.322165 209 209 209 0
1.963649 -3.811790 30.198374 208 208 208 0
2.076336 -3.806616 30.157387 207 207 207 0
2.192028 -3.807206 30.162063 205 205 205 0
2.311246 -3.813555 30.212360 205 205 205 0
2.421694 -3.805520 30.148700 206 206 206 0
2.531569 -3.797354 30.084009 205 205 205 0
2.647616 -3.798754 30.095098 205 205 205 0
2.762772 -3.798811 30.095553 205 205 205 0
2.884064 -3.806964 30.160144 205 205 205 0
2.998638 -3.805963 30.152215 206 206 206 0
3.106076 -3.796315 30.075777 206 206 206 0
3.217712 -3.792304 30.043998 206 206 206 0
3.345581 -3.807040 30.160745 206 206 206 0
3.465779 -3.812357 30.202867 206 206 206 0
3.568838 -3.799085 30.097725 206 206 206 0
3.672881 -3.787659 30.007197 207 207 207 0
3.788946 -3.788946 30.017396 208 208 208 0
3.923694 -3.808291 30.170656 207 207 207 0
4.027083 -3.796964 30.080920 208 208 208 0
4.128394 -3.784361 29.981072 208 208 208 0
4.237806 -3.779665 29.943867 208 208 208 0
4.371599 -3.796388 30.076359 207 207 207 0
4.495792 -3.804132 30.137706 208 208 208 0
4.599955 -3.794963 30.065063 208 208 208 0
4.709403 -3.790495 30.029670 209 209 209 0
4.836143 -3.799827 30.103597 208 208 208 0
4.959942 -3.806467 30.156209 209 209 209 0
5.071445 -3.803584 30.133361 208 208 208 0
5.177816 -3.797065 30.081718 208 208 208 0
5.308961 -3.808602 30.173120 208 208 208 0
5.449019 -3.825907 30.310213 208 208 208 0
5.571568 -3.830453 30.346232 209 209 209 0
5.679187 -3.824758 30.301116 209 209 209 0
5.809358 -3.834176 30.375729 208 208 208 0
5.947655 -3.848483 30.489068 209 209 209 0
6.056095 -3.843291 30.447940 208 208 208 0
6.165964 -3.839185 30.415412 209 209 209 0
6.300339 -3.850207 30.502729 208 208 208 0
6.436379 -3.861827 30.594790 208 208 208 0
6.561531 -3.866616 30.632731 208 208 208 0
6.689578 -3.872914 30.682619 207 207 207 0
6.820564 -3.880665 30.744032 208 208 208 0
6.956892 -3.891143 30.827040 207 207 207 0
7.099948 -3.904971 30.936593 207 207 207 0
7.231155 -3.911936 30.991770 207 207 207 0
7.373322 -3.924510 31.091385 207 207 207 0
7.534766 -3.946782 31.267832 206 206 206 0
7.672453 -3.956108 31.341719 206 206 206 0
7.813899 -3.967056 31.428451 205 205 205 0
7.990610 -3.995305 31.652246 205 205 205 0
8.130559 -4.004604 31.725915 203 203 203 0
8.267952 -4.012388 31.787588 203 203 203 0
8.452629 -4.042562 32.026631 203 203 203 0
8.600852 -4.054687 32.122695 201 201 201 0
8.751962 -4.067813 32.226684 201 201 201 0
8.970009 -4.111254 32.570840 200 200 200 0
9.157604 -4.139739 32.796506 198 198 198 0
9.405210 -4.194215 33.228086 196 196 196 0
9.608126 -4.227575 33.492377 194 194 194 0
10.146023 -4.405510 34.902039 191 191 191 0
10.108907 -4.332389 34.322747 187 187 187 0
10.419522 -4.408259 34.923821 162 162 162 0
10.575569 -4.417643 34.998161 75 75 75 0
-5.972004 -4.066045 33.219324 80 80 80 0
-5.731151 -3.986887 32.572610 114 114 114 0
-5.475446 -3.893651 31.810872 133 133 133 0
-5.263985 -3.828353 31.277390 148 148 148 0
-5.106804 -3.800412 31.049118 152 152 152 0
-4.962166 -3.780698 30.888057 163 163 163 0
-4.810365 -3.754431 30.673459 165 165 165 0
-4.682897 -3.746318 30.607171 171 171 171 0
-4.535401 -3.721355 30.403226 175 175 175 0
-4.379538 -3.688032 30.130981 174 174 174 0
-4.225773 -3.654723 29.858848 180 180 180 0
-4.104605 -3.648538 29.808318 182 182 182 0
-3.985048 -3.643472 29.766928 182 182 182 0
-3.857876 -3.630942 29.664562 186 186 186 0
-3.738337 -3.625054 29.616451 188 188 188 0
-3.620639 -3.620639 29.580382 189 189 189 0
-3.488184 -3.600706 29.417530 189 189 189 0
-3.369789 -3.594441 29.366349 193 193 193 0
-3.248915 -3.585010 29.289298 193 193 193 0
-3.143920 -3.593052 29.354999 194 194 194 0
-3.036028 -3.598255 29.397508 194 194 194 0
-2.911681 -3.583608 29.277841 197 197 197 0
-2.788775 -3.569632 29.163660 197 197 197 0
-2.670666 -3.560888 29.092224 198 198 198 0
-2.569637 -3.575147 29.208719 198 198 198 0
-2.458087 -3.575399 29.210774 201 201 201 0
-2.339118 -3.564370 29.120673 201 201 201 0
-2.218455 -3.549528 28.999412 201 201 201 0
-2.099461 -3.535934 28.888354 201 201 201 0
-1.991592 -3.540608 28.926538 202 202 202 0
-1.889050 -3.555859 29.051132 203 203 203 0
-1.776980 -3.553959 29.035613 203 203 203 0
-1.659415 -3.540085 28.922260 203 203 203 0
-1.544812 -3.531000 28.848037 203 203 203 0
-1.436682 -3.536447 28.892540 204 204 204 0
-1.331031 -3.549416 28.998495 204 204 204 0
-1.221855 -3.554488 29.039932 206 206 206 0
-1.105704 -3.538254 28.907307 206 206 206 0
-0.993623 -3.532883 28.863423 205 205 205 0
-0.888403 -3.553613 29.032789 206 206 206 0
-0.780432 -3.567688 29.147775 206 206 206 0
-0.667695 -3.561039 29.093453 206 206 206 0
-0.554047 -3.545899 28.969764 206 206 206 0
-0.443289 -3.546314 28.973157 207 207 207 0
-0.340675 -3.633867 29.688454 208 208 208 0
-0.223390 -3.574235 29.201269 207 207 207 0
-0.111301 -3.561644 29.098402 207 207 207 0
0.000000 -3.547977 28.986740 207 207 207 0
0.111385 -3.564319 29.120256 208 208 208 0
0.224143 -3.586291 29.299761 208 208 208 0
0.335924 -3.583188 29.274408 208 208 208 0
0.447744 -3.581954 29.264327 208 208 208 0
0.561100 -3.591037 29.338541 208 208 208 0
0.676235 -3.606587 29.465583 208 208 208 0
0.789626 -3.609721 29.491181 208 208 208 0
0.903422 -3.613688 29.523593 208 208 208 0
1.020023 -3.626750 29.630309 208 208 208 0
1.137137 -3.638837 29.729060 208 208 208 0
1.257071 -3.656934 29.876913 209 209 209 0
1.376119 -3.669650 29.980797 208 208 208 0
1.497569 -3.686323 30.117020 208 208 208 0
1.642122 -3.753422 30.665209 209 209 209 0
1.739237 -3.710372 30.313499 208 208 208 0
1.856324 -3.712649 30.332098 208 208 208 0
1.964574 -3.698022 30.212600 210 210 210 0
2.076648 -3.691819 30.161918 206 206 206 0
2.193808 -3.694834 30.186553 204 204 204 0
2.310003 -3.696005 30.196116 205 205 205 0
2.422825 -3.691924 30.162777 205 205 205 0
2.534425 -3.686436 30.117939 205 205 205 0
2.647758 -3.683837 30.096707 205 205 205 0
2.764755 -3.686340 30.117155 205 205 205 0
2.886910 -3.695245 30.189907 206 206 206 0
3.000493 -3.692914 30.170869 205 205 205 0
3.108617 -3.684286 30.100380 206 206 206 0
3.219843 -3.679821 30.063896 207 207 207 0
3.347066 -3.693314 30.174136 206 206 206 0
3.464740 -3.695723 30.193815 207 207 207 0
3.569618 -3.684767 30.104307 207 207 207 0
3.672857 -3.672857 30.006999 207 207 207 0
3.790382 -3.675522 30.028775 207 207 207 0
3.926325 -3.695365 30.190889 208 208 208 0
4.029452 -3.684070 30.098611 207 207 207 0
4.129340 -3.670524 29.987945 207 207 207 0
4.240715 -3.667646 29.964426 208 208 208 0
4.372575 -3.682168 30.083076 207 207 207 0
4.498814 -3.691335 30.157962 208 208 208 0
4.602901 -3.682321 30.084319 209 209 209 0
4.712061 -3.677706 30.046617 208 208 208 0
4.840869 -3.688281 30.133014 209 209 209 0
4.961824 -3.692520 30.167651 209 209 209 0
5.073169 -3.689577 30.143606 208 208 208 0
5.181505 -3.684626 30.103152 209 209 209 0
5.311812 -3.695174 30.189328 209 209 209 0
5.451491 -3.711653 30.323964 209 209 209 0
5.572522 -3.715015 30.351428 208 208 208 0
5.681212 -3.710179 30.311923 209 209 209 0
5.809547 -3.718110 30.376718 208 208 208 0
5.950979 -3.733947 30.506107 208 208 208 0
6.058837 -3.728515 30.461726 208 208 208 0
6.170933 -3.725847 30.439922 209 209 209 0
6.300032 -3.733352 30.501242 208 208 208 0
6.441486 -3.747773 30.619064 208 208 208 0
6.563058 -3.750319 30.639862 208 208 208 0
6.690213 -3.755909 30.685533 208 208 208 0
6.823463 -3.764669 30.757100 207 207 207 0
6.961089 -3.775506 30.845636 207 207 207 0
7.103020 -3.788277 30.949979 207 207 207 0
7.237497 -3.796719 31.018950 207 207 207 0
7.371564 -3.804678 31.083971 206 206 206 0
7.539207 -3.829438 31.286261 205 205 205 0
7.680064 -3.840032 31.372809 205 205 205 0
7.820821 -3.850250 31.456295 205 205 205 0
7.993495 -3.875634 31.663677 205 205 205 0
8.136799 -3.886232 31.750265 204 204 204 0
8.266489 -3.890112 31.781965 203 203 203 0
8.461081 -3.923980 32.058659 203 203 203 0
8.606013 -3.934177 32.141973 201 201 201 0
8.762836 -3.949447 32.266725 201 201 201 0
8.977869 -3.990164 32.599378 200 200 200 0
9.161237 -4.015885 32.809514 198 198 198 0
9.405490 -4.067239 33.229075 197 197 197 0
9.620155 -4.104599 33.534308 194 194 194 0
10.015721 -4.217146 34.453806 192 192 192 0
10.120032 -4.205728 34.360520 187 187 187 0
10.414729 -4.272709 34.907755 164 164 164 0
10.575587 -4.283782 34.998221 76 76 76 0
-5.976349 -3.941847 33.243494 81 81 81 0
-5.719699 -3.854580 32.507526 116 116 116 0
-5.471090 -3.768973 31.785563 133 133 133 0
-5.263400 -3.708304 31.273913 149 149 149 0
-5.103098 -3.678978 31.026590 153 153 153 0
-4.961207 -3.661843 30.882085 163 163 163 0
-4.809485 -3.636440 30.667849 165 165 165 0
-4.678398 -3.625759 30.577765 170 170 170 0
-4.534145 -3.604064 30.394802 174 174 174 0
-4.374987 -3.569068 30.099667 175 175 175 0
-4.231373 -3.545204 29.898413 180 180 180 0
-4.105507 -3.535298 29.814867 183 183 183 0
-3.987615 -3.531888 29.786108 183 183 183 0
-3.857286 -3.516937 29.660025 186 186 186 0
-3.740225 -3.513544 29.631409 188 188 188 0
-3.620019 -3.506894 29.575322 188 188 188 0
-3.489788 -3.489788 29.431061 189 189 189 0
-3.371732 -3.484123 29.383282 193 193 193 0
-3.251774 -3.476034 29.315066 194 194 194 0
-3.144722 -3.481656 29.362481 194 194 194 0
-3.034968 -3.484593 29.387250 194 194 194 0
-2.914274 -3.474711 29.303910 197 197 197 0
-2.791433 -3.461377 29.191459 198 198 198 0
-2.671782 -3.451051 29.104374 198 198 198 0
-2.570202 -3.464185 29.215140 197 197 197 0
-2.456841 -3.461912 29.195968 199 199 199 0
-2.338539 -3.452129 29.113463 201 201 201 0
-2.218979 -3.439417 29.006258 201 201 201 0
-2.100780 -3.427588 28.906495 201 201 201 0
-1.991706 -3.430161 28.928193 202 202 202 0
-1.888114 -3.443031 29.036735 204 204 204 0
-1.777175 -3.443277 29.038811 203 203 203 0
-1.658863 -3.428316 28.912638 203 203 203 0
-1.545497 -3.422173 28.860827 204 204 204 0
-1.437060 -3.426834 28.900142 204 204 204 0
-1.332538 -3.442391 29.031337 205 205 205 0
-1.221911 -3.443566 29.041250 205 205 205 0
-1.105977 -3.428528 28.914427 205 205 205 0
-0.994382 -3.425093 28.885457 206 206 206 0
-0.888492 -3.442906 29.035682 206 206 206 0
-0.780823 -3.457929 29.162379 206 206 206 0
-0.667931 -3.450976 29.103738 207 207 207 0
-0.554064 -3.435200 28.970692 207 207 207 0
-0.443320 -3.435732 28.975181 208 208 208 0
-0.337794 -3.490539 29.437393 207 207 207 0
-0.223428 -3.463138 29.206305 207 207 207 0
-0.111310 -3.450600 29.100569 208 208 208 0
0.000000 -3.438638 28.999687 207 207 207 0
0.111321 -3.450949 29.103516 208 208 208 0
0.224082 -3.473271 29.291762 208 208 208 0
0.336046 -3.472471 29.285014 208 208 208 0
0.447832 -3.470695 29.270042 208 208 208 0
0.560816 -3.477062 29.323734 208 208 208 0
0.676203 -3.493714 29.464173 208 208 208 0
0.790108 -3.499051 29.509182 208 208 208 0
0.903688 -3.501790 29.532282 208 208 208 0
1.018938 -3.509674 29.598773 208 208 208 0
1.137121 -3.525075 29.728650 208 208 208 0
1.257587 -3.544108 29.889170 209 209 209 0
1.375439 -3.553217 29.965991 208 208 208 0
1.497115 -3.570044 30.107900 208 208 208 0
1.639059 -3.629345 30.608010 209 209 209 0
1.739788 -3.595562 30.323107 209 209 209 0
1.855761 -3.595536 30.322884 208 208 208 0
1.967061 -3.586993 30.250837 209 209 209 0
2.078162 -3.579057 30.183908 207 207 207 0
2.194900 -3.581153 30.201585 205 205 205 0
2.310216 -3.580836 30.198908 205 205 205 0
2.426250 -3.581607 30.205418 205 205 205 0
2.535730 -3.573075 30.133457 206 206 206 0
2.650157 -3.571951 30.123984 205 205 205 0
2.769139 -3.576804 30.164912 204 204 204 0
2.889089 -3.582470 30.212693 205 205 205 0
3.000581 -3.577616 30.171758 206 206 206 0
3.109147 -3.569762 30.105518 206 206 206 0
3.222399 -3.567656 30.087762 207 207 207 0
3.347974 -3.578869 30.182323 206 206 206 0
3.468436 -3.584050 30.226020 207 207 207 0
3.571462 -3.571462 30.119859 207 207 207 0
3.673412 -3.558618 30.011537 206 206 206 0
3.792422 -3.562578 30.044932 207 207 207 0
3.926319 -3.579879 30.190842 207 207 207 0
4.031454 -3.570716 30.113566 207 207 207 0
4.130661 -3.556958 29.997537 208 208 208 0
4.240365 -3.552738 29.961952 207 207 207 0
4.374761 -3.568884 30.098115 208 208 208 0
4.499101 -3.576208 30.159883 208 208 208 0
4.603072 -3.567381 30.085441 208 208 208 0
4.716993 -3.566507 30.078071 208 208 208 0
4.844149 -3.575443 30.153431 208 208 208 0
4.964789 -3.579266 30.185675 208 208 208 0
5.075756 -3.576101 30.158979 209 209 209 0
5.182701 -3.570305 30.110099 208 208 208 0
5.312753 -3.580333 30.194672 209 209 209 0
5.455167 -3.598089 30.344412 209 209 209 0
5.575884 -3.601092 30.369740 208 208 208 0
5.681644 -3.594510 30.314230 208 208 208 0
5.813092 -3.604117 30.395251 209 209 209 0
5.953249 -3.618641 30.517743 208 208 208 0
6.059554 -3.612426 30.465330 208 208 208 0
6.172309 -3.610219 30.446710 208 208 208 0
6.304572 -3.619292 30.523226 208 208 208 0
6.444185 -3.632177 30.631896 209 209 209 0
6.570201 -3.637076 30.673209 208 208 208 0
6.697684 -3.642600 30.719800 207 207 207 0
6.826433 -3.648611 30.770489 207 207 207 0
6.964314 -3.659216 30.859927 207 207 207 0
7.108896 -3.672929 30.975580 208 208 208 0
7.241895 -3.680307 31.037799 207 207 207 0
7.378082 -3.689041 31.111458 206 206 206 0
7.546839 -3.713524 31.317932 206 206 206 0
7.680807 -3.720391 31.375846 205 205 205 0
7.826101 -3.732448 31.477530 205 205 205 0
7.996613 -3.755985 31.676028 205 205 205 0
8.137953 -3.765321 31.754767 204 204 204 0
8.270309 -3.770288 31.796651 203 203 203 0
8.462700 -3.802083 32.064792 202 202 202 0
8.612575 -3.814140 32.166480 201 201 201 0
8.773436 -3.830655 32.305757 200 200 200 0
8.985189 -3.868623 32.625959 199 199 199 0
9.167010 -3.892840 32.830190 197 197 197 0
9.404700 -3.939807 33.226285 197 197 197 0
9.624785 -3.978244 33.550448 194 194 194 0
9.925817 -4.048688 34.144537 191 191 191 0
10.138794 -4.081852 34.424224 186 186 186 0
10.414767 -4.139202 34.907883 161 161 161 0
10.575595 -4.149917 34.998247 76 76 76 0
-5.967594 -3.809103 33.194795 82 82 82 0
-5.714704 -3.726981 32.479137 116 116 116 0
-5.466141 -3.644094 31.756811 133 133 133 0
-5.262359 -3.587972 31.267733 148 148 148 0
-5.111913 -3.566451 31.080180 152 152 152 0
-4.957824 -3.541303 30.861027 163 163 163 0
-4.812942 -3.521665 30.689893 164 164 164 0
-4.679692 -3.509769 30.586222 170 170 170 0
-4.533860 -3.487584 30.392893 174 174 174 0
-4.376199 -3.454894 30.108011 175 175 175 0
-4.231402 -3.430867 29.898621 180 180 180 0
-4.108262 -3.423552 29.834874 182 182 182 0
-3.987331 -3.417712 29.783985 182 182 182 0
-3.861652 -3.407340 29.693593 185 185 185 0
-3.741153 -3.401048 29.638764 188 188 188 0
-3.625107 -3.398537 29.616884 189 189 189 0
-3.494641 -3.381911 29.471991 189 189 189 0
-3.373251 -3.373251 29.396520 192 192 192 0
-3.250362 -3.362444 29.302342 194 194 194 0
-3.145719 -3.370414 29.371796 194 194 194 0
-3.035857 -3.373174 29.395853 194 194 194 0
-2.914452 -3.362830 29.305704 196 196 196 0
-2.790281 -3.348337 29.179411 198 198 198 0
-2.671315 -3.339143 29.099288 198 198 198 0
-2.572342 -3.355229 29.239464 199 199 199 0
-2.458098 -3.351952 29.210909 199 199 199 0
-2.341323 -3.344747 29.148122 201 201 201 0
-2.218541 -3.327811 29.000536 201 201 201 0
-2.100707 -3.316906 28.905500 202 202 202 0
-1.993547 -3.322578 28.954930 201 201 201 0
-1.889782 -3.334909 29.062392 203 203 203 0
-1.778200 -3.334124 29.055550 204 204 204 0
-1.658792 -3.317584 28.911407 204 204 204 0
-1.545327 -3.311416 28.857655 204 204 204 0
-1.437927 -3.318294 28.917595 204 204 204 0
-1.333170 -3.332925 29.045102 205 205 205 0
-1.223425 -3.336614 29.077247 205 205 205 0
-1.106500 -3.319500 28.928104 206 206 206 0
-0.994696 -3.315654 28.894587 206 206 206 0
-0.888489 -3.331835 29.035601 206 206 206 0
-0.781307 -3.348460 29.180480 207 207 207 0
-0.668212 -3.341062 29.116008 207 207 207 0
-0.554207 -3.325245 28.978170 207 207 207 0
-0.443879 -3.329094 29.011715 207 207 207 0
-0.336143 -3.361428 29.293491 207 207 207 0
-0.223383 -3.350751 29.200440 207 207 207 0
-0.111334 -3.340016 29.106896 208 208 208 0
0.000000 -3.329841 29.018222 208 208 208 0
0.111434 -3.343029 29.133153 208 208 208 0
0.224366 -3.365496 29.328938 208 208 208 0
0.336094 -3.360936 29.289206 207 207 207 0
0.448403 -3.363020 29.307362 208 208 208 0
0.561195 -3.367171 29.343538 208 208 208 0
0.676228 -3.381142 29.465290 208 208 208 0
0.790098 -3.386133 29.508785 208 208 208 0
0.904216 -3.390810 29.549546 209 209 209 0
1.019800 -3.399334 29.623823 207 207 207 0
1.138205 -3.414616 29.756998 208 208 208 0
1.257697 -3.430083 29.891788 208 208 208 0
1.376516 -3.441289 29.989445 208 208 208 0
1.496538 -3.453550 30.096298 208 208 208 0
1.634602 -3.502719 30.524788 209 209 209 0
1.739390 -3.478780 30.316162 208 208 208 0
1.856730 -3.481369 30.338727 209 209 209 0
1.968139 -3.473186 30.267415 209 209 209 0
2.079570 -3.465951 30.204364 206 206 206 0
2.196122 -3.467562 30.218402 206 206 206 0
2.311713 -3.467570 30.218473 205 205 205 0
2.428310 -3.469014 30.231056 205 205 205 0
2.538029 -3.460948 30.160767 206 206 206 0
2.651881 -3.458975 30.143572 205 205 205 0
2.770593 -3.463241 30.180746 205 205 205 0
2.892185 -3.470622 30.245068 206 206 206 0
3.003762 -3.465879 30.203741 206 206 206 0
3.111437 -3.457152 30.127690 205 205 205 0
3.225396 -3.455782 30.115747 206 206 206 0
3.351990 -3.467575 30.218522 206 206 206 0
3.467518 -3.467518 30.218024 206 206 206 0
3.571684 -3.456468 30.121729 207 207 207 0
3.674499 -3.444843 30.020419 207 207 207 0
3.793680 -3.448800 30.054900 207 207 207 0
3.931370 -3.468856 30.229679 207 207 207 0
4.032070 -3.456060 30.118171 208 208 208 0
4.132757 -3.443964 30.012760 208 208 208 0
4.242866 -3.440162 29.979624 208 208 208 0
4.379618 -3.457593 30.131530 207 207 207 0
4.503421 -3.464170 30.188843 208 208 208 0
4.605866 -3.454400 30.103702 208 208 208 0
4.718679 -3.452692 30.088819 209 209 209 0
4.844573 -3.460409 30.156074 209 209 209 0
4.970203 -3.467583 30.218590 208 208 208 0
5.078608 -3.462687 30.175923 209 209 209 0
5.189318 -3.459545 30.148542 209 209 209 0
5.315693 -3.466756 30.211383 208 208 208 0
5.459064 -3.484509 30.366090 209 209 209 0
5.579450 -3.487156 30.389159 209 209 209 0
5.686783 -3.481704 30.341645 208 208 208 0
5.818304 -3.490983 30.422507 209 209 209 0
5.957133 -3.504196 30.537653 208 208 208 0
6.063337 -3.498079 30.484348 208 208 208 0
6.177178 -3.496516 30.470728 208 208 208 0
6.306528 -3.503627 30.532696 209 209 209 0
6.449845 -3.518098 30.658802 208 208 208 0
6.573499 -3.521518 30.688606 208 208 208 0
6.704067 -3.528457 30.749076 208 208 208 0
6.830465 -3.532999 30.788662 207 207 207 0
6.968997 -3.543558 30.880676 207 207 207 0
7.110140 -3.555070 30.981004 207 207 207 0
7.246414 -3.563810 31.057169 207 207 207 0
7.384593 -3.573190 31.138914 206 206 206 0
7.555948 -3.598071 31.355736 206 206 206 0
7.685849 -3.602742 31.396443 206 206 206 0
7.827431 -3.612660 31.482879 205 205 205 0
8.006734 -3.639425 31.716119 204 204 204 0
8.143527 -3.646355 31.776516 203 203 203 0
8.277880 -3.652006 31.825759 203 203 203 0
8.473464 -3.684115 32.105576 202 202 202 0
8.617597 -3.693256 32.185235 201 201 201 0
8.787055 -3.712840 32.355906 200 200 200 0
8.995310 -3.748046 32.662707 200 200 200 0
9.174174 -3.770208 32.855847 197 197 197 0
9.407912 -3.814018 33.237631 196 196 196 0
9.626733 -3.850693 33.557240 194 194 194 0
9.926543 -3.918372 34.147035 191 191 191 0
10.157585 -3.957501 34.488025 186 186 186 0
10.416727 -4.006434 34.914454 157 157 157 0
10.575601 -4.016051 34.998267 75 75 75 0
-5.971376 -3.684466 33.215829 80 80 80 0
-5.719743 -3.605925 32.507773 115 115 115 0
-5.472911 -3.526987 31.796141 133 133 133 0
-5.270143 -3.473503 31.313980 147 147 147 0
-5.115388 -3.449913 31.101312 152 152 152 0
-4.961599 -3.425866 30.884523 162 162 162 0
-4.811076 -3.402956 30.677990 165 165 165 0
-4.674283 -3.388855 30.550870 170 170 170 0
-4.534954 -3.372145 30.400227 174 174 174 0
-4.373848 -3.337937 30.091834 175 175 175 0
-4.232338 -3.317238 29.905235 180 180 180 0
-4.112095 -3.312521 29.862712 182 182 182 0
-3.985979 -3.302669 29.773890 183 183 183 0
-3.864472 -3.296167 29.715277 185 185 185 0
-3.741719 -3.288177 29.643245 189 189 189 0
-3.626522 -3.286536 29.628448 189 189 189 0
-3.497262 -3.271632 29.494089 189 189 189 0
-3.373513 -3.261063 29.398806 192 192 192 0
-3.251539 -3.251539 29.312952 194 194 194 0
-3.149356 -3.261833 29.405749 194 194 194 0
-3.040360 -3.265572 29.439460 194 194 194 0
-2.916406 -3.252914 29.325348 196 196 196 0
-2.791574 -3.238226 29.192934 198 198 198 0
-2.673932 -3.231001 29.127796 198 198 198 0
-2.577372 -3.249730 29.296639 198 198 198 0
-2.461176 -3.244277 29.247482 198 198 198 0
-2.340788 -3.232517 29.141462 201 201 201 0
-2.220378 -3.219548 29.024544 201 201 201 0
-2.100718 -3.206359 28.905648 201 201 201 0
-1.995139 -3.214391 28.978056 201 201 201 0
-1.890881 -3.225620 29.079289 202 202 202 0
-1.777168 -3.221117 29.038690 203 203 203 0
-1.660521 -3.210341 28.941549 204 204 204 0
-1.545948 -3.202321 28.869248 204 204 204 0
-1.439437 -3.211051 28.947949 204 204 204 0
-1.334451 -3.224922 29.072999 204 204 204 0
-1.223274 -3.224994 29.073645 205 205 205 0
-1.108112 -3.213525 28.970252 206 206 206 0
-0.994529 -3.204592 28.889721 206 206 206 0
-0.888875 -3.222172 29.048207 206 206 206 0
-0.781544 -3.237827 29.189334 207 207 207 0
-0.668334 -3.230280 29.121302 207 207 207 0
-0.554752 -3.217561 29.006639 206 206 206 0
-0.444323 -3.221339 29.040698 207 207 207 0
-0.335837 -3.246421 29.266808 207 207 207 0
-0.223603 -3.242240 29.229115 207 207 207 0
-0.111392 -3.230373 29.122133 208 208 208 0
0.000000 -3.220668 29.034644 208 208 208 0
0.111516 -3.233974 29.154604 208 208 208 0
0.224442 -3.254414 29.338872 208 208 208 0
0.336218 -3.250105 29.300020 208 208 208 0
0.448557 -3.252039 29.317454 208 208 208 0
0.562370 -3.261748 29.404990 208 208 208 0
0.677096 -3.272631 29.503097 208 208 208 0
0.790525 -3.275033 29.524749 208 208 208 0
0.904301 -3.278090 29.552308 208 208 208 0
1.021196 -3.290521 29.664373 209 209 209 0
1.139212 -3.303715 29.783325 209 209 209 0
1.257852 -3.316155 29.895473 208 208 208 0
1.376780 -3.327217 29.995196 208 208 208 0
1.497916 -3.341505 30.123998 208 208 208 0
1.631075 -3.378654 30.458908 208 208 208 0
1.739421 -3.362880 30.316698 209 209 209 0
1.856506 -3.364917 30.335067 209 209 209 0
1.968409 -3.357874 30.271575 208 208 208 0
2.079842 -3.350856 30.208304 208 208 208 0
2.198166 -3.355096 30.246525 205 205 205 0
2.311731 -3.352010 30.218702 205 205 205 0
2.430679 -3.356652 30.260553 205 205 205 0
2.539884 -3.348028 30.182813 205 205 205 0
2.653472 -3.345682 30.161661 205 205 205 0
2.770023 -3.347111 30.174546 205 205 205 0
2.890568 -3.353059 30.228165 205 205 205 0
3.004506 -3.351180 30.211227 205 205 205 0
3.112875 -3.343458 30.141611 206 206 206 0
3.228833 -3.344149 30.147836 205 205 205 0
3.354155 -3.354155 30.238046 206 206 206 0
3.469073 -3.353437 30.231570 207 207 207 0
3.573094 -3.342572 30.133618 207 207 207 0
3.675141 -3.330596 30.025660 207 207 207 0
3.783464 -3.324863 29.973970 207 207 207 0
3.931599 -3.353422 30.231439 207 207 207 0
4.035896 -3.344028 30.146749 207 207 207 0
4.133622 -3.329862 30.019039 207 207 207 0
4.243918 -3.326314 29.987055 207 207 207 0
4.381503 -3.343779 30.144503 208 208 208 0
4.505922 -3.350558 30.205612 208 208 208 0
4.609586 -3.341950 30.128015 208 208 208 0
4.720301 -3.338749 30.099160 208 208 208 0
4.849725 -3.348620 30.188142 208 208 208 0
4.971668 -3.352985 30.227497 209 209 209 0
5.081397 -3.349102 30.192493 208 208 208 0
5.192150 -3.346052 30.164997 208 208 208 0
5.320370 -3.354146 30.237967 208 208 208 0
5.465086 -3.372074 30.399589 209 209 209 0
5.583719 -3.373497 30.412410 208 208 208 0
5.692556 -3.369064 30.372447 209 209 209 0
5.819933 -3.375561 30.431025 209 209 209 0
5.959579 -3.388780 30.550193 209 209 209 0
6.067698 -3.383909 30.506276 208 208 208 0
6.180117 -3.381574 30.485225 209 209 209 0
6.310846 -3.389158 30.553601 209 209 209 0
6.452295 -3.402119 30.670444 209 209 209 0
6.578346 -3.406644 30.711234 208 208 208 0
6.713698 -3.415741 30.793247 208 208 208 0
6.835907 -3.417953 30.813194 208 208 208 0
6.971463 -3.426651 30.891605 207 207 207 0
7.117244 -3.440001 31.011955 207 207 207 0
7.251274 -3.447327 31.077998 207 207 207 0
7.393705 -3.458346 31.177335 206 206 206 0
7.566850 -3.483153 31.400977 206 206 206 0
7.693821 -3.486263 31.429007 206 206 206 0
7.833096 -3.494766 31.505667 206 206 206 0
8.009924 -3.519512 31.728753 204 204 204 0
8.150676 -3.527905 31.804413 204 204 204 0
8.286683 -3.534027 31.859603 203 203 203 0
8.479630 -3.563903 32.128939 202 202 202 0
8.627668 -3.574320 32.222850 201 201 201 0
8.812769 -3.599582 32.450591 200 200 200 0
9.007970 -3.628210 32.708678 199 199 199 0
9.184355 -3.648579 32.892308 198 198 198 0
9.409041 -3.687327 33.241623 197 197 197 0
9.628545 -3.723037 33.563556 193 193 193 0
9.923432 -3.786573 34.136333 191 191 191 0
10.168521 -3.829703 34.525153 186 186 186 0
10.411689 -3.871013 34.897567 154 154 154 0
-5.973086 -3.558434 33.225345 80 80 80 0
-5.720717 -3.482175 32.513308 113 113 113 0
-5.481572 -3.410756 31.846462 133 133 133 0
-5.279599 -3.359745 31.370168 147 147 147 0
-5.121345 -3.334829 31.137526 152 152 152 0
-4.976007 -3.317338 30.974208 162 162 162 0
-4.820658 -3.292157 30.739094 165 165 165 0
-4.686300 -3.280410 30.629409 169 169 169 0
-4.537399 -3.257620 30.416616 174 174 174 0
-4.372560 -3.221886 30.082974 175 175 175 0
-4.236605 -3.206079 29.935379 178 178 178 0
-4.113907 -3.199706 29.875870 183 183 183 0
-3.991746 -3.193397 29.816962 183 183 183 0
-3.866574 -3.184237 29.731439 185 185 185 0
-3.742658 -3.175588 29.650685 188 188 188 0
-3.626561 -3.173241 29.628765 189 189 189 0
-3.496718 -3.158326 29.489506 190 190 190 0
-3.377292 -3.152139 29.431738 191 191 191 0
-3.255096 -3.142852 29.345020 194 194 194 0
-3.150035 -3.150035 29.412089 194 194 194 0
-3.039399 -3.151969 29.430151 194 194 194 0
-2.916955 -3.141336 29.330872 196 196 196 0
-2.791708 -3.126713 29.194330 197 197 197 0
-2.675109 -3.120960 29.140618 198 198 198 0
-2.577596 -3.137942 29.299182 198 198 198 0
-2.462808 -3.134483 29.266879 199 199 199 0
-2.341330 -3.121773 29.148210 200 200 200 0
-2.220710 -3.108994 29.028889 202 202 202 0
-2.100128 -3.094926 28.897535 201 201 201 0
-1.996409 -3.105525 28.996498 202 202 202 0
-1.891807 -3.115918 29.093535 202 202 202 0
-1.778306 -3.112036 29.057289 203 203 203 0
-1.660576 -3.099742 28.942504 203 203 203 0
-1.546859 -3.093717 28.886248 204 204 204 0
-1.440690 -3.103025 28.973158 204 204 204 0
-1.335308 -3.115719 29.091678 204 204 204 0
-1.223774 -3.115061 29.085536 205 205 205 0
-1.107273 -3.100364 28.948308 206 206 206 0
-0.994806 -3.094953 28.897785 205 205 205 0
-0.889396 -3.112886 29.065227 206 206 206 0
-0.781880 -3.127522 29.201886 206 206 206 0
-0.668088 -3.117746 29.110604 207 207 207 0
-0.555193 -3.109082 29.029707 207 207 207 0
-0.445377 -3.117636 29.109579 207 207 207 0
-0.336343 -3.139202 29.310945 207 207 207 0
-0.223690 -3.131654 29.240471 207 207 207 0
-0.111424 -3.119875 29.130489 207 207 207 0
0.000000 -3.113145 29.067645 208 208 208 0
0.111604 -3.124909 29.177488 208 208 208 0
0.224560 -3.143840 29.354248 208 208 208 0
0.336211 -3.137971 29.299453 208 208 208 0
0.448800 -3.141602 29.333351 208 208 208 0
0.562293 -3.148839 29.400925 208 208 208 0
0.677498 -3.161657 29.520606 208 208 208 0
0.791302 -3.165210 29.553779 208 208 208 0
0.905680 -3.169882 29.597400 209 209 209 0
1.021067 -3.176653 29.660625 208 208 208 0
1.139381 -3.190268 29.787750 208 208 208 0
1.258822 -3.204275 29.918531 209 209 209 0
1.378090 -3.215543 30.023740 209 209 209 0
1.498945 -3.228497 30.144700 208 208 208 0
1.629323 -3.258646 30.426201 208 208 208 0
1.740798 -3.249489 30.340698 209 209 209 0
1.857688 -3.250955 30.354385 209 209 209 0
1.968311 -3.241924 30.270067 209 209 209 0
2.082258 -3.239068 30.243402 209 209 209 0
2.199955 -3.242039 30.271143 206 206 206 0
2.319495 -3.247293 30.320196 205 205 205 0
2.432639 -3.243519 30.284959 204 204 204 0
2.541237 -3.234302 30.198897 206 206 206 0
2.654880 -3.232028 30.177669 206 206 206 0
2.773294 -3.235509 30.210172 205 205 205 0
2.894474 -3.241811 30.269014 205 205 205 0
3.007788 -3.239156 30.244218 205 205 205 0
3.115331 -3.230714 30.165398 205 205 205 0
3.231486 -3.231486 30.172609 206 206 206 0
3.356896 -3.241141 30.262754 206 206 206 0
3.470610 -3.239236 30.244968 207 207 207 0
3.574610 -3.228680 30.146405 206 206 206 0
3.682452 -3.222145 30.085388 207 207 207 0
3.602067 -3.056300 28.536878 208 208 208 0
3.936500 -3.241823 30.269124 207 207 207 0
4.037386 -3.229909 30.157878 208 208 208 0
4.136222 -3.217062 30.037926 207 207 207 0
4.246160 -3.213310 30.002898 207 207 207 0
4.384206 -3.230467 30.163093 208 208 208 0
4.506735 -3.235605 30.211062 207 207 207 0
4.611858 -3.228300 30.142862 208 208 208 0
4.721927 -3.224730 30.109527 208 208 208 0
4.855232 -3.236821 30.222420 209 209 209 0
4.976289 -3.240374 30.255595 208 208 208 0
5.087723 -3.237642 30.230085 209 209 209 0
5.197310 -3.233882 30.194973 209 209 209 0
5.329109 -3.243805 30.287632 209 209 209 0
5.470170 -3.258824 30.427865 208 208 208 0
5.584502 -3.257626 30.416677 209 209 209 0
5.696627 -3.255215 30.394166 208 208 208 0
5.823689 -3.261266 30.450663 208 208 208 0
5.965910 -3.275402 30.582649 208 208 208 0
6.071448 -3.269241 30.525126 208 208 208 0
6.184069 -3.267055 30.504718 208 208 208 0
6.315251 -3.274575 30.574926 208 208 208 0
6.457852 -3.287634 30.696859 207 207 207 0
6.581576 -3.290788 30.726312 208 208 208 0
6.719115 -3.300618 30.818093 207 207 207 0
6.842910 -3.303474 30.844759 207 207 207 0
6.981776 -3.313385 30.937302 207 207 207 0
7.122427 -3.323799 31.034541 208 208 208 0
7.254796 -3.330070 31.093093 207 207 207 0
7.402064 -3.342868 31.212585 206 206 206 0
7.569880 -3.364391 31.413548 206 206 206 0
7.696996 -3.367436 31.441977 206 206 206 0
7.838457 -3.376566 31.527227 205 205 205 0
8.015505 -3.400517 31.750861 205 205 205 0
8.157948 -3.409292 31.832789 204 204 204 0
8.298334 -3.416961 31.904397 203 203 203 0
8.491041 -3.445640 32.172172 202 202 202 0
8.640182 -3.456073 32.269588 201 201 201 0
8.836769 -3.484923 32.538964 200 200 200 0
9.024927 -3.509694 32.770251 199 199 199 0
9.194284 -3.526575 32.927867 197 197 197 0
9.414928 -3.562405 33.262420 196 196 196 0
9.637847 -3.598130 33.595982 193 193 193 0
9.932332 -3.659280 34.166947 191 191 191 0
10.185986 -3.703995 34.584453 185 185 185 0
10.413536 -3.738192 34.903758 149 149 149 0
-5.973245 -3.431439 33.226229 78 78 78 0
-5.729577 -3.363012 32.563664 112 112 112 0
-5.491359 -3.294816 31.903321 133 133 133 0
-5.282632 -3.241615 31.388188 146 146 146 0
-5.131029 -3.221809 31.196408 151 151 151 0
-4.985553 -3.204998 31.033629 160 160 160 0
-4.826210 -3.178236 30.774492 165 165 165 0
-4.687526 -3.164080 30.637423 168 168 168 0
-4.538875 -3.142298 30.426516 174 174 174 0
-4.376543 -3.109649 30.110373 176 176 176 0
-4.235194 -3.090547 29.925413 178 178 178 0
-4.116219 -3.087164 29.892656 183 183 183 0
-3.993723 -3.080872 29.831728 184 184 184 0
-3.864975 -3.069245 29.719149 184 184 184 0
-3.745450 -3.064459 29.672803 187 187 187 0
-3.628927 -3.061908 29.648100 189 189 189 0
-3.502304 -3.050393 29.536610 189 189 189 0
-3.377281 -3.039553 29.431640 190 190 190 0
-3.259369 -3.034585 29.383542 194 194 194 0
-3.155002 -3.042323 29.458465 194 194 194 0
-3.042328 -3.042328 29.458510 195 195 195 0
-2.920291 -3.032610 29.364417 195 195 195 0
-2.792800 -3.016224 29.205755 197 197 197 0
-2.676414 -3.010966 29.154835 198 198 198 0
-2.580356 -3.029114 29.330564 199 199 199 0
-2.465955 -3.026399 29.304276 199 199 199 0
-2.343429 -3.012980 29.174344 199 199 199 0
-2.220777 -2.998049 29.029761 202 202 202 0
-2.103215 -2.988779 28.940007 202 202 202 0
-1.998120 -2.997181 29.021356 202 202 202 0
-1.892781 -3.006182 29.108519 202 202 202 0
-1.777423 -2.999402 29.042866 203 203 203 0
-1.662136 -2.991844 28.969686 203 203 203 0
-1.548355 -2.986113 28.914189 204 204 204 0
-1.440803 -2.992437 28.975430 205 205 205 0
-1.335783 -3.005513 29.102035 205 205 205 0
-1.224646 -3.005949 29.106256 205 205 205 0
-1.108572 -2.993144 28.982270 205 205 205 0
-0.995545 -2.986636 28.919250 206 206 206 0
-0.890889 -3.006749 29.114011 205 205 205 0
-0.781919 -3.015973 29.203318 207 207 207 0
-0.668940 -3.010230 29.147716 206 206 206 0
-0.555619 -3.000341 29.051959 207 207 207 0
-0.445152 -3.004777 29.094912 207 207 207 0
-0.336522 -3.028702 29.326576 207 207 207 0
-0.223769 -3.020879 29.250826 207 207 207 0
-0.111417 -3.008258 29.128619 207 207 207 0
0.000000 -3.001979 29.067822 207 207 207 0
0.111764 -3.017617 29.219239 208 208 208 0
0.224621 -3.032378 29.362165 208 208 208 0
0.336276 -3.026483 29.305091 208 208 208 0
0.449028 -3.030940 29.348246 208 208 208 0
0.563119 -3.040843 29.444132 208 208 208 0
0.677706 -3.049676 29.529660 208 208 208 0
0.791551 -3.053126 29.563071 208 208 208 0
0.905340 -3.055523 29.586283 208 208 208 0
1.022486 -3.067458 29.701842 208 208 208 0
1.140815 -3.080201 29.825231 208 208 208 0
1.259372 -3.091186 29.931601 208 208 208 0
1.377338 -3.099010 30.007356 208 208 208 0
1.499861 -3.115097 30.163125 208 208 208 0
1.629964 -3.143501 30.438164 209 209 209 0
1.742201 -3.135962 30.365162 209 209 209 0
1.858241 -3.135782 30.363415 210 210 210 0
1.970812 -3.130113 30.308526 209 209 209 0
2.085309 -3.127964 30.287716 208 208 208 0
2.202246 -3.129507 30.302658 205 205 205 0
2.319535 -3.131372 30.320714 205 205 205 0
2.434745 -3.130387 30.311179 204 204 204 0
2.543453 -3.121510 30.225223 204 204 204 0
2.655612 -3.117458 30.185986 205 205 205 0
2.775721 -3.122686 30.236610 206 206 206 0
2.894635 -3.126206 30.270694 205 205 205 0
3.007821 -3.123506 30.244552 206 206 206 0
3.117628 -3.117628 30.187631 206 206 206 0
3.233296 -3.117821 30.189504 206 206 206 0
3.359553 -3.127860 30.286707 206 206 206 0
3.475039 -3.127535 30.283568 206 206 206 0
3.576497 -3.115014 30.162323 206 206 206 0
3.690301 -3.113692 30.149520 207 207 207 0
3.918467 -3.206019 31.043511 207 207 207 0
3.933011 -3.123274 30.242301 207 207 207 0
4.038050 -3.115068 30.162842 208 208 208 0
4.139166 -3.104375 30.059303 207 207 207 0
4.250045 -3.101384 30.030345 208 208 208 0
4.386325 -3.116599 30.177671 208 208 208 0
4.507995 -3.120920 30.219506 207 207 207 0
4.613355 -3.114015 30.152648 208 208 208 0
4.723745 -3.110759 30.121120 209 209 209 0
4.854965 -3.121049 30.220760 208 208 208 0
4.978856 -3.126258 30.271199 209 209 209 0
5.091563 -3.124368 30.252901 209 209 209 0
5.202339 -3.121403 30.224191 209 209 209 0
5.333084 -3.130288 30.310224 208 208 208 0
5.474498 -3.144924 30.451943 209 209 209 0
5.591900 -3.145444 30.456974 209 209 209 0
5.700507 -3.141096 30.414868 209 209 209 0
5.830437 -3.148436 30.485947 208 208 208 0
5.968443 -3.159764 30.595634 208 208 208 0
6.074934 -3.154293 30.542655 208 208 208 0
6.188443 -3.152603 30.526294 208 208 208 0
6.322732 -3.161366 30.611144 208 208 208 0
6.463899 -3.173187 30.725606 209 209 209 0
6.590139 -3.177389 30.766289 207 207 207 0
6.726859 -3.186407 30.853613 208 208 208 0
6.851391 -3.189441 30.882988 207 207 207 0
6.991059 -3.199298 30.978438 208 208 208 0
7.129101 -3.208095 31.063621 207 207 207 0
7.261853 -3.214263 31.123339 206 206 206 0
7.418072 -3.230451 31.280085 205 205 205 0
7.577450 -3.247479 31.444964 206 206 206 0
7.703041 -3.249721 31.466672 205 205 205 0
7.826659 -3.251074 31.479776 205 205 205 0
8.020315 -3.281038 31.769913 204 204 204 0
8.164250 -3.290071 31.857378 204 204 204 0
8.311816 -3.300280 31.956232 203 203 203 0
8.502828 -3.327194 32.216834 201 201 201 0
8.648997 -3.336042 32.302509 201 201 201 0
8.853337 -3.366762 32.599972 200 200 200 0
9.038895 -3.389586 32.820970 198 198 198 0
9.210823 -3.406743 32.987101 197 197 197 0
9.420677 -3.437274 33.282731 196 196 196 0
9.643628 -3.471706 33.616132 193 193 193 0
9.944618 -3.532956 34.209212 189 189 189 0
10.208753 -3.579693 34.661754 184 184 184 0
10.428281 -3.609790 34.953180 142 142 142 0
-5.990593 -3.313945 33.322728 75 75 75 0
-5.752567 -3.251451 32.694327 110 110 110 0
-5.505140 -3.180748 31.983384 132 132 132 0
-5.297663 -3.130437 31.477496 143 143 143 0
-5.142159 -3.109212 31.264075 152 152 152 0
-4.993512 -3.091222 31.083174 159 159 159 0
-4.831849 -3.064099 30.810452 166 166 166 0
-4.690612 -3.048898 30.657593 167 167 167 0
-4.545692 -3.030461 30.472210 174 174 174 0
-4.374092 -2.992800 30.093509 175 175 175 0
-4.237589 -2.977765 29.942332 177 177 177 0
-4.121062 -2.976322 29.927826 182 182 182 0
-3.995973 -2.968437 29.848535 183 183 183 0
-3.870804 -2.960027 29.763970 183 183 183 0
-3.752228 -2.956301 29.726504 187 187 187 0
-3.636074 -2.954310 29.706489 190 190 190 0
-3.506622 -2.941038 29.573032 190 190 190 0
-3.381579 -2.930702 29.469097 190 190 190 0
-3.263274 -2.925694 29.418744 193 193 193 0
-3.155590 -2.930190 29.463955 194 194 194 0
-3.044131 -2.931386 29.475974 195 195 195 0
-2.922385 -2.922385 29.385468 196 196 196 0
-2.794323 -2.906096 29.221679 196 196 196 0
-2.678780 -2.902012 29.180613 198 198 198 0
-2.581151 -2.917823 29.339595 198 198 198 0
-2.467076 -2.915635 29.317595 199 199 199 0
-2.344922 -2.903237 29.192929 199 199 199 0
-2.223298 -2.890288 29.062725 200 200 200 0
-2.103227 -2.878101 28.940179 202 202 202 0
-2.000001 -2.888890 29.048665 203 203 203 0
-1.892806 -2.894880 29.108900 203 203 203 0
-1.778149 -2.889492 29.054722 203 203 203 0
-1.662744 -2.882089 28.980280 203 203 203 0
-1.549913 -2.878410 28.943289 203 203 203 0
-1.442424 -2.884848 29.008029 204 204 204 0
-1.337260 -2.897398 29.134215 205 205 205 0
-1.225462 -2.896547 29.125660 205 205 205 0
-1.108368 -2.881757 28.976947 205 205 205 0
-0.995324 -2.875379 28.912815 206 206 206 0
-0.890591 -2.894420 29.104275 206 206 206 0
-0.783377 -2.909685 29.257763 206 206 206 0
-0.669290 -2.900257 29.162963 206 206 206 0
-0.555836 -2.890346 29.063306 206 206 206 0
-0.445100 -2.893150 29.091500 207 207 207 0
-0.336821 -2.919112 29.352559 207 207 207 0
-0.223905 -2.910764 29.268615 207 207 207 0
-0.111440 -2.897430 29.134544 208 208 208 0
0.000000 -2.896512 29.125312 208 208 208 0
0.111882 -2.908922 29.250098 207 207 207 0
0.224983 -2.924784 29.409595 208 208 208 0
0.336802 -2.918952 29.350951 208 208 208 0
0.449384 -2.920997 29.371517 208 208 208 0
0.563414 -2.929752 29.459550 209 209 209 0
0.678250 -2.939085 29.553394 207 207 207 0
0.792102 -2.942095 29.583659 208 208 208 0
0.906401 -2.945804 29.620953 209 209 209 0
1.023187 -2.955873 29.722200 208 208 208 0
1.141924 -2.969002 29.854216 208 208 208 0
1.260548 -2.979477 29.959545 209 209 209 0
1.379017 -2.987871 30.043949 208 208 208 0
1.500397 -3.000794 30.173895 208 208 208 0
1.630776 -3.028585 30.453342 208 208 208 0
1.744509 -3.023816 30.405386 209 209 209 0
1.861447 -3.024852 30.415807 210 210 210 0
1.973303 -3.017993 30.346838 209 209 209 0
2.089876 -3.018710 30.354049 208 208 208 0
2.204418 -3.016572 30.332546 205 205 205 0
2.319349 -3.015154 30.318289 205 205 205 0
2.436065 -3.016081 30.327610 205 205 205 0
2.547409 -3.010574 30.272240 205 205 205 0
2.658662 -3.005444 30.220658 205 205 205 0
2.778805 -3.010372 30.270207 205 205 205 0
2.899778 -3.015769 30.324477 206 206 206 0
3.008095 -3.008095 30.247306 205 205 205 0
3.116862 -3.001423 30.180222 206 206 206 0
3.237463 -3.006216 30.228413 206 206 206 0
3.364070 -3.016062 30.327424 206 206 206 0
3.473972 -3.010776 30.274269 206 206 206 0
3.579173 -3.001887 30.184884 206 206 206 0
3.691565 -2.999397 30.159846 207 207 207 0
3.826436 -3.014768 30.314408 207 207 207 0
3.938067 -3.011463 30.281175 207 207 207 0
4.039352 -3.000662 30.172567 207 207 207 0
4.141866 -2.991348 30.078914 207 207 207 0
4.254667 -2.989766 30.063007 208 208 208 0
4.390125 -3.003770 30.203821 208 208 208 0
4.507963 -3.005309 30.219295 207 207 207 0
4.615813 -3.000278 30.168709 208 208 208 0
4.726904 -2.997549 30.141265 208 208 208 0
4.859298 -3.008137 30.247732 208 208 208 0
4.986015 -3.014800 30.314727 208 208 208 0
5.094298 -3.010267 30.269148 208 208 208 0
5.209407 -3.009880 30.265256 208 208 208 0
5.340874 -3.018755 30.354498 209 209 209 0
5.479528 -3.031228 30.479924 209 209 209 0
5.593321 -3.029716 30.464714 209 209 209 0
5.703302 -3.026242 30.429784 208 208 208 0
5.836520 -3.034990 30.517750 208 208 208 0
5.971660 -3.044376 30.612126 209 209 209 0
6.079426 -3.039713 30.565241 209 209 209 0
6.192644 -3.037901 30.547015 208 208 208 0
6.331576 -3.048537 30.653964 207 207 207 0
6.472107 -3.059541 30.764619 208 208 208 0
6.596689 -3.062748 30.796867 207 207 207 0
6.734585 -3.071916 30.889048 207 207 207 0
6.857995 -3.074273 30.912755 207 207 207 0
6.996876 -3.083369 31.004215 207 207 207 0
7.136577 -3.092517 31.096195 207 207 207 0
7.270274 -3.098805 31.159428 206 206 206 0
7.428363 -3.115120 31.323480 205 205 205 0
7.590741 -3.132687 31.500117 206 206 206 0
7.717543 -3.135252 31.525912 206 206 206 0
7.290154 -2.916062 29.321888 204 204 204 0
8.034999 -3.165303 31.828082 204 204 204 0
8.174575 -3.172223 31.897669 203 203 203 0
8.327539 -3.184059 32.016682 203 203 203 0
8.510130 -3.206716 32.244503 202 202 202 0
8.663261 -3.217783 32.355785 200 200 200 0
8.870926 -3.248508 32.664736 201 201 201 0
9.047099 -3.267008 32.850760 199 199 199 0
9.221858 -3.284497 33.026619 197 197 197 0
9.427657 -3.312420 33.307391 195 195 195 0
9.647257 -3.344382 33.628782 193 193 193 0
9.962545 -3.408239 34.270881 188 188 188 0
10.249124 -3.460743 34.798826 183 183 183 0
10.442169 -3.480723 34.999729 129 129 129 0
-5.776782 -3.139555 32.831951 105 105 105 0
-5.523364 -3.068536 32.089263 130 130 130 0
-5.309802 -3.016933 31.549624 141 141 141 0
-5.148247 -2.993167 31.301088 152 152 152 0
-4.999620 -2.975964 31.121192 157 157 157 0
-4.846142 -2.954965 30.901593 165 165 165 0
-4.701859 -2.938662 30.731107 166 166 166 0
-4.548528 -2.915723 30.491222 173 173 173 0
-4.387299 -2.886381 30.184378 175 175 175 0
-4.247258 -2.869769 30.010656 176 176 176 0
-4.128249 -2.866840 29.980021 181 181 181 0
-4.002624 -2.859017 29.898221 183 183 183 0
-3.873219 -2.847955 29.782539 184 184 184 0
-3.755216 -2.844860 29.750173 186 186 186 0
-3.643350 -2.846368 29.765935 190 190 190 0
-3.509348 -2.830119 29.596016 190 190 190 0
-3.387113 -2.822594 29.517322 190 190 190 0
-3.269880 -2.818862 29.478292 192 192 192 0
-3.161520 -2.822786 29.519327 195 195 195 0
-3.046903 -2.821206 29.502811 195 195 195 0
-2.925454 -2.812937 29.416331 195 195 195 0
-2.795318 -2.795318 29.232087 195 195 195 0
-2.680610 -2.792302 29.200543 198 198 198 0
-2.584809 -2.809575 29.381172 199 199 199 0
-2.470228 -2.807077 29.355052 199 199 199 0
-2.346658 -2.793640 29.214540 200 200 200 0
-2.225054 -2.781318 29.085675 199 199 199 0
-2.104623 -2.769240 28.959375 201 201 201 0
-2.000647 -2.778676 29.058047 202 202 202 0
-1.895991 -2.788223 29.157884 202 202 202 0
-1.780718 -2.782371 29.096692 203 203 203 0
-1.663962 -2.773271 29.001523 203 203 203 0
-1.550769 -2.769231 28.959278 203 203 203 0
-1.442809 -2.774632 29.015764 203 203 203 0
-1.338351 -2.788231 29.157976 205 205 205 0
-1.225745 -2.785785 29.132391 204 204 204 0
-1.110186 -2.775465 29.024468 205 205 205 0
-0.995522 -2.765340 28.918585 205 205 205 0
-0.892378 -2.788680 29.162670 206 206 206 0
-0.783957 -2.799846 29.279433 206 206 206 0
-0.669530 -2.789709 29.173424 206 206 206 0
-0.556141 -2.780703 29.079248 206 206 206 0
-0.446092 -2.788073 29.156320 207 207 207 0
-0.337201 -2.810011 29.385736 206 206 206 0
-0.223896 -2.798700 29.267450 207 207 207 0
-0.111628 -2.790700 29.183796 207 207 207 0
0.000000 -2.787312 29.148358 208 208 208 0
0.112057 -2.801413 29.295821 207 207 207 0
0.225194 -2.814920 29.437067 208 208 208 0
0.337071 -2.808922 29.374352 208 208 208 0
0.449840 -2.811500 29.401306 208 208 208 0
0.564335 -2.821673 29.507695 208 208 208 0
0.678885 -2.828687 29.581044 208 208 208 0
0.793127 -2.832597 29.621924 208 208 208 0
0.907139 -2.834811 29.645081 208 208 208 0
1.024098 -2.844716 29.748660 208 208 208 0
1.143527 -2.858817 29.896128 208 208 208 0
1.261819 -2.867770 29.989752 208 208 208 0
1.379959 -2.874914 30.064462 208 208 208 0
1.501723 -2.887928 30.200553 208 208 208 0
1.630419 -2.911463 30.446669 209 209 209 0
1.746005 -2.910008 30.431458 208 208 208 0
1.863085 -2.911070 30.442563 209 209 209 0
1.975975 -2.905846 30.387935 208 208 208 0
2.092229 -2.905874 30.388220 207 207 207 0
2.206130 -2.902803 30.356106 206 206 206 0
2.321199 -2.901498 30.342464 205 205 205 0
2.439794 -2.904516 30.374026 205 205 205 0
2.550900 -2.898750 30.313722 204 204 204 0
2.662603 -2.894133 30.265446 204 204 204 0
2.784797 -2.900831 30.335484 205 205 205 0
2.902671 -2.902671 30.354727 205 205 205 0
3.012590 -2.896721 30.292504 206 206 206 0
3.118193 -2.887215 30.193101 206 206 206 0
3.238156 -2.891211 30.234884 206 206 206 0
