ply
    format ascii 1.0
    element vertex 20678
    property float x
    property float y
    property float z
    property uchar red
    property uchar green
    property uchar blue
    property uchar alpha
    end_header
1.847453 -8.867776 32.199622 203 203 203 0
1.966398 -8.848791 32.130688 203 203 203 0
2.086968 -8.838922 32.094852 202 202 202 0
2.203155 -8.812621 31.999351 203 203 203 0
2.320167 -8.792211 31.925240 202 202 202 0
2.443354 -8.796075 31.939269 202 202 202 0
2.570148 -8.811937 31.996866 202 202 202 0
2.686007 -8.790569 31.919278 204 204 204 0
2.797633 -8.757807 31.800316 202 202 202 0
2.916851 -8.750554 31.773980 204 204 204 0
3.046345 -8.773474 31.857205 204 204 204 0
3.169502 -8.777082 31.870306 203 203 203 0
3.276861 -8.738295 31.729466 204 204 204 0
3.382253 -8.697221 31.580322 203 203 203 0
3.502931 -8.696931 31.579272 203 203 203 0
3.639329 -8.734389 31.715282 204 204 204 0
3.747238 -8.703262 31.602258 203 203 203 0
3.844445 -8.650001 31.408865 203 203 203 0
3.948009 -8.613837 31.277549 202 202 202 0
4.062122 -8.602141 31.235079 203 203 203 0
4.193770 -8.627184 31.326012 203 203 203 0
4.307403 -8.614806 31.281066 184 184 184 0
4.407160 -8.576094 31.140503 83 83 83 0
-5.187953 -9.444734 34.777627 122 122 122 0
-5.086617 -9.503942 34.995646 187 187 187 0
-4.944703 -9.488485 34.938727 190 190 190 0
-4.800411 -9.467477 34.861372 191 191 191 0
-4.685621 -9.505117 34.999970 190 190 190 0
-4.546976 -9.495155 34.963288 191 191 191 0
-4.395370 -9.456705 34.821706 190 190 190 0
-4.247735 -9.424663 34.703721 191 191 191 0
-4.135488 -9.471601 34.876558 192 192 192 0
-4.000010 -9.466690 34.858472 192 192 192 0
-3.840039 -9.401476 34.618340 191 191 191 0
-3.687682 -9.350907 34.432136 192 192 192 0
-3.546214 -9.325230 34.337588 191 191 191 0
-3.433473 -9.376023 34.524619 192 192 192 0
-3.309095 -9.397831 34.604919 192 192 192 0
-3.159903 -9.348046 34.421599 192 192 192 0
-3.004169 -9.273740 34.147990 193 193 193 0
-2.876152 -9.282126 34.178868 193 193 193 0
-2.750060 -9.297823 34.236668 194 194 194 0
-2.622211 -9.308849 34.277267 193 193 193 0
-2.476585 -9.254606 34.077531 194 194 194 0
-2.332659 -9.201046 33.880311 194 194 194 0
-2.200008 -9.188271 33.833272 194 194 194 0
-2.086825 -9.260285 34.098445 195 195 195 0
-1.954303 -9.250366 34.061922 195 195 195 0
-1.811758 -9.188201 33.833016 196 196 196 0
-1.672573 -9.134824 33.636470 197 197 197 0
-1.544268 -9.136921 33.644191 195 195 195 0
-1.427320 -9.212699 33.923222 197 197 197 0
-1.291129 -9.167015 33.755004 197 197 197 0
-1.153822 -9.102375 33.516985 196 196 196 0
-1.022577 -9.075370 33.417545 197 197 197 0
-0.897017 -9.098315 33.502034 196 196 196 0
-0.770958 -9.123000 33.592932 198 198 198 0
-0.641295 -9.106382 33.531740 197 197 197 0
-0.508048 -9.017856 33.205767 200 200 200 0
-0.380236 -8.998927 33.136067 198 198 198 0
-0.254495 -9.034555 33.267257 199 199 199 0
-0.127137 -9.026722 33.238411 199 199 199 0
0.000000 -9.005670 33.160894 201 201 201 0
0.126052 -8.949708 32.954831 199 199 199 0
0.251454 -8.926609 32.869773 200 200 200 0
0.378380 -8.954992 32.974287 201 201 201 0
0.504214 -8.949803 32.955179 201 201 201 0
0.629644 -8.940945 32.922564 201 201 201 0
0.752809 -8.908237 32.802125 201 201 201 0
0.876470 -8.889908 32.734635 201 201 201 0
1.001520 -8.888493 32.729421 201 201 201 0
1.127635 -8.895788 32.756285 201 201 201 0
1.249600 -8.872160 32.669281 201 201 201 0
1.370109 -8.843433 32.563503 202 202 202 0
1.489287 -8.811613 32.446333 203 203 203 0
1.608629 -8.785591 32.350516 202 202 202 0
1.730905 -8.778161 32.323155 202 202 202 0
1.850364 -8.758389 32.250352 202 202 202 0
1.970377 -8.743549 32.195706 203 203 203 0
2.091136 -8.733569 32.158956 203 203 203 0
2.205542 -8.699637 32.034014 203 203 203 0
2.325711 -8.690814 32.001524 203 203 203 0
2.449121 -8.694378 32.014648 203 203 203 0
2.572640 -8.697975 32.027891 203 203 203 0
2.687177 -8.672253 31.933178 203 203 203 0
2.801579 -8.648353 31.845172 202 202 202 0
2.921210 -8.641914 31.821464 203 203 203 0
3.050565 -8.663603 31.901329 203 203 203 0
3.170720 -8.658505 31.882556 203 203 203 0
3.278713 -8.621801 31.747402 202 202 202 0
3.384363 -8.581777 31.600025 203 203 203 0
3.502902 -8.576072 31.579017 203 203 203 0
3.644685 -8.625754 31.761960 203 203 203 0
3.750433 -8.589701 31.629205 202 202 202 0
3.848818 -8.539565 31.444592 203 203 203 0
3.952327 -8.503492 31.311764 204 204 204 0
4.066173 -8.491126 31.266227 204 204 204 0
4.202123 -8.524306 31.388404 202 202 202 0
4.312826 -8.505852 31.320452 182 182 182 0
4.409051 -8.460611 31.153866 79 79 79 0
-5.148846 -9.241518 34.515474 116 116 116 0
-5.086578 -9.370013 34.995380 185 185 185 0
-4.943839 -9.353208 34.932616 189 189 189 0
-4.802580 -9.338349 34.877121 190 190 190 0
-4.685557 -9.371114 34.999493 190 190 190 0
-4.551703 -9.371154 34.999641 191 191 191 0
-4.400481 -9.334353 34.862195 191 191 191 0
-4.250632 -9.298258 34.727389 191 191 191 0
-4.140306 -9.349077 34.917188 192 192 192 0
-4.003255 -9.340929 34.886756 191 191 191 0
-3.844260 -9.279247 34.656385 192 192 192 0
-3.688815 -9.222038 34.442719 192 192 192 0
-3.547237 -9.196540 34.347489 193 193 193 0
-3.440576 -9.263088 34.596035 192 192 192 0
-3.313916 -9.278965 34.655330 192 192 192 0
-3.168899 -9.242623 34.519601 192 192 192 0
-3.012132 -9.167359 34.238503 192 192 192 0
-2.878481 -9.158802 34.206543 194 194 194 0
-2.754003 -9.180011 34.285755 193 193 193 0
-2.627947 -9.197816 34.352254 194 194 194 0
-2.479915 -9.136529 34.123357 195 195 195 0
-2.335509 -9.082537 33.921705 194 194 194 0
-2.204144 -9.075889 33.896876 195 195 195 0
-2.088121 -9.135530 34.119627 196 196 196 0
-1.955160 -9.124080 34.076864 195 195 195 0
-1.812355 -9.061775 33.844165 194 194 194 0
-1.674338 -9.015665 33.671950 196 196 196 0
-1.545959 -9.018092 33.681015 196 196 196 0
-1.428901 -9.093004 33.960798 197 197 197 0
-1.293674 -9.055716 33.821535 197 197 197 0
-1.155008 -8.983394 33.551424 197 197 197 0
-1.022963 -8.950930 33.430178 198 198 198 0
-0.896951 -8.969509 33.499566 198 198 198 0
-0.770854 -8.993294 33.588398 198 198 198 0
-0.640841 -8.971775 33.508029 198 198 198 0
-0.508994 -8.907387 33.267551 199 199 199 0
-0.380573 -8.880048 33.165446 199 199 199 0
-0.254254 -8.898873 33.235752 199 199 199 0
-0.126793 -8.875536 33.148592 198 198 198 0
0.000000 -8.851276 33.057987 201 201 201 0
0.125680 -8.797611 32.857556 200 200 200 0
0.251232 -8.793124 32.840801 201 201 201 0
0.379003 -8.843396 33.028558 201 201 201 0
0.505489 -8.846061 33.038510 200 200 200 0
0.630035 -8.820493 32.943017 203 203 203 0
0.753086 -8.785999 32.814190 201 201 201 0
0.877579 -8.775787 32.776049 202 202 202 0
1.002129 -8.768626 32.749304 204 204 204 0
1.130223 -8.790624 32.831460 203 203 203 0
1.252251 -8.765755 32.738580 202 202 202 0
1.371841 -8.729898 32.604662 202 202 202 0
1.490841 -8.696571 32.480192 204 204 204 0
1.610278 -8.670729 32.383676 203 203 203 0
1.734133 -8.670663 32.383428 202 202 202 0
1.856519 -8.663755 32.357630 203 203 203 0
1.972831 -8.631134 32.235796 204 204 204 0
2.094412 -8.624049 32.209333 202 202 202 0
2.210199 -8.595220 32.101662 203 203 203 0
2.328508 -8.578715 32.040017 204 204 204 0
2.454750 -8.591626 32.088241 204 204 204 0
2.576075 -8.586918 32.070655 203 203 203 0
2.687968 -8.552625 31.942578 203 203 203 0
2.801893 -8.527501 31.848744 202 202 202 0
2.922100 -8.522792 31.831156 205 205 205 0
3.053072 -8.548601 31.927547 203 203 203 0
3.173041 -8.542802 31.905891 204 204 204 0
3.280370 -8.504662 31.763445 203 203 203 0
3.386009 -8.465023 31.615399 203 203 203 0
3.493380 -8.432296 31.493169 204 204 204 0
3.649311 -8.515060 31.802277 203 203 203 0
3.754670 -8.478288 31.664941 204 204 204 0
3.849198 -8.420121 31.447698 203 203 203 0
3.955646 -8.390765 31.338058 203 203 203 0
4.074807 -8.389308 31.332617 202 202 202 0
4.207823 -8.415645 31.430982 203 203 203 0
4.311811 -8.384078 31.313082 181 181 181 0
-5.123500 -9.064654 34.345569 115 115 115 0
-5.086673 -9.236327 34.996031 185 185 185 0
-4.945163 -9.222060 34.941973 190 190 190 0
-4.808559 -9.216405 34.920545 189 189 189 0
-4.685454 -9.237039 34.998725 190 190 190 0
-4.551709 -9.237292 34.999684 190 190 190 0
-4.398584 -9.197039 34.847169 191 191 191 0
-4.248833 -9.161547 34.712689 191 191 191 0
-4.147300 -9.231087 34.976174 192 192 192 0
-4.008744 -9.220111 34.934586 190 190 190 0
-3.842288 -9.141996 34.638614 192 192 192 0
-3.692001 -9.098146 34.472467 192 192 192 0
-3.553360 -9.080809 34.406779 191 191 191 0
-3.445945 -9.145007 34.650022 192 192 192 0
-3.320642 -9.164971 34.725665 191 191 191 0
-3.169778 -9.113112 34.529173 194 194 194 0
-3.018917 -9.056751 34.315625 194 194 194 0
-2.883341 -9.043206 34.264303 195 195 195 0
-2.758247 -9.062810 34.338583 193 193 193 0
-2.630295 -9.074518 34.382941 194 194 194 0
-2.483119 -9.017643 34.167447 193 193 193 0
-2.339655 -8.968676 33.981913 195 195 195 0
-2.207678 -8.960575 33.951217 194 194 194 0
-2.091690 -9.020413 34.177940 194 194 194 0
-1.956197 -8.998504 34.094930 195 195 195 0
-1.812304 -8.932069 33.843208 196 196 196 0
-1.674419 -8.887303 33.673594 196 196 196 0
-1.547742 -8.899514 33.719859 197 197 197 0
-1.432831 -8.987760 34.054220 196 196 196 0
-1.294130 -8.929499 33.833473 196 196 196 0
-1.156552 -8.866898 33.596281 196 196 196 0
-1.019974 -8.797276 33.332484 198 198 198 0
-0.894728 -8.819459 33.416536 196 196 196 0
-0.767653 -8.828005 33.448917 196 196 196 0
-0.635437 -8.769034 33.225476 194 194 194 0
-0.504029 -8.694501 32.943075 192 192 192 0
-0.376731 -8.664805 32.830557 189 189 189 0
-0.251651 -8.681972 32.895604 187 187 187 0
-0.125442 -8.655466 32.795172 187 187 187 0
0.000000 -8.635618 32.719969 186 186 186 0
0.124461 -8.587810 32.538826 185 185 185 0
0.248585 -8.576196 32.494824 185 185 185 0
0.373092 -8.581110 32.513440 185 185 185 0
0.499606 -8.618199 32.653971 185 185 185 0
0.623397 -8.602875 32.595907 190 190 190 0
0.747514 -8.596406 32.571396 192 192 192 0
0.873089 -8.606161 32.608357 196 196 196 0
0.997163 -8.600528 32.587014 199 199 199 0
1.132913 -8.685665 32.909594 202 202 202 0
1.253108 -8.646443 32.760984 204 204 204 0
1.370511 -8.596841 32.573045 203 203 203 0
1.488770 -8.560429 32.435084 204 204 204 0
1.610195 -8.546417 32.381992 203 203 203 0
1.734624 -8.549220 32.392612 205 205 205 0
1.858485 -8.549033 32.391902 206 206 206 0
1.983369 -8.553279 32.407992 204 204 204 0
2.096860 -8.510786 32.246985 203 203 203 0
2.213696 -8.485833 32.152443 204 204 204 0
2.333370 -8.473816 32.106908 206 206 206 0
2.456615 -8.475320 32.112609 203 203 203 0
2.576292 -8.464959 32.073351 203 203 203 0
2.690596 -8.438686 31.973804 204 204 204 0
2.804322 -8.412966 31.876353 204 204 204 0
2.924737 -8.408618 31.859879 205 205 205 0
3.057456 -8.438578 31.973395 204 204 204 0
3.174457 -8.424519 31.920126 203 203 203 0
3.283730 -8.391753 31.795978 203 203 203 0
3.390213 -8.354454 31.654652 203 203 203 0
3.434663 -8.172128 30.963827 204 204 204 0
3.653824 -8.403795 31.841601 204 204 204 0
3.756477 -8.361191 31.680180 202 202 202 0
3.851974 -8.305818 31.470373 204 204 204 0
3.960176 -8.280369 31.373946 203 203 203 0
4.080543 -8.281102 31.376725 203 203 203 0
4.213146 -8.305915 31.470741 203 203 203 0
4.326990 -8.293398 31.423314 178 178 178 0
4.411694 -8.227212 31.172539 77 77 77 0
-5.131014 -8.946384 34.395938 108 108 108 0
-5.086319 -9.101833 34.993592 185 185 185 0
-4.946907 -9.091614 34.954301 189 189 189 0
-4.813931 -9.092981 34.959556 190 190 190 0
-4.685415 -9.103092 34.998432 190 190 190 0
-4.551633 -9.103267 34.999104 190 190 190 0
-4.402824 -9.072486 34.880760 191 191 191 0
-4.252804 -9.037209 34.745132 191 191 191 0
-4.142487 -9.086746 34.935585 191 191 191 0
-4.012819 -9.095723 34.970101 192 192 192 0
-3.850157 -9.027954 34.709552 192 192 192 0
-3.697201 -8.978917 34.521017 192 192 192 0
-3.558730 -8.962728 34.458779 192 192 192 0
-3.452863 -9.030564 34.719584 191 191 191 0
-3.323494 -9.039903 34.755490 192 192 192 0
-3.174372 -8.994054 34.579214 192 192 192 0
-3.023151 -8.938013 34.363757 193 193 193 0
-2.891831 -8.938387 34.365193 193 193 193 0
-2.764094 -8.950401 34.411383 193 193 193 0
-2.631133 -8.945852 34.393895 193 193 193 0
-2.483189 -8.887202 34.168405 195 195 195 0
-2.339683 -8.838804 33.982329 195 195 195 0
-2.210515 -8.842058 33.994841 194 194 194 0
-2.093164 -8.895948 34.202028 195 195 195 0
-1.956559 -8.869736 34.101253 196 196 196 0
-1.813308 -8.807495 33.861955 195 195 195 0
-1.679965 -8.787509 33.785117 196 196 196 0
-1.551493 -8.791795 33.801594 196 196 196 0
-1.438258 -8.891049 34.183194 197 197 197 0
-1.291935 -8.785159 33.776084 195 195 195 0
-1.148577 -8.678136 33.364613 191 191 191 0
-1.006711 -8.557043 32.899052 182 182 182 0
-0.872405 -8.474793 32.582825 178 178 178 0
-0.742196 -8.411560 32.339714 171 171 171 0
-0.612213 -8.326102 32.011155 173 173 173 0
-0.486886 -8.277062 31.822613 171 171 171 0
-0.365821 -8.291945 31.879833 173 173 173 0
-0.241722 -8.218554 31.597669 174 174 174 0
-0.120058 -8.163929 31.387653 177 177 177 0
0.000000 -8.181219 31.454128 178 178 178 0
0.120736 -8.210037 31.564923 177 177 177 0
0.240415 -8.174111 31.426800 180 180 180 0
0.359728 -8.153836 31.348852 181 181 181 0
0.480277 -8.164710 31.390656 180 180 180 0
0.604162 -8.216598 31.590150 181 181 181 0
0.729185 -8.264098 31.772773 184 184 184 0
0.853030 -8.286579 31.859206 184 184 184 0
0.977085 -8.305224 31.930889 185 185 185 0
1.096649 -8.285790 31.856170 186 186 186 0
1.252312 -8.515720 32.740175 188 188 188 0
1.360896 -8.412812 32.344528 190 190 190 0
1.484486 -8.412088 32.341746 195 195 195 0
1.605828 -8.399717 32.294183 202 202 202 0
1.734225 -8.423380 32.385160 203 203 203 0
1.863924 -8.449791 32.486701 202 202 202 0
1.982706 -8.426499 32.397152 206 206 206 0
2.099504 -8.398016 32.287642 204 204 204 0
2.216823 -8.374663 32.197859 205 205 205 0
2.340898 -8.377949 32.210492 205 205 205 0
2.465130 -8.381443 32.223924 204 204 204 0
2.582397 -8.362048 32.149357 204 204 204 0
2.692185 -8.321300 31.992694 204 204 204 0
2.803822 -8.289560 31.870665 204 204 204 0
2.927685 -8.295107 31.891991 204 204 204 0
3.058685 -8.319624 31.986252 203 203 203 0
3.174331 -8.302097 31.918866 203 203 203 0
3.288414 -8.281931 31.841334 204 204 204 0
3.395196 -8.245476 31.701178 204 204 204 0
3.203916 -7.512630 28.883623 203 203 203 0
3.650500 -8.274466 31.812632 203 203 203 0
3.757418 -8.242078 31.688114 205 205 205 0
3.854673 -8.191180 31.492425 203 203 203 0
3.961832 -8.163774 31.387059 203 203 203 0
4.085475 -8.170949 31.414645 203 203 203 0
4.215978 -8.191044 31.491902 204 204 204 0
4.325341 -8.170089 31.411336 174 174 174 0
-5.136318 -8.823932 34.431496 104 104 104 0
-5.086349 -8.968037 34.993802 184 184 184 0
-4.953297 -8.969484 34.999450 189 189 189 0
-4.819408 -8.969453 34.999330 189 189 189 0
-4.685293 -8.968990 34.997520 190 190 190 0
-4.551594 -8.969317 34.998798 191 191 191 0
-4.405667 -8.944839 34.903282 191 191 191 0
-4.256442 -8.911925 34.774851 192 192 192 0
-4.149986 -8.969325 34.998830 191 191 191 0
-4.015213 -8.967309 34.990964 191 191 191 0
-3.852360 -8.900280 34.729413 191 191 191 0
-3.701400 -8.856921 34.560221 190 190 190 0
-3.564419 -8.845041 34.513865 191 191 191 0
-3.458372 -8.911959 34.774983 192 192 192 0
-3.326992 -8.916338 34.792071 193 193 193 0
-3.178171 -8.872394 34.620597 193 193 193 0
-3.027191 -8.818338 34.409668 193 193 193 0
-2.892792 -8.809865 34.376609 193 193 193 0
-2.768958 -8.834294 34.471929 192 192 192 0
-2.633588 -8.822520 34.425987 193 193 193 0
-2.484009 -8.759401 34.179695 195 195 195 0
-2.341552 -8.715775 34.009464 195 195 195 0
-2.213707 -8.724611 34.043941 196 196 196 0
-2.096475 -8.778988 34.256125 196 196 196 0
-1.957959 -8.745549 34.125642 196 196 196 0
-1.812247 -8.672895 33.842143 194 194 194 0
-1.672601 -8.620327 33.637020 193 193 193 0
-1.531617 -8.551530 33.368569 187 187 187 0
-1.356169 -8.260304 32.232187 173 173 173 0
-1.187231 -7.954447 31.038717 169 169 169 0
-1.034680 -7.702614 30.056050 168 168 168 0
-0.927113 -7.764573 30.297817 168 168 168 0
-0.936712 -8.965675 34.984588 170 170 170 0
-0.716781 -8.004054 31.232286 172 172 172 0
-0.592422 -7.938449 30.976291 174 174 174 0
-0.470736 -7.884823 30.767038 174 174 174 0
-0.352060 -7.862680 30.680636 176 176 176 0
-0.234506 -7.855953 30.654386 178 178 178 0
-0.117650 -7.882549 30.758168 179 179 179 0
0.000000 -7.886597 30.773961 180 180 180 0
0.117066 -7.843396 30.605389 181 181 181 0
0.234138 -7.843618 30.606255 181 181 181 0
0.352448 -7.871332 30.714395 184 184 184 0
0.471632 -7.899841 30.825641 184 184 184 0
0.588772 -7.889543 30.785455 183 183 183 0
0.711694 -7.947250 31.010632 184 184 184 0
0.833347 -7.976321 31.124071 187 187 187 0
0.953450 -7.985142 31.158492 186 186 186 0
1.075487 -8.006402 31.241449 187 187 187 0
1.199509 -8.036707 31.359700 187 187 187 0
1.298021 -7.906130 30.850180 189 189 189 0
1.453418 -8.114915 31.664870 188 188 188 0
1.585161 -8.169676 31.878552 189 189 189 0
1.717066 -8.217387 32.064725 190 190 190 0
1.846422 -8.247352 32.181648 195 195 195 0
1.976495 -8.276574 32.295676 198 198 198 0
2.098104 -8.268998 32.266112 203 203 203 0
2.219064 -8.259850 32.230417 206 206 206 0
2.346554 -8.274690 32.288323 206 206 206 0
2.468531 -8.269578 32.268377 205 205 205 0
2.583269 -8.241859 32.160215 204 204 204 0
2.695293 -8.208393 32.029630 204 204 204 0
2.808295 -8.180685 31.921512 205 205 205 0
2.932785 -8.187359 31.947553 205 205 205 0
3.061597 -8.205080 32.016702 206 206 206 0
3.176162 -8.184724 31.937270 204 204 204 0
3.287370 -8.157549 31.831230 203 203 203 0
3.399349 -8.134158 31.739958 203 203 203 0
3.769012 -8.707716 33.978017 204 204 204 0
3.651234 -8.154424 31.819037 203 203 203 0
3.759537 -8.125450 31.705981 204 204 204 0
3.856533 -8.074615 31.507619 204 204 204 0
3.963373 -8.046847 31.399268 205 205 205 0
4.091045 -8.061765 31.457477 204 204 204 0
4.220464 -8.079174 31.525409 203 203 203 0
4.326591 -8.052266 31.420412 170 170 170 0
-5.146711 -8.709819 34.501163 98 98 98 0
-5.086131 -8.833807 34.992304 183 183 183 0
-4.953198 -8.835434 34.998748 190 190 190 0
-4.819397 -8.835561 34.999250 190 190 190 0
-4.685239 -8.835022 34.997115 190 190 190 0
-4.551515 -8.835294 34.998194 190 190 190 0
-4.408628 -8.817256 34.926740 191 191 191 0
-4.258185 -8.782507 34.789095 191 191 191 0
-4.150103 -8.835703 34.999813 191 191 191 0
-4.016182 -8.835601 34.999408 192 192 192 0
-3.855057 -8.773578 34.753726 190 190 190 0
-3.706442 -8.736612 34.607298 192 192 192 0
-3.568388 -8.722726 34.552292 193 193 193 0
-3.463556 -8.792105 34.827114 193 193 193 0
-3.334775 -8.803806 34.873465 192 192 192 0
-3.179905 -8.744739 34.639487 192 192 192 0
-3.031337 -8.698619 34.456801 194 194 194 0
-2.898077 -8.694232 34.439422 194 194 194 0
-2.768372 -8.700596 34.464632 193 193 193 0
-2.635162 -8.696035 34.446562 196 196 196 0
-2.487056 -8.639249 34.221622 195 195 195 0
-2.339390 -8.577765 33.978075 195 195 195 0
-2.211982 -8.587696 34.017415 195 195 195 0
-2.097064 -8.650389 34.265752 194 194 194 0
-1.956133 -8.606987 34.093829 188 188 188 0
-1.796556 -8.469478 33.549132 174 174 174 0
-1.631648 -8.283753 32.813442 164 164 164 0
-1.463794 -8.050869 31.890945 164 164 164 0
-1.319638 -7.917828 31.363945 165 165 165 0
-1.195900 -7.892938 31.265353 167 167 167 0
-1.067875 -7.831081 31.020323 171 171 171 0
-0.943731 -7.785777 30.840867 172 172 172 0
-0.826909 -7.796575 30.883641 174 174 174 0
-0.740301 -8.143311 32.257125 176 176 176 0
-0.587505 -7.755064 30.719209 178 178 178 0
-0.467592 -7.715267 30.561566 178 178 178 0
-0.347988 -7.655730 30.325728 180 180 180 0
-0.231878 -7.651973 30.310847 180 180 180 0
-0.115973 -7.654209 30.319701 183 183 183 0
0.000000 -7.680651 30.424446 183 183 183 0
0.115981 -7.654738 30.321798 183 183 183 0
0.231333 -7.633984 30.239588 183 183 183 0
0.347949 -7.654868 30.322315 185 185 185 0
0.466782 -7.701911 30.508658 183 183 183 0
0.584433 -7.714510 30.558564 185 185 185 0
0.700800 -7.708798 30.535939 186 186 186 0
0.819169 -7.723597 30.594560 188 188 188 0
0.939549 -7.751276 30.704204 189 189 189 0
1.057611 -7.755814 30.722180 188 188 188 0
1.177057 -7.768578 30.772739 187 187 187 0
1.299115 -7.794688 30.876166 190 190 190 0
1.405962 -7.732790 30.630975 188 188 188 0
1.549771 -7.868071 31.166847 189 189 189 0
1.682250 -7.930608 31.414569 187 187 187 0
1.813746 -7.980480 31.612123 190 190 190 0
1.944334 -8.020378 31.770165 190 190 190 0
2.081492 -8.081087 32.010644 193 193 193 0
2.213000 -8.114332 32.142332 196 196 196 0
2.342580 -8.137382 32.233637 204 204 204 0
2.468625 -8.146463 32.269609 205 205 205 0
2.585369 -8.125446 32.186359 207 207 207 0
2.696644 -8.089932 32.045682 206 206 206 0
2.809251 -8.061330 31.932384 206 206 206 0
2.937571 -8.078319 31.999680 205 205 205 0
3.066495 -8.095546 32.067920 206 206 206 0
3.179384 -8.070745 31.969676 207 207 207 0
3.288581 -8.038754 31.842955 205 205 205 0
3.405090 -8.026284 31.793557 204 204 204 0
3.603807 -8.201768 32.488682 205 205 205 0
3.652226 -8.034898 31.827681 204 204 204 0
3.759704 -8.004531 31.707393 204 204 204 0
3.859939 -7.961125 31.535453 204 204 204 0
3.966162 -7.932324 31.421367 205 205 205 0
4.094169 -7.947505 31.481503 205 205 205 0
4.220330 -7.958336 31.524404 204 204 204 0
4.323636 -7.926665 31.398951 170 170 170 0
-5.220376 -8.700626 34.994976 96 96 96 0
-5.085998 -8.699733 34.991383 181 181 181 0
-4.953128 -8.701440 34.998252 190 190 190 0
-4.819303 -8.701519 34.998570 191 191 191 0
-4.685111 -8.700920 34.996159 191 191 191 0
-4.551410 -8.701225 34.997387 191 191 191 0
-4.412204 -8.690704 34.955070 191 191 191 0
-4.264288 -8.661835 34.838953 190 190 190 0
-4.150071 -8.701762 34.999545 190 190 190 0
-4.016164 -8.701689 34.999252 191 191 191 0
-3.860022 -8.651773 34.798485 192 192 192 0
-3.710115 -8.612767 34.641596 193 193 193 0
-3.573877 -8.603779 34.605447 193 193 193 0
-3.465072 -8.662680 34.842351 193 193 193 0
-3.337111 -8.676488 34.897890 193 193 193 0
-3.184388 -8.624383 34.688318 192 192 192 0
-3.033354 -8.572521 34.479724 193 193 193 0
-2.901065 -8.571327 34.474922 194 194 194 0
-2.778290 -8.599470 34.588116 194 194 194 0
-2.634773 -8.563011 34.441474 195 195 195 0
-2.480378 -8.485505 34.129733 193 193 193 0
-2.331224 -8.418307 33.859457 193 193 193 0
-2.187973 -8.365781 33.648188 183 183 183 0
-2.027373 -8.236205 33.127017 166 166 166 0
-1.860693 -8.063001 32.430371 159 159 159 0
-1.689758 -7.845306 31.554776 161 161 161 0
-1.544479 -7.722393 31.060406 165 165 165 0
-1.408993 -7.632047 30.697020 168 168 168 0
-1.290739 -7.627094 30.677098 169 169 169 0
-1.176665 -7.648320 30.762474 174 174 174 0
-1.053465 -7.608361 30.601754 174 174 174 0
-0.931423 -7.567808 30.438646 177 177 177 0
-0.812342 -7.543178 30.339580 177 177 177 0
-0.696835 -7.549043 30.363169 178 178 178 0
-0.583628 -7.587169 30.516516 180 180 180 0
-0.464069 -7.541123 30.331316 181 181 181 0
-0.345894 -7.494367 30.143256 182 182 182 0
-0.229408 -7.455764 29.987988 182 182 182 0
-0.115023 -7.476466 30.071254 185 185 185 0
0.000000 -7.499234 30.162830 186 186 186 0
0.115285 -7.493493 30.139741 186 186 186 0
0.229973 -7.474132 30.061867 187 187 187 0
0.344487 -7.463878 30.020626 188 188 188 0
0.462155 -7.510014 30.206191 188 188 188 0
0.579367 -7.531770 30.293696 189 189 189 0
0.695446 -7.534001 30.302667 187 187 187 0
0.811283 -7.533341 30.300014 189 189 189 0
0.929305 -7.550604 30.369450 189 189 189 0
1.046291 -7.556548 30.393357 190 190 190 0
1.162148 -7.553965 30.382966 188 188 188 0
1.281943 -7.575118 30.468045 190 190 190 0
1.404094 -7.605507 30.590274 190 190 190 0
1.548575 -7.742875 31.142786 190 190 190 0
1.656571 -7.691221 30.935027 191 191 191 0
1.778815 -7.708199 31.003313 191 191 191 0
1.908425 -7.752976 31.183413 190 190 190 0
2.044833 -7.818480 31.446878 190 190 190 0
2.189599 -7.906886 31.802457 190 190 190 0
2.330398 -7.972414 32.066018 193 193 193 0
2.462713 -8.003818 32.192332 198 198 198 0
2.585025 -8.001269 32.182078 205 205 205 0
2.701002 -7.980232 32.097466 207 207 207 0
2.815492 -7.956825 32.003319 206 206 206 0
2.942065 -7.968092 32.048637 207 207 207 0
3.073104 -7.990071 32.137038 207 207 207 0
3.182292 -7.955731 31.998916 203 203 203 0
3.288861 -7.917629 31.845667 205 205 205 0
3.403715 -7.901481 31.780719 205 205 205 0
3.558561 -7.976085 32.080784 204 204 204 0
3.657010 -7.923523 31.869372 204 204 204 0
3.759062 -7.881904 31.701979 204 204 204 0
3.862313 -7.845323 31.554843 204 204 204 0
3.971429 -7.822513 31.463097 204 204 204 0
4.097017 -7.832533 31.503402 204 204 204 0
4.225100 -7.846614 31.560037 202 202 202 0
4.331631 -7.821001 31.457016 166 166 166 0
-5.220137 -8.566379 34.993379 93 93 93 0
-5.086012 -8.565915 34.991482 181 181 181 0
-4.952980 -8.567316 34.997207 189 189 189 0
-4.819019 -8.567145 34.996505 189 189 189 0
-4.685042 -8.566935 34.995648 190 190 190 0
-4.551433 -8.567404 34.997564 192 192 192 0
-4.411605 -8.555841 34.950330 191 191 191 0
-4.265101 -8.530201 34.845594 191 191 191 0
-4.149947 -8.567634 34.998503 191 191 191 0
-4.016106 -8.567694 34.998749 193 193 193 0
-3.860502 -8.519728 34.802812 192 192 192 0
-3.716595 -8.495075 34.702104 192 192 192 0
-3.575565 -8.475414 34.621790 191 191 191 0
-3.462890 -8.524037 34.820413 193 193 193 0
-3.335519 -8.538928 34.881242 192 192 192 0
-3.182638 -8.487036 34.669265 193 193 193 0
-3.037611 -8.452483 34.528115 194 194 194 0
-2.899367 -8.434523 34.454751 194 194 194 0
-2.771660 -8.446963 34.505568 194 194 194 0
-2.632055 -8.422576 34.405949 191 191 191 0
-2.472687 -8.329050 34.023899 182 182 182 0
-2.266629 -8.059127 32.921270 164 164 164 0
-2.082671 -7.840643 32.028769 157 157 157 0
-1.922778 -7.691113 31.417947 160 160 160 0
-1.778056 -7.586372 30.990083 162 162 162 0
-1.642985 -7.510791 30.681334 165 165 165 0
-1.518731 -7.476827 30.542596 170 170 170 0
-1.393878 -7.434014 30.367703 172 172 172 0
-1.278821 -7.440411 30.393835 173 173 173 0
-1.162953 -7.442897 30.403991 173 173 173 0
-1.046114 -7.439036 30.388218 176 176 176 0
-0.922794 -7.382350 30.156658 179 179 179 0
-0.802204 -7.334435 29.960927 180 180 180 0
-0.685566 -7.312704 29.872156 181 181 181 0
-0.550282 -7.043605 28.772898 183 183 183 0
-0.460659 -7.370547 30.108444 185 185 185 0
-0.343736 -7.333043 29.955240 185 185 185 0
-0.227760 -7.288336 29.772613 185 185 185 0
-0.113718 -7.277967 29.730258 187 187 187 0
0.000000 -7.315466 29.883439 187 187 187 0
0.114594 -7.334020 29.959234 186 186 186 0
0.228467 -7.310933 29.864921 187 187 187 0
0.342102 -7.298180 29.812827 188 188 188 0
0.457564 -7.321024 29.906145 189 189 189 0
0.573808 -7.344745 30.003042 189 189 189 0
0.690352 -7.363750 30.080678 191 191 191 0
0.803617 -7.347355 30.013705 191 191 191 0
0.919898 -7.359186 30.062036 190 190 190 0
1.035488 -7.363467 30.079522 192 192 192 0
1.152130 -7.373630 30.121037 192 192 192 0
1.270970 -7.394736 30.207254 191 191 191 0
1.392350 -7.425868 30.334429 192 192 192 0
1.511899 -7.443194 30.405206 192 192 192 0
1.636514 -7.481205 30.560479 192 192 192 0
1.755488 -7.490084 30.596746 193 193 193 0
1.879793 -7.519172 30.715574 192 192 192 0
2.007308 -7.556922 30.869781 191 191 191 0
2.138607 -7.603937 31.061834 190 190 190 0
2.284637 -7.695620 31.436356 192 192 192 0
2.427558 -7.768187 31.732789 193 193 193 0
2.576014 -7.850709 32.069889 193 193 193 0
2.706152 -7.872443 32.158671 201 201 201 0
2.831584 -7.879191 32.186239 207 207 207 0
2.948598 -7.862928 32.119805 207 207 207 0
3.076948 -7.876987 32.177236 207 207 207 0
3.186127 -7.842773 32.037471 206 206 206 0
3.291321 -7.801650 31.869486 206 206 206 0
3.405033 -7.782933 31.793029 204 204 204 0
3.548500 -7.831173 31.990084 206 206 206 0
3.658358 -7.804496 31.881112 206 206 206 0
3.762130 -7.766977 31.727847 205 205 205 0
3.862991 -7.725983 31.560387 204 204 204 0
3.972479 -7.704202 31.471414 205 205 205 0
4.098182 -7.714226 31.512360 205 205 205 0
4.223705 -7.723347 31.549618 204 204 204 0
4.331072 -7.699684 31.452958 160 160 160 0
-5.219796 -8.431978 34.991090 88 88 88 0
-5.085784 -8.431694 34.989912 179 179 179 0
-4.953010 -8.433503 34.997418 189 189 189 0
-4.818862 -8.433009 34.995368 190 190 190 0
-4.684973 -8.432951 34.995127 190 190 190 0
-4.551331 -8.433349 34.996778 190 190 190 0
-4.416969 -8.432396 34.992826 190 190 190 0
-4.263070 -8.392919 34.829002 190 190 190 0
-4.149874 -8.433616 34.997886 191 191 191 0
-4.016109 -8.433828 34.998769 191 191 191 0
-3.866555 -8.399757 34.857380 192 192 192 0
-3.723424 -8.377705 34.765866 192 192 192 0
-3.584201 -8.363136 34.705410 192 192 192 0
-3.470656 -8.409666 34.898500 192 192 192 0
-3.322468 -8.372619 34.744761 194 194 194 0
-3.183067 -8.355551 34.673934 193 193 193 0
-3.036875 -8.318398 34.519755 195 195 195 0
-2.890352 -8.276918 34.347619 194 194 194 0
-2.733933 -8.201799 34.035891 187 187 187 0
-2.566918 -8.085792 33.554487 167 167 167 0
-2.315014 -7.676099 31.854339 150 150 150 0
-2.158807 -7.555824 31.355219 155 155 155 0
-2.000931 -7.415216 30.771724 162 162 162 0
-1.868492 -7.357186 30.530910 163 163 163 0
-1.756260 -7.376293 30.610201 168 168 168 0
-1.636352 -7.363586 30.557467 171 171 171 0
-1.508048 -7.308234 30.327768 173 173 173 0
-1.384856 -7.270491 30.171144 176 176 176 0
-1.262301 -7.229544 30.001221 176 176 176 0
-1.150674 -7.249248 30.082988 180 180 180 0
-1.037404 -7.261827 30.135187 180 180 180 0
-0.917930 -7.228699 29.997715 182 182 182 0
-0.797762 -7.179860 29.795040 183 183 183 0
-0.680477 -7.145010 29.650419 184 184 184 0
-0.569077 -7.170373 29.755673 184 184 184 0
-0.457913 -7.212134 29.928973 185 185 185 0
-0.341903 -7.179959 29.795452 187 187 187 0
-0.226794 -7.144021 29.646316 187 187 187 0
-0.112962 -7.116625 29.532627 188 188 188 0
0.000000 -7.135800 29.612200 190 190 190 0
0.113681 -7.161876 29.720413 190 190 190 0
0.227187 -7.156394 29.697660 191 191 191 0
0.340420 -7.148811 29.666195 191 191 191 0
0.453477 -7.142255 29.638988 191 191 191 0
0.569637 -7.177431 29.784960 191 191 191 0
0.684250 -7.184630 29.814835 190 190 190 0
0.798425 -7.185828 29.819809 192 192 192 0
0.911439 -7.177581 29.785585 192 192 192 0
1.025866 -7.181062 29.800030 192 192 192 0
1.144095 -7.207799 29.910984 192 192 192 0
1.260575 -7.219657 29.960189 192 192 192 0
1.379848 -7.244200 30.062041 192 192 192 0
1.499964 -7.269058 30.165197 194 194 194 0
1.705757 -7.675908 31.853545 193 193 193 0
1.742521 -7.318587 30.370730 193 193 193 0
1.861747 -7.330628 30.420698 192 192 192 0
1.982435 -7.346672 30.487280 192 192 192 0
2.106349 -7.372221 30.593303 193 193 193 0
2.237033 -7.417531 30.781329 193 193 193 0
2.375464 -7.482712 31.051819 191 191 191 0
2.513885 -7.541656 31.296427 192 192 192 0
2.681356 -7.678429 31.864008 193 193 193 0
2.821823 -7.729340 32.075279 194 194 194 0
2.944692 -7.729817 32.077257 200 200 200 0
3.080423 -7.762666 32.213575 208 208 208 0
3.190377 -7.730528 32.080208 208 208 208 0
3.296275 -7.691307 31.917449 207 207 207 0
3.407532 -7.666948 31.816363 206 206 206 0
3.550969 -7.714173 32.012339 205 205 205 0
3.661937 -7.690067 31.912303 204 204 204 0
3.763080 -7.647549 31.735860 205 205 205 0
3.865062 -7.609340 31.577303 205 205 205 0
3.972664 -7.584176 31.472874 205 205 205 0
4.100301 -7.597617 31.528654 205 205 205 0
4.225117 -7.605211 31.560165 203 203 203 0
4.329478 -7.576586 31.441379 155 155 155 0
-5.219804 -8.298149 34.991143 86 86 86 0
-5.085756 -8.297812 34.989720 178 178 178 0
-4.952794 -8.299277 34.995896 189 189 189 0
-4.818813 -8.299068 34.995014 190 190 190 0
-4.684949 -8.299052 34.994949 191 191 191 0
-4.551270 -8.299375 34.996311 190 190 190 0
-4.417832 -8.300169 34.999660 191 191 191 0
-4.266012 -8.265399 34.853042 191 191 191 0
-4.149825 -8.299650 34.997471 192 192 192 0
-4.016022 -8.299779 34.998015 190 190 190 0
-3.867064 -8.267516 34.861970 192 192 192 0
-3.721801 -8.241131 34.750711 192 192 192 0
-3.591413 -8.246948 34.775240 192 192 192 0
-3.475777 -8.288390 34.949990 192 192 192 0
-3.332451 -8.264478 34.849160 191 191 191 0
-3.166691 -8.180618 34.495543 192 192 192 0
-3.013872 -8.124351 34.258279 190 190 190 0
-2.809254 -7.916988 33.383885 176 176 176 0
-2.594400 -7.659657 32.298788 149 149 149 0
-2.405260 -7.456307 31.441311 153 153 153 0
-2.244583 -7.324429 30.885217 157 157 157 0
-2.106783 -7.256697 30.599606 161 161 161 0
-1.974814 -7.202264 30.370078 167 167 167 0
-1.851243 -7.173567 30.249071 170 170 170 0
-1.732556 -7.161230 30.197047 171 171 171 0
-1.619607 -7.172546 30.244763 174 174 174 0
-1.497580 -7.142302 30.117236 176 176 176 0
-1.376174 -7.110231 29.981997 180 180 180 0
-1.253817 -7.066970 29.799578 181 181 181 0
-1.139341 -7.063914 29.786694 180 180 180 0
-1.027728 -7.079906 29.854127 180 180 180 0
-0.913634 -7.080661 29.857309 183 183 183 0
-0.794160 -7.033993 29.660522 185 185 185 0
-0.677307 -6.998839 29.512288 186 186 186 0
-0.566058 -7.019115 29.597788 188 188 188 0
-0.496528 -7.696189 32.452832 189 189 189 0
-0.341260 -7.052716 29.739473 189 189 189 0
-0.225908 -7.003153 29.530480 189 189 189 0
-0.112246 -6.959253 29.345365 190 190 190 0
0.000000 -6.959821 29.347759 190 190 190 0
0.112843 -6.996261 29.501418 191 191 191 0
0.225977 -7.005279 29.539442 191 191 191 0
0.337815 -6.981502 29.439184 192 192 192 0
0.450368 -6.980704 29.435815 192 192 192 0
0.565393 -7.010871 29.563021 193 193 193 0
0.680618 -7.033054 29.656563 194 194 194 0
0.794363 -7.035788 29.668094 194 194 194 0
0.906149 -7.022655 29.612715 193 193 193 0
1.019908 -7.026034 29.626963 194 194 194 0
1.137544 -7.052771 29.739706 194 194 194 0
1.252603 -7.060126 29.770717 194 194 194 0
1.369974 -7.078201 29.846937 194 194 194 0
1.489089 -7.101807 29.946476 193 193 193 0
1.606771 -7.115701 30.005066 194 194 194 0
1.727746 -7.141350 30.113221 193 193 193 0
1.846850 -7.156544 30.177290 194 194 194 0
1.964239 -7.163694 30.207440 193 193 193 0
2.087547 -7.190438 30.320212 194 194 194 0
2.215505 -7.229543 30.485105 193 193 193 0
2.338017 -7.247852 30.562311 193 193 193 0
2.472042 -7.298409 30.775497 192 192 192 0
2.611203 -7.358844 31.030335 194 194 194 0
2.770548 -7.468433 31.492443 191 191 191 0
2.914911 -7.530186 31.752839 194 194 194 0
3.069496 -7.612349 32.099301 198 198 198 0
3.191879 -7.611405 32.095318 206 206 206 0
3.297347 -7.571686 31.927834 207 207 207 0
3.411898 -7.554917 31.857123 207 207 207 0
3.550934 -7.591652 32.012028 206 206 206 0
3.666113 -7.576633 31.948695 205 205 205 0
3.766102 -7.532203 31.761347 205 205 205 0
3.867833 -7.493926 31.599941 205 205 205 0
3.977054 -7.472041 31.507659 206 206 206 0
4.102771 -7.481524 31.547644 205 205 205 0
4.223361 -7.481382 31.547048 203 203 203 0
4.331511 -7.459824 31.456142 155 155 155 0
-5.219851 -8.164382 34.991457 83 83 83 0
-5.085798 -8.164043 34.990007 176 176 176 0
-4.952706 -8.165272 34.995274 190 190 190 0
-4.818710 -8.165036 34.994260 190 190 190 0
-4.684861 -8.165044 34.994295 190 190 190 0
-4.551213 -8.165412 34.995874 190 190 190 0
-4.417769 -8.166179 34.999161 190 190 190 0
-4.270875 -8.141355 34.892769 192 192 192 0
-4.149769 -8.165675 34.997000 191 191 191 0
-4.016071 -8.166012 34.998443 192 192 192 0
-3.872866 -8.146374 34.914277 191 191 191 0
-3.723800 -8.112565 34.769376 193 193 193 0
-3.608771 -8.153149 34.943316 191 191 191 0
-3.468655 -8.137998 34.878378 194 194 194 0
-3.307898 -8.071271 34.592398 193 193 193 0
-3.114018 -7.914796 33.921766 184 184 184 0
-2.872535 -7.618463 32.651721 158 158 158 0
-2.666650 -7.393892 31.689241 148 148 148 0
-2.505789 -7.278721 31.195633 153 153 153 0
-2.366668 -7.218339 30.936842 159 159 159 0
-2.222354 -7.134926 30.579348 164 164 164 0
-2.087012 -7.072652 30.312450 168 168 168 0
-1.959580 -7.031433 30.135790 169 169 169 0
-1.836084 -7.000070 30.001373 173 173 173 0
-1.717572 -6.984794 29.935902 177 177 177 0
-1.607304 -7.003255 30.015021 178 178 178 0
-1.491158 -6.996970 29.988085 178 178 178 0
-1.367953 -6.953762 29.802903 179 179 179 0
-1.246284 -6.911210 29.620531 180 180 180 0
-1.130979 -6.898972 29.568078 183 183 183 0
-1.019120 -6.907369 29.604066 184 184 184 0
-0.908131 -6.924496 29.677472 186 186 186 0
-0.790900 -6.892132 29.538765 188 188 188 0
-0.673815 -6.850449 29.360117 188 188 188 0
-0.560736 -6.840984 29.319551 188 188 188 0
-0.451258 -6.881690 29.494009 190 190 190 0
-0.339223 -6.897540 29.561941 190 190 190 0
-0.225111 -6.865896 29.426318 190 190 190 0
-0.111841 -6.822290 29.239429 190 190 190 0
0.000000 -6.801837 29.151773 191 191 191 0
0.111926 -6.827478 29.261666 191 191 191 0
0.224939 -6.860629 29.403747 191 191 191 0
0.336340 -6.838904 29.310635 192 192 192 0
0.448209 -6.835189 29.294712 193 193 193 0
0.561228 -6.846978 29.345240 193 193 193 0
0.675527 -6.867854 29.434712 194 194 194 0
0.789563 -6.880475 29.488802 194 194 194 0
0.901483 -6.873808 29.460230 195 195 195 0
1.014924 -6.878930 29.482183 194 194 194 0
1.130182 -6.894111 29.547246 196 196 196 0
1.246018 -6.909738 29.614219 196 196 196 0
1.362406 -6.925563 29.682044 194 194 194 0
1.479137 -6.940566 29.746347 197 197 197 0
1.594093 -6.945689 29.768301 195 195 195 0
1.722681 -7.005570 30.024942 195 195 195 0
1.834580 -6.994338 29.976804 193 193 193 0
1.953220 -7.008613 30.037986 195 195 195 0
2.072098 -7.022110 30.095830 195 195 195 0
2.193878 -7.043505 30.187527 195 195 195 0
2.319436 -7.074281 30.319429 193 193 193 0
2.443280 -7.097148 30.417433 194 194 194 0
2.572071 -7.131653 30.565317 193 193 193 0
2.721079 -7.216776 30.930143 194 194 194 0
2.866777 -7.286392 31.228508 195 195 195 0
3.019002 -7.366364 31.571260 193 193 193 0
3.177463 -7.454817 31.950355 198 198 198 0
3.294330 -7.442747 31.898625 204 204 204 0
3.413177 -7.435851 31.869070 208 208 208 0
3.560075 -7.488434 32.094434 207 207 207 0
3.671733 -7.465858 31.997677 207 207 207 0
3.769956 -7.418301 31.793854 206 206 206 0
3.871642 -7.380317 31.631059 206 206 206 0
3.978770 -7.354697 31.521254 205 205 205 0
4.107205 -7.368809 31.581737 204 204 204 0
4.228300 -7.369323 31.583942 202 202 202 0
4.329796 -7.336599 31.443690 150 150 150 0
-5.219999 -8.030767 34.992449 77 77 77 0
-5.085570 -8.029847 34.988442 173 173 173 0
-4.952579 -8.031209 34.994375 190 190 190 0
-4.818693 -8.031155 34.994141 190 190 190 0
-4.684818 -8.031117 34.993973 190 190 190 0
-4.551134 -8.031413 34.995265 190 190 190 0
-4.417770 -8.032309 34.999168 191 191 191 0
-4.273139 -8.012135 34.911264 190 190 190 0
-4.149851 -8.031970 34.997690 192 192 192 0
-4.016090 -8.032181 34.998608 191 191 191 0
-3.859326 -7.984811 34.792206 193 193 193 0
-3.715971 -7.962795 34.696274 192 192 192 0
-3.604903 -8.010896 34.905865 192 192 192 0
-3.464224 -7.994362 34.833822 187 187 187 0
-3.222166 -7.733198 33.695854 168 168 168 0
-2.960148 -7.400370 32.245619 146 146 146 0
-2.753193 -7.182243 31.295177 147 147 147 0
-2.596155 -7.080424 30.851520 154 154 154 0
-2.460379 -7.029653 30.630297 160 160 160 0
-2.339126 -7.017377 30.576806 164 164 164 0
-2.216534 -6.999582 30.499269 168 168 168 0
-2.081556 -6.938519 30.233197 171 171 171 0
-1.952914 -6.892637 30.033275 173 173 173 0
-1.823603 -6.838511 29.797432 176 176 176 0
-1.708008 -6.832031 29.769199 178 178 178 0
-1.596491 -6.842106 29.813097 179 179 179 0
-1.483467 -6.846771 29.833426 180 180 180 0
-1.363900 -6.819498 29.714589 183 183 183 0
-1.240342 -6.765499 29.479299 185 185 185 0
-1.123338 -6.740029 29.368316 187 187 187 0
-1.010748 -6.738317 29.360858 187 187 187 0
-0.902526 -6.768944 29.494311 186 186 186 0
-0.789111 -6.763805 29.471916 187 187 187 0
-0.671787 -6.717871 29.271769 188 188 188 0
-0.558129 -6.697549 29.183221 189 189 189 0
-0.446647 -6.699701 29.192595 191 191 191 0
-0.337868 -6.757367 29.443867 191 191 191 0
-0.224041 -6.721244 29.286467 192 192 192 0
-0.111548 -6.692885 29.162897 193 193 193 0
0.000000 -6.658523 29.013174 194 194 194 0
0.111206 -6.672350 29.073421 194 194 194 0
0.223721 -6.711643 29.244634 195 195 195 0
0.335197 -6.703950 29.211109 196 196 196 0
0.445782 -6.686732 29.136088 195 195 195 0
0.557152 -6.685821 29.132117 195 195 195 0
0.670881 -6.708808 29.232280 196 196 196 0
0.785422 -6.732189 29.334155 196 196 196 0
0.896562 -6.724212 29.299399 195 195 195 0
1.006616 -6.710771 29.240832 195 195 195 0
1.122499 -6.734995 29.346384 195 195 195 0
1.239902 -6.763103 29.468860 195 195 195 0
1.355565 -6.777826 29.533011 196 196 196 0
1.469203 -6.780936 29.546563 195 195 195 0
1.584718 -6.791648 29.593235 196 196 196 0
1.699491 -6.797963 29.620752 197 197 197 0
1.821802 -6.831759 29.768013 197 197 197 0
1.940529 -6.848926 29.842816 198 198 198 0
2.056071 -6.853569 29.863044 195 195 195 0
2.179848 -6.883729 29.994462 194 194 194 0
2.305158 -6.915473 30.132778 195 195 195 0
2.420997 -6.917133 30.140013 195 195 195 0
2.539106 -6.924835 30.173572 195 195 195 0
2.680560 -6.992765 30.469564 194 194 194 0
2.824845 -7.062113 30.771733 194 194 194 0
2.958824 -7.101177 30.941949 194 194 194 0
3.133780 -7.231800 31.511112 194 194 194 0
3.273531 -7.274512 31.697221 195 195 195 0
3.401235 -7.288361 31.757563 202 202 202 0
3.567274 -7.380566 32.159329 208 208 208 0
3.676364 -7.352728 32.038032 208 208 208 0
3.774579 -7.305636 31.832836 207 207 207 0
3.875412 -7.266398 31.661867 206 206 206 0
3.982854 -7.241553 31.553606 206 206 206 0
4.108232 -7.249821 31.589633 206 206 206 0
4.225780 -7.244195 31.565120 203 203 203 0
4.332682 -7.221136 31.464645 145 145 145 0
-5.219383 -7.895990 34.988324 77 77 77 0
-5.085455 -7.895838 34.987649 172 172 172 0
-4.952344 -7.896980 34.992712 189 189 189 0
-4.818739 -7.897378 34.994474 190 190 190 0
-4.684762 -7.897170 34.993551 190 190 190 0
-4.551116 -7.897525 34.995127 190 190 190 0
-4.417721 -7.898349 34.998779 190 190 190 0
-4.234402 -7.807178 34.594784 191 191 191 0
-4.149715 -7.897844 34.996539 191 191 191 0
-4.015948 -7.898031 34.997370 191 191 191 0
-3.857360 -7.847732 34.774485 192 192 192 0
-3.698889 -7.794087 34.536774 191 191 191 0
-3.563792 -7.787547 34.507794 181 181 181 0
-3.351793 -7.605993 33.703302 148 148 148 0
-3.075697 -7.258645 32.164154 142 142 142 0
-2.868262 -7.051143 31.244681 150 150 150 0
-2.710508 -6.953041 30.809975 156 156 156 0
-2.565373 -6.879864 30.485718 161 161 161 0
-2.436455 -6.845277 30.332458 164 164 164 0
-2.311745 -6.819647 30.218885 168 168 168 0
-2.196331 -6.820186 30.221273 172 172 172 0
-2.070260 -6.785852 30.069137 176 176 176 0
-1.945312 -6.751378 29.916375 176 176 176 0
-1.813149 -6.685987 29.626618 177 177 177 0
-1.697653 -6.677434 29.588717 179 179 179 0
-1.585317 -6.680978 29.604423 182 182 182 0
-1.475276 -6.695482 29.668690 184 184 184 0
-1.358467 -6.679130 29.596236 185 185 185 0
-1.235274 -6.625563 29.358870 185 185 185 0
-1.118270 -6.597793 29.235816 186 186 186 0
-1.006143 -6.595827 29.227104 188 188 188 0
-0.897114 -6.616218 29.317463 188 188 188 0
-0.785772 -6.622938 29.347238 190 190 190 0
-0.669557 -6.583975 29.174589 192 192 192 0
-0.554532 -6.543474 28.995121 192 192 192 0
-0.442580 -6.528048 28.926765 192 192 192 0
-0.370516 -7.286822 32.289009 194 194 194 0
-0.223578 -6.595556 29.225904 194 194 194 0
-0.111236 -6.562896 29.081181 195 195 195 0
0.000000 -6.525237 28.914313 196 196 196 0
0.110537 -6.521696 28.898621 195 195 195 0
0.222565 -6.565672 29.093483 195 195 195 0
0.333710 -6.562961 29.081469 196 196 196 0
0.443724 -6.544924 29.001547 196 196 196 0
0.554316 -6.540928 28.983840 196 196 196 0
0.667629 -6.565019 29.090592 197 197 197 0
0.781485 -6.586805 29.187127 198 198 198 0
0.893390 -6.588753 29.195758 197 197 197 0
1.003531 -6.578701 29.151216 198 198 198 0
1.117650 -6.594136 29.219614 198 198 198 0
1.234005 -6.618753 29.328694 198 198 198 0
1.348427 -6.629768 29.377504 198 198 198 0
1.462116 -6.635756 29.404037 197 197 197 0
1.575958 -6.641538 29.429659 197 197 197 0
1.691476 -6.653139 29.481064 197 197 197 0
1.816500 -6.698346 29.681380 197 197 197 0
1.929393 -6.696129 29.671558 197 197 197 0
2.046063 -6.706540 29.717692 197 197 197 0
2.165892 -6.725664 29.802435 197 197 197 0
2.290589 -6.757239 29.942346 196 196 196 0
2.407290 -6.763339 29.969378 197 197 197 0
2.526338 -6.775180 30.021846 195 195 195 0
2.650003 -6.797835 30.122232 195 195 195 0
2.795145 -6.871397 30.448200 194 194 194 0
2.935181 -6.927028 30.694707 195 195 195 0
3.070053 -6.966660 30.870321 193 193 193 0
3.236776 -7.072956 31.341335 194 194 194 0
3.377512 -7.116900 31.536058 196 196 196 0
3.581959 -7.287434 32.291719 198 198 198 0
3.674885 -7.227274 32.025144 207 207 207 0
3.777225 -7.188911 31.855151 207 207 207 0
3.879136 -7.152157 31.692288 206 206 206 0
3.986633 -7.127616 31.583541 206 206 206 0
4.114009 -7.139016 31.634060 205 205 205 0
4.230949 -7.132171 31.603727 202 202 202 0
4.333428 -7.102007 31.470063 139 139 139 0
-5.220722 -7.764151 34.997300 77 77 77 0
-5.085075 -7.761431 34.985039 168 168 168 0
-4.951986 -7.762572 34.990182 189 189 189 0
-4.818456 -7.763068 34.992419 191 191 191 0
-4.684757 -7.763312 34.993517 190 190 190 0
-4.550909 -7.763315 34.993530 190 190 190 0
-4.417496 -7.764083 34.996995 190 190 190 0
-4.074130 -7.384362 33.285380 190 190 190 0
-4.149598 -7.763763 34.995553 191 191 191 0
-4.016101 -7.764463 34.998705 191 191 191 0
-3.849813 -7.699626 34.706451 189 189 189 0
-3.652720 -7.566348 34.105694 170 170 170 0
-2.326490 -4.997646 22.527140 133 133 133 0
-3.252206 -7.254921 32.701921 134 134 134 0
-2.986473 -6.928616 31.231085 146 146 146 0
-2.833909 -6.848614 30.870469 155 155 155 0
-2.687108 -6.776184 30.543991 162 162 162 0
-2.542764 -6.703651 30.217045 165 165 165 0
-2.414639 -6.669004 30.060869 167 167 167 0
-2.289643 -6.639965 29.929976 173 173 173 0
-2.176825 -6.645044 29.952870 175 175 175 0
-2.058066 -6.631547 29.892032 175 175 175 0
-1.935222 -6.602524 29.761206 176 176 176 0
-1.805972 -6.546647 29.509340 181 181 181 0
-1.687190 -6.523801 29.406361 183 183 183 0
-1.574302 -6.522110 29.398736 184 184 184 0
-1.466178 -6.541408 29.485726 185 185 185 0
-1.352342 -6.536322 29.462797 185 185 185 0
-1.231577 -6.493772 29.271003 185 185 185 0
-1.112793 -6.454202 29.092637 188 188 188 0
-0.999866 -6.443583 29.044772 190 190 190 0
-0.891535 -6.463629 29.135133 192 192 192 0
-0.782005 -6.479467 29.206523 191 191 191 0
-0.667410 -6.451634 29.081065 192 192 192 0
-0.552534 -6.409398 28.890682 192 192 192 0
-0.440994 -6.394408 28.823116 193 193 193 0
-0.332450 -6.427360 28.971647 194 194 194 0
-0.222350 -6.448141 29.065319 194 194 194 0
-0.110799 -6.426327 28.966989 194 194 194 0
0.000000 -6.396229 28.831323 195 195 195 0
0.110126 -6.387285 28.791008 195 195 195 0
0.221295 -6.417544 28.927401 195 195 195 0
0.332514 -6.428612 28.977293 196 196 196 0
0.442566 -6.417211 28.925899 196 196 196 0
0.552949 -6.414213 28.912387 196 196 196 0
0.664417 -6.422698 28.950633 197 197 197 0
0.777410 -6.441393 29.034904 197 197 197 0
0.889698 -6.450310 29.075097 198 198 198 0
0.999916 -6.443905 29.046225 199 199 199 0
1.112643 -6.453330 29.088709 198 198 198 0
1.227191 -6.470644 29.166753 199 199 199 0
1.343556 -6.493853 29.271368 200 200 200 0
1.456809 -6.499607 29.297306 200 200 200 0
1.570178 -6.505024 29.321724 198 198 198 0
1.684175 -6.512143 29.353812 198 198 198 0
1.810290 -6.562303 29.579910 197 197 197 0
1.924970 -6.567546 29.603543 198 198 198 0
2.037092 -6.563964 29.587398 197 197 197 0
2.154794 -6.577792 29.649729 198 198 198 0
2.276464 -6.601746 29.757701 198 198 198 0
2.397956 -6.622926 29.853173 198 198 198 0
2.518173 -6.638820 29.924812 196 196 196 0
2.636830 -6.649397 29.972489 195 195 195 0
2.776539 -6.709968 30.245519 196 196 196 0
2.910195 -6.751652 30.433409 195 195 195 0
3.041500 -6.784886 30.583213 194 194 194 0
3.186227 -6.844489 30.851876 195 195 195 0
3.344488 -6.927867 31.227710 194 194 194 0
3.456443 -6.912886 31.160179 193 193 193 0
3.667097 -7.089720 31.957270 197 197 197 0
3.776615 -7.065924 31.850008 208 208 208 0
3.881506 -7.035229 31.711647 208 208 208 0
3.993559 -7.018983 31.638416 208 208 208 0
4.120440 -7.028986 31.683505 205 205 205 0
4.231261 -7.011803 31.606055 204 204 204 0
4.333263 -6.981368 31.468866 137 137 137 0
-5.084584 -7.626876 34.981660 167 167 167 0
-4.951717 -7.628321 34.988286 189 189 189 0
-4.818413 -7.629155 34.992109 190 190 190 0
-4.684705 -7.629377 34.993127 191 191 191 0
-4.550860 -7.629382 34.993153 190 190 190 0
-4.417395 -7.630045 34.996194 191 191 191 0
-3.811844 -6.789848 31.142519 191 191 191 0
-4.150103 -7.630835 34.999818 191 191 191 0
-4.015830 -7.630076 34.996336 185 185 185 0
