ply
    format ascii 1.0
    element vertex 21679
    property float x
    property float y
    property float z
    property uchar red
    property uchar green
    property uchar blue
    property uchar alpha
    end_header
-4.289786 -6.434678 31.153127 197 197 197 0
-4.173237 -6.438708 31.172638 198 198 198 0
-4.065828 -6.457492 31.263576 197 197 197 0
-3.947440 -6.459448 31.273046 198 198 198 0
-3.822979 -6.451277 31.233490 197 197 197 0
-3.707117 -6.457558 31.263899 199 199 199 0
-3.596234 -6.473221 31.339727 198 198 198 0
-3.471559 -6.464282 31.296452 198 198 198 0
-3.333511 -6.428913 31.125215 199 199 199 0
-3.214169 -6.428337 31.122426 198 198 198 0
-3.117734 -6.475294 31.349768 198 198 198 0
-2.992431 -6.463652 31.293399 198 198 198 0
-2.858391 -6.431380 31.137160 199 199 199 0
-2.729159 -6.407592 31.021989 199 199 199 0
-2.600543 -6.383152 30.903666 199 199 199 0
-2.497660 -6.422553 31.094424 199 199 199 0
-2.383506 -6.435465 31.156936 199 199 199 0
-2.251310 -6.398461 30.977784 199 199 199 0
-2.126177 -6.378530 30.881286 199 199 199 0
-2.005767 -6.371259 30.846086 200 200 200 0
-1.895295 -6.396622 30.968880 199 199 199 0
-1.782396 -6.416624 31.065719 199 199 199 0
-1.658720 -6.397919 30.975157 200 200 200 0
-1.532729 -6.366720 30.824112 200 200 200 0
-1.416252 -6.373134 30.855164 200 200 200 0
-1.306478 -6.413620 31.051175 201 201 201 0
-1.186573 -6.407494 31.021515 200 200 200 0
-1.061923 -6.371537 30.847431 201 201 201 0
-0.939133 -6.339145 30.690607 200 200 200 0
-0.824185 -6.357997 30.781878 200 200 200 0
-0.711174 -6.400563 30.987959 201 201 201 0
-0.589902 -6.370936 30.844524 200 200 200 0
-0.468931 -6.330573 30.649107 202 202 202 0
-0.350763 -6.313742 30.567620 200 200 200 0
-0.234271 -6.325330 30.623725 201 201 201 0
-0.117479 -6.343876 30.713511 201 201 201 0
0.000000 -6.334171 30.666525 201 201 201 0
0.116759 -6.304980 30.525199 201 201 201 0
0.233146 -6.294946 30.476620 202 202 202 0
0.350463 -6.308331 30.541421 202 202 202 0
0.467299 -6.308532 30.542398 202 202 202 0
0.583165 -6.298183 30.492292 201 201 201 0
0.698636 -6.287726 30.441666 202 202 202 0
0.814742 -6.285150 30.429194 203 203 203 0
0.931483 -6.287509 30.440613 203 203 203 0
1.049969 -6.299811 30.500175 202 202 202 0
1.165491 -6.293651 30.470351 202 202 202 0
1.279715 -6.282235 30.415082 203 203 203 0
1.392279 -6.265256 30.332880 203 203 203 0
1.509531 -6.270361 30.357592 202 202 202 0
1.627807 -6.278684 30.397890 203 203 203 0
1.740686 -6.266470 30.338758 202 202 202 0
1.849847 -6.243235 30.226265 203 203 203 0
1.962738 -6.234581 30.184365 203 203 203 0
2.073707 -6.221121 30.119201 203 203 203 0
2.190916 -6.226813 30.146760 203 203 203 0
2.308736 -6.233588 30.179558 203 203 203 0
2.419559 -6.221723 30.122117 204 204 204 0
2.529097 -6.207784 30.054632 204 204 204 0
2.641054 -6.200735 30.020504 204 204 204 0
2.753381 -6.195108 29.993259 204 204 204 0
2.870459 -6.200191 30.017872 204 204 204 0
2.983528 -6.196558 30.000282 204 204 204 0
3.093744 -6.187489 29.956373 203 203 203 0
3.199285 -6.170050 29.871942 204 204 204 0
3.323624 -6.188817 29.962804 205 205 205 0
3.445347 -6.201625 30.024811 204 204 204 0
3.551409 -6.186325 29.950738 204 204 204 0
3.652266 -6.163199 29.838777 204 204 204 0
3.760197 -6.153049 29.789634 205 205 205 0
3.891162 -6.180081 29.920509 205 205 205 0
4.002269 -6.174929 29.895564 205 205 205 0
4.098847 -6.148270 29.766499 205 205 205 0
4.197379 -6.125904 29.658213 205 205 205 0
4.299696 -6.110095 29.581674 205 205 205 0
4.427939 -6.130992 29.682849 205 205 205 0
4.543720 -6.134021 29.697514 206 206 206 0
4.643140 -6.115355 29.607143 206 206 206 0
4.742211 -6.097128 29.518896 205 205 205 0
4.852312 -6.093601 29.501820 205 205 205 0
4.972741 -6.102909 29.546885 206 206 206 0
5.082793 -6.099351 29.529661 205 205 205 0
5.188438 -6.090775 29.488138 206 206 206 0
5.285982 -6.073256 29.403323 206 206 206 0
5.395654 -6.070110 29.388092 205 205 205 0
5.521465 -6.084880 29.459597 205 205 205 0
5.635211 -6.086028 29.465157 206 206 206 0
5.737335 -6.074825 29.410917 206 206 206 0
5.830312 -6.054554 29.312779 205 205 205 0
5.935842 -6.047839 29.280268 207 207 207 0
6.049092 -6.049092 29.286334 206 206 206 0
6.170801 -6.058605 29.332389 206 206 206 0
6.261563 -6.037936 29.232319 206 206 206 0
6.354394 -6.019952 29.145255 206 206 206 0
6.459162 -6.013702 29.114996 206 206 206 0
6.574915 -6.017719 29.134442 206 206 206 0
6.686789 -6.018110 29.136336 207 207 207 0
6.782417 -6.004107 29.068540 206 206 206 0
6.886413 -5.997844 29.038218 207 207 207 0
6.987177 -5.989009 28.995443 207 207 207 0
7.100186 -5.990782 29.004029 207 207 207 0
7.201743 -5.982987 28.966288 206 206 206 0
7.312360 -5.982840 28.965576 207 207 207 0
7.416662 -5.977608 28.940247 207 207 207 0
7.525510 -5.976140 28.933142 207 207 207 0
7.630923 -5.972027 28.913225 207 207 207 0
7.745228 -5.974890 28.927088 207 207 207 0
7.854358 -5.973737 28.921508 208 208 208 0
7.944975 -5.958731 28.848856 207 207 207 0
8.037059 -5.945222 28.783452 207 207 207 0
8.135664 -5.936836 28.742850 207 207 207 0
8.266279 -5.951721 28.814915 207 207 207 0
8.364240 -5.943013 28.772757 208 208 208 0
8.455923 -5.930128 28.710375 207 207 207 0
8.548307 -5.918059 28.651943 206 206 206 0
8.715519 -5.957443 28.842621 156 156 156 0
-8.922326 -6.390314 31.522084 104 104 104 0
-8.607389 -6.249200 30.825998 186 186 186 0
-8.372240 -6.162899 30.400289 192 192 192 0
-8.447741 -6.306061 31.106477 193 193 193 0
-8.438752 -6.389341 31.517282 192 192 192 0
-8.236358 -6.326478 31.207193 192 192 192 0
-8.026631 -6.256050 30.859787 192 192 192 0
-7.927157 -6.270736 30.932229 192 192 192 0
-8.015390 -6.436601 31.750405 193 193 193 0
-7.862428 -6.410903 31.623640 192 192 192 0
-7.641075 -6.327765 31.213540 193 193 193 0
-7.462119 -6.277656 30.966362 194 194 194 0
-7.372728 -6.302493 31.088880 193 193 193 0
-7.385968 -6.417317 31.655280 194 194 194 0
-7.244953 -6.399708 31.568421 194 194 194 0
-7.035501 -6.320026 31.175365 194 194 194 0
-6.874599 -6.281961 30.987599 194 194 194 0
-6.816413 -6.338068 31.264362 194 194 194 0
-6.737539 -6.376600 31.454432 194 194 194 0
-6.621011 -6.380247 31.472422 195 195 195 0
-6.465101 -6.345377 31.300418 195 195 195 0
-6.319243 -6.319243 31.171503 194 194 194 0
-6.268005 -6.388544 31.513350 195 195 195 0
-6.181977 -6.424408 31.690259 196 196 196 0
-6.024381 -6.385844 31.500031 195 195 195 0
-5.872734 -6.352141 31.333780 195 195 195 0
-5.726366 -6.322863 31.189358 195 195 195 0
-5.658138 -6.380453 31.473441 195 195 195 0
-5.576465 -6.425058 31.693467 195 195 195 0
-5.410709 -6.372613 31.434766 196 196 196 0
-5.256800 -6.332055 31.234701 196 196 196 0
-5.145197 -6.341755 31.282549 196 196 196 0
-5.037904 -6.357355 31.359503 197 197 197 0
-4.925143 -6.366648 31.405341 196 196 196 0
-4.794309 -6.352460 31.335356 196 196 196 0
-4.651348 -6.321063 31.180482 197 197 197 0
-4.541720 -6.334504 31.246783 197 197 197 0
-4.425005 -6.338521 31.266597 197 197 197 0
-4.296901 -6.325993 31.204801 197 197 197 0
-4.193448 -6.350078 31.323606 197 197 197 0
-4.075638 -6.353200 31.339008 197 197 197 0
-3.952334 -6.347688 31.311816 198 198 198 0
-3.824943 -6.335062 31.249537 198 198 198 0
-3.712296 -6.346828 31.307574 198 198 198 0
-3.602317 -6.364093 31.392741 198 198 198 0
-3.474205 -6.349409 31.320308 199 199 199 0
-3.337579 -6.317561 31.163205 198 198 198 0
-3.218248 -6.317301 31.161925 198 198 198 0
-3.118104 -6.356136 31.353489 199 199 199 0
-2.996572 -6.352733 31.336702 199 199 199 0
-2.861804 -6.319818 31.174339 199 199 199 0
-2.732275 -6.296111 31.057400 198 198 198 0
-2.605646 -6.277239 30.964305 199 199 199 0
-2.500309 -6.310303 31.127404 199 199 199 0
-2.386538 -6.324325 31.196572 199 199 199 0
-2.255512 -6.291691 31.035594 199 199 199 0
-2.127899 -6.265481 30.906305 199 199 199 0
-2.006946 -6.256949 30.864218 199 199 199 0
-1.895717 -6.279562 30.975766 200 200 200 0
-1.781920 -6.296117 31.057426 200 200 200 0
-1.659404 -6.282030 30.987941 200 200 200 0
-1.534609 -6.256484 30.861924 201 201 201 0
-1.419161 -6.267961 30.918541 200 200 200 0
-1.308404 -6.304129 31.096947 200 200 200 0
-1.187594 -6.294247 31.048206 200 200 200 0
-1.062871 -6.259132 30.874988 201 201 201 0
-0.939696 -6.225487 30.709024 201 201 201 0
-0.826215 -6.255628 30.857703 201 201 201 0
-0.712381 -6.292697 31.040557 202 202 202 0
-0.590707 -6.261493 30.886633 201 201 201 0
-0.469646 -6.222811 30.695824 202 202 202 0
-0.351035 -6.201622 30.591304 201 201 201 0
-0.234406 -6.211767 30.641346 201 201 201 0
-0.117655 -6.235733 30.759567 201 201 201 0
0.000000 -6.223188 30.697686 201 201 201 0
0.116831 -6.192060 30.544137 201 201 201 0
0.233397 -6.185023 30.509426 201 201 201 0
0.350701 -6.195718 30.562178 203 203 203 0
0.467487 -6.194207 30.554727 202 202 202 0
0.583946 -6.189828 30.533128 202 202 202 0
0.699334 -6.177447 30.472052 202 202 202 0
0.815598 -6.175242 30.461177 202 202 202 0
0.933921 -6.187225 30.520284 202 202 202 0
1.051227 -6.190559 30.536732 203 203 203 0
1.166543 -6.182680 30.497864 202 202 202 0
1.281004 -6.172112 30.445738 203 203 203 0
1.395018 -6.161330 30.392551 203 203 203 0
1.511126 -6.160743 30.389656 202 202 202 0
1.629786 -6.169906 30.434855 202 202 202 0
1.742310 -6.156164 30.367066 203 203 203 0
1.851297 -6.132422 30.249955 202 202 202 0
1.965670 -6.128265 30.229451 203 203 203 0
2.076363 -6.113736 30.157779 204 204 204 0
2.193798 -6.119541 30.186414 204 204 204 0
2.311050 -6.124283 30.209804 203 203 203 0
2.421298 -6.110896 30.143771 203 203 203 0
2.531444 -6.098480 30.082524 204 204 204 0
2.642107 -6.088333 30.032472 204 204 204 0
2.755410 -6.084864 30.015362 203 203 203 0
2.876392 -6.097952 30.079920 204 204 204 0
2.987636 -6.090182 30.041593 204 204 204 0
3.095491 -6.076335 29.973290 204 204 204 0
3.204903 -6.066423 29.924397 204 204 204 0
3.329193 -6.084387 30.013007 204 204 204 0
3.449616 -6.094321 30.062009 204 204 204 0
3.555234 -6.078303 29.982998 205 205 205 0
3.653868 -6.051719 29.851863 204 204 204 0
3.766778 -6.049675 29.841778 204 204 204 0
3.892794 -6.068179 29.933059 205 205 205 0
4.003973 -6.063159 29.908293 205 205 205 0
4.100438 -6.036756 29.778053 205 205 205 0
4.200251 -6.016576 29.678509 205 205 205 0
4.305701 -6.005320 29.622985 205 205 205 0
4.433314 -6.024760 29.718880 205 205 205 0
4.549564 -6.028173 29.735714 206 206 206 0
4.647087 -6.007210 29.632308 204 204 204 0
4.747292 -5.990630 29.550524 206 206 206 0
4.857339 -5.986952 29.532383 205 205 205 0
4.980419 -5.999141 29.592508 205 205 205 0
5.089834 -5.994693 29.570566 205 205 205 0
5.191647 -5.981680 29.506378 205 205 205 0
5.293348 -5.969095 29.444295 205 205 205 0
5.401238 -5.963867 29.418509 206 206 206 0
5.526159 -5.977274 29.484642 206 206 206 0
5.642521 -5.981073 29.503379 206 206 206 0
5.743673 -5.968915 29.443411 206 206 206 0
5.839004 -5.951292 29.356480 206 206 206 0
5.944899 -5.944899 29.324942 206 206 206 0
6.612720 -6.490263 32.015107 206 206 206 0
6.171092 -5.946689 29.333771 206 206 206 0
6.264174 -5.928593 29.244508 206 206 206 0
6.359897 -5.913588 29.170493 207 207 207 0
6.464313 -5.907045 29.138216 207 207 207 0
6.585609 -5.915886 29.181827 207 207 207 0
6.694326 -5.913321 29.169177 207 207 207 0
6.788140 -5.897892 29.093066 207 207 207 0
6.895734 -5.894740 29.077519 207 207 207 0
6.999559 -5.888518 29.046826 206 206 206 0
7.113999 -5.891281 29.060455 207 207 207 0
7.214252 -5.882390 29.016601 206 206 206 0
7.321417 -5.879320 29.001454 207 207 207 0
7.428036 -5.875909 28.984630 207 207 207 0
7.531318 -5.869998 28.955470 207 207 207 0
7.641460 -5.869527 28.953149 207 207 207 0
7.754796 -5.871489 28.962825 207 207 207 0
7.864392 -5.870602 28.958452 207 207 207 0
7.953276 -5.854495 28.878999 208 208 208 0
8.041707 -5.838499 28.800096 208 208 208 0
8.145646 -5.834043 28.778115 207 207 207 0
8.275084 -5.847726 28.845610 208 208 208 0
8.373730 -5.839575 28.805400 208 208 208 0
8.463773 -5.825714 28.737029 207 207 207 0
8.558510 -5.815398 28.686141 204 204 204 0
8.738849 -5.862772 28.919827 148 148 148 0
-8.848907 -6.218151 31.262698 92 92 92 0
-8.618730 -6.139370 30.866614 182 182 182 0
-8.383087 -6.054452 30.439678 192 192 192 0
-8.466116 -6.200535 31.174135 192 192 192 0
-8.453756 -6.279933 31.573318 192 192 192 0
-8.250582 -6.217830 31.261087 192 192 192 0
-8.041868 -6.149664 30.918371 192 192 192 0
-7.947445 -6.168166 31.011393 193 193 193 0
-8.032627 -6.328736 31.818685 192 192 192 0
-7.870037 -6.296030 31.654247 193 193 193 0
-7.656322 -6.220761 31.275823 192 192 192 0
-7.480553 -6.174425 31.042861 193 193 193 0
-7.388300 -6.196639 31.154545 193 193 193 0
-7.399694 -6.307936 31.714108 193 193 193 0
-7.244780 -6.278809 31.567668 194 194 194 0
-7.038102 -6.203073 31.186891 194 194 194 0
-6.889582 -6.176867 31.055137 193 193 193 0
-6.822361 -6.223908 31.291646 194 194 194 0
-6.770424 -6.286822 31.607953 195 195 195 0
-6.626638 -6.265185 31.499171 195 195 195 0
-6.460556 -6.221276 31.278411 194 194 194 0
-6.338640 -6.219043 31.267184 194 194 194 0
-6.282157 -6.282157 31.584500 195 195 195 0
-6.180558 -6.301745 31.682981 194 194 194 0
-6.030886 -6.272121 31.534044 194 194 194 0
-5.870518 -6.229937 31.321956 195 195 195 0
-5.736136 -6.214147 31.242572 195 195 195 0
-5.666989 -6.269860 31.522673 195 195 195 0
-5.577745 -6.305277 31.700737 196 196 196 0
-5.415894 -6.258366 31.464889 196 196 196 0
-5.267739 -6.225510 31.299696 196 196 196 0
-5.157834 -6.237380 31.359378 196 196 196 0
-5.046409 -6.247935 31.412446 196 196 196 0
-4.932770 -6.256197 31.453980 196 196 196 0
-4.801286 -6.241672 31.380954 197 197 197 0
-4.668385 -6.224513 31.294686 197 197 197 0
-4.551585 -6.228484 31.314652 196 196 196 0
-4.427087 -6.221851 31.281304 197 197 197 0
-4.302154 -6.214223 31.242950 198 198 198 0
-4.188002 -6.222174 31.282926 197 197 197 0
-4.076565 -6.234746 31.346134 197 197 197 0
-3.954392 -6.231164 31.328124 198 198 198 0
-3.832820 -6.228333 31.313891 198 198 198 0
-3.719826 -6.239708 31.371080 198 198 198 0
-3.606003 -6.250404 31.424858 198 198 198 0
-3.477408 -6.235353 31.349184 198 198 198 0
-3.340498 -6.203781 31.190455 197 197 197 0
-3.222036 -6.205402 31.198605 199 199 199 0
-3.126253 -6.252507 31.435428 198 198 198 0
-2.998673 -6.237240 31.358671 199 199 199 0
-2.864373 -6.206142 31.202324 198 198 198 0
-2.735300 -6.184157 31.091790 198 198 198 0
-2.608224 -6.164893 30.994939 199 199 199 0
-2.504403 -6.201379 31.178375 199 199 199 0
-2.388976 -6.211338 31.228448 199 199 199 0
-2.258370 -6.180802 31.074924 199 199 199 0
-2.130844 -6.155772 30.949080 199 199 199 0
-2.009082 -6.145426 30.897066 200 200 200 0
-1.900275 -6.175893 31.050240 199 199 199 0
-1.785548 -6.189899 31.120657 199 199 199 0
-1.659231 -6.162859 30.984710 200 200 200 0
-1.536550 -6.146200 30.900957 200 200 200 0
-1.422134 -6.162582 30.983317 200 200 200 0
-1.309358 -6.189691 31.119614 200 200 200 0
-1.188376 -6.179557 31.068663 200 200 200 0
-1.064276 -6.149149 30.915781 200 200 200 0
-0.940904 -6.115877 30.748502 201 201 201 0
-0.827394 -6.146358 30.901752 201 201 201 0
-0.713042 -6.179698 31.069373 200 200 200 0
-0.591107 -6.147509 30.907537 201 201 201 0
-0.469980 -6.109745 30.717670 201 201 201 0
-0.351668 -6.095575 30.646431 200 200 200 0
-0.234864 -6.106453 30.701119 201 201 201 0
-0.117796 -6.125393 30.796345 202 202 202 0
0.000000 -6.110255 30.720237 201 201 201 0
0.116953 -6.081575 30.576044 202 202 202 0
0.233985 -6.083616 30.586305 201 201 201 0
0.351282 -6.088896 30.612850 202 202 202 0
0.468384 -6.088993 30.613337 202 202 202 0
0.584527 -6.079076 30.563479 202 202 202 0
0.700403 -6.070160 30.518652 202 202 202 0
0.817112 -6.069973 30.517711 202 202 202 0
0.935031 -6.077701 30.556565 202 202 202 0
1.052349 -6.080237 30.569318 202 202 202 0
1.168836 -6.077948 30.557809 203 203 203 0
1.282422 -6.062356 30.479419 202 202 202 0
1.396122 -6.049863 30.416605 203 203 203 0
1.512438 -6.049752 30.416050 202 202 202 0
1.631096 -6.058357 30.459313 203 203 203 0
1.743633 -6.044594 30.390115 203 203 203 0
1.854243 -6.026288 30.298082 203 203 203 0
1.967436 -6.018038 30.256603 203 203 203 0
2.080135 -6.009278 30.212560 203 203 203 0
2.197889 -6.015275 30.242712 203 203 203 0
2.313692 -6.015600 30.244345 203 203 203 0
2.422973 -5.999743 30.164621 203 203 203 0
2.532640 -5.986241 30.096737 204 204 204 0
2.645607 -5.981372 30.072258 203 203 203 0
2.759085 -5.978018 30.055395 204 204 204 0
2.880517 -5.991475 30.123052 204 204 204 0
2.992671 -5.985342 30.092217 204 204 204 0
3.100702 -5.971722 30.023742 204 204 204 0
3.210161 -5.961727 29.973491 204 204 204 0
3.334155 -5.978484 30.057738 204 204 204 0
3.452681 -5.984648 30.088727 204 204 204 0
3.557176 -5.966875 29.999373 205 205 205 0
3.656870 -5.942413 29.876387 204 204 204 0
3.769556 -5.939907 29.863787 205 205 205 0
3.897134 -5.960322 29.966426 205 205 205 0
4.005727 -5.951365 29.921395 204 204 204 0
4.105437 -5.930075 29.814356 204 204 204 0
4.204804 -5.909455 29.710682 205 205 205 0
4.309701 -5.897485 29.650504 205 205 205 0
4.441193 -5.921591 29.771700 205 205 205 0
4.554129 -5.920367 29.765546 205 205 205 0
4.649614 -5.897071 29.648423 205 205 205 0
4.750408 -5.881458 29.569923 205 205 205 0
4.860929 -5.878332 29.554210 205 205 205 0
4.985225 -5.891629 29.621061 205 205 205 0
5.092638 -5.884826 29.586857 205 205 205 0
5.201015 -5.879408 29.559619 206 206 206 0
5.297837 -5.861437 29.469267 206 206 206 0
5.404037 -5.854374 29.433754 206 206 206 0
5.537484 -5.876513 29.545064 205 205 205 0
5.649276 -5.875247 29.538696 206 206 206 0
5.746771 -5.859452 29.459288 206 206 206 0
5.842891 -5.842891 29.376023 206 206 206 0
5.960642 -5.848177 29.402599 206 206 206 0
6.080956 -5.855736 29.440602 206 206 206 0
6.179070 -5.842030 29.371692 206 206 206 0
6.272228 -5.824211 29.282108 206 206 206 0
6.367914 -5.809325 29.207263 207 207 207 0
6.474418 -5.804650 29.183762 206 206 206 0
6.595585 -5.813058 29.226031 206 206 206 0
6.703949 -5.810089 29.211108 206 206 206 0
6.797745 -5.794799 29.134232 206 206 206 0
6.901686 -5.788511 29.102620 207 207 207 0
7.015836 -5.790849 29.114373 207 207 207 0
7.120407 -5.785331 29.086631 207 207 207 0
7.225620 -5.780496 29.062321 207 207 207 0
7.329060 -5.774411 29.031730 207 207 207 0
7.435159 -5.770571 29.012423 207 207 207 0
7.538953 -5.765082 28.984825 207 207 207 0
7.647851 -5.763598 28.977365 207 207 207 0
7.761619 -5.765774 28.988305 208 208 208 0
7.871990 -5.765401 28.986431 207 207 207 0
7.958067 -5.747493 28.896396 207 207 207 0
8.050469 -5.734580 28.831475 207 207 207 0
8.154278 -5.730033 28.808613 208 208 208 0
8.289404 -5.747320 28.895526 207 207 207 0
8.382693 -5.735527 28.836234 208 208 208 0
8.473922 -5.722649 28.771488 207 207 207 0
8.569513 -5.713009 28.723020 203 203 203 0
8.765050 -5.769400 29.006535 133 133 133 0
-8.910362 -6.140925 31.479816 87 87 87 0
-8.635441 -6.032979 30.926460 179 179 179 0
-8.394988 -5.946450 30.482891 192 192 192 0
-8.484122 -6.094228 31.240437 191 191 191 0
-8.456311 -6.161026 31.582859 191 191 191 0
-8.260807 -6.105814 31.299826 193 193 193 0
-8.044712 -6.033534 30.929305 193 193 193 0
-7.957073 -6.056876 31.048963 193 193 193 0
-8.044018 -6.215832 31.863807 192 192 192 0
-7.880667 -6.183293 31.697003 193 193 193 0
-7.656943 -6.101626 31.278361 193 193 193 0
-7.492431 -6.065301 31.092151 193 193 193 0
-7.398802 -6.086111 31.198828 194 194 194 0
-7.413853 -6.198467 31.774792 193 193 193 0
-7.253761 -6.165697 31.606804 193 193 193 0
-7.050452 -6.094459 31.241617 194 194 194 0
-6.901482 -6.068544 31.108776 194 194 194 0
-6.837249 -6.117538 31.359929 194 194 194 0
-6.772169 -6.167511 31.616103 194 194 194 0
-6.648958 -6.165397 31.605267 194 194 194 0
-6.471163 -6.111654 31.329764 194 194 194 0
-6.342916 -6.103560 31.288276 194 194 194 0
-6.292701 -6.171688 31.637511 195 195 195 0
-6.190770 -6.190770 31.735334 194 194 194 0
-6.042952 -6.163811 31.597134 195 195 195 0
-5.882188 -6.122278 31.384225 195 195 195 0
-5.747621 -6.106848 31.305126 195 195 195 0
-5.670398 -6.152986 31.541641 195 195 195 0
-5.588832 -6.196313 31.763748 196 196 196 0
-5.418321 -6.140764 31.478988 196 196 196 0
-5.272189 -6.110946 31.326138 196 196 196 0
-5.163185 -6.123777 31.391912 196 196 196 0
-5.055998 -6.139426 31.472130 197 197 197 0
-4.941665 -6.146949 31.510694 197 197 197 0
-4.814670 -6.138705 31.468433 196 196 196 0
-4.678356 -6.117850 31.361527 196 196 196 0
-4.559210 -6.118939 31.367112 197 197 197 0
-4.436308 -6.114911 31.346459 197 197 197 0
-4.309616 -6.105290 31.297142 196 196 196 0
-4.196202 -6.114466 31.344180 197 197 197 0
-4.083651 -6.125477 31.400624 197 197 197 0
-3.956485 -6.114568 31.344704 197 197 197 0
-3.834271 -6.110869 31.325742 198 198 198 0
-3.725856 -6.129634 31.421936 198 198 198 0
-3.609252 -6.135728 31.453175 198 198 198 0
-3.483356 -6.125902 31.402802 197 197 197 0
-3.342249 -6.087667 31.206805 198 198 198 0
-3.223813 -6.089424 31.215811 197 197 197 0
-3.132770 -6.145048 31.500953 198 198 198 0
-3.003060 -6.126243 31.404554 199 199 199 0
-2.868239 -6.095008 31.244433 199 199 199 0
-2.735546 -6.065776 31.094584 199 199 199 0
-2.613914 -6.059528 31.062557 198 198 198 0
-2.510032 -6.095793 31.248457 199 199 199 0
-2.391325 -6.097878 31.259149 200 200 200 0
-2.260557 -6.067810 31.105012 199 199 199 0
-2.132928 -6.043297 30.979352 199 199 199 0
-2.013699 -6.041097 30.968076 199 199 199 0
-1.902809 -6.065205 31.091656 200 200 200 0
-1.786903 -6.075469 31.144272 200 200 200 0
-1.661524 -6.052693 31.027518 200 200 200 0
-1.537850 -6.033103 30.927094 201 201 201 0
-1.425019 -6.056331 31.046168 200 200 200 0
-1.311398 -6.080120 31.168115 200 200 200 0
-1.189235 -6.065101 31.091124 200 200 200 0
-1.064175 -6.030327 30.912862 200 200 200 0
-0.942111 -6.005960 30.787955 200 200 200 0
-0.828184 -6.033911 30.931237 201 201 201 0
-0.713927 -6.068379 31.107928 201 201 201 0
-0.591859 -6.036960 30.946869 201 201 201 0
-0.470092 -5.993674 30.724971 201 201 201 0
-0.352197 -5.987356 30.692585 202 202 202 0
-0.235151 -5.996359 30.738738 201 201 201 0
-0.117948 -6.015372 30.836202 201 201 201 0
0.000000 -6.000046 30.757636 201 201 201 0
0.117215 -5.977985 30.644548 201 201 201 0
0.234165 -5.971212 30.609825 201 201 201 0
0.351797 -5.980544 30.657666 202 202 202 0
0.468883 -5.978261 30.645959 202 202 202 0
0.584870 -5.965672 30.581429 202 202 202 0
0.700662 -5.955625 30.529926 202 202 202 0
0.818116 -5.960558 30.555210 202 202 202 0
0.936476 -5.970037 30.603804 202 202 202 0
1.053464 -5.969630 30.601718 203 203 203 0
1.168825 -5.961007 30.557512 202 202 202 0
1.283972 -5.952962 30.516272 202 202 202 0
1.397586 -5.939740 30.448494 203 203 203 0
1.514349 -5.940909 30.454485 203 203 203 0
1.634038 -5.952568 30.514251 203 203 203 0
1.745665 -5.935262 30.425541 203 203 203 0
1.856012 -5.916039 30.326995 203 203 203 0
1.969584 -5.908752 30.289640 202 202 202 0
2.081943 -5.898839 30.238824 203 203 203 0
2.199744 -5.904577 30.268240 203 203 203 0
2.317132 -5.908687 30.289307 203 203 203 0
2.427318 -5.894916 30.218717 203 203 203 0
2.534977 -5.876539 30.124510 205 205 205 0
2.647299 -5.870098 30.091494 204 204 204 0
2.763884 -5.873254 30.107670 204 204 204 0
2.884110 -5.883583 30.160622 204 204 204 0
2.996615 -5.877976 30.131877 204 204 204 0
3.105082 -5.865154 30.066151 205 205 205 0
3.216536 -5.858690 30.033012 204 204 204 0
3.339907 -5.873629 30.109594 204 204 204 0
3.459099 -5.880468 30.144655 204 204 204 0
3.559502 -5.855955 30.018991 204 204 204 0
3.661921 -5.836187 29.917658 204 204 204 0
3.776164 -5.835889 29.916131 205 205 205 0
3.904819 -5.857229 30.025523 205 205 205 0
4.012522 -5.846818 29.972154 204 204 204 0
4.111362 -5.824429 29.857385 205 205 205 0
4.207739 -5.799856 29.731416 204 204 204 0
4.314662 -5.790731 29.684639 205 205 205 0
4.445810 -5.813752 29.802648 206 206 206 0
4.561217 -5.815551 29.811873 205 205 205 0
4.654846 -5.790175 29.681789 205 205 205 0
4.754767 -5.773646 29.597056 204 204 204 0
4.869317 -5.775236 29.605210 206 206 206 0
4.988657 -5.782306 29.641453 206 206 206 0
5.097608 -5.777289 29.615733 205 205 205 0
5.200027 -5.765247 29.554003 205 205 205 0
5.303895 -5.755290 29.502960 205 205 205 0
5.416957 -5.755517 29.504122 206 206 206 0
5.544825 -5.771145 29.584234 206 206 206 0
5.659120 -5.772302 29.590168 206 206 206 0
5.752960 -5.752960 29.491014 206 206 206 0
5.849223 -5.736738 29.407857 206 206 206 0
5.969307 -5.744051 29.445344 206 206 206 0
6.091877 -5.753439 29.493473 206 206 206 0
6.183313 -5.733617 29.391860 206 206 206 0
6.276084 -5.715720 29.300113 206 206 206 0
6.373915 -5.702976 29.234788 206 206 206 0
6.483407 -5.700927 29.224280 207 207 207 0
6.603517 -5.708125 29.261183 207 207 207 0
6.710189 -5.703661 29.238298 206 206 206 0
6.803984 -5.688577 29.160974 207 207 207 0
6.908340 -5.682667 29.130677 207 207 207 0
7.021691 -5.684226 29.138669 206 206 206 0
7.128213 -5.680295 29.118518 206 206 206 0
7.232677 -5.674869 29.090706 207 207 207 0
7.338117 -5.670363 29.067604 206 206 206 0
7.439263 -5.662722 29.028437 207 207 207 0
7.544716 -5.658537 29.006983 207 207 207 0
7.657401 -5.659818 29.013550 207 207 207 0
7.773012 -5.663195 29.030858 207 207 207 0
7.878716 -5.659360 29.011199 207 207 207 0
7.964698 -5.641661 28.920471 207 207 207 0
8.058417 -5.629853 28.859940 208 208 208 0
8.156822 -5.621594 28.817603 207 207 207 0
8.289963 -5.637175 28.897476 207 207 207 0
8.386193 -5.627577 28.848273 208 208 208 0
8.485535 -5.620290 28.810917 207 207 207 0
8.582548 -5.611666 28.766710 203 203 203 0
8.785648 -5.671748 29.074703 119 119 119 0
-8.887028 -6.004749 31.397378 80 80 80 0
-8.629274 -5.910462 30.904375 176 176 176 0
-8.393583 -5.828877 30.477790 192 192 192 0
-8.500976 -5.986602 31.302497 192 192 192 0
-8.466616 -6.047583 31.621348 191 191 191 0
-8.265240 -5.989304 31.316623 192 192 192 0
-8.049543 -5.918781 30.947877 192 192 192 0
-7.974623 -5.951211 31.117445 192 192 192 0
-8.056982 -6.103774 31.915160 193 193 193 0
-7.893974 -6.072288 31.750523 193 193 193 0
-7.668691 -5.991165 31.326352 193 193 193 0
-7.490376 -5.944743 31.083624 193 193 193 0
-7.419695 -5.983625 31.286928 193 193 193 0
-7.414516 -6.077472 31.777633 193 193 193 0
-7.267026 -6.055855 31.664602 193 193 193 0
-7.060606 -5.983564 31.286609 194 194 194 0
-6.920545 -5.965987 31.194705 193 193 193 0
-6.861132 -6.018536 31.469472 193 193 193 0
-6.777652 -6.051475 31.641700 194 194 194 0
-6.647951 -6.043592 31.600479 195 195 195 0
-6.471743 -5.992354 31.332571 194 194 194 0
-6.360404 -6.000381 31.374542 194 194 194 0
-6.294150 -6.052067 31.644795 195 195 195 0
-6.198175 -6.076642 31.773291 194 194 194 0
-6.046709 -6.046709 31.616781 195 195 195 0
-5.881628 -6.001661 31.381236 195 195 195 0
-5.753875 -5.993620 31.339188 196 196 196 0
-5.681903 -6.044578 31.605636 195 195 195 0
-5.590068 -6.076161 31.770775 196 196 196 0
-5.428320 -6.031467 31.537080 195 195 195 0
-5.277731 -5.997422 31.359067 195 195 195 0
-5.172538 -6.014579 31.448781 195 195 195 0
-5.063988 -6.028557 31.521867 196 196 196 0
-4.947167 -6.033130 31.545778 196 196 196 0
-4.814292 -6.017864 31.465958 196 196 196 0
-4.680301 -6.000386 31.374567 196 196 196 0
-4.569209 -6.012117 31.435905 197 197 197 0
-4.439962 -5.999949 31.372281 197 197 197 0
-4.317786 -5.996925 31.356471 197 197 197 0
-4.205223 -6.007461 31.411560 197 197 197 0
-4.082351 -6.003458 31.390631 198 198 198 0
-3.963649 -6.005528 31.401456 197 197 197 0
-3.838895 -5.998273 31.363517 198 198 198 0
-3.728798 -6.014190 31.446743 198 198 198 0
-3.616873 -6.028122 31.519593 198 198 198 0
-3.484782 -6.008244 31.415655 198 198 198 0
-3.344900 -5.973036 31.231559 198 198 198 0
-3.225334 -5.972842 31.230544 198 198 198 0
-3.132394 -6.023835 31.497177 199 199 199 0
-3.007991 -6.015982 31.456115 199 199 199 0
-2.871650 -5.982604 31.281592 200 200 200 0
-2.740790 -5.958240 31.154196 199 199 199 0
-2.619784 -5.954054 31.132307 199 199 199 0
-2.512883 -5.983055 31.283948 199 199 199 0
-2.393998 -5.984994 31.294087 199 199 199 0
-2.260541 -5.948792 31.104797 200 200 200 0
-2.134583 -5.929396 31.003377 199 199 199 0
-2.014334 -5.924513 30.977845 200 200 200 0
-1.904951 -5.952971 31.126644 199 199 199 0
-1.788141 -5.960470 31.165854 199 199 199 0
-1.661746 -5.934808 31.031677 200 200 200 0
-1.537781 -5.914541 30.925704 199 199 199 0
-1.426767 -5.944862 31.084244 200 200 200 0
-1.312361 -5.965275 31.190982 200 200 200 0
-1.190600 -5.953002 31.126807 201 201 201 0
-1.065159 -5.917548 30.941428 200 200 200 0
-0.943318 -5.895735 30.827371 201 201 201 0
-0.829055 -5.921824 30.963783 200 200 200 0
-0.714548 -5.954569 31.135000 201 201 201 0
-0.592051 -5.920509 30.956910 201 201 201 0
-0.470731 -5.884136 30.766722 201 201 201 0
-0.352460 -5.874338 30.715491 201 201 201 0
-0.235710 -5.892749 30.811759 201 201 201 0
-0.118173 -5.908630 30.894799 201 201 201 0
0.000000 -5.887990 30.786875 201 201 201 0
0.117322 -5.866089 30.672359 201 201 201 0
0.234594 -5.864844 30.665852 202 202 202 0
0.352121 -5.868681 30.685915 202 202 202 0
0.469052 -5.863152 30.657004 202 202 202 0
0.585413 -5.854127 30.609816 202 202 202 0
0.701728 -5.847737 30.576402 202 202 202 0
0.819102 -5.850729 30.592048 202 202 202 0
0.937637 -5.860232 30.641738 202 202 202 0
1.054515 -5.858419 30.632259 202 202 202 0
1.169976 -5.849881 30.587611 203 203 203 0
1.285067 -5.841213 30.542288 202 202 202 0
1.398298 -5.826243 30.464015 203 203 203 0
1.515812 -5.830047 30.483904 202 202 202 0
1.635932 -5.842615 30.549620 203 203 203 0
1.748085 -5.826951 30.467718 202 202 202 0
1.858638 -5.808243 30.369900 203 203 203 0
1.972179 -5.800527 30.329554 202 202 202 0
2.084549 -5.790414 30.276675 203 203 203 0
2.201970 -5.794657 30.298859 203 203 203 0
2.319308 -5.798271 30.317757 203 203 203 0
2.429426 -5.784347 30.244950 203 203 203 0
2.537621 -5.767320 30.155922 203 203 203 0
2.651002 -5.763047 30.133579 204 204 204 0
2.766758 -5.764078 30.138971 203 203 203 0
2.888408 -5.776817 30.205577 204 204 204 0
2.999317 -5.767917 30.159044 204 204 204 0
3.108675 -5.756805 30.100943 204 204 204 0
3.219991 -5.749985 30.065278 205 205 205 0
3.343432 -5.764539 30.141379 203 203 203 0
3.462853 -5.771422 30.177372 205 205 205 0
3.563506 -5.747590 30.052758 204 204 204 0
3.663960 -5.724937 29.934313 204 204 204 0
3.778976 -5.725721 29.938410 204 204 204 0
3.911587 -5.752334 30.077565 204 204 204 0
4.016391 -5.737702 30.001057 204 204 204 0
4.112089 -5.711235 29.862669 205 205 205 0
4.212136 -5.692076 29.762490 205 205 205 0
4.322197 -5.687102 29.736481 205 205 205 0
4.450287 -5.705496 29.832657 205 205 205 0
4.563924 -5.704905 29.829567 205 205 205 0
4.658781 -5.681440 29.706878 205 205 205 0
4.761389 -5.668321 29.638278 205 205 205 0
4.872872 -5.666130 29.626822 205 205 205 0
4.997839 -5.679362 29.696012 206 206 206 0
5.104659 -5.671843 29.656695 206 206 206 0
5.206329 -5.659053 29.589819 205 205 205 0
5.307606 -5.646389 29.523605 206 206 206 0
5.425989 -5.652072 29.553318 205 205 205 0
5.554114 -5.667464 29.633797 206 206 206 0
5.664646 -5.664646 29.619062 207 207 207 0
5.756854 -5.643975 29.510978 205 205 205 0
5.855772 -5.630550 29.440786 206 206 206 0
5.975564 -5.637324 29.476206 206 206 206 0
6.095714 -5.644179 29.512050 207 207 207 0
6.189420 -5.626745 29.420891 206 206 206 0
6.281004 -5.608039 29.323080 206 206 206 0
6.383055 -5.599171 29.276709 206 206 206 0
6.489278 -5.594205 29.250746 206 206 206 0
6.608933 -5.600790 29.285178 206 206 206 0
6.715842 -5.596535 29.262928 207 207 207 0
6.808095 -5.580406 29.178591 206 206 206 0
6.916184 -5.577568 29.163754 207 207 207 0
7.027378 -5.577284 29.162268 206 206 206 0
7.136272 -5.575213 29.151439 206 206 206 0
7.237195 -5.567073 29.108879 206 206 206 0
7.343786 -5.563474 29.090061 207 207 207 0
7.450243 -5.559883 29.071282 207 207 207 0
7.551293 -5.552422 29.032270 207 207 207 0
7.669354 -5.557503 29.058838 207 207 207 0
7.780896 -5.557783 29.060303 207 207 207 0
7.885721 -5.553324 29.036990 207 207 207 0
7.979926 -5.541615 28.975766 207 207 207 0
8.071981 -5.528754 28.908519 207 207 207 0
8.465885 -5.720193 29.909504 207 207 207 0
8.294336 -5.529557 28.912717 207 207 207 0
8.394535 -5.522720 28.876968 208 208 208 0
8.495088 -5.516291 28.843350 207 207 207 0
8.595192 -5.509738 28.809090 201 201 201 0
8.800413 -5.569881 29.123563 105 105 105 0
-8.908211 -5.898680 31.472216 78 78 78 0
-8.630546 -5.793106 30.908929 170 170 170 0
-8.393652 -5.712347 30.478039 191 191 191 0
-8.523461 -5.882389 31.385295 192 192 192 0
-8.479142 -5.935399 31.668130 191 191 191 0
-8.275029 -5.876470 31.353715 193 193 193 0
-8.068974 -5.814408 31.022585 192 192 192 0
-7.975413 -5.832765 31.120529 193 193 193 0
-8.064341 -5.987162 31.944309 192 192 192 0
-7.895571 -5.952046 31.756947 193 193 193 0
-7.667473 -5.870409 31.321376 193 193 193 0
-7.491161 -5.826458 31.086879 193 193 193 0
-7.418780 -5.863230 31.283071 193 193 193 0
-7.432086 -5.970037 31.852937 193 193 193 0
-7.263342 -5.931730 31.648550 194 194 194 0
-7.083352 -5.882784 31.387402 193 193 193 0
-6.927005 -5.852125 31.223823 194 194 194 0
-6.859610 -5.896858 31.462495 193 193 193 0
-6.789880 -5.941145 31.698786 194 194 194 0
-6.655330 -5.929294 31.635556 194 194 194 0
-6.478177 -5.878346 31.363724 195 195 195 0
-6.352277 -5.872860 31.334453 194 194 194 0
-6.311226 -5.947117 31.730651 194 194 194 0
-6.208903 -5.965416 31.828285 195 195 195 0
-6.052566 -5.931514 31.647402 195 195 195 0
-5.891140 -5.891140 31.431987 195 195 195 0
-5.759093 -5.879074 31.367610 195 195 195 0
-5.680860 -5.922599 31.599835 194 194 194 0
-5.600623 -5.965881 31.830765 196 196 196 0
-5.434400 -5.917457 31.572402 195 195 195 0
-5.284751 -5.885291 31.400781 195 195 195 0
-5.176116 -5.898365 31.470533 197 197 197 0
-5.069085 -5.913933 31.553596 196 196 196 0
-4.951205 -5.917293 31.571526 197 197 197 0
-4.815726 -5.899265 31.475335 197 197 197 0
-4.685202 -5.886536 31.407422 197 197 197 0
-4.570336 -5.893328 31.443661 197 197 197 0
-4.450024 -5.893275 31.443379 196 196 196 0
-4.325948 -5.888097 31.415748 197 197 197 0
-4.212506 -5.897509 31.465967 197 197 197 0
-4.087546 -5.890875 31.430574 197 197 197 0
-3.966447 -5.889573 31.423625 197 197 197 0
-3.846005 -5.889196 31.421611 197 197 197 0
-3.737562 -5.907760 31.520660 198 198 198 0
-3.622699 -5.917075 31.570361 198 198 198 0
-3.491732 -5.899823 31.478315 199 199 199 0
-3.347034 -5.857309 31.251481 198 198 198 0
-3.225366 -5.853441 31.230845 198 198 198 0
-3.137286 -5.912577 31.546364 199 199 199 0
-3.010362 -5.900309 31.480910 199 199 199 0
-2.872545 -5.864778 31.291335 199 199 199 0
-2.742473 -5.842661 31.173326 198 198 198 0
-2.624117 -5.844623 31.183799 199 199 199 0
-2.515740 -5.870060 31.319512 199 199 199 0
-2.396731 -5.871991 31.329820 199 199 199 0
-2.263485 -5.837408 31.145300 200 200 200 0
-2.135525 -5.813374 31.017066 199 199 199 0
-2.018764 -5.818791 31.045969 200 200 200 0
-1.908216 -5.843911 31.179995 200 200 200 0
-1.790782 -5.849886 31.211878 200 200 200 0
-1.661779 -5.816226 31.032287 200 200 200 0
-1.539440 -5.802504 30.959073 199 199 199 0
-1.427556 -5.829187 31.101437 199 199 199 0
-1.315391 -5.859471 31.263015 201 201 201 0
-1.191241 -5.837082 31.143561 200 200 200 0
-1.065843 -5.802925 30.961316 200 200 200 0
-0.943448 -5.778619 30.831633 200 200 200 0
-0.829526 -5.806683 30.981369 201 201 201 0
-0.715548 -5.843640 31.178551 201 201 201 0
-0.592443 -5.805937 30.977389 200 200 200 0
-0.470962 -5.769285 30.781834 201 201 201 0
-0.352678 -5.760413 30.734497 202 202 202 0
-0.236064 -5.783572 30.858060 201 201 201 0
-0.118263 -5.794882 30.918402 201 201 201 0
0.000000 -5.775952 30.817403 202 202 202 0
0.117336 -5.749446 30.675982 202 202 202 0
0.234530 -5.745986 30.657524 202 202 202 0
0.352612 -5.759323 30.728683 201 201 201 0
0.469597 -5.752559 30.692592 202 202 202 0
0.585855 -5.741377 30.632928 202 202 202 0
0.701401 -5.728108 30.562134 202 202 202 0
0.819782 -5.738472 30.617429 202 202 202 0
0.938663 -5.749312 30.675268 202 202 202 0
1.055982 -5.749237 30.674869 202 202 202 0
1.171063 -5.738209 30.616028 203 203 203 0
1.286982 -5.732919 30.587802 203 203 203 0
1.400358 -5.718128 30.508886 202 202 202 0
1.517103 -5.718312 30.509868 203 203 203 0
1.638273 -5.733956 30.593338 203 203 203 0
1.749876 -5.716261 30.498926 203 203 203 0
1.860193 -5.696840 30.395304 203 203 203 0
1.973951 -5.689624 30.356805 202 202 202 0
2.087265 -5.681998 30.316117 203 203 203 0
2.205072 -5.686766 30.341554 203 203 203 0
2.321550 -5.687797 30.347055 203 203 203 0
2.432026 -5.674727 30.277322 204 204 204 0
2.542285 -5.662362 30.211347 204 204 204 0
2.653696 -5.653527 30.164211 204 204 204 0
2.769508 -5.654412 30.168929 204 204 204 0
2.890284 -5.664956 30.225190 204 204 204 0
3.002030 -5.657671 30.186321 204 204 204 0
3.109964 -5.644009 30.113428 204 204 204 0
3.223010 -5.640267 30.093462 204 204 204 0
3.347400 -5.655952 30.177147 204 204 204 0
3.467362 -5.663358 30.216661 205 205 205 0
3.567121 -5.638353 30.083247 204 204 204 0
3.666710 -5.614650 29.956781 205 205 205 0
3.784750 -5.619780 29.984155 205 205 205 0
3.918308 -5.646974 30.129245 204 204 204 0
4.020434 -5.628607 30.031251 205 205 205 0
4.115841 -5.602117 29.889914 205 205 205 0
4.216812 -5.584427 29.795527 204 204 204 0
4.327166 -5.579767 29.770667 205 205 205 0
4.456033 -5.598606 29.871181 206 206 206 0
4.567371 -5.595029 29.852097 205 205 205 0
4.663222 -5.573119 29.735194 204 204 204 0
4.767551 -5.562143 29.676632 205 205 205 0
4.881107 -5.562191 29.676891 206 206 206 0
5.000668 -5.568926 29.712823 205 205 205 0
5.107480 -5.561478 29.673085 205 205 205 0
5.209256 -5.548990 29.606459 205 205 205 0
5.316670 -5.542911 29.574023 206 206 206 0
5.435741 -5.548986 29.606434 206 206 206 0
5.559780 -5.559780 29.664027 206 206 206 0
5.668511 -5.555141 29.639274 206 206 206 0
5.762731 -5.536742 29.541106 206 206 206 0
5.863595 -5.525311 29.480118 205 205 205 0
5.981179 -5.529769 29.503904 207 207 207 0
6.102400 -5.537363 29.544419 206 206 206 0
6.196399 -5.520428 29.454064 206 206 206 0
6.287528 -5.501587 29.353537 206 206 206 0
6.391327 -5.494299 29.314652 206 206 206 0
6.497792 -5.489514 29.289124 206 206 206 0
6.616478 -5.495041 29.318613 206 206 206 0
6.724601 -5.491758 29.301095 206 206 206 0
6.818780 -5.477381 29.224387 207 207 207 0
6.922994 -5.471398 29.192469 206 206 206 0
7.035202 -5.471824 29.194739 206 206 206 0
7.141270 -5.467535 29.171856 207 207 207 0
7.246431 -5.462694 29.146026 207 207 207 0
7.351706 -5.458085 29.121434 207 207 207 0
7.459603 -5.455531 29.107807 207 207 207 0
7.561346 -5.448617 29.070919 207 207 207 0
7.682792 -5.455896 29.109755 207 207 207 0
7.795800 -5.457060 29.115968 207 207 207 0
7.894315 -5.448189 29.068635 207 207 207 0
7.981574 -5.431904 28.981749 207 207 207 0
8.081454 -5.424537 28.942443 207 207 207 0
8.203965 -5.432355 28.984154 207 207 207 0
8.307760 -5.427737 28.959514 208 208 208 0
8.402640 -5.417492 28.904852 207 207 207 0
8.501712 -5.410181 28.865842 207 207 207 0
8.601747 -5.403661 28.831060 198 198 198 0
8.810557 -5.464776 29.157134 101 101 101 0
-8.624693 -5.671031 30.887968 166 166 166 0
-8.412234 -5.608156 30.545513 191 191 191 0
-8.516264 -5.757474 31.358792 191 191 191 0
-8.486717 -5.819463 31.696423 192 192 192 0
-8.287368 -5.765126 31.400467 192 192 192 0
-8.073750 -5.699117 31.040945 192 192 192 0
-7.984314 -5.720105 31.155257 193 193 193 0
-8.084252 -5.879456 32.023181 192 192 192 0
-7.908505 -5.840127 31.808971 193 193 193 0
-7.679612 -5.759709 31.370964 193 193 193 0
-7.505020 -5.718111 31.144394 193 193 193 0
-7.444658 -5.763606 31.392190 193 193 193 0
-7.445382 -5.858662 31.909922 193 193 193 0
-7.275047 -5.820038 31.699553 193 193 193 0
-7.082820 -5.762295 31.385047 194 194 194 0
-6.949579 -5.751376 31.325577 193 193 193 0
-6.884359 -5.797355 31.576007 194 194 194 0
-6.800448 -5.828955 31.748122 194 194 194 0
-6.651574 -5.805010 31.617700 194 194 194 0
-6.474062 -5.754722 31.343802 194 194 194 0
-6.366532 -5.765916 31.404772 194 194 194 0
-6.342778 -5.854872 31.889282 195 195 195 0
-6.220711 -5.854787 31.888816 195 195 195 0
-6.060901 -5.818465 31.690987 194 194 194 0
-5.902918 -5.782451 31.494828 195 195 195 0
-5.767833 -5.767833 31.415212 195 195 195 0
-5.682275 -5.803175 31.607704 195 195 195 0
-5.603540 -5.847172 31.847342 196 196 196 0
-5.440326 -5.803014 31.606832 196 196 196 0
-5.283344 -5.763648 31.392421 196 196 196 0
-5.186877 -5.790002 31.535959 195 195 195 0
-5.075831 -5.800950 31.595588 196 196 196 0
-4.953090 -5.798739 31.583546 196 196 196 0
-4.819973 -5.783968 31.503092 196 196 196 0
-4.689809 -5.772072 31.438301 196 196 196 0
-4.576626 -5.781001 31.486934 196 196 196 0
-4.454576 -5.778909 31.475538 196 196 196 0
-4.320550 -5.760733 31.376543 197 197 197 0
-4.201109 -5.761520 31.380829 197 197 197 0
-4.087121 -5.770052 31.427301 197 197 197 0
-3.973343 -5.779409 31.478261 198 198 198 0
-3.849250 -5.773875 31.448123 198 198 198 0
-3.743431 -5.796281 31.570156 197 197 197 0
-3.626911 -5.803058 31.607072 198 198 198 0
-3.491581 -5.779169 31.476954 197 197 197 0
-3.351433 -5.745313 31.292557 198 198 198 0
-3.227498 -5.737775 31.251496 198 198 198 0
-3.139950 -5.796831 31.573154 199 199 199 0
-3.012086 -5.783205 31.498939 198 198 198 0
-2.875753 -5.751506 31.326286 198 198 198 0
-2.745853 -5.730477 31.211746 198 198 198 0
-2.628323 -5.734523 31.233786 199 199 199 0
-2.519539 -5.758947 31.366815 199 199 199 0
-2.400538 -5.761292 31.379584 199 199 199 0
-2.269600 -5.733727 31.229451 199 199 199 0
-2.140094 -5.706917 31.083424 199 199 199 0
-2.021952 -5.709042 31.095000 199 199 199 0
-1.911021 -5.733064 31.225840 199 199 199 0
-1.790652 -5.730085 31.209613 199 199 199 0
-1.662837 -5.701155 31.052045 200 200 200 0
-1.539329 -5.683675 30.956836 200 200 200 0
-1.430109 -5.720437 31.157062 200 200 200 0
-1.317380 -5.748567 31.310276 200 200 200 0
-1.192507 -5.724035 31.176660 200 200 200 0
-1.066844 -5.689832 30.990371 200 200 200 0
-0.945421 -5.672524 30.896103 200 200 200 0
-0.829758 -5.689771 30.990037 201 201 201 0
-0.715157 -5.721253 31.161509 201 201 201 0
-0.592644 -5.689381 30.987916 201 201 201 0
-0.471456 -5.657475 30.814132 201 201 201 0
-0.353303 -5.652852 30.788952 201 201 201 0
-0.236375 -5.673008 30.898739 202 202 202 0
-0.118316 -5.679158 30.932231 202 202 202 0
0.000000 -5.661857 30.838000 202 202 202 0
0.117443 -5.637287 30.704180 202 202 202 0
0.234784 -5.634817 30.690723 202 202 202 0
0.353067 -5.649079 30.768405 202 202 202 0
0.470373 -5.644475 30.743327 201 201 201 0
0.586949 -5.634707 30.690124 202 202 202 0
0.702822 -5.622578 30.624064 202 202 202 0
0.820821 -5.628490 30.656264 202 202 202 0
0.940040 -5.640238 30.720253 202 202 202 0
1.057221 -5.638510 30.710841 202 202 202 0
1.172228 -5.626694 30.646483 203 203 203 0
1.287640 -5.618793 30.603448 203 203 203 0
1.401706 -5.606823 30.538254 203 203 203 0
1.517771 -5.604077 30.523295 202 202 202 0
1.638548 -5.617878 30.598462 202 202 202 0
1.752037 -5.606520 30.536599 203 203 203 0
1.862772 -5.588316 30.437451 203 203 203 0
1.975714 -5.578486 30.383911 203 203 203 0
2.089523 -5.572061 30.348915 203 203 203 0
2.208935 -5.580468 30.394705 203 203 203 0
2.324204 -5.578091 30.381757 203 203 203 0
2.434472 -5.564507 30.307772 203 203 203 0
2.545909 -5.554711 30.254415 204 204 204 0
2.656672 -5.544360 30.198037 203 203 203 0
2.771023 -5.542046 30.185434 203 203 203 0
2.892092 -5.552817 30.244102 203 203 203 0
3.000182 -5.538797 30.167738 204 204 204 0
3.113414 -5.534959 30.146835 203 203 203 0
3.228048 -5.533797 30.140509 204 204 204 0
3.352190 -5.548452 30.220325 204 204 204 0
3.468263 -5.549222 30.224518 204 204 204 0
3.569754 -5.527361 30.105453 205 205 205 0
3.671132 -5.506698 29.992907 205 205 205 0
3.789608 -5.512157 30.022641 204 204 204 0
3.921890 -5.536786 30.156789 205 205 205 0
4.023393 -5.517796 30.053357 205 205 205 0
4.119290 -5.492386 29.914958 204 204 204 0
4.223603 -5.479269 29.843515 205 205 205 0
4.333945 -5.474457 29.817302 206 206 206 0
4.462688 -5.492539 29.915788 205 205 205 0
4.572205 -5.486646 29.883695 205 205 205 0
4.665421 -5.461956 29.749216 205 205 205 0
4.771685 -5.453354 29.702366 205 205 205 0
4.888662 -5.457111 29.722829 205 205 205 0
5.006049 -5.461145 29.744798 205 205 205 0
5.113068 -5.453939 29.705551 206 206 206 0
5.216282 -5.443077 29.646387 206 206 206 0
5.323819 -5.437092 29.613791 206 206 206 0
5.445417 -5.445417 29.659137 205 205 205 0
5.563846 -5.450298 29.685720 206 206 206 0
5.670561 -5.443739 29.649992 206 206 206 0
5.769550 -5.430165 29.576060 206 206 206 0
5.869797 -5.418274 29.511296 207 207 207 0
5.989313 -5.424284 29.544028 205 205 205 0
6.109510 -5.430675 29.578842 206 206 206 0
6.202015 -5.412668 29.480762 206 206 206 0
6.292235 -5.393344 29.375513 206 206 206 0
6.400675 -5.390042 29.357527 206 206 206 0
6.507377 -5.385416 29.332329 207 207 207 0
6.622474 -5.387776 29.345184 207 207 207 0
6.729183 -5.383346 29.321058 207 207 207 0
6.821555 -5.367781 29.236278 206 206 206 0
6.929308 -5.364625 29.219091 207 207 207 0
7.039991 -5.363802 29.214610 207 207 207 0
7.151071 -5.363303 29.211889 207 207 207 0
7.259177 -5.360623 29.197293 207 207 207 0
7.359814 -5.352592 29.153551 207 207 207 0
7.466778 -5.349333 29.135801 207 207 207 0
7.572423 -5.345240 29.113508 206 206 206 0
7.689979 -5.349551 29.136986 207 207 207 0
7.800542 -5.348943 29.133677 207 207 207 0
7.898344 -5.339725 29.083472 207 207 207 0
7.989642 -5.326428 29.011044 207 207 207 0
8.093033 -5.321446 28.983912 208 208 208 0
8.208361 -5.324342 28.999686 207 207 207 0
8.313246 -5.320477 28.978635 207 207 207 0
8.408602 -5.310696 28.925359 207 207 207 0
8.508892 -5.304244 28.890220 207 207 207 0
8.614384 -5.301159 28.873418 194 194 194 0
8.820610 -5.359358 29.190404 90 90 90 0
-8.617532 -5.548274 30.862324 159 159 159 0
-8.427641 -5.501377 30.601455 191 191 191 0
-8.543451 -5.655524 31.458901 192 192 192 0
-8.489162 -5.699866 31.705554 192 192 192 0
-8.272733 -5.635050 31.345013 193 193 193 0
-8.082064 -5.586133 31.072911 192 192 192 0
-7.986195 -5.602256 31.162599 192 192 192 0
-8.078716 -5.753025 32.001252 192 192 192 0
-7.912355 -5.721241 31.824453 193 193 193 0
-7.683708 -5.642723 31.387694 192 192 192 0
-7.508344 -5.601463 31.158186 193 193 193 0
-7.458263 -5.653845 31.449560 193 193 193 0
-7.441387 -5.733528 31.892798 193 193 193 0
-7.281249 -5.703645 31.726575 193 193 193 0
-7.096492 -5.653137 31.445626 193 193 193 0
-6.956560 -5.637212 31.357042 193 193 193 0
-6.900114 -5.689567 31.648268 193 193 193 0
-6.812089 -5.717289 31.802472 194 194 194 0
-6.667925 -5.698045 31.695426 195 195 195 0
-6.496991 -5.654789 31.454811 195 195 195 0
-6.375880 -5.654083 31.450884 195 195 195 0
-6.351690 -5.740950 31.934086 195 195 195 0
-6.231178 -5.742458 31.942473 194 194 194 0
-6.071477 -5.707188 31.746284 195 195 195 0
-5.906200 -5.665130 31.512336 195 195 195 0
-5.769222 -5.649030 31.422777 195 195 195 0
-5.684298 -5.684298 31.618958 195 195 195 0
-5.607309 -5.729207 31.868763 196 196 196 0
-5.446467 -5.688532 31.642510 195 195 195 0
-5.288726 -5.649320 31.424394 196 196 196 0
-5.189619 -5.672374 31.552629 196 196 196 0
-5.082988 -5.688106 31.640138 196 196 196 0
-4.960280 -5.686175 31.629397 197 197 197 0
-4.825695 -5.670192 31.540492 196 196 196 0
-4.693886 -5.656734 31.465634 197 197 197 0
-4.582747 -5.668135 31.529049 197 197 197 0
-4.457903 -5.662742 31.499052 197 197 197 0
-4.331472 -5.654978 31.455864 197 197 197 0
-4.216647 -5.662355 31.496900 196 196 196 0
-4.094463 -5.659994 31.483764 197 197 197 0
-3.973233 -5.658847 31.477384 198 198 198 0
-3.857353 -5.665488 31.514324 197 197 197 0
-3.752293 -5.688961 31.644892 198 198 198 0
-3.631617 -5.689533 31.648079 198 198 198 0
-3.499314 -5.671303 31.546671 198 198 198 0
-3.364484 -5.647526 31.414412 198 198 198 0
-3.048310 -5.306317 29.516437 198 198 198 0
-3.139724 -5.675655 31.570882 198 198 198 0
-3.014836 -5.667891 31.527694 199 199 199 0
-2.877844 -5.635779 31.349068 198 198 198 0
-2.748806 -5.617125 31.245305 198 198 198 0
-2.631783 -5.622446 31.274907 199 199 199 0
-2.522723 -5.646094 31.406447 198 198 198 0
-2.400821 -5.641929 31.383279 198 198 198 0
-2.269535 -5.614113 31.228553 199 199 199 0
-2.142403 -5.594052 31.116963 200 200 200 0
-2.023509 -5.594409 31.118947 200 200 200 0
-1.913219 -5.620080 31.261743 199 199 199 0
-1.791263 -5.612624 31.220271 199 199 199 0
