ply
    format ascii 1.0
    element vertex 13152
    property float x
    property float y
    property float z
    property uchar red
    property uchar green
    property uchar blue
    property uchar alpha
    end_header
-5.022437 -0.741015 21.525498 204 204 204 0
-4.976054 -0.746408 21.682153 206 206 206 0
-4.904161 -0.748092 21.731077 206 206 206 0
-4.782704 -0.742144 21.558278 206 206 206 0
-4.679718 -0.738903 21.464137 207 207 207 0
-4.587132 -0.737218 21.415181 207 207 207 0
-4.440035 -0.726551 21.105338 207 207 207 0
-4.513627 -0.752271 21.852465 208 208 208 0
-4.410572 -0.748965 21.756428 208 208 208 0
-4.292447 -0.742924 21.580930 208 208 208 0
-4.193943 -0.740108 21.499132 208 208 208 0
-4.108796 -0.739583 21.483902 209 209 209 0
-4.071473 -0.747822 21.723214 209 209 209 0
-4.014280 -0.752677 21.864269 209 209 209 0
-3.920479 -0.750730 21.807698 209 209 209 0
-3.826338 -0.748631 21.746737 210 210 210 0
-3.738636 -0.747727 21.720471 209 209 209 0
-3.667469 -0.750164 21.791259 210 210 210 0
-3.606484 -0.754845 21.927245 211 211 211 0
-3.536589 -0.757841 22.014249 211 211 211 0
-3.445719 -0.756377 21.971746 210 210 210 0
-3.351879 -0.754173 21.907708 210 210 210 0
-3.293957 -0.760144 22.081161 210 210 210 0
-3.233195 -0.765757 22.244203 211 211 211 0
-3.163430 -0.769483 22.352449 211 211 211 0
-3.079161 -0.769790 22.361374 211 211 211 0
-2.990957 -0.769103 22.341416 211 211 211 0
-2.903972 -0.768699 22.329661 212 212 212 0
-2.833215 -0.772695 22.445749 212 212 212 0
-2.790500 -0.784828 22.798204 212 212 212 0
-2.673782 -0.776259 22.549286 212 212 212 0
-2.578968 -0.773691 22.474670 211 211 211 0
-2.491990 -0.773376 22.465542 213 213 213 0
-2.412348 -0.775398 22.524259 212 212 212 0
-2.337950 -0.779317 22.638099 212 212 212 0
-2.256062 -0.780945 22.685392 211 211 211 0
-2.171796 -0.781846 22.711589 212 212 212 0
-2.095910 -0.785966 22.831261 212 212 212 0
-2.012781 -0.787610 22.879010 212 212 212 0
-1.935723 -0.791887 23.003245 212 212 212 0
-1.853265 -0.794256 23.072081 212 212 212 0
-1.772153 -0.797469 23.165401 212 212 212 0
-1.687638 -0.799407 23.221714 211 211 211 0
-1.604780 -0.802390 23.308353 212 212 212 0
-1.521850 -0.805685 23.404070 213 213 213 0
-1.442687 -0.811511 23.573312 212 212 212 0
-1.360354 -0.816212 23.709870 212 212 212 0
-1.269544 -0.816135 23.707629 212 212 212 0
-1.181321 -0.817838 23.757083 212 212 212 0
-1.112050 -0.834038 24.227680 212 212 212 0
-1.008744 -0.825336 23.974899 212 212 212 0
-0.920771 -0.828694 24.072448 212 212 212 0
-0.826995 -0.826995 24.023086 210 210 210 0
-0.737021 -0.829149 24.085657 212 212 212 0
-0.651484 -0.837622 24.331794 211 211 211 0
-0.561177 -0.841766 24.452176 211 211 211 0
-0.468461 -0.843229 24.494678 211 211 211 0
-0.375405 -0.844662 24.536293 211 211 211 0
-0.282878 -0.848635 24.651708 211 211 211 0
-0.189661 -0.853475 24.792316 208 208 208 0
-0.094911 -0.854202 24.813408 208 208 208 0
0.000000 -0.854304 24.816389 206 206 206 0
0.095158 -0.856420 24.877862 205 205 205 0
0.192009 -0.864042 25.099250 204 204 204 0
0.288731 -0.866192 25.161722 205 205 205 0
0.384153 -0.864344 25.108022 204 204 204 0
0.480982 -0.865767 25.149367 203 203 203 0
0.578846 -0.868269 25.222055 203 203 203 0
0.682065 -0.876941 25.473959 203 203 203 0
0.779421 -0.876849 25.471273 203 203 203 0
0.874968 -0.874968 25.416647 201 201 201 0
0.979984 -0.881985 25.620485 200 200 200 0
1.085184 -0.887878 25.791652 200 200 200 0
1.184063 -0.888047 25.796585 200 200 200 0
1.285576 -0.890014 25.853712 200 200 200 0
1.393924 -0.896094 26.030335 196 196 196 0
1.508051 -0.904831 26.284116 196 196 196 0
1.614234 -0.908007 26.376374 195 195 195 0
1.729484 -0.915609 26.597210 194 194 194 0
1.848927 -0.924463 26.854420 191 191 191 0
1.967656 -0.932048 27.074731 190 190 190 0
2.089745 -0.940385 27.316922 185 185 185 0
2.228481 -0.955063 27.743301 182 182 182 0
2.358403 -0.964801 28.026185 175 175 175 0
2.491139 -0.974793 28.316437 138 138 138 0
-10.713713 -1.071371 35.012134 190 190 190 0
-6.424852 -0.650618 21.262024 191 191 191 0
-6.358947 -0.652200 21.313717 190 190 190 0
-6.189702 -0.643086 21.015879 191 191 191 0
-6.080127 -0.640013 20.915469 195 195 195 0
-6.001283 -0.640137 20.919506 196 196 196 0
-5.903338 -0.638199 20.856166 197 197 197 0
-5.886532 -0.645099 21.081678 197 197 197 0
-5.836639 -0.648515 21.193314 198 198 198 0
-5.769131 -0.650043 21.243234 197 197 197 0
-5.674529 -0.648518 21.193385 198 198 198 0
-5.571768 -0.646002 21.111180 200 200 200 0
-5.512330 -0.648509 21.193120 201 201 201 0
-5.431280 -0.648511 21.193173 202 202 202 0
-5.390036 -0.653338 21.350907 202 202 202 0
-5.339877 -0.657216 21.477636 203 203 203 0
-5.250972 -0.656371 21.450048 203 203 203 0
-5.160912 -0.655354 21.416796 203 203 203 0
-5.073504 -0.654646 21.393650 204 204 204 0
-5.035129 -0.660345 21.579894 204 204 204 0
-4.988699 -0.665160 21.737249 204 204 204 0
-4.898657 -0.664225 21.706687 206 206 206 0
-4.788359 -0.660463 21.583770 205 205 205 0
-4.694462 -0.658872 21.531758 207 207 207 0
-4.595745 -0.656535 21.455391 207 207 207 0
-3.393874 -0.493654 16.132497 207 207 207 0
-4.508904 -0.667986 21.829602 207 207 207 0
-4.424738 -0.667885 21.826304 208 208 208 0
-4.301457 -0.661763 21.626231 208 208 208 0
-4.198119 -0.658528 21.520538 209 209 209 0
-4.112663 -0.658026 21.504121 209 209 209 0
-4.081817 -0.666419 21.778399 209 209 209 0
-4.021982 -0.670330 21.906218 209 209 209 0
-3.924932 -0.668074 21.832468 209 209 209 0
-3.828125 -0.665761 21.756891 210 210 210 0
-3.740728 -0.665018 21.732627 210 210 210 0
-3.675566 -0.668285 21.839369 210 210 210 0
-3.612814 -0.672151 21.965734 209 209 209 0
-3.538032 -0.673911 22.023229 210 210 210 0
-3.450638 -0.673295 22.003110 210 210 210 0
-3.356905 -0.671381 21.940555 210 210 210 0
-3.291961 -0.675274 22.067778 211 211 211 0
-3.236289 -0.681324 22.265493 210 210 210 0
-3.165515 -0.684436 22.367180 211 211 211 0
-3.083535 -0.685230 22.393134 211 211 211 0
-2.993570 -0.684245 22.360934 211 211 211 0
-2.904636 -0.683444 22.334767 212 212 212 0
-2.834549 -0.687163 22.456320 212 212 212 0
-2.764705 -0.691176 22.587459 211 211 211 0
-2.675093 -0.690346 22.560343 212 212 212 0
-2.580624 -0.688166 22.489098 212 212 212 0
-2.495025 -0.688283 22.492903 211 211 211 0
-2.414411 -0.689832 22.543515 212 212 212 0
-2.344559 -0.694684 22.702096 212 212 212 0
-2.261780 -0.695932 22.742889 212 212 212 0
-2.175346 -0.696111 22.748712 211 211 211 0
-2.101191 -0.700397 22.888787 212 212 212 0
-2.014902 -0.700835 22.903118 212 212 212 0
-1.936612 -0.704222 23.013805 212 212 212 0
-1.855285 -0.706775 23.097224 212 212 212 0
-1.777231 -0.710892 23.231775 212 212 212 0
-1.689964 -0.711564 23.253712 212 212 212 0
-1.608563 -0.714917 23.363296 212 212 212 0
-1.525499 -0.717882 23.460198 212 212 212 0
-1.446228 -0.723114 23.631174 212 212 212 0
-1.362627 -0.726735 23.749496 212 212 212 0
-1.270739 -0.726137 23.729960 212 212 212 0
-1.182542 -0.727718 23.781632 213 213 213 0
-1.099884 -0.733256 23.962609 211 211 211 0
-1.011172 -0.735398 24.032620 213 213 213 0
-0.920551 -0.736441 24.066695 212 212 212 0
-0.828328 -0.736291 24.061805 212 212 212 0
-0.737975 -0.737975 24.116844 213 213 213 0
-0.652983 -0.746266 24.387789 211 211 211 0
-0.561893 -0.749191 24.483375 212 212 212 0
-0.469068 -0.750508 24.526407 213 213 213 0
-0.375264 -0.750528 24.527059 210 210 210 0
-0.282311 -0.752828 24.602235 207 207 207 0
-0.189022 -0.756087 24.708726 207 207 207 0
-0.094579 -0.756633 24.726555 207 207 207 0
0.000000 -0.756736 24.729924 207 207 207 0
0.094474 -0.755790 24.699008 206 206 206 0
0.190836 -0.763344 24.945880 205 205 205 0
0.287634 -0.767024 25.066143 205 205 205 0
0.383099 -0.766198 25.039139 204 204 204 0
0.479429 -0.767087 25.068199 203 203 203 0
0.578083 -0.770778 25.188818 203 203 203 0
0.680340 -0.777531 25.409525 204 204 204 0
0.776166 -0.776166 25.364901 203 203 203 0
0.870797 -0.774042 25.295493 203 203 203 0
0.972696 -0.778157 25.429962 202 202 202 0
1.078853 -0.784620 25.641186 202 202 202 0
1.178902 -0.785935 25.684145 200 200 200 0
1.277606 -0.786219 25.693428 201 201 201 0
1.385167 -0.791524 25.866805 199 199 199 0
1.499280 -0.799616 26.131237 197 197 197 0
1.605456 -0.802728 26.232945 196 196 196 0
1.717174 -0.808082 26.407906 195 195 195 0
1.835229 -0.815657 26.655468 195 195 195 0
1.951341 -0.821617 26.850234 191 191 191 0
2.071041 -0.828417 27.072437 190 190 190 0
2.187789 -0.833444 27.236716 186 186 186 0
2.328002 -0.846546 27.664906 183 183 183 0
2.466831 -0.858028 28.040142 174 174 174 0
2.597198 -0.865733 28.291917 132 132 132 0
2.722114 -0.871076 28.466549 75 75 75 0
-10.713723 -0.937451 35.012167 190 190 190 0
-6.441576 -0.570773 21.317368 191 191 191 0
-6.357568 -0.570551 21.309092 190 190 190 0
-6.219607 -0.565419 21.117415 192 192 192 0
-6.094850 -0.561368 20.966115 193 193 193 0
-6.012365 -0.561154 20.958135 195 195 195 0
-5.912560 -0.559296 20.888746 197 197 197 0
-5.890412 -0.564834 21.095577 197 197 197 0
-5.845306 -0.568294 21.224786 198 198 198 0
-5.758773 -0.567766 21.205091 197 197 197 0
-5.688610 -0.568861 21.245975 198 198 198 0
-5.587998 -0.566898 21.172675 198 198 198 0
-5.510280 -0.567235 21.185235 201 201 201 0
-5.448035 -0.569198 21.258551 202 202 202 0
-5.399657 -0.572691 21.389017 203 203 203 0
-5.345689 -0.575690 21.501012 202 202 202 0
-5.261090 -0.575432 21.491381 203 203 203 0
-5.173575 -0.574842 21.469345 203 203 203 0
-5.080835 -0.573643 21.424564 203 203 203 0
-5.039436 -0.578296 21.598352 204 204 204 0
-5.001156 -0.583468 21.791530 204 204 204 0
-4.913206 -0.582923 21.771156 205 205 205 0
-4.792216 -0.578371 21.601153 205 205 205 0
-4.692070 -0.576219 21.520789 205 205 205 0
-4.617386 -0.577173 21.556423 206 206 206 0
-4.760602 -0.605895 22.629126 207 207 207 0
-4.496017 -0.582817 21.767209 207 207 207 0
-4.413088 -0.582861 21.768839 207 207 207 0
-4.300352 -0.578893 21.620672 208 208 208 0
-4.203260 -0.576918 21.546894 209 209 209 0
-4.118153 -0.576541 21.532826 208 208 208 0
-4.084916 -0.583559 21.794938 209 209 209 0
-4.027526 -0.587348 21.936416 209 209 209 0
-3.927361 -0.584926 21.845981 209 209 209 0
-3.834454 -0.583504 21.792860 209 209 209 0
-3.742625 -0.582186 21.743644 210 210 210 0
-3.679322 -0.585347 21.861689 210 210 210 0
-3.618809 -0.589108 22.002183 209 209 209 0
-3.541894 -0.590316 22.047273 210 210 210 0
-3.455938 -0.590038 22.036907 210 210 210 0
-3.360192 -0.588034 21.962042 210 210 210 0
-3.297087 -0.591785 22.102143 211 211 211 0
-3.242023 -0.597215 22.304941 211 211 211 0
-3.169500 -0.599635 22.395334 210 210 210 0
-3.087553 -0.600358 22.422320 211 211 211 0
-2.995459 -0.599092 22.375047 212 212 212 0
-2.910089 -0.599136 22.376690 211 211 211 0
-2.840571 -0.602545 22.504032 211 211 211 0
-2.767438 -0.605377 22.609790 211 211 211 0
-2.679512 -0.605051 22.597615 212 212 212 0
-2.583940 -0.602919 22.517992 212 212 212 0
-2.501734 -0.603867 22.553380 211 211 211 0
-2.419358 -0.604839 22.589708 212 212 212 0
-2.349274 -0.609071 22.747754 212 212 212 0
-2.266179 -0.610125 22.787116 211 211 211 0
-2.179456 -0.610248 22.791695 211 211 211 0
-2.102740 -0.613299 22.905660 212 212 212 0
-2.018575 -0.614349 22.944875 212 212 212 0
-1.939959 -0.617260 23.053578 212 212 212 0
-1.858177 -0.619392 23.133230 212 212 212 0
-1.778715 -0.622550 23.251178 212 212 212 0
-1.694413 -0.624257 23.314938 212 212 212 0
-1.611180 -0.626570 23.401313 212 212 212 0
-1.529966 -0.629986 23.528894 211 211 211 0
-1.449993 -0.634372 23.692698 213 213 213 0
-1.365657 -0.637306 23.802296 212 212 212 0
-1.272941 -0.636470 23.771069 213 213 213 0
-1.185530 -0.638362 23.841722 212 212 212 0
-1.103120 -0.643487 24.033116 212 212 212 0
-1.013694 -0.645078 24.092541 212 212 212 0
-0.921852 -0.645296 24.100696 212 212 212 0
-0.829327 -0.645032 24.090822 212 212 212 0
-0.740116 -0.647602 24.186804 212 212 212 0
-0.653543 -0.653543 24.408715 213 213 213 0
-0.561891 -0.655539 24.483252 211 211 211 0
-0.468444 -0.655822 24.493828 209 209 209 0
-0.374372 -0.655151 24.468746 207 207 207 0
-0.281501 -0.656835 24.531646 208 208 208 0
-0.188230 -0.658806 24.605275 207 207 207 0
-0.094312 -0.660185 24.656754 206 206 206 0
0.000000 -0.659375 24.626529 206 206 206 0
0.094159 -0.659114 24.616769 207 207 207 0
0.189913 -0.664696 24.825258 207 207 207 0
0.286672 -0.668901 24.982292 206 206 206 0
0.382130 -0.668727 24.975792 206 206 206 0
0.477357 -0.668300 24.959847 205 205 205 0
0.573596 -0.669195 24.993273 204 204 204 0
0.676974 -0.676974 25.283802 203 203 203 0
0.773202 -0.676551 25.268024 203 203 203 0
0.867644 -0.674834 25.203883 203 203 203 0
0.965384 -0.675769 25.238797 204 204 204 0
1.072932 -0.682775 25.500460 203 203 203 0
1.174856 -0.685333 25.595993 201 201 201 0
1.272537 -0.685212 25.591500 200 200 200 0
1.376879 -0.688440 25.712035 200 200 200 0
1.489256 -0.694986 25.956528 200 200 200 0
1.596419 -0.698434 26.085286 198 198 198 0
1.703214 -0.701323 26.193219 196 196 196 0
1.816783 -0.706527 26.387555 196 196 196 0
1.935217 -0.712975 26.628368 195 195 195 0
2.053661 -0.718781 26.845247 192 192 192 0
2.169609 -0.723203 27.010382 190 190 190 0
2.306448 -0.733870 27.408774 187 187 187 0
2.435876 -0.741354 27.688273 183 183 183 0
2.572078 -0.750189 28.018275 172 172 172 0
2.704621 -0.757294 28.283617 126 126 126 0
-10.713680 -0.803526 35.012027 188 188 188 0
-6.469578 -0.491360 21.410036 191 191 191 0
-6.364928 -0.489610 21.333763 191 191 191 0
-6.234422 -0.485799 21.167719 192 192 192 0
-6.123004 -0.483395 21.062966 191 191 191 0
-6.029775 -0.482382 21.018823 193 193 193 0
-5.919464 -0.479957 20.913139 197 197 197 0
-5.902799 -0.485162 21.139939 198 198 198 0
-5.865308 -0.488776 21.297415 197 197 197 0
-5.778725 -0.488343 21.278560 197 197 197 0
-5.697895 -0.488391 21.280654 199 199 199 0
-5.597333 -0.486725 21.208043 199 199 199 0
-5.528217 -0.487784 21.254197 199 199 199 0
-5.449566 -0.488021 21.264524 201 201 201 0
-5.420156 -0.492741 21.470216 202 202 202 0
-5.349533 -0.493803 21.516472 202 202 202 0
-5.260152 -0.493139 21.487548 203 203 203 0
-5.168280 -0.492217 21.447371 203 203 203 0
-5.093149 -0.492885 21.476485 203 203 203 0
-5.048594 -0.496583 21.637606 204 204 204 0
-5.005310 -0.500531 21.809629 204 204 204 0
-4.921556 -0.500497 21.808157 204 204 204 0
-4.799592 -0.496509 21.634400 205 205 205 0
-4.693740 -0.494078 21.528449 205 205 205 0
-4.616314 -0.494605 21.551418 206 206 206 0
-4.593921 -0.501155 21.836820 205 205 205 0
-4.513635 -0.501515 21.852505 207 207 207 0
-4.417528 -0.500098 21.790742 206 206 206 0
-4.307841 -0.497059 21.658325 207 207 207 0
-4.206468 -0.494879 21.563335 207 207 207 0
-4.124967 -0.494996 21.568452 207 207 207 0
-4.095198 -0.501453 21.849794 208 208 208 0
-4.035561 -0.504445 21.980178 208 208 208 0
-3.935214 -0.502368 21.889665 208 208 208 0
-3.837424 -0.500534 21.809740 209 209 209 0
-3.751971 -0.500263 21.797941 210 210 210 0
-3.684110 -0.502379 21.890135 209 209 209 0
-3.622405 -0.505452 22.024049 210 210 210 0
-3.550291 -0.507184 22.099538 210 210 210 0
-3.454168 -0.505488 22.025622 210 210 210 0
-3.369176 -0.505376 22.020761 210 210 210 0
-3.303108 -0.508170 22.142504 210 210 210 0
-3.245078 -0.512381 22.325959 210 210 210 0
-3.173942 -0.514693 22.426720 210 210 210 0
-3.090908 -0.515151 22.446678 211 211 211 0
-2.996301 -0.513652 22.381337 211 211 211 0
-2.911086 -0.513721 22.384356 211 211 211 0
-2.842718 -0.516858 22.521036 212 212 212 0
-2.773471 -0.520026 22.659077 211 211 211 0
-2.682137 -0.519123 22.619752 211 211 211 0
-2.587897 -0.517579 22.552476 212 212 212 0
-2.503548 -0.517975 22.569734 212 212 212 0
-2.425392 -0.519727 22.646054 211 211 211 0
-2.353326 -0.522961 22.786987 212 212 212 0
-2.269854 -0.523812 22.824067 211 211 211 0
-2.183052 -0.523932 22.829301 212 212 212 0
-2.107073 -0.526768 22.952869 212 212 212 0
-2.024368 -0.528096 23.010714 212 212 212 0
-1.942350 -0.529732 23.081991 211 211 211 0
-1.864376 -0.532679 23.210404 213 213 213 0
-1.785151 -0.535545 23.335301 212 212 212 0
-1.699210 -0.536593 23.380939 212 212 212 0
-1.614411 -0.538137 23.448230 212 212 212 0
-1.534103 -0.541448 23.592508 212 212 212 0
-1.453389 -0.545021 23.748182 212 212 212 0
-1.366602 -0.546641 23.818765 212 212 212 0
-1.275385 -0.546594 23.816720 212 212 212 0
-1.188729 -0.548644 23.906062 212 212 212 0
-1.105212 -0.552606 24.078695 211 211 211 0
-1.015538 -0.553930 24.136375 212 212 212 0
-0.922169 -0.553301 24.108992 212 212 212 0
-0.829596 -0.553064 24.098645 213 213 213 0
-0.738976 -0.554232 24.149548 213 213 213 0
-0.652411 -0.559210 24.366437 211 211 211 0
-0.560637 -0.560637 24.428629 210 210 210 0
-0.466323 -0.559587 24.382891 209 209 209 0
-0.372340 -0.558510 24.335940 209 209 209 0
-0.279646 -0.559292 24.370005 208 208 208 0
-0.187480 -0.562440 24.507203 207 207 207 0
-0.094059 -0.564356 24.590658 206 206 206 0
0.000000 -0.564126 24.580642 206 206 206 0
0.093943 -0.563660 24.560351 207 207 207 0
0.189013 -0.567039 24.707580 206 206 206 0
0.285424 -0.570849 24.873574 205 205 205 0
0.380878 -0.571318 24.894013 206 206 206 0
0.475354 -0.570425 24.855114 206 206 206 0
0.570452 -0.570452 24.856277 206 206 206 0
0.676775 -0.580093 25.276390 204 204 204 0
0.771007 -0.578255 25.196306 204 204 204 0
0.865212 -0.576808 25.133260 203 203 203 0
0.961201 -0.576721 25.129445 203 203 203 0
1.066936 -0.581965 25.357965 204 204 204 0
1.170225 -0.585113 25.495102 203 203 203 0
1.267104 -0.584817 25.482222 201 201 201 0
1.368805 -0.586631 25.561259 200 200 200 0
1.478117 -0.591247 25.762390 200 200 200 0
1.587372 -0.595264 25.937448 200 200 200 0
1.693212 -0.597604 26.039405 199 199 199 0
1.802907 -0.600969 26.186013 196 196 196 0
1.920933 -0.606611 26.431830 196 196 196 0
2.038998 -0.611699 26.653571 195 195 195 0
2.152024 -0.614864 26.791456 192 192 192 0
2.231705 -0.608647 26.520556 191 191 191 0
2.407897 -0.628147 27.370241 187 187 187 0
2.545440 -0.636360 27.728101 183 183 183 0
2.689513 -0.645483 28.125625 169 169 169 0
2.821009 -0.651002 28.366104 114 114 114 0
-10.713586 -0.669599 35.011719 186 186 186 0
-6.517848 -0.412522 21.569779 191 191 191 0
-6.399318 -0.410213 21.449030 192 192 192 0
-6.232686 -0.404720 21.161825 191 191 191 0
-6.131592 -0.403394 21.092507 192 192 192 0
-6.032604 -0.402174 21.028685 193 193 193 0
-5.929553 -0.400645 20.948782 194 194 194 0
-5.917710 -0.405323 21.193340 197 197 197 0
-5.869786 -0.407624 21.313673 198 198 198 0
-5.784613 -0.407367 21.300239 198 198 198 0
-5.706125 -0.407580 21.311390 198 198 198 0
-5.617102 -0.407036 21.282949 198 198 198 0
-5.537423 -0.407163 21.289591 199 199 199 0
-5.464475 -0.407797 21.322700 199 199 199 0
-5.421366 -0.410710 21.475008 200 200 200 0
-5.357109 -0.412085 21.546944 202 202 202 0
-5.262116 -0.411103 21.495573 203 203 203 0
-5.167019 -0.410081 21.442137 203 203 203 0
-5.101360 -0.411400 21.511111 203 203 203 0
-5.057052 -0.414512 21.673852 204 204 204 0
-5.019554 -0.418296 21.871695 205 205 205 0
-4.930330 -0.417825 21.847037 204 204 204 0
-4.808853 -0.414556 21.676145 205 205 205 0
-4.705516 -0.412765 21.582461 205 205 205 0
-4.626923 -0.413118 21.600948 206 206 206 0
-4.600029 -0.418184 21.865856 206 206 206 0
-4.520674 -0.418581 21.886585 206 206 206 0
-4.421130 -0.417088 21.808507 207 207 207 0
-4.313893 -0.414797 21.688753 207 207 207 0
-4.216996 -0.413431 21.617308 208 208 208 0
-4.135453 -0.413545 21.623282 207 207 207 0
-4.106536 -0.419034 21.910287 208 208 208 0
-4.043340 -0.421181 22.022550 209 209 209 0
-3.938890 -0.419031 21.910111 208 208 208 0
-3.843359 -0.417756 21.843474 209 209 209 0
-3.754925 -0.417214 21.815104 209 209 209 0
-3.699074 -0.420349 21.979052 209 209 209 0
-3.633313 -0.422478 22.090364 210 210 210 0
-3.563770 -0.424258 22.183440 211 211 211 0
-3.466844 -0.422786 22.106448 210 210 210 0
-3.377567 -0.422196 22.075601 211 211 211 0
-3.308109 -0.424117 22.176028 211 211 211 0
-3.251845 -0.427874 22.372511 210 210 210 0
-3.178688 -0.429552 22.460260 211 211 211 0
-3.094878 -0.429844 22.475514 210 210 210 0
-2.998526 -0.428361 22.397953 211 211 211 0
-2.915918 -0.428811 22.421516 211 211 211 0
-2.848055 -0.431523 22.563320 212 212 212 0
-2.777643 -0.434007 22.693161 211 211 211 0
-2.687651 -0.433492 22.666254 212 212 212 0
-2.592132 -0.432022 22.589382 211 211 211 0
-2.509126 -0.432608 22.620019 211 211 211 0
-2.426057 -0.433224 22.652256 211 211 211 0
-2.358235 -0.436710 22.834518 211 211 211 0
-2.273683 -0.437247 22.862574 212 212 212 0
-2.187750 -0.437550 22.878436 211 211 211 0
-2.108164 -0.439201 22.964747 212 212 212 0
-2.028628 -0.441006 23.059136 212 212 212 0
-1.949139 -0.442986 23.162675 212 212 212 0
-1.869508 -0.445121 23.274303 212 212 212 0
-1.789149 -0.447287 23.387573 212 212 212 0
-1.706853 -0.449172 23.486110 211 211 211 0
-1.620087 -0.450024 23.530680 212 212 212 0
-1.539220 -0.452712 23.671200 212 212 212 0
-1.458261 -0.455707 23.827801 212 212 212 0
-1.369691 -0.456564 23.872601 212 212 212 0
-1.278376 -0.456563 23.872566 212 212 212 0
-1.190218 -0.457776 23.936006 212 212 212 0
-1.107240 -0.461350 24.122870 213 213 213 0
-1.015982 -0.461810 24.146919 212 212 212 0
-0.921375 -0.460688 24.088241 214 214 214 0
-0.828038 -0.460021 24.053378 210 210 210 0
-0.736270 -0.460169 24.061104 212 212 212 0
-0.648810 -0.463436 24.231944 211 211 211 0
-0.557038 -0.464198 24.271805 210 210 210 0
-0.464079 -0.464079 24.265594 209 209 209 0
-0.370504 -0.463129 24.215919 208 208 208 0
-0.278314 -0.463857 24.253970 208 208 208 0
-0.186611 -0.466527 24.393584 208 208 208 0
-0.093783 -0.468916 24.518506 207 207 207 0
0.000000 -0.469042 24.525051 207 207 207 0
0.093660 -0.468298 24.486170 206 206 206 0
0.188122 -0.470305 24.591095 206 206 206 0
0.284335 -0.473891 24.778607 206 206 206 0
0.379862 -0.474828 24.827582 207 207 207 0
0.474190 -0.474190 24.794232 207 207 207 0
0.569051 -0.474209 24.795261 206 206 206 0
0.657977 -0.469983 24.574298 206 206 206 0
0.768661 -0.480413 25.119628 205 205 205 0
0.863567 -0.479759 25.085453 204 204 204 0
0.956624 -0.478312 25.009787 203 203 203 0
1.061008 -0.482276 25.217060 204 204 204 0
1.165797 -0.485749 25.398625 204 204 204 0
1.262543 -0.485593 25.390503 203 203 203 0
1.362216 -0.486506 25.438209 203 203 203 0
1.469650 -0.489883 25.614813 201 201 201 0
1.579004 -0.493439 25.800720 201 201 201 0
1.684574 -0.495463 25.906562 200 200 200 0
1.795194 -0.498665 26.073985 199 199 199 0
1.908436 -0.502220 26.259869 197 197 197 0
2.025623 -0.506406 26.478727 197 197 197 0
2.140366 -0.509611 26.646318 196 196 196 0
2.256294 -0.512794 26.812768 193 193 193 0
2.389171 -0.519385 27.157387 191 191 191 0
2.515542 -0.524071 27.402418 188 188 188 0
2.656953 -0.531391 27.785125 182 182 182 0
2.800366 -0.538532 28.158534 164 164 164 0
2.929013 -0.542410 28.361301 98 98 98 0
-10.713215 -0.535661 35.010506 186 186 186 0
-6.574833 -0.332903 21.758361 189 189 189 0
-6.414757 -0.328962 21.500779 191 191 191 0
-6.255309 -0.324951 21.238636 192 192 192 0
-6.135300 -0.322911 21.105264 192 192 192 0
-6.042677 -0.322276 21.063799 192 192 192 0
-5.943535 -0.321272 20.998180 193 193 193 0
-5.932685 -0.325079 21.246968 195 195 195 0
-5.888004 -0.327111 21.379827 198 198 198 0
-5.796388 -0.326557 21.343600 198 198 198 0
-5.718065 -0.326747 21.355985 197 197 197 0
-5.630873 -0.326427 21.335125 198 198 198 0
-5.551100 -0.326535 21.342177 199 199 199 0
-5.479766 -0.327150 21.382367 199 199 199 0
-5.436259 -0.329470 21.534002 200 200 200 0
-5.362947 -0.330028 21.570426 201 201 201 0
-5.266668 -0.329167 21.514168 202 202 202 0
-5.176212 -0.328648 21.480287 203 203 203 0
-5.115570 -0.330037 21.571030 204 204 204 0
-5.073091 -0.332662 21.742594 204 204 204 0
-5.037434 -0.335829 21.949604 204 204 204 0
-4.940597 -0.334956 21.892533 205 205 205 0
-4.819674 -0.332391 21.724923 205 205 205 0
-4.712131 -0.330676 21.612802 205 205 205 0
-4.639891 -0.331421 21.661489 205 205 205 0
-4.608781 -0.335184 21.907457 206 206 206 0
-4.531535 -0.335669 21.939166 206 206 206 0
-4.430375 -0.334368 21.854112 206 206 206 0
-4.316532 -0.332041 21.702019 206 206 206 0
-4.219703 -0.330957 21.631181 207 207 207 0
-4.135853 -0.330868 21.625377 208 208 208 0
-4.110105 -0.335519 21.929331 208 208 208 0
-4.047566 -0.337297 22.045569 209 209 209 0
-3.947253 -0.335936 21.956631 209 209 209 0
-3.854006 -0.335131 21.903984 209 209 209 0
-3.767698 -0.334906 21.889311 210 210 210 0
-3.704448 -0.336768 22.010980 209 209 209 0
-3.639949 -0.338600 22.130712 210 210 210 0
-3.566236 -0.339642 22.198791 209 209 209 0
-3.470737 -0.338608 22.131271 210 210 210 0
-3.384644 -0.338464 22.121853 210 210 210 0
-3.312874 -0.339782 22.207969 210 210 210 0
-3.256965 -0.342838 22.407739 210 210 210 0
-3.183533 -0.344166 22.494492 209 209 209 0
-3.100559 -0.344507 22.516770 210 210 210 0
-3.002664 -0.343162 22.428866 210 210 210 0
-2.917818 -0.343273 22.436127 211 211 211 0
-2.852012 -0.345698 22.594667 211 211 211 0
-2.782844 -0.347855 22.735653 211 211 211 0
-2.690613 -0.347176 22.691233 211 211 211 0
-2.597933 -0.346391 22.639936 211 211 211 0
-2.513046 -0.346627 22.655358 211 211 211 0
-2.433677 -0.347668 22.723407 211 211 211 0
-2.360651 -0.349726 22.857915 211 211 211 0
-2.277381 -0.350366 22.899760 211 211 211 0
-2.193921 -0.351027 22.942963 211 211 211 0
-2.112092 -0.352015 23.007539 211 211 211 0
-2.032721 -0.353517 23.105667 212 212 212 0
-1.954572 -0.355377 23.227233 212 212 212 0
-1.875878 -0.357310 23.353605 211 211 211 0
-1.795249 -0.359050 23.467303 212 212 212 0
-1.710833 -0.360175 23.540871 212 212 212 0
-1.624558 -0.361013 23.595618 212 212 212 0
-1.545042 -0.363539 23.760739 213 213 213 0
-1.463288 -0.365822 23.909942 212 212 212 0
-1.371008 -0.365602 23.895563 212 212 212 0
-1.278727 -0.365351 23.879131 212 212 212 0
-1.189750 -0.366077 23.926596 213 213 213 0
-1.105369 -0.368456 24.082116 213 213 213 0
-1.014661 -0.368968 24.115543 214 214 214 0
-0.919926 -0.367971 24.050362 211 211 211 0
-0.826047 -0.367132 23.995566 211 211 211 0
-0.732781 -0.366390 23.947076 209 209 209 0
-0.645100 -0.368629 24.093388 209 209 209 0
-0.554405 -0.369603 24.157089 209 209 209 0
-0.461594 -0.369275 24.135637 209 209 209 0
-0.369069 -0.369069 24.122140 207 207 207 0
-0.277090 -0.369453 24.147280 208 208 208 0
-0.185662 -0.371323 24.269487 207 207 207 0
-0.093394 -0.373577 24.416780 208 208 208 0
0.000000 -0.373752 24.428242 208 208 208 0
0.093459 -0.373836 24.433703 208 208 208 0
0.187381 -0.374762 24.494245 207 207 207 0
0.283277 -0.377703 24.686481 207 207 207 0
0.378819 -0.378819 24.759434 206 206 206 0
0.472588 -0.378070 24.710488 206 206 206 0
0.567476 -0.378317 24.726604 206 206 206 0
0.664805 -0.379889 24.829334 206 206 206 0
0.765566 -0.382783 25.018496 206 206 206 0
0.861080 -0.382702 25.013228 206 206 206 0
0.953894 -0.381558 24.938410 205 205 205 0
1.054026 -0.383282 25.051135 204 204 204 0
1.160199 -0.386733 25.276656 203 203 203 0
1.258849 -0.387338 25.316215 204 204 204 0
1.356939 -0.387697 25.339661 203 203 203 0
1.462684 -0.390049 25.493397 202 202 202 0
1.571621 -0.392905 25.680088 202 202 202 0
1.677828 -0.394783 25.802819 201 201 201 0
1.782799 -0.396178 25.893965 201 201 201 0
1.894452 -0.398832 26.067449 200 200 200 0
2.011086 -0.402217 26.288711 197 197 197 0
2.128220 -0.405375 26.495117 197 197 197 0
2.240285 -0.407325 26.622520 195 195 195 0
2.378934 -0.413728 27.041023 192 192 192 0
2.495269 -0.415878 27.181582 191 191 191 0
2.626059 -0.420169 27.462058 187 187 187 0
2.771772 -0.426427 27.871015 182 182 182 0
2.914917 -0.431840 28.224804 151 151 151 0
3.026396 -0.432342 28.257663 78 78 78 0
-10.711888 -0.401696 35.006171 186 186 186 0
-6.608657 -0.250962 21.870295 186 186 186 0
-6.476028 -0.249078 21.706145 189 189 189 0
-6.270476 -0.244304 21.290131 192 192 192 0
-6.152674 -0.242869 21.165030 193 193 193 0
-6.059286 -0.242371 21.121694 193 193 193 0
-5.963441 -0.241761 21.068507 193 193 193 0
-5.950272 -0.244532 21.309953 193 193 193 0
-5.913221 -0.246384 21.471391 195 195 195 0
-5.801853 -0.245149 21.363724 197 197 197 0
-5.728533 -0.245509 21.395080 198 198 198 0
-5.631089 -0.244830 21.335944 199 199 199 0
-5.563877 -0.245465 21.391298 199 199 199 0
-5.477298 -0.245252 21.372737 199 199 199 0
-5.454889 -0.247949 21.607799 200 200 200 0
-5.382191 -0.248409 21.647827 201 201 201 0
-5.281374 -0.247564 21.574241 200 200 200 0
-5.180842 -0.246707 21.499501 201 201 201 0
-5.123453 -0.247909 21.604270 202 202 202 0
-5.079584 -0.249816 21.770424 204 204 204 0
-5.037811 -0.251891 21.951248 205 205 205 0
-4.942190 -0.251298 21.899590 204 204 204 0
-4.826166 -0.249629 21.754184 204 204 204 0
-4.717461 -0.248287 21.637247 205 205 205 0
-4.644837 -0.248831 21.684579 205 205 205 0
-4.627656 -0.252418 21.997177 206 206 206 0
-4.540215 -0.252234 21.981189 206 206 206 0
-4.433548 -0.250956 21.869764 206 206 206 0
-4.328311 -0.249710 21.761241 206 206 206 0
-4.225719 -0.248572 21.662020 208 208 208 0
-4.146359 -0.248782 21.680307 208 208 208 0
-4.121493 -0.252336 21.990091 208 208 208 0
-4.055532 -0.253471 22.088953 208 208 208 0
-3.951212 -0.252205 21.978651 209 209 209 0
-3.867540 -0.252231 21.980903 209 209 209 0
-3.776919 -0.251795 21.942883 209 209 209 0
-3.714571 -0.253266 22.071129 209 209 209 0
-3.649483 -0.254615 22.188681 209 209 209 0
-3.573539 -0.255253 22.244253 209 209 209 0
-3.476738 -0.254395 22.169539 209 209 209 0
-3.394912 -0.254618 22.188968 210 210 210 0
-3.321063 -0.255466 22.262869 210 210 210 0
-3.264504 -0.257724 22.459606 210 210 210 0
-3.189572 -0.258614 22.537166 210 210 210 0
-3.101704 -0.258475 22.525083 210 210 210 0
-3.008103 -0.257837 22.469488 210 210 210 0
-2.925057 -0.258093 22.491787 211 211 211 0
-2.859146 -0.259922 22.651190 210 210 210 0
-2.791089 -0.261665 22.803014 211 211 211 0
-2.695212 -0.260827 22.730020 211 211 211 0
-2.603011 -0.260301 22.684195 211 211 211 0
-2.516257 -0.260302 22.684306 211 211 211 0
-2.436554 -0.261059 22.750271 212 212 212 0
-2.365336 -0.262815 22.903276 212 212 212 0
-2.284813 -0.263632 22.974488 212 212 212 0
-2.197462 -0.263695 22.979996 211 211 211 0
-2.118122 -0.264765 23.073226 211 211 211 0
-2.040737 -0.266183 23.196780 212 212 212 0
-1.960188 -0.267298 23.293971 212 212 212 0
-1.883805 -0.269115 23.452289 212 212 212 0
-1.800551 -0.270083 23.536609 212 212 212 0
-1.716292 -0.270993 23.615986 212 212 212 0
-1.629314 -0.271552 23.664685 211 211 211 0
-1.546507 -0.272913 23.783262 213 213 213 0
-1.464684 -0.274628 23.932753 213 213 213 0
-1.371748 -0.274350 23.908455 212 212 212 0
-1.278662 -0.273999 23.877903 213 213 213 0
-1.185581 -0.273596 23.842762 213 213 213 0
-1.098074 -0.274518 23.923170 212 212 212 0
-1.011277 -0.275803 24.035100 210 210 210 0
-0.918032 -0.275409 24.000827 210 210 210 0
-0.823877 -0.274626 23.932515 210 210 210 0
-0.730751 -0.274032 23.880759 208 208 208 0
-0.641653 -0.274994 23.964649 209 209 209 0
-0.551939 -0.275970 24.049648 209 209 209 0
-0.460214 -0.276129 24.063499 208 208 208 0
-0.368246 -0.276184 24.068362 208 208 208 0
-0.275966 -0.275966 24.049294 208 208 208 0
-0.184623 -0.276934 24.133699 208 208 208 0
-0.092918 -0.278753 24.292175 208 208 208 0
0.000000 -0.279338 24.343173 208 208 208 0
0.092891 -0.278674 24.285273 208 208 208 0
0.186188 -0.279281 24.338247 208 208 208 0
0.282137 -0.282137 24.587097 207 207 207 0
0.377942 -0.283457 24.702104 207 207 207 0
0.471480 -0.282888 24.652564 207 207 207 0
0.565543 -0.282771 24.642396 206 206 206 0
0.661606 -0.283546 24.709858 205 205 205 0
0.762672 -0.286002 24.923927 206 206 206 0
0.858810 -0.286270 24.947267 206 206 206 0
0.951360 -0.285408 24.872149 206 206 206 0
1.048798 -0.286036 24.926858 206 206 206 0
1.154276 -0.288569 25.147617 205 205 205 0
1.254486 -0.289497 25.228469 204 204 204 0
1.352970 -0.289922 25.265539 204 204 204 0
1.455267 -0.291053 25.364126 204 204 204 0
1.563197 -0.293099 25.542429 203 203 203 0
1.669894 -0.294687 25.680794 202 202 202 0
1.771184 -0.295197 25.725261 201 201 201 0
1.880978 -0.296997 25.882053 200 200 200 0
1.996926 -0.299539 26.103602 199 199 199 0
2.113213 -0.301888 26.308285 197 197 197 0
2.228601 -0.303900 26.483675 196 196 196 0
2.338993 -0.305086 26.587017 195 195 195 0
2.476440 -0.309555 26.976475 192 192 192 0
2.606803 -0.312816 27.260687 191 191 191 0
2.744500 -0.316673 27.596783 186 186 186 0
2.892743 -0.321416 28.010101 177 177 177 0
3.024121 -0.324013 28.236421 132 132 132 0
3.116159 -0.322361 28.092486 75 75 75 0
-10.710313 -0.267758 35.001024 185 185 185 0
-6.613600 -0.167433 21.886657 185 185 185 0
-6.461015 -0.165667 21.655822 187 187 187 0
-6.284159 -0.163225 21.336589 191 191 191 0
-6.164580 -0.162226 21.205987 192 192 192 0
-6.053141 -0.161417 21.100275 193 193 193 0
-5.964669 -0.161207 21.072844 193 193 193 0
-5.959649 -0.163278 21.343535 194 194 194 0
-5.917793 -0.164383 21.487992 194 194 194 0
-5.810103 -0.163665 21.394103 195 195 195 0
-5.729250 -0.163693 21.397760 197 197 197 0
-5.658774 -0.164022 21.440842 199 199 199 0
-5.569638 -0.163813 21.413448 199 199 199 0
-5.493891 -0.163997 21.437483 199 199 199 0
-5.461930 -0.165513 21.635692 200 200 200 0
-5.388229 -0.165792 21.672114 201 201 201 0
-5.293940 -0.165436 21.625573 200 200 200 0
-5.188929 -0.164728 21.533059 201 201 201 0
-5.127910 -0.165416 21.623065 202 202 202 0
-5.093796 -0.167010 21.831336 202 202 202 0
-5.041193 -0.168040 21.965982 204 204 204 0
-4.948165 -0.167734 21.926068 204 204 204 0
-4.827880 -0.166479 21.761913 205 205 205 0
-4.729656 -0.165953 21.693183 206 206 206 0
-4.650898 -0.166103 21.712875 205 205 205 0
-4.634730 -0.168536 22.030801 206 206 206 0
-4.548910 -0.168478 22.023289 206 206 206 0
-4.437271 -0.167444 21.888127 206 206 206 0
-4.331147 -0.166583 21.775502 207 207 207 0
-4.230510 -0.165902 21.686580 207 207 207 0
-4.153967 -0.166159 21.720087 208 208 208 0
-4.126869 -0.168444 22.018774 207 207 207 0
-4.057685 -0.169070 22.100680 208 208 208 0
-3.955958 -0.168339 22.005053 208 208 208 0
-3.868991 -0.168217 21.989151 208 208 208 0
-3.784577 -0.168203 21.987374 209 209 209 0
-3.723060 -0.169230 22.121570 208 208 208 0
-3.653663 -0.169938 22.214096 209 209 209 0
-3.577347 -0.170350 22.267955 208 208 208 0
-3.479061 -0.169710 22.184354 209 209 209 0
-3.400090 -0.170004 22.222809 209 209 209 0
-3.330259 -0.170783 22.324510 209 209 209 0
-3.273251 -0.172276 22.519786 210 210 210 0
-3.196455 -0.172781 22.585796 210 210 210 0
-3.105799 -0.172544 22.554824 210 210 210 0
-3.015671 -0.172324 22.526017 210 210 210 0
-2.931601 -0.172447 22.542106 210 210 210 0
-2.867518 -0.173789 22.717516 211 211 211 0
-2.795908 -0.174744 22.842386 210 210 210 0
-2.701078 -0.174263 22.779488 211 211 211 0
-2.605849 -0.173723 22.708925 210 210 210 0
-2.523522 -0.174036 22.749801 211 211 211 0
-2.442640 -0.174474 22.807096 211 211 211 0
-2.370957 -0.175626 22.957704 211 211 211 0
-2.286820 -0.175909 22.994668 211 211 211 0
-2.200825 -0.176066 23.015166 212 212 212 0
-2.121389 -0.176782 23.108815 212 212 212 0
-2.044462 -0.177779 23.239124 211 211 211 0
-1.966418 -0.178765 23.368006 212 212 212 0
-1.886583 -0.179675 23.486874 212 212 212 0
-1.803259 -0.180326 23.572011 213 213 213 0
-1.717379 -0.180777 23.630948 212 212 212 0
-1.631664 -0.181296 23.698817 213 213 213 0
-1.548716 -0.182202 23.817241 213 213 213 0
-1.464450 -0.183056 23.928916 213 213 213 0
-1.370287 -0.182705 23.882999 213 213 213 0
-1.276600 -0.182371 23.839403 213 213 213 0
-1.180308 -0.181586 23.736721 210 210 210 0
-1.113550 -0.185592 24.260345 211 211 211 0
-1.005927 -0.182896 23.907954 211 211 211 0
-0.915739 -0.183148 23.940876 210 210 210 0
-0.822040 -0.182676 23.879167 210 210 210 0
-0.728536 -0.182134 23.808372 210 210 210 0
-0.637932 -0.182266 23.825665 210 210 210 0
-0.549724 -0.183241 23.953114 208 208 208 0
-0.458964 -0.183585 23.998099 208 208 208 0
-0.367154 -0.183577 23.996993 208 208 208 0
-0.274754 -0.183169 23.943681 208 208 208 0
-0.183980 -0.183980 24.049692 208 208 208 0
-0.092627 -0.185254 24.216229 209 209 209 0
0.000000 -0.185669 24.270405 209 209 209 0
0.092659 -0.185318 24.224614 208 208 208 0
0.185803 -0.185803 24.287964 207 207 207 0
0.280881 -0.187254 24.477611 209 209 209 0
0.376928 -0.188464 24.635785 208 208 208 0
0.470619 -0.188247 24.607506 208 208 208 0
0.563709 -0.187903 24.562500 207 207 207 0
0.659938 -0.188554 24.647537 206 206 206 0
0.761447 -0.190362 24.883877 206 206 206 0
0.856000 -0.190222 24.865636 207 207 207 0
0.948619 -0.189724 24.800486 206 206 206 0
1.044176 -0.189850 24.817008 206 206 206 0
1.147756 -0.191293 25.005570 206 206 206 0
1.250885 -0.192444 25.156061 205 205 205 0
1.348431 -0.192633 25.180780 204 204 204 0
1.449032 -0.193204 25.255453 203 203 203 0
1.555226 -0.194403 25.412192 204 204 204 0
1.659916 -0.195284 25.527347 203 203 203 0
1.763170 -0.195908 25.608865 202 202 202 0
1.872233 -0.197077 25.761717 201 201 201 0
1.986217 -0.198622 25.963624 200 200 200 0
2.101202 -0.200115 26.158761 199 199 199 0
2.216939 -0.201540 26.345089 197 197 197 0
2.333499 -0.202913 26.524571 197 197 197 0
2.455122 -0.204593 26.744246 195 195 195 0
2.583992 -0.206719 27.022139 192 192 192 0
2.713034 -0.208695 27.280379 189 189 189 0
2.861322 -0.211950 27.705854 185 185 185 0
3.004672 -0.214619 28.054829 171 171 171 0
3.142317 -0.216711 28.328299 105 105 105 0
-8.532859 -0.106661 27.885160 185 185 185 0
-6.576879 -0.083252 21.765134 186 186 186 0
-6.465840 -0.082895 21.671995 187 187 187 0
-6.305423 -0.081889 21.408788 188 188 188 0
-6.174714 -0.081246 21.240846 192 192 192 0
-6.079051 -0.081054 21.190593 192 192 192 0
-5.980819 -0.080822 21.129904 193 193 193 0
-5.982624 -0.081954 21.425820 194 194 194 0
-5.935553 -0.082438 21.552481 194 194 194 0
-5.828057 -0.082085 21.460212 195 195 195 0
-5.737275 -0.081961 21.427732 195 195 195 0
-5.659200 -0.082017 21.442454 198 198 198 0
-5.572683 -0.081951 21.425157 198 198 198 0
-5.505695 -0.082175 21.483544 199 199 199 0
-5.476533 -0.082978 21.693536 200 200 200 0
-5.393355 -0.082975 21.692731 200 200 200 0
-5.299905 -0.082811 21.649940 200 200 200 0
-5.194457 -0.082452 21.555998 201 201 201 0
-5.137006 -0.082855 21.661420 201 201 201 0
-5.106036 -0.083706 21.883794 201 201 201 0
-5.058846 -0.084314 22.042901 203 203 203 0
-4.953167 -0.083952 21.948232 202 202 202 0
-4.828266 -0.083246 21.763650 204 204 204 0
-4.728455 -0.082955 21.687673 204 204 204 0
-4.658517 -0.083188 21.748447 205 205 205 0
-4.656280 -0.084660 22.133237 206 206 206 0
-4.558304 -0.084413 22.068768 206 206 206 0
-4.447568 -0.083916 21.938920 206 206 206 0
-4.337419 -0.083412 21.807032 207 207 207 0
-4.240390 -0.083145 21.737228 207 207 207 0
-4.158568 -0.083171 21.744147 208 208 208 0
-4.134633 -0.084380 22.060198 208 208 208 0
-4.066224 -0.084713 22.147188 208 208 208 0
-3.959714 -0.084249 22.025944 208 208 208 0
-3.869647 -0.084123 21.992880 208 208 208 0
-3.787873 -0.084175 22.006524 209 209 209 0
-3.736473 -0.084920 22.201264 208 208 208 0
-3.660014 -0.085117 22.252708 208 208 208 0
-3.586131 -0.085384 22.322631 209 209 209 0
-3.486779 -0.085043 22.233566 208 208 208 0
-3.409810 -0.085245 22.286342 209 209 209 0
-3.345145 -0.085773 22.424303 210 210 210 0
-3.285525 -0.086461 22.604233 209 209 209 0
-3.204060 -0.086596 22.639536 210 210 210 0
-3.114573 -0.086516 22.618538 210 210 210 0
-3.021486 -0.086328 22.569454 210 210 210 0
-2.935487 -0.086338 22.571987 210 210 210 0
-2.871088 -0.087003 22.745799 211 211 211 0
-2.802916 -0.087591 22.899637 211 211 211 0
-2.707363 -0.087334 22.832493 210 210 210 0
-2.612593 -0.087086 22.767695 210 210 210 0
-2.528847 -0.087202 22.797810 211 211 211 0
-2.447309 -0.087404 22.850694 211 211 211 0
-2.374424 -0.087942 22.991279 210 210 210 0
-2.290598 -0.088100 23.032663 212 212 212 0
-2.204878 -0.088195 23.057543 212 212 212 0
-2.123560 -0.088482 23.132465 212 212 212 0
-2.047202 -0.089009 23.270266 211 211 211 0
-1.970203 -0.089555 23.412989 211 211 211 0
-1.890059 -0.090003 23.530152 211 211 211 0
-1.806023 -0.090301 23.608147 212 212 212 0
-1.720763 -0.090566 23.677516 212 212 212 0
-1.632044 -0.090669 23.704350 213 213 213 0
-1.546962 -0.090998 23.790265 213 213 213 0
-1.462945 -0.091434 23.904331 213 213 213 0
-1.368651 -0.091243 23.854490 212 212 212 0
-1.273687 -0.090978 23.785007 211 211 211 0
-1.179206 -0.090708 23.714551 211 211 211 0
-1.022754 -0.085229 22.282220 210 210 210 0
-1.005357 -0.091396 23.894397 210 210 210 0
-0.913786 -0.091379 23.889838 210 210 210 0
-0.819684 -0.091076 23.810724 210 210 210 0
-0.726840 -0.090855 23.752945 209 209 209 0
-0.635451 -0.090779 23.732989 211 211 211 0
-0.548568 -0.091428 23.902750 209 209 209 0
-0.458315 -0.091663 23.964179 209 209 209 0
-0.366405 -0.091601 23.948064 209 209 209 0
-0.274187 -0.091396 23.894284 209 209 209 0
-0.183257 -0.091628 23.955163 209 209 209 0
-0.092258 -0.092258 24.119704 208 208 208 0
0.000000 -0.092723 24.241219 208 208 208 0
0.092622 -0.092622 24.215032 208 208 208 0
0.185383 -0.092691 24.233016 207 207 207 0
0.279698 -0.093233 24.374512 208 208 208 0
0.375724 -0.093931 24.557126 209 209 209 0
0.469512 -0.093902 24.549653 208 208 208 0
0.562835 -0.093806 24.524388 208 208 208 0
0.658165 -0.094024 24.581326 207 207 207 0
0.773283 -0.096660 25.270687 207 207 207 0
0.853823 -0.094869 24.802401 206 206 206 0
0.947283 -0.094728 24.765579 206 206 206 0
1.040211 -0.094565 24.722790 207 207 207 0
1.141939 -0.095162 24.878842 207 207 207 0
1.245831 -0.095833 25.054410 206 206 206 0
1.343841 -0.095989 25.095071 204 204 204 0
1.443715 -0.096248 25.162796 204 204 204 0
1.547616 -0.096726 25.287849 205 205 205 0
1.651379 -0.097140 25.396068 204 204 204 0
1.754734 -0.097485 25.486331 203 203 203 0
1.861359 -0.097966 25.612090 202 202 202 0
1.975291 -0.098765 25.820793 201 201 201 0
2.089680 -0.099509 26.015315 201 201 201 0
2.203280 -0.100149 26.182763 199 199 199 0
2.317703 -0.100770 26.345018 197 197 197 0
2.448837 -0.102035 26.675779 196 196 196 0
2.564924 -0.102597 26.822739 194 194 194 0
2.688655 -0.103410 27.035240 192 192 192 0
2.832025 -0.104890 27.422175 188 188 188 0
2.982876 -0.106531 27.851319 184 184 184 0
3.120530 -0.107604 28.131888 154 154 154 0
3.241564 -0.108052 28.248925 76 76 76 0
-7.195216 0.000000 23.513776 185 185 185 0
-6.621717 0.000000 21.913519 186 186 186 0
-6.459069 0.000000 21.649300 187 187 187 0
-6.321329 0.000000 21.462793 186 186 186 0
-6.187607 0.000000 21.285199 188 188 188 0
-6.087620 0.000000 21.220462 191 191 191 0
-5.990396 0.000000 21.163737 193 193 193 0
-5.989761 0.000000 21.451377 193 193 193 0
-5.947067 0.000000 21.594287 193 193 193 0
-5.834611 0.000000 21.484345 195 195 195 0
-5.748424 0.000000 21.469369 195 195 195 0
-5.676236 0.000000 21.507003 196 196 196 0
-5.590574 0.000000 21.493941 198 198 198 0
-5.522170 0.000000 21.547828 199 199 199 0
-5.481877 0.000000 21.714703 200 200 200 0
-5.407971 0.000000 21.751518 200 200 200 0
-5.315371 0.000000 21.713118 201 201 201 0
-5.209805 0.000000 21.619689 201 201 201 0
-5.151058 0.000000 21.720673 201 201 201 0
-5.118678 0.000000 21.937976 202 202 202 0
-5.058302 0.000000 22.040532 201 201 201 0
-4.960447 0.000000 21.980489 202 202 202 0
-4.839288 0.000000 21.813334 203 203 203 0
-4.736033 0.000000 21.722432 203 203 203 0
-4.670114 0.000000 21.802588 204 204 204 0
-4.657840 0.000000 22.140655 204 204 204 0
-4.572123 0.000000 22.135674 205 205 205 0
-4.453374 0.000000 21.967564 205 205 205 0
-4.339827 0.000000 21.819141 205 205 205 0
-4.243353 0.000000 21.752419 206 206 206 0
-4.171678 0.000000 21.812696 207 207 207 0
-4.138243 0.000000 22.079462 206 206 206 0
-4.074606 0.000000 22.192844 207 207 207 0
-3.965336 0.000000 22.057215 207 207 207 0
-3.874256 0.000000 22.019076 207 207 207 0
-3.801809 0.000000 22.087491 207 207 207 0
-3.745419 0.000000 22.254422 208 208 208 0
-3.676268 0.000000 22.351532 209 209 209 0
-3.595154 0.000000 22.378799 208 208 208 0
-3.495992 0.000000 22.292314 208 208 208 0
-3.420410 0.000000 22.355623 209 209 209 0
-3.354366 0.000000 22.486116 209 209 209 0
-3.293586 0.000000 22.659688 209 209 209 0
-3.208535 0.000000 22.671152 209 209 209 0
-3.115165 0.000000 22.622843 210 210 210 0
-3.024432 0.000000 22.591465 210 210 210 0
-2.944027 0.000000 22.637657 210 210 210 0
-2.876390 0.000000 22.787798 210 210 210 0
-2.808070 0.000000 22.941748 210 210 210 0
-2.710400 0.000000 22.858108 210 210 210 0
-2.616171 0.000000 22.798879 210 210 210 0
-2.534070 0.000000 22.844897 211 211 211 0
-2.455469 0.000000 22.926881 211 211 211 0
-2.381481 0.000000 23.059610 212 212 212 0
-2.295893 0.000000 23.085900 211 211 211 0
-2.210271 0.000000 23.113941 211 211 211 0
-2.126161 0.000000 23.160790 211 211 211 0
-2.049837 0.000000 23.300217 212 212 212 0
-1.970396 0.000000 23.415285 212 212 212 0
-1.890440 0.000000 23.534889 212 212 212 0
-1.805078 0.000000 23.595793 213 213 213 0
-1.719548 0.000000 23.660797 213 213 213 0
-1.630143 0.000000 23.676725 213 213 213 0
-1.542759 0.000000 23.725627 213 213 213 0
-1.458783 0.000000 23.836326 213 213 213 0
-1.365194 0.000000 23.794236 211 211 211 0
-1.271391 0.000000 23.742132 209 209 209 0
-1.178639 0.000000 23.703147 210 210 210 0
-1.088864 0.000000 23.722534 210 210 210 0
-1.001772 0.000000 23.809196 209 209 209 0
-0.912295 0.000000 23.850842 210 210 210 0
-0.817601 0.000000 23.750206 209 209 209 0
-0.725268 0.000000 23.701554 209 209 209 0
-0.634556 0.000000 23.699554 208 208 208 0
-0.547009 0.000000 23.834822 209 209 209 0
-0.457420 0.000000 23.917365 209 209 209 0
-0.365391 0.000000 23.881781 210 210 210 0
-0.273858 0.000000 23.865636 210 210 210 0
-0.182878 0.000000 23.905685 209 209 209 0
-0.091935 0.000000 24.035209 209 209 209 0
0.000000 0.000000 24.180115 209 209 209 0
0.092413 0.000000 24.160290 209 209 209 0
0.184809 0.000000 24.158088 208 208 208 0
0.278614 0.000000 24.280092 208 208 208 0
0.374579 0.000000 24.482281 208 208 208 0
0.468513 0.000000 24.497427 209 209 209 0
0.561443 0.000000 24.463762 209 209 209 0
0.656094 0.000000 24.503965 208 208 208 0
0.753958 0.000000 24.639149 208 208 208 0
0.852152 0.000000 24.753869 207 207 207 0
0.944688 0.000000 24.697717 207 207 207 0
1.036574 0.000000 24.636337 207 207 207 0
1.134831 0.000000 24.723996 207 207 207 0
1.240739 0.000000 24.952011 207 207 207 0
1.340264 0.000000 25.028270 207 207 207 0
1.437739 0.000000 25.058629 205 205 205 0
1.542135 0.000000 25.198280 204 204 204 0
1.649451 0.000000 25.366410 205 205 205 0
1.749752 0.000000 25.413978 204 204 204 0
1.848961 0.000000 25.441494 203 203 203 0
1.963059 0.000000 25.660898 202 202 202 0
2.078827 0.000000 25.880200 202 202 202 0
2.194950 0.000000 26.083777 201 201 201 0
2.308072 0.000000 26.235540 198 198 198 0
2.579637 0.000000 28.100621 198 198 198 0
2.544481 0.000000 26.608948 196 196 196 0
2.668636 0.000000 26.833949 193 193 193 0
2.802999 0.000000 27.141121 191 191 191 0
2.948870 0.000000 27.533801 187 187 187 0
3.085890 0.000000 27.819604 177 177 177 0
3.232968 0.000000 28.174017 122 122 122 0
3.243828 0.000000 27.356764 75 75 75 0
-6.788284 0.084854 22.183934 183 183 183 0
-6.638879 0.084036 21.970311 186 186 186 0
-6.461468 0.082839 21.657342 186 186 186 0
-6.343782 0.082387 21.539027 186 186 186 0
-6.222201 0.081871 21.404199 187 187 187 0
-6.116258 0.081550 21.320290 190 190 190 0
-6.012902 0.081255 21.243249 192 192 192 0
-6.004409 0.082252 21.503837 193 193 193 0
-5.966301 0.082865 21.664127 194 194 194 0
-5.853690 0.082446 21.554598 195 195 195 0
-5.765383 0.082363 21.532708 195 195 195 0
-5.679168 0.082307 21.518114 195 195 195 0
-5.597086 0.082310 21.518977 196 196 196 0
-5.539604 0.082681 21.615858 198 198 198 0
-5.500349 0.083339 21.787875 199 199 199 0
-5.424968 0.083461 21.819882 200 200 200 0
-5.330408 0.083288 21.774544 201 201 201 0
-5.223117 0.082907 21.674931 201 201 201 0
-5.172920 0.083434 21.812862 201 201 201 0
-5.138813 0.084243 22.024269 202 202 202 0
-5.081464 0.084691 22.141455 203 203 203 0
-4.968046 0.084204 22.014161 202 202 202 0
-4.842844 0.083497 21.829362 203 203 203 0
-4.745711 0.083258 21.766822 203 203 203 0
-4.678154 0.083538 21.840121 204 204 204 0
-4.672212 0.084949 22.208971 203 203 203 0
-4.576218 0.084745 22.155498 204 204 204 0
-4.459646 0.084144 21.998501 205 205 205 0
-4.350387 0.083661 21.872232 205 205 205 0
-4.252037 0.083373 21.796935 206 206 206 0
-4.182618 0.083652 21.869899 206 206 206 0
