ply
    format ascii 1.0
    element vertex 17081
    property float x
    property float y
    property float z
    property uchar red
    property uchar green
    property uchar blue
    property uchar alpha
    end_header
-9.020050 0.000000 29.850417 204 204 204 0
-9.013849 0.000000 30.212331 203 203 203 0
-8.926669 0.000000 30.308696 204 204 204 0
-8.912821 0.000000 30.659857 203 203 203 0
-8.930881 0.000000 31.131611 202 202 202 0
-8.811298 0.000000 31.129828 203 203 203 0
-8.586885 0.000000 30.752565 203 203 203 0
-8.558497 0.000000 31.076607 203 203 203 0
-8.588661 0.000000 31.625374 193 193 193 0
-8.075167 0.000000 30.159353 133 133 133 0
-6.615329 0.000000 25.065183 117 117 117 0
-6.803212 0.000000 26.156142 123 123 123 0
-6.873224 0.000000 26.819720 133 133 133 0
-6.796131 0.000000 26.920703 144 144 144 0
-6.572086 0.000000 26.433728 147 147 147 0
-6.364414 0.000000 25.998424 154 154 154 0
-6.151425 0.000000 25.527234 157 157 157 0
-5.962784 0.000000 25.143512 157 157 157 0
-5.836309 0.000000 25.013646 166 166 166 0
-5.901137 0.000000 25.713016 168 168 168 0
-5.702825 0.000000 25.270080 168 168 168 0
-5.555589 0.000000 25.042096 172 172 172 0
-5.391804 0.000000 24.730210 177 177 177 0
-5.230174 0.000000 24.417247 179 179 179 0
-5.091037 0.000000 24.199820 179 179 179 0
-4.995969 0.000000 24.187697 180 180 180 0
-4.928197 0.000000 24.309764 183 183 183 0
-4.848311 0.000000 24.375620 186 186 186 0
-4.722569 0.000000 24.208991 187 187 187 0
-4.590196 0.000000 24.001026 187 187 187 0
-4.468374 0.000000 23.840865 187 187 187 0
-4.380470 0.000000 23.858770 188 188 188 0
-4.302500 0.000000 23.932696 192 192 192 0
-4.216482 0.000000 23.964091 193 193 193 0
-4.118514 0.000000 23.927458 193 193 193 0
-4.000924 0.000000 23.772575 194 194 194 0
-3.895809 0.000000 23.686331 194 194 194 0
-3.802402 0.000000 23.668855 194 194 194 0
-3.738430 0.000000 23.838228 195 195 195 0
-3.651629 0.000000 23.866858 199 199 199 0
-3.552684 0.000000 23.815547 199 199 199 0
-3.439289 0.000000 23.662117 199 199 199 0
-3.332853 0.000000 23.549572 199 199 199 0
-3.234368 0.000000 23.488514 200 200 200 0
-3.158616 0.000000 23.593768 200 200 200 0
-3.084206 0.000000 23.715543 200 200 200 0
-2.980154 0.000000 23.609859 200 200 200 0
-2.869673 0.000000 23.445042 202 202 202 0
-2.769137 0.000000 23.353468 203 203 203 0
-2.679639 0.000000 23.351975 204 204 204 0
-2.590944 0.000000 23.357621 204 204 204 0
-2.506372 0.000000 23.402164 204 204 204 0
-2.418499 0.000000 23.418046 205 205 205 0
-2.320308 0.000000 23.331402 205 205 205 0
-2.230394 0.000000 23.324384 205 205 205 0
-2.145005 0.000000 23.366068 205 205 205 0
-2.053869 0.000000 23.346055 206 206 206 0
-1.962598 0.000000 23.322613 206 206 206 0
-1.875572 0.000000 23.349793 206 206 206 0
-1.788603 0.000000 23.380432 206 206 206 0
-1.700071 0.000000 23.392784 208 208 208 0
-1.610546 0.000000 23.392093 208 208 208 0
-1.522514 0.000000 23.414291 208 208 208 0
-1.436971 0.000000 23.479921 209 209 209 0
-1.349833 0.000000 23.526503 209 209 209 0
-1.256655 0.000000 23.466950 209 209 209 0
-1.165373 0.000000 23.436351 209 209 209 0
-1.073292 0.000000 23.383278 210 210 210 0
-1.001968 0.000000 23.813859 209 209 209 0
-0.898474 0.000000 23.489525 211 211 211 0
-0.809251 0.000000 23.507653 210 210 210 0
-0.716729 0.000000 23.422518 210 210 210 0
-0.626475 0.000000 23.397769 210 210 210 0
-0.536444 0.000000 23.374481 210 210 210 0
-0.449234 0.000000 23.489370 210 210 210 0
-0.360492 0.000000 23.561584 211 211 211 0
-0.270238 0.000000 23.550156 211 211 211 0
-0.179932 0.000000 23.520542 211 211 211 0
-0.090053 0.000000 23.543361 211 211 211 0
0.000000 0.000000 23.615212 211 211 211 0
0.090585 0.000000 23.682478 211 211 211 0
0.181237 0.000000 23.691148 211 211 211 0
0.271490 0.000000 23.659232 211 211 211 0
0.362061 0.000000 23.664125 212 212 212 0
0.456211 0.000000 23.854169 212 212 212 0
0.549680 0.000000 23.951185 212 212 212 0
0.640774 0.000000 23.931799 212 212 212 0
0.731180 0.000000 23.894777 212 212 212 0
0.823958 0.000000 23.934878 212 212 212 0
0.931342 0.000000 24.348798 212 212 212 0
1.013634 0.000000 24.091123 212 212 212 0
1.102969 0.000000 24.029824 212 212 212 0
1.193205 0.000000 23.996085 212 212 212 0
1.288032 0.000000 24.052886 212 212 212 0
1.388584 0.000000 24.201894 211 211 211 0
1.484200 0.000000 24.251641 212 212 212 0
1.575626 0.000000 24.231079 212 212 212 0
1.674037 0.000000 24.314258 212 212 212 0
1.772451 0.000000 24.388727 211 211 211 0
1.870256 0.000000 24.447790 211 211 211 0
1.967304 0.000000 24.491801 211 211 211 0
2.064746 0.000000 24.536493 211 211 211 0
2.168060 0.000000 24.644052 211 211 211 0
2.275035 0.000000 24.782513 211 211 211 0
2.378689 0.000000 24.875184 211 211 211 0
2.476118 0.000000 24.898124 211 211 211 0
2.580518 0.000000 24.986864 209 209 209 0
2.680253 0.000000 25.025703 210 210 210 0
2.795038 0.000000 25.197545 210 210 210 0
2.894680 0.000000 25.225973 209 209 209 0
2.997699 0.000000 25.281038 210 210 210 0
3.110703 0.000000 25.414239 208 208 208 0
3.227738 0.000000 25.571305 208 208 208 0
3.336836 0.000000 25.658101 208 208 208 0
3.447994 0.000000 25.755328 208 208 208 0
3.563469 0.000000 25.878500 208 208 208 0
3.689479 0.000000 26.069453 207 207 207 0
3.801678 0.000000 26.155332 206 206 206 0
3.926968 0.000000 26.324571 205 205 205 0
4.071000 0.000000 26.607841 204 204 204 0
4.188128 0.000000 26.705741 205 205 205 0
4.315175 0.000000 26.860723 203 203 203 0
4.470155 0.000000 27.178323 202 202 202 0
4.594405 0.000000 27.298903 202 202 202 0
4.741289 0.000000 27.545614 202 202 202 0
4.904740 0.000000 27.875761 203 203 203 0
5.041931 0.000000 28.045784 203 203 203 0
5.209371 0.000000 28.373482 203 203 203 0
5.352996 0.000000 28.560734 201 201 201 0
5.520475 0.000000 28.865230 198 198 198 0
5.715113 0.000000 29.297004 195 195 195 0
5.905654 0.000000 29.691572 190 190 190 0
6.095260 0.000000 30.066642 153 153 153 0
-9.145091 0.114314 29.885920 203 203 203 0
-8.976242 0.113623 29.705442 204 204 204 0
-9.031966 0.115794 30.273054 203 203 203 0
-8.934157 0.116028 30.334119 203 203 203 0
-8.891315 0.116991 30.585878 203 203 203 0
-8.933789 0.119117 31.141749 203 203 203 0
-8.740463 0.118114 30.879571 202 202 202 0
-8.567987 0.117370 30.684885 204 204 204 0
-8.513671 0.118245 30.913837 204 204 204 0
-8.624037 0.121465 31.755638 202 202 202 0
-8.388854 0.119841 31.330920 156 156 156 0
-6.759973 0.097971 25.613234 121 121 121 0
-6.786393 0.099800 26.091478 127 127 127 0
-6.918549 0.103262 26.996583 141 141 141 0
-6.825173 0.103412 27.035743 142 142 142 0
-6.594429 0.101453 26.523595 146 146 146 0
-6.382368 0.099724 26.071763 148 148 148 0
-6.183294 0.098148 25.659482 158 158 158 0
-5.999303 0.096763 25.297505 156 156 156 0
-5.851307 0.095923 25.077926 162 162 162 0
-5.877628 0.097960 25.610581 168 168 168 0
-5.720199 0.096953 25.347066 169 169 169 0
-5.559854 0.095860 25.061320 171 171 171 0
-5.403540 0.094799 24.784038 176 176 176 0
-5.232425 0.093436 24.427754 178 178 178 0
-5.098811 0.092706 24.236774 178 178 178 0
-5.002139 0.092632 24.217567 179 179 179 0
-4.961078 0.093605 24.471960 180 180 180 0
-4.866354 0.093584 24.466334 186 186 186 0
-4.731957 0.092783 24.257118 187 187 187 0
-4.599295 0.091986 24.048599 188 188 188 0
-4.483249 0.091495 23.920231 187 187 187 0
-4.394920 0.091561 23.937472 188 188 188 0
-4.321217 0.091941 24.036806 190 190 190 0
-4.235561 0.092077 24.072528 192 192 192 0
-4.128339 0.091741 23.984540 194 194 194 0
-4.010209 0.091141 23.827741 194 194 194 0
-3.901921 0.090742 23.723490 194 194 194 0
-3.814961 0.090832 23.747036 194 194 194 0
-3.745236 0.091347 23.881624 194 194 194 0
-3.659021 0.091476 23.915167 196 196 196 0
-3.553911 0.091126 23.823767 199 199 199 0
-3.442248 0.090585 23.682477 199 199 199 0
-3.337921 0.090214 23.585384 200 200 200 0
-3.240816 0.090023 23.535340 200 200 200 0
-3.165213 0.090435 23.643046 200 200 200 0
-3.088425 0.090836 23.747981 200 200 200 0
-2.984496 0.090439 23.644252 200 200 200 0
-2.872380 0.089762 23.467157 201 201 201 0
-2.771247 0.089395 23.371262 202 202 202 0
-2.680013 0.089334 23.355233 204 204 204 0
-2.594699 0.089472 23.391468 204 204 204 0
-2.513638 0.089773 23.470009 204 204 204 0
-2.422604 0.089726 23.457798 204 204 204 0
-2.324704 0.089412 23.375608 205 205 205 0
-2.234053 0.089362 23.362643 205 205 205 0
-2.149750 0.089573 23.417758 206 206 206 0
-2.056939 0.089432 23.380945 206 206 206 0
-1.964992 0.089318 23.351058 206 206 206 0
-1.878193 0.089438 23.382421 206 206 206 0
-1.790535 0.089527 23.405691 207 207 207 0
-1.700992 0.089526 23.405461 206 206 206 0
-1.611833 0.089546 23.410797 207 207 207 0
-1.524520 0.089678 23.445133 208 208 208 0
-1.438853 0.089928 23.510666 208 208 208 0
-1.352347 0.090156 23.570312 209 209 209 0
-1.259027 0.089931 23.511251 209 209 209 0
-1.166519 0.089732 23.459404 209 209 209 0
-1.075158 0.089596 23.423921 209 209 209 0
-0.990947 0.090086 23.551912 209 209 209 0
-0.900010 0.090001 23.529686 209 209 209 0
-0.809670 0.089963 23.519817 210 210 210 0
-0.718094 0.089762 23.467112 210 210 210 0
-0.627315 0.089616 23.429113 210 210 210 0
-0.537373 0.089562 23.414952 211 211 211 0
-0.449926 0.089985 23.525533 210 210 210 0
-0.360977 0.090244 23.593267 210 210 210 0
-0.270377 0.090126 23.562249 211 211 211 0
-0.180044 0.090022 23.535213 211 211 211 0
-0.090137 0.090137 23.565308 210 210 210 0
0.000000 0.090501 23.660420 210 210 210 0
0.090669 0.090669 23.704368 211 211 211 0
0.181484 0.090742 23.723421 211 211 211 0
0.271700 0.090567 23.677602 211 211 211 0
0.362674 0.090669 23.704196 212 212 212 0
0.457349 0.091470 23.913684 211 211 211 0
0.550725 0.091787 23.996732 212 212 212 0
0.641703 0.091672 23.966495 211 211 211 0
0.731443 0.091430 23.903373 212 212 212 0
0.825107 0.091679 23.968245 212 212 212 0
0.925039 0.092504 24.184032 212 212 212 0
1.014789 0.092254 24.118566 212 212 212 0
1.104672 0.092056 24.066925 212 212 212 0
1.195346 0.091950 24.039137 212 212 212 0
1.290674 0.092191 24.102217 211 211 211 0
1.390949 0.092730 24.243126 211 211 211 0
1.486612 0.092913 24.291047 212 212 212 0
1.577036 0.092767 24.252763 212 212 212 0
1.676557 0.093142 24.350865 211 211 211 0
1.776666 0.093509 24.446732 211 211 211 0
1.873263 0.093663 24.487094 211 211 211 0
1.971627 0.093887 24.545625 211 211 211 0
2.067692 0.093986 24.571506 210 210 210 0
2.171989 0.094434 24.688711 210 210 210 0
2.278833 0.094951 24.823886 211 211 211 0
2.383259 0.095330 24.922970 211 211 211 0
2.483792 0.095530 24.975281 210 210 210 0
2.588295 0.095863 25.062163 210 210 210 0
2.759740 0.098562 25.767879 210 210 210 0
2.795859 0.096409 25.204950 209 209 209 0
2.898656 0.096622 25.260617 209 209 209 0
3.004713 0.096926 25.340190 209 209 209 0
3.117783 0.097431 25.472081 209 209 209 0
3.235741 0.098053 25.634708 208 208 208 0
3.342888 0.098320 25.704640 208 208 208 0
3.452231 0.098635 25.786972 208 208 208 0
3.571075 0.099197 25.933730 207 207 207 0
3.697073 0.099921 26.123111 206 206 206 0
3.810337 0.100272 26.214905 205 205 205 0
3.935217 0.100903 26.379869 205 205 205 0
4.076714 0.101918 26.645190 205 205 205 0
4.192344 0.102252 26.732624 204 204 204 0
4.319514 0.102846 26.887731 202 202 202 0
4.478340 0.104147 27.228088 202 202 202 0
4.601327 0.104576 27.340028 202 202 202 0
4.750492 0.105566 27.599080 205 205 205 0
4.906320 0.106659 27.884739 204 204 204 0
5.041088 0.107257 28.041094 204 204 204 0
5.205494 0.108448 28.352366 203 203 203 0
5.348703 0.109157 28.537829 201 201 201 0
5.509938 0.110199 28.810131 198 198 198 0
5.705808 0.111879 29.249306 195 195 195 0
5.894632 0.113358 29.636158 190 190 190 0
6.098935 0.115074 30.084769 161 161 161 0
-9.085415 0.227135 29.690898 202 202 202 0
-9.028885 0.228579 29.879654 202 202 202 0
-9.003678 0.230864 30.178240 202 202 202 0
-8.917545 0.231625 30.277717 203 203 203 0
-8.855180 0.233031 30.461577 204 204 204 0
-8.887044 0.236988 30.978803 204 204 204 0
-8.774289 0.237143 30.999079 203 203 203 0
-8.570475 0.234808 30.693794 203 203 203 0
-8.460600 0.235017 30.721134 202 202 202 0
-8.589252 0.241951 31.627551 204 204 204 0
-8.431893 0.240911 31.491665 180 180 180 0
-7.486313 0.216995 28.365304 124 124 124 0
-6.534606 0.192194 25.123438 120 120 120 0
-6.785260 0.202545 26.476480 132 132 132 0
-6.815874 0.206542 26.998906 135 135 135 0
-6.615008 0.203539 26.606367 145 145 145 0
-6.405264 0.200165 26.165296 146 146 146 0
-6.190305 0.196518 25.688578 155 155 155 0
-6.015386 0.194045 25.365321 158 158 158 0
-5.881621 0.192840 25.207845 161 161 161 0
-5.851801 0.195060 25.498045 168 168 168 0
-5.741257 0.194619 25.440379 171 171 171 0
-5.569442 0.192050 25.104539 171 171 171 0
-5.406777 0.189711 24.798887 172 172 172 0
-5.236290 0.187010 24.445798 180 180 180 0
-5.105782 0.185665 24.269909 179 179 179 0
-5.017799 0.185844 24.293386 180 180 180 0
-4.974390 0.187713 24.537625 179 179 179 0
-4.881439 0.187748 24.542175 184 184 184 0
-4.737927 0.185801 24.287721 187 187 187 0
-4.606600 0.184264 24.086797 187 187 187 0
-4.492113 0.183352 23.967523 187 187 187 0
-4.409735 0.183739 24.018166 188 188 188 0
-4.328281 0.184182 24.076103 188 188 188 0
-4.248588 0.184721 24.146566 191 191 191 0
-4.132363 0.183661 24.007916 194 194 194 0
-4.013275 0.182422 23.845957 193 193 193 0
-3.914029 0.182048 23.797108 194 194 194 0
-3.829431 0.182354 23.837107 194 194 194 0
-3.755407 0.183191 23.946482 195 195 195 0
-3.664307 0.183215 23.949719 196 196 196 0
-3.560398 0.182584 23.867255 197 197 197 0
-3.445696 0.181352 23.706197 200 200 200 0
-3.341708 0.180633 23.612138 199 199 199 0
-3.244482 0.180249 23.561961 200 200 200 0
-3.173682 0.181353 23.706305 200 200 200 0
-3.096606 0.182153 23.810891 200 200 200 0
-2.990817 0.181262 23.694328 200 200 200 0
-2.873856 0.179616 23.479215 200 200 200 0
-2.775697 0.179077 23.408790 201 201 201 0
-2.686213 0.179081 23.409266 202 202 202 0
-2.599142 0.179251 23.431524 204 204 204 0
-2.516280 0.179734 23.494677 204 204 204 0
-2.424807 0.179615 23.479131 204 204 204 0
-2.327477 0.179037 23.403488 205 205 205 0
-2.237828 0.179026 23.402119 205 205 205 0
-2.153232 0.179436 23.455685 206 206 206 0
-2.062470 0.179345 23.443820 205 205 205 0
-1.969037 0.179003 23.399131 205 205 205 0
-1.881246 0.179166 23.420434 207 207 207 0
-1.793232 0.179323 23.440938 207 207 207 0
-1.704597 0.179431 23.455067 206 206 206 0
-1.613378 0.179264 23.433233 207 207 207 0
-1.528358 0.179807 23.504166 207 207 207 0
-1.440149 0.180019 23.531838 208 208 208 0
-1.353964 0.180529 23.598501 208 208 208 0
-1.260314 0.180045 23.535282 208 208 208 0
-1.167994 0.179691 23.489075 208 208 208 0
-1.077854 0.179642 23.482665 208 208 208 0
-0.991863 0.180339 23.573691 209 209 209 0
-0.901213 0.180243 23.561137 209 209 209 0
-0.810132 0.180029 23.533256 210 210 210 0
-0.718626 0.179656 23.484509 209 209 209 0
-0.628441 0.179555 23.471187 209 209 209 0
-0.538627 0.179542 23.469578 210 210 210 0
-0.450723 0.180289 23.567193 209 209 209 0
-0.361571 0.180785 23.632060 210 210 210 0
-0.270782 0.180521 23.597571 210 210 210 0
-0.180394 0.180394 23.580936 210 210 210 0
-0.090316 0.180633 23.612155 211 211 211 0
0.000000 0.181188 23.684694 211 211 211 0
0.090886 0.181771 23.760924 211 211 211 0
0.181772 0.181772 23.761009 211 211 211 0
0.272290 0.181527 23.728965 211 211 211 0
0.363561 0.181781 23.762179 211 211 211 0
0.457966 0.183186 23.945934 212 212 212 0
0.551669 0.183890 24.037883 211 211 211 0
0.642147 0.183471 23.983073 212 212 212 0
0.732771 0.183193 23.946770 212 212 212 0
0.826587 0.183686 24.011245 212 212 212 0
0.924092 0.184818 24.159275 211 211 211 0
1.015839 0.184698 24.143533 211 211 211 0
1.105574 0.184262 24.086577 211 211 211 0
1.197559 0.184240 24.083631 211 211 211 0
1.292731 0.184676 24.140634 211 211 211 0
1.392187 0.185625 24.264690 211 211 211 0
1.488019 0.186002 24.314037 211 211 211 0
1.579586 0.185834 24.291974 211 211 211 0
1.679601 0.186622 24.395073 211 211 211 0
1.781460 0.187522 24.512700 211 211 211 0
1.876978 0.187698 24.535663 210 210 210 0
1.973959 0.187996 24.574651 211 211 211 0
2.073238 0.188476 24.637409 211 211 211 0
2.176386 0.189251 24.738684 211 211 211 0
2.283686 0.190307 24.876754 211 211 211 0
2.387986 0.191039 24.972404 210 210 210 0
2.486740 0.191288 25.004925 210 210 210 0
2.593323 0.192098 25.110847 209 209 209 0
2.705284 0.193235 25.259423 209 209 209 0
2.804537 0.193416 25.283180 210 210 210 0
2.903585 0.193572 25.303573 210 210 210 0
3.010493 0.194225 25.388939 209 209 209 0
3.126513 0.195407 25.543410 208 208 208 0
3.239081 0.196308 25.661172 207 207 207 0
3.348243 0.196955 25.745815 208 208 208 0
3.460454 0.197740 25.848397 208 208 208 0
3.582214 0.199012 26.014624 207 207 207 0
3.708080 0.200437 26.200885 205 205 205 0
3.823216 0.201222 26.303513 205 205 205 0
3.950392 0.202584 26.481598 205 205 205 0
4.084697 0.204235 26.697365 205 205 205 0
4.202849 0.205017 26.799608 202 202 202 0
4.158104 0.198005 25.882998 202 202 202 0
4.489487 0.208813 27.295860 203 203 203 0
4.605398 0.209336 27.364216 206 206 206 0
4.751423 0.211174 27.604491 206 206 206 0
4.905199 0.213270 27.878370 205 205 205 0
5.037381 0.214357 28.020477 204 204 204 0
5.197254 0.216552 28.307482 203 203 203 0
5.344567 0.218146 28.515765 201 201 201 0
5.504969 0.220199 28.784153 199 199 199 0
5.695705 0.223361 29.197516 196 196 196 0
5.887335 0.226436 29.599471 191 191 191 0
6.103016 0.230303 30.104903 162 162 162 0
-9.085239 0.340696 29.690324 203 203 203 0
-9.047642 0.343581 29.941728 203 203 203 0
-8.983805 0.345531 30.111632 204 204 204 0
-8.861405 0.345250 30.087108 203 203 203 0
-8.783036 0.346699 30.213403 203 203 203 0
-8.804848 0.352194 30.692281 202 202 202 0
-8.738625 0.354269 30.873079 203 203 203 0
-8.598463 0.353361 30.794030 204 204 204 0
-8.466936 0.352789 30.744140 206 206 206 0
-8.510948 0.359618 31.339219 204 204 204 0
-8.425099 0.361076 31.466290 196 196 196 0
-7.739488 0.336499 29.324574 135 135 135 0
-6.441430 0.284181 24.765207 107 107 107 0
-6.366534 0.285069 24.842587 124 124 124 0
-6.838338 0.310834 27.087889 134 134 134 0
-6.653557 0.307087 26.761416 143 143 143 0
-6.428003 0.301313 26.258181 145 145 145 0
-6.223492 0.296357 25.826296 154 154 154 0
-6.043797 0.292442 25.485122 160 160 160 0
-5.896648 0.289999 25.272252 158 158 158 0
-5.884130 0.294207 25.638912 166 166 166 0
-5.761345 0.292950 25.529388 169 169 169 0
-5.588796 0.289076 25.191780 169 169 169 0
-5.418844 0.285202 24.854232 171 171 171 0
-5.249154 0.281205 24.505853 176 176 176 0
-5.124120 0.279497 24.357077 178 178 178 0
-5.035134 0.279730 24.377315 179 179 179 0
-4.995695 0.282775 24.642720 180 180 180 0
-4.889860 0.282107 24.584513 181 181 181 0
-4.741654 0.278921 24.306827 186 186 186 0
-4.620881 0.277253 24.161467 188 188 188 0
-4.504461 0.275783 24.033405 188 188 188 0
-4.424035 0.276502 24.096050 187 187 187 0
-4.346791 0.277455 24.179063 188 188 188 0
-4.256110 0.277572 24.189318 190 190 190 0
-4.142294 0.276153 24.065613 194 194 194 0
-4.025803 0.274487 23.920395 194 194 194 0
-3.921098 0.273565 23.840084 195 195 195 0
-3.840974 0.274355 23.908955 194 194 194 0
-3.767001 0.275634 24.020408 195 195 195 0
-3.673623 0.275522 24.010606 195 195 195 0
-3.565155 0.274243 23.899147 196 196 196 0
-3.451395 0.272479 23.745411 198 198 198 0
-3.344836 0.271203 23.634241 199 199 199 0
-3.249147 0.270762 23.595841 200 200 200 0
-3.180536 0.272617 23.757504 200 200 200 0
-3.101249 0.273640 23.846593 200 200 200 0
-2.993661 0.272151 23.716864 201 201 201 0
-2.879910 0.269992 23.528676 201 201 201 0
-2.779915 0.269024 23.444356 201 201 201 0
-2.687726 0.268773 23.422450 202 202 202 0
-2.604919 0.269474 23.483610 202 202 202 0
-2.519300 0.269925 23.522876 203 203 203 0
-2.428139 0.269793 23.511392 205 205 205 0
-2.331671 0.269039 23.445664 205 205 205 0
-2.242720 0.269126 23.453277 205 205 205 0
-2.156127 0.269516 23.487219 205 205 205 0
-2.064773 0.269318 23.469998 205 205 205 0
-1.971077 0.268783 23.423372 206 206 206 0
-1.882191 0.268884 23.432192 206 206 206 0
-1.796579 0.269487 23.484689 206 206 206 0
-1.707001 0.269526 23.488147 206 206 206 0
-1.616587 0.269431 23.479841 207 207 207 0
-1.530822 0.270145 23.542056 207 207 207 0
-1.443428 0.270643 23.585427 207 207 207 0
-1.356432 0.271286 23.641509 208 208 208 0
-1.262574 0.270552 23.577483 208 208 208 0
-1.169785 0.269950 23.525079 208 208 208 0
-1.078634 0.269659 23.499659 208 208 208 0
-0.993860 0.271053 23.621153 209 209 209 0
-0.901812 0.270543 23.576773 209 209 209 0
-0.810577 0.270192 23.546174 209 209 209 0
-0.719967 0.269988 23.528326 210 210 210 0
-0.628997 0.269570 23.491964 209 209 209 0
-0.540083 0.270041 23.533024 210 210 210 0
-0.451975 0.271185 23.632704 210 210 210 0
-0.362121 0.271591 23.668024 210 210 210 0
-0.271175 0.271175 23.631774 210 210 210 0
-0.180626 0.270939 23.611271 211 211 211 0
-0.090433 0.271299 23.642615 211 211 211 0
0.000000 0.272202 23.721337 211 211 211 0
0.090973 0.272918 23.783688 211 211 211 0
0.182132 0.273198 23.808083 210 210 210 0
0.272764 0.272764 23.770269 210 210 210 0
0.364486 0.273364 23.822601 211 211 211 0
0.459221 0.275533 24.011568 211 211 211 0
0.552318 0.276159 24.066150 212 212 212 0
0.642940 0.275546 24.012681 211 211 211 0
0.733684 0.275132 23.976609 211 211 211 0
0.828122 0.276041 24.055843 211 211 211 0
0.926674 0.278002 24.226777 211 211 211 0
1.017067 0.277382 24.172714 211 211 211 0
1.107206 0.276802 24.122136 211 211 211 0
1.198978 0.276687 24.112174 212 212 212 0
1.294755 0.277448 24.178435 212 212 212 0
1.394540 0.278908 24.305716 212 212 212 0
1.490064 0.279387 24.347456 211 211 211 0
1.582318 0.279233 24.333999 211 211 211 0
1.682584 0.280431 24.438397 211 211 211 0
1.783994 0.281683 24.547557 211 211 211 0
1.882228 0.282334 24.604289 211 211 211 0
1.979005 0.282715 24.637467 211 211 211 0
2.077369 0.283278 24.686497 211 211 211 0
2.179533 0.284287 24.774463 211 211 211 0
2.288956 0.286120 24.934162 210 210 210 0
2.391799 0.287016 25.012276 210 210 210 0
2.490852 0.287406 25.046276 209 209 209 0
2.597810 0.288646 25.154293 209 209 209 0
2.707165 0.290053 25.276987 210 210 210 0
2.807065 0.290386 25.305975 210 210 210 0
2.908995 0.290899 25.350715 209 209 209 0
3.014693 0.291744 25.424353 208 208 208 0
3.132589 0.293680 25.593044 208 208 208 0
3.244692 0.294972 25.705620 208 208 208 0
3.357137 0.296218 25.814199 208 208 208 0
3.468239 0.297278 25.906545 207 207 207 0
3.592468 0.299372 26.089094 206 206 206 0
3.716477 0.301336 26.260219 206 206 206 0
3.828090 0.302218 26.337050 205 205 205 0
3.968311 0.305255 26.601717 205 205 205 0
4.099130 0.307435 26.791701 204 204 204 0
4.212603 0.308239 26.861811 202 202 202 0
4.456338 0.318310 27.739423 203 203 203 0
4.496174 0.313687 27.336518 206 206 206 0
4.609358 0.314274 27.387750 206 206 206 0
4.752608 0.316841 27.611378 206 206 206 0
4.906557 0.319993 27.886087 205 205 205 0
5.037517 0.321544 28.021233 204 204 204 0
5.187643 0.324228 28.255134 203 203 203 0
5.337133 0.326763 28.476101 201 201 201 0
5.495813 0.329749 28.736276 200 200 200 0
5.686934 0.334526 29.152554 196 196 196 0
5.888137 0.339700 29.603505 191 191 191 0
6.122188 0.346539 30.199474 168 168 168 0
6.250874 0.347271 30.263247 78 78 78 0
-9.067504 0.453375 29.632366 204 204 204 0
-9.006912 0.456046 29.806940 202 202 202 0
-8.944036 0.458669 29.978335 203 203 203 0
-8.801736 0.457233 29.884514 204 204 204 0
-8.759459 0.461024 30.132298 204 204 204 0
-8.745343 0.466418 30.484857 204 204 204 0
-8.694167 0.469955 30.716012 202 202 202 0
-8.526907 0.467228 30.537763 205 205 205 0
-8.354113 0.464117 30.334470 201 201 201 0
-8.454059 0.476285 31.129739 204 204 204 0
-8.435326 0.482019 31.504486 202 202 202 0
-8.033879 0.465732 30.440007 161 161 161 0
-6.945114 0.408536 26.701707 130 130 130 0
-6.496167 0.387831 25.348424 119 119 119 0
-6.482580 0.392884 25.678670 131 131 131 0
-6.647284 0.409064 26.736185 134 134 134 0
-6.440190 0.402512 26.307967 145 145 145 0
-6.246604 0.396610 25.922206 149 149 149 0
-6.086816 0.392698 25.666525 157 157 157 0
-5.594390 0.366845 23.976812 161 161 161 0
-5.904044 0.393603 25.725683 159 159 159 0
-5.770039 0.391189 25.567916 170 170 170 0
-5.597675 0.386047 25.231799 170 170 170 0
-5.433512 0.381299 24.921507 170 170 170 0
-5.270120 0.376437 24.603733 172 172 172 0
-5.140775 0.373875 24.436244 179 179 179 0
-5.054943 0.374440 24.473216 180 180 180 0
-5.017264 0.378661 24.749112 180 180 180 0
-4.912871 0.377913 24.700205 180 180 180 0
-4.759670 0.373307 24.399178 182 182 182 0
-4.638562 0.371085 24.253918 187 187 187 0
-4.520980 0.369060 24.121542 188 188 188 0
-4.445398 0.370450 24.212406 188 188 188 0
-4.360373 0.371096 24.254613 189 189 189 0
-4.265748 0.370935 24.244092 188 188 188 0
-4.152995 0.369155 24.127784 191 191 191 0
-4.026862 0.366078 23.926691 193 193 193 0
-3.929441 0.365529 23.890809 194 194 194 0
-3.858896 0.367514 24.020517 194 194 194 0
-3.779113 0.368694 24.097644 195 195 195 0
-3.681187 0.368119 24.060047 196 196 196 0
-3.571405 0.366298 23.941039 196 196 196 0
-3.450988 0.363262 23.742608 196 196 196 0
-3.351086 0.362280 23.678402 198 198 198 0
-3.255954 0.361773 23.645271 199 199 199 0
-3.181267 0.363573 23.762962 200 200 200 0
-3.107737 0.365616 23.896482 200 200 200 0
-2.996316 0.363190 23.737897 201 201 201 0
-2.883377 0.360422 23.557005 201 201 201 0
-2.782515 0.359034 23.466289 201 201 201 0
-2.694167 0.359222 23.478580 201 201 201 0
-2.612219 0.360306 23.549418 201 201 201 0
-2.525098 0.360728 23.577015 203 203 203 0
-2.430371 0.360055 23.533004 204 204 204 0
-2.335563 0.359317 23.484799 204 204 204 0
-2.248612 0.359778 23.514899 205 205 205 0
-2.159581 0.359930 23.524846 206 206 206 0
-2.069192 0.359860 23.520231 205 205 205 0
-1.976484 0.359361 23.487634 206 206 206 0
-1.887663 0.359555 23.500319 206 206 206 0
-1.799617 0.359923 23.524402 206 206 206 0
-1.712488 0.360524 23.563651 207 207 207 0
-1.619475 0.359883 23.521788 207 207 207 0
-1.533285 0.360773 23.579932 207 207 207 0
-1.446012 0.361503 23.627649 207 207 207 0
-1.357237 0.361930 23.655542 207 207 207 0
-1.264198 0.361199 23.607806 207 207 207 0
-1.170574 0.360177 23.540965 208 208 208 0
-1.080178 0.360059 23.533284 209 209 209 0
-0.995474 0.361991 23.659517 208 208 208 0
-0.904547 0.361819 23.648283 209 209 209 0
-0.812454 0.361091 23.600710 209 209 209 0
-0.720945 0.360473 23.560309 209 209 209 0
-0.629840 0.359909 23.523437 209 209 209 0
-0.541939 0.361293 23.613916 209 209 209 0
-0.453050 0.362440 23.688908 209 209 209 0
-0.362748 0.362748 23.709047 209 209 209 0
-0.271522 0.362029 23.662022 210 210 210 0
-0.180924 0.361849 23.650254 211 211 211 0
-0.090590 0.362362 23.683781 210 210 210 0
0.000000 0.363491 23.757591 210 210 210 0
0.091114 0.364457 23.820736 210 210 210 0
0.182274 0.364549 23.826716 211 211 211 0
0.273317 0.364423 23.818504 211 211 211 0
0.365553 0.365553 23.892358 212 212 212 0
0.459616 0.367693 24.032200 211 211 211 0
0.552822 0.368548 24.088106 210 210 210 0
0.643655 0.367803 24.039418 211 211 211 0
0.734483 0.367242 24.002718 210 210 210 0
0.829853 0.368824 24.106123 210 210 210 0
0.928179 0.371272 24.266112 211 211 211 0
1.018627 0.370410 24.209788 210 210 210 0
1.108504 0.369501 24.150420 211 211 211 0
1.200726 0.369454 24.147338 211 211 211 0
1.298081 0.370880 24.240533 210 210 210 0
1.397350 0.372627 24.354687 212 212 212 0
1.491581 0.372895 24.372244 211 211 211 0
1.586560 0.373308 24.399233 211 211 211 0
1.685544 0.374565 24.481389 210 210 210 0
1.786099 0.376021 24.576522 211 211 211 0
1.883736 0.376747 24.624002 210 210 210 0
1.980742 0.377284 24.659094 210 210 210 0
2.081524 0.378459 24.735877 210 210 210 0
2.186586 0.380276 24.854629 211 211 211 0
2.292144 0.382024 24.968888 210 210 210 0
2.396320 0.383411 25.059558 209 209 209 0
2.494329 0.383743 25.081236 210 210 210 0
2.602345 0.385533 25.198211 209 209 209 0
2.713465 0.387638 25.335804 209 209 209 0
2.813567 0.388078 25.364587 209 209 209 0
2.914859 0.388648 25.401822 208 208 208 0
3.020215 0.389705 25.470926 208 208 208 0
3.140042 0.392505 25.653942 208 208 208 0
3.252378 0.394228 25.766516 207 207 207 0
3.364518 0.395826 25.870959 207 207 207 0
3.475884 0.397244 25.963656 206 206 206 0
3.603428 0.400381 26.168688 206 206 206 0
3.724460 0.402644 26.316620 205 205 205 0
3.844712 0.404707 26.451406 204 204 204 0
3.984918 0.408710 26.713041 204 204 204 0
4.107708 0.410771 26.847767 204 204 204 0
4.224819 0.412177 26.939705 203 203 203 0
4.385177 0.417636 27.296465 207 207 207 0
4.501703 0.418763 27.370138 208 208 208 0
4.611027 0.419184 27.397668 207 207 207 0
4.756189 0.422772 27.632177 206 206 206 0
4.904847 0.426508 27.876367 205 205 205 0
5.036041 0.428599 28.013020 204 204 204 0
5.178913 0.431576 28.207589 203 203 203 0
5.330350 0.435131 28.439908 200 200 200 0
5.487763 0.439021 28.694186 199 199 199 0
5.672559 0.444907 29.078864 196 196 196 0
5.890288 0.453099 29.614320 192 192 192 0
6.130173 0.462655 30.238861 170 170 170 0
6.268548 0.464337 30.348815 79 79 79 0
-8.977023 0.561064 29.336676 202 202 202 0
-8.945345 0.566161 29.603194 204 204 204 0
-8.898974 0.570447 29.827296 204 204 204 0
-8.766734 0.569268 29.765669 202 202 202 0
-8.712590 0.573197 29.971071 202 202 202 0
-8.740177 0.582678 30.466850 204 204 204 0
-8.694672 0.587478 30.717796 204 204 204 0
-8.547271 0.585430 30.610694 203 203 203 0
-8.410520 0.584064 30.539289 205 205 205 0
-8.391326 0.590938 30.898744 203 203 203 0
-8.416704 0.601193 31.434937 204 204 204 0
-8.163172 0.591534 30.929893 185 185 185 0
-6.833153 0.502438 26.271255 122 122 122 0
-6.363989 0.474925 24.832655 121 121 121 0
-6.056075 0.458794 23.989207 115 115 115 0
-6.615863 0.508913 26.609807 130 130 130 0
-6.440329 0.503151 26.308533 144 144 144 0
-6.278473 0.498292 26.054459 147 147 147 0
-6.127627 0.494163 25.838611 157 157 157 0
-4.456370 0.365276 19.099411 160 160 160 0
-5.964506 0.497042 25.989133 159 159 159 0
-5.785710 0.490314 25.637355 164 164 164 0
-5.618790 0.484378 25.326979 170 170 170 0
-5.444151 0.477557 24.970306 170 170 170 0
-5.283434 0.471735 24.665892 171 171 171 0
-5.164753 0.469523 24.550221 176 176 176 0
-5.074920 0.469900 24.569933 179 179 179 0
-5.037573 0.475243 24.849294 181 181 181 0
-4.927428 0.473791 24.773393 180 180 180 0
-4.777315 0.468364 24.489631 182 182 182 0
-4.641324 0.464132 24.268361 185 185 185 0
-4.537589 0.463019 24.210158 187 187 187 0
-4.458916 0.464470 24.286036 187 187 187 0
-4.378992 0.465850 24.358184 188 188 188 0
-4.280256 0.465245 24.326548 189 189 189 0
-4.165296 0.462811 24.199250 189 189 189 0
-4.042432 0.459367 24.019202 192 192 192 0
-3.941113 0.458269 23.961777 194 194 194 0
-3.867800 0.460452 24.075940 195 195 195 0
-3.791214 0.462343 24.174809 195 195 195 0
-3.689673 0.461209 24.115511 195 195 195 0
-3.577806 0.458693 23.983954 195 195 195 0
-3.459724 0.455227 23.802707 195 195 195 0
-3.354253 0.453277 23.700778 196 196 196 0
-3.267245 0.453784 23.727270 199 199 199 0
-3.132800 0.447543 23.400935 200 200 200 0
-3.108567 0.457142 23.902863 200 200 200 0
-3.001345 0.454749 23.777739 200 200 200 0
-2.889053 0.451415 23.603376 201 201 201 0
-2.788265 0.449720 23.514782 201 201 201 0
-2.697544 0.449591 23.508011 201 201 201 0
-2.618404 0.451449 23.605175 201 201 201 0
-2.530722 0.451915 23.629520 202 202 202 0
-2.434044 0.450749 23.568570 202 202 202 0
-2.339227 0.449851 23.521637 203 203 203 0
-2.252276 0.450455 23.553210 205 205 205 0
-2.163489 0.450727 23.567423 206 206 206 0
-2.071858 0.450404 23.550534 206 206 206 0
-1.980453 0.450103 23.534790 206 206 206 0
-1.890477 0.450114 23.535352 205 205 205 0
-1.803354 0.450839 23.573258 206 206 206 0
-1.715620 0.451479 23.606748 206 206 206 0
-1.624178 0.451160 23.590089 207 207 207 0
-1.536573 0.451933 23.630491 206 206 206 0
-1.449182 0.452869 23.679443 207 207 207 0
-1.359985 0.453328 23.703437 207 207 207 0
-1.265444 0.451944 23.631079 207 207 207 0
-1.171841 0.450708 23.566430 208 208 208 0
-1.081982 0.450826 23.572596 208 208 208 0
-0.998515 0.453870 23.731777 209 209 209 0
-0.906116 0.453058 23.689304 208 208 208 0
-0.813655 0.452031 23.635591 209 209 209 0
-0.722069 0.451293 23.597034 208 208 208 0
-0.630963 0.450688 23.565394 209 209 209 0
-0.543049 0.452541 23.662273 209 209 209 0
-0.453972 0.453972 23.737080 209 209 209 0
-0.363484 0.454355 23.757101 210 210 210 0
-0.272007 0.453344 23.704277 210 210 210 0
-0.181166 0.452915 23.681846 210 210 210 0
-0.090735 0.453675 23.721544 211 211 211 0
0.000000 0.455105 23.796328 211 211 211 0
0.091285 0.456427 23.865466 211 211 211 0
0.182621 0.456552 23.871978 211 211 211 0
0.273806 0.456343 23.861096 211 211 211 0
0.366422 0.458028 23.949157 211 211 211 0
0.461061 0.461061 24.107784 210 210 210 0
0.553712 0.461427 24.126878 210 210 210 0
0.644624 0.460446 24.075597 211 211 211 0
0.735573 0.459733 24.038348 211 211 211 0
0.831800 0.462111 24.162674 210 210 210 0
0.929972 0.464986 24.312998 210 210 210 0
1.019963 0.463619 24.241538 211 211 211 0
1.110123 0.462551 24.185684 211 211 211 0
1.202824 0.462625 24.189518 211 211 211 0
1.300714 0.464541 24.289710 210 210 210 0
1.400306 0.466769 24.406212 210 210 210 0
1.494670 0.467084 24.422710 210 210 210 0
1.590307 0.467737 24.456854 210 210 210 0
1.688715 0.469088 24.527456 211 211 211 0
1.789181 0.470837 24.618932 210 210 210 0
1.887896 0.471974 24.678373 210 210 210 0
1.986236 0.472913 24.727495 210 210 210 0
2.086479 0.474200 24.794757 211 211 211 0
2.192504 0.476631 24.921894 210 210 210 0
2.297239 0.478591 25.024391 209 209 209 0
2.401951 0.480390 25.118440 208 208 208 0
2.498961 0.480569 25.127812 209 209 209 0
2.606669 0.482716 25.240073 209 209 209 0
2.717680 0.485300 25.375165 209 209 209 0
2.819408 0.486105 25.417247 209 209 209 0
2.920895 0.486816 25.454424 207 207 207 0
3.028783 0.488513 25.543182 207 207 207 0
3.147446 0.491788 25.714427 207 207 207 0
3.258195 0.493666 25.812600 207 207 207 0
3.373052 0.496037 25.936578 207 207 207 0
3.483914 0.497702 26.023633 206 206 206 0
3.613570 0.501885 26.242338 206 206 206 0
3.729287 0.503958 26.350730 205 205 205 0
3.855038 0.507242 26.522449 205 205 205 0
3.992872 0.511907 26.766360 204 204 204 0
4.116146 0.514518 26.902914 204 204 204 0
4.232807 0.516196 26.990640 208 208 208 0
4.383790 0.521880 27.287828 209 209 209 0
4.504471 0.523776 27.386967 207 207 207 0
4.609338 0.523788 27.387626 207 207 207 0
4.756030 0.528448 27.631258 206 206 206 0
4.904906 0.533142 27.876704 205 205 205 0
5.033090 0.535435 27.996609 203 203 203 0
5.174051 0.538964 28.181106 203 203 203 0
5.329168 0.543793 28.433604 201 201 201 0
5.485248 0.548525 28.681036 199 199 199 0
5.672178 0.556096 29.076908 196 196 196 0
5.885944 0.565956 29.592479 192 192 192 0
6.116958 0.577071 30.173672 169 169 169 0
6.300366 0.583367 30.502859 76 76 76 0
-8.912485 0.668436 29.125769 202 202 202 0
-8.873044 0.673902 29.363924 204 204 204 0
-8.877448 0.682881 29.755147 201 201 201 0
-8.726171 0.679961 29.627947 204 204 204 0
-8.661616 0.683812 29.795722 204 204 204 0
-8.708045 0.696644 30.354842 203 203 203 0
-8.662503 0.702365 30.604145 205 205 205 0
-8.552892 0.702977 30.630823 205 205 205 0
-8.370107 0.697509 30.392547 204 204 204 0
-8.351019 0.705720 30.750323 205 205 205 0
-8.413858 0.721188 31.424305 204 204 204 0
-8.228650 0.715535 31.177988 201 201 201 0
-7.779026 0.686385 29.907827 154 154 154 0
-6.792313 0.608267 26.504001 129 129 129 0
-6.442874 0.585716 25.521386 134 134 134 0
-6.508065 0.600744 26.176231 135 135 135 0
-6.420184 0.601892 26.226240 142 142 142 0
-6.295530 0.599574 26.125241 148 148 148 0
-6.134157 0.593628 25.866146 148 148 148 0
-6.952453 0.683848 29.797293 157 157 157 0
-5.960278 0.596028 25.970710 159 159 159 0
-5.791654 0.588982 25.663693 162 162 162 0
-5.635101 0.582941 25.400500 170 170 170 0
-5.452601 0.573958 25.009063 171 171 171 0
-5.300525 0.567913 24.745681 171 171 171 0
-5.192569 0.566462 24.682443 173 173 173 0
-5.111896 0.567988 24.748951 179 179 179 0
-5.054870 0.572249 24.934614 181 181 181 0
-4.927158 0.568518 24.772035 180 180 180 0
-4.778993 0.562234 24.498235 180 180 180 0
-4.662242 0.559469 24.377735 181 181 181 0
-4.558395 0.558171 24.321169 188 188 188 0
-4.482967 0.560371 24.417029 188 188 188 0
-4.399591 0.561650 24.472762 188 188 188 0
-4.294852 0.560198 24.409502 189 189 189 0
-4.176181 0.556824 24.262491 189 189 189 0
-4.054679 0.552911 24.091974 190 190 190 0
-3.958841 0.552396 24.069561 192 192 192 0
-3.882089 0.554584 24.164885 195 195 195 0
-3.803205 0.556567 24.251268 196 196 196 0
-3.703973 0.555596 24.208975 195 195 195 0
-3.586504 0.551770 24.042256 196 196 196 0
-3.467590 0.547514 23.856831 195 195 195 0
-3.366031 0.545843 23.784004 196 196 196 0
-3.283459 0.547243 23.845017 197 197 197 0
-3.318283 0.568849 24.786428 199 199 199 0
-3.111975 0.549172 23.929066 201 201 201 0
-3.002143 0.545844 23.784062 201 201 201 0
-2.892314 0.542309 23.630018 201 201 201 0
-2.793636 0.540704 23.560076 201 201 201 0
-2.703260 0.540652 23.557817 201 201 201 0
-2.625684 0.543245 23.670809 202 202 202 0
-2.535657 0.543355 23.675603 202 202 202 0
-2.439247 0.542055 23.618949 202 202 202 0
-2.342554 0.540589 23.555095 202 202 202 0
-2.254793 0.541150 23.579537 203 203 203 0
-2.167111 0.541778 23.606877 203 203 203 0
-2.074187 0.541092 23.577005 205 205 205 0
-1.984726 0.541289 23.585575 206 206 206 0
-1.897122 0.542035 23.618071 206 206 206 0
-1.806049 0.541815 23.608480 206 206 206 0
-1.719260 0.542924 23.656826 207 207 207 0
-1.627393 0.542464 23.636789 207 207 207 0
-1.537765 0.542740 23.648820 207 207 207 0
-1.451836 0.544438 23.722807 207 207 207 0
-1.361311 0.544524 23.726548 207 207 207 0
-1.267071 0.543030 23.661447 207 207 207 0
-1.173637 0.541678 23.602547 208 208 208 0
-1.082961 0.541480 23.593921 208 208 208 0
-1.000191 0.545559 23.771616 208 208 208 0
-0.907758 0.544655 23.732242 208 208 208 0
-0.814944 0.543296 23.673032 209 209 209 0
-0.723295 0.542471 23.637092 209 209 209 0
-0.631888 0.541619 23.599939 209 209 209 0
-0.544097 0.544097 23.707915 209 209 209 0
-0.454667 0.545600 23.773439 209 209 209 0
-0.364109 0.546164 23.797997 209 209 209 0
-0.272290 0.544579 23.728939 210 210 210 0
-0.181507 0.544522 23.726436 211 211 211 0
-0.090906 0.545438 23.766373 210 210 210 0
0.000000 0.547223 23.844127 209 209 209 0
0.091420 0.548517 23.900533 210 210 210 0
0.182699 0.548096 23.882193 210 210 210 0
0.274168 0.548337 23.892666 209 209 209 0
0.367341 0.551011 24.009200 210 210 210 0
0.461583 0.553900 24.135077 210 210 210 0
0.554479 0.554479 24.160315 210 210 210 0
0.645157 0.552992 24.095494 211 211 211 0
0.736588 0.552441 24.071513 210 210 210 0
0.833551 0.555700 24.213522 211 211 211 0
0.931342 0.558805 24.348798 211 211 211 0
1.021374 0.557113 24.275072 211 211 211 0
1.112056 0.556028 24.227792 211 211 211 0
1.205097 0.556198 24.235228 210 210 210 0
1.304847 0.559220 24.366897 210 210 210 0
1.402619 0.561048 24.446523 210 210 210 0
1.497738 0.561652 24.472841 210 210 210 0
1.593735 0.562495 24.509568 210 210 210 0
1.693901 0.564634 24.602769 210 210 210 0
1.792894 0.566177 24.670027 210 210 210 0
1.890765 0.567229 24.715880 210 210 210 0
1.988486 0.568139 24.755510 210 210 210 0
2.091689 0.570461 24.856669 211 211 211 0
2.198758 0.573589 24.992981 210 210 210 0
2.304055 0.576014 25.098635 209 209 209 0
2.406583 0.577580 25.166879 210 210 210 0
2.506134 0.578339 25.199944 209 209 209 0
2.612455 0.580546 25.296103 209 209 209 0
2.724499 0.583821 25.438829 208 208 208 0
2.825245 0.584533 25.469866 208 208 208 0
2.928397 0.585679 25.519802 208 208 208 0
3.037147 0.587835 25.613725 207 207 207 0
3.154328 0.591436 25.770653 207 207 207 0
3.266381 0.593888 25.877452 207 207 207 0
3.379864 0.596447 25.988960 207 207 207 0
3.496551 0.599409 26.118026 205 205 205 0
3.625862 0.604310 26.331608 204 204 204 0
3.741156 0.606674 26.434592 204 204 204 0
3.865343 0.610317 26.593350 205 205 205 0
4.004864 0.616133 26.846751 205 205 205 0
4.124312 0.618647 26.956288 207 207 207 0
4.237722 0.620154 27.021981 209 209 209 0
4.385839 0.626548 27.300585 209 209 209 0
4.505234 0.628637 27.391601 207 207 207 0
4.614779 0.629288 27.419957 206 206 206 0
4.758962 0.634528 27.648293 206 206 206 0
4.903959 0.639647 27.871320 205 205 205 0
5.034875 0.642750 28.006536 203 203 203 0
5.176304 0.647038 28.193377 203 203 203 0
5.328903 0.652519 28.432186 201 201 201 0
5.485783 0.658294 28.683830 199 199 199 0
5.672483 0.667351 29.078474 197 197 197 0
5.894511 0.680136 29.635551 191 191 191 0
6.146305 0.695808 30.318436 166 166 166 0
-8.880628 0.777055 29.021660 204 204 204 0
-8.836569 0.782987 29.243217 202 202 202 0
-8.843496 0.793647 29.641348 202 202 202 0
-8.707365 0.791579 29.564095 203 203 203 0
-8.592422 0.791407 29.557695 204 204 204 0
-8.622400 0.804757 30.056298 204 204 204 0
-8.603216 0.813818 30.394686 203 203 203 0
-8.512757 0.816292 30.487088 206 206 206 0
-8.348539 0.811664 30.314231 203 203 203 0
-8.357428 0.823972 30.773923 205 205 205 0
-8.413493 0.841349 31.422944 206 206 206 0
-8.256357 0.837601 31.282966 203 203 203 0
-7.966063 0.820036 30.626925 186 186 186 0
-7.261516 0.758666 28.334858 124 124 124 0
-5.859839 0.621498 23.211880 118 118 118 0
-6.341911 0.682975 25.507939 122 122 122 0
-6.363394 0.695996 25.994256 135 135 135 0
-6.295640 0.699516 26.125697 142 142 142 0
-5.825950 0.657769 24.566519 148 148 148 0
-6.299902 0.722940 27.000546 156 156 156 0
-5.994466 0.699354 26.119676 158 158 158 0
-5.812011 0.689561 25.753900 159 159 159 0
-5.638135 0.680465 25.414175 168 168 168 0
-5.467052 0.671392 25.075342 170 170 170 0
-5.318825 0.664853 24.831117 171 171 171 0
-5.222286 0.664655 24.823701 171 171 171 0
-5.149842 0.667572 24.932665 177 177 177 0
-5.069632 0.669574 25.007432 179 179 179 0
-4.936953 0.664590 24.821283 180 180 180 0
-4.790838 0.657566 24.558956 180 180 180 0
-4.668611 0.653606 24.411037 181 181 181 0
-4.580135 0.654305 24.437161 184 184 184 0
-4.500338 0.656299 24.511643 188 188 188 0
-4.416638 0.657797 24.567589 189 189 189 0
-4.309359 0.655772 24.491950 189 189 189 0
-4.181486 0.650453 24.293312 189 189 189 0
-4.059946 0.645901 24.123271 189 189 189 0
-3.968047 0.645961 24.125533 191 191 191 0
-3.901542 0.650257 24.285973 194 194 194 0
-3.813117 0.651020 24.314471 195 195 195 0
-3.713156 0.649802 24.268992 195 195 195 0
-3.597783 0.645756 24.117869 196 196 196 0
-3.477231 0.640543 23.923157 196 196 196 0
-3.374368 0.638394 23.842911 196 196 196 0
-3.291692 0.640051 23.904809 197 197 197 0
-3.225115 0.645023 24.090497 196 196 196 0
-3.115903 0.641510 23.959273 198 198 198 0
-3.004924 0.637408 23.806095 201 201 201 0
-2.897441 0.633815 23.671901 201 201 201 0
-2.800783 0.632435 23.620352 201 201 201 0
-2.709692 0.632261 23.613873 201 201 201 0
-2.630636 0.634981 23.715451 202 202 202 0
-2.540668 0.635167 23.722391 201 201 201 0
-2.445053 0.633903 23.675171 203 203 203 0
-2.348655 0.632330 23.616438 203 203 203 0
-2.257856 0.632200 23.611571 203 203 203 0
-2.170988 0.633205 23.649110 203 203 203 0
-2.080874 0.633309 23.653014 203 203 203 0
-1.989651 0.633071 23.644097 204 204 204 0
-1.898759 0.632920 23.638453 205 205 205 0
-1.808354 0.632924 23.638609 206 206 206 0
-1.720219 0.633765 23.670027 206 206 206 0
-1.631498 0.634471 23.696410 207 207 207 0
-1.541689 0.634813 23.709170 207 207 207 0
-1.455367 0.636723 23.780500 207 207 207 0
-1.364132 0.636595 23.775719 207 207 207 0
-1.269266 0.634633 23.702445 208 208 208 0
-1.174852 0.632613 23.626998 208 208 208 0
-1.085265 0.633071 23.644121 208 208 208 0
-1.002991 0.638267 23.838166 208 208 208 0
-0.909594 0.636716 23.780233 208 208 208 0
-0.816268 0.634875 23.711490 209 209 209 0
-0.724356 0.633812 23.671771 209 209 209 0
-0.632867 0.632867 23.636507 208 208 208 0
-0.545531 0.636453 23.770407 209 209 209 0
-0.455716 0.638003 23.828294 209 209 209 0
-0.364396 0.637693 23.816743 210 210 210 0
-0.272726 0.636361 23.766971 210 210 210 0
-0.181793 0.636277 23.763853 209 209 209 0
-0.091095 0.637668 23.815792 210 210 210 0
0.000000 0.640425 23.918753 209 209 209 0
0.091589 0.641124 23.944859 209 209 209 0
0.183022 0.640579 23.924507 210 210 210 0
0.274543 0.640600 23.925303 209 209 209 0
0.368133 0.644233 24.060988 210 210 210 0
0.462930 0.648102 24.205489 210 210 210 0
0.555076 0.647589 24.186336 210 210 210 0
0.646127 0.646127 24.131718 210 210 210 0
0.738432 0.646128 24.131773 210 210 210 0
0.835428 0.649778 24.268072 210 210 210 0
0.932616 0.652831 24.382124 210 210 210 0
1.022878 0.650922 24.310817 210 210 210 0
1.113631 0.649618 24.262109 210 210 210 0
1.206887 0.649862 24.271231 210 210 210 0
1.308556 0.654278 24.436155 210 210 210 0
1.405577 0.655936 24.498070 209 209 209 0
1.499851 0.656185 24.507372 209 209 209 0
1.596780 0.657498 24.556407 211 211 211 0
1.696486 0.659744 24.640315 211 211 211 0
1.795589 0.661533 24.707108 210 210 210 0
1.894283 0.662999 24.761875 210 210 210 0
1.991218 0.663739 24.789514 210 210 210 0
2.094878 0.666552 24.894571 209 209 209 0
2.203658 0.670679 25.048686 209 209 209 0
2.308051 0.673182 25.142169 209 209 209 0
2.409351 0.674618 25.195825 209 209 209 0
2.512588 0.676466 25.264841 209 209 209 0
2.617476 0.678605 25.344723 208 208 208 0
2.727998 0.681999 25.471503 209 209 209 0
2.834488 0.684187 25.553195 207 207 207 0
2.935559 0.684964 25.582210 207 207 207 0
3.048232 0.688310 25.707204 208 208 208 0
3.163440 0.692002 25.845095 208 208 208 0
3.274358 0.694561 25.940642 207 207 207 0
3.386994 0.697322 26.043786 206 206 206 0
3.507410 0.701482 26.199140 205 205 205 0
3.636726 0.707141 26.410501 204 204 204 0
3.751384 0.709721 26.506867 205 205 205 0
3.876332 0.714061 26.668950 206 206 206 0
4.014486 0.720549 26.911249 208 208 208 0
4.126963 0.722219 26.973614 209 209 209 0
4.243318 0.724469 27.057662 208 208 208 0
4.388764 0.731461 27.318793 208 208 208 0
4.505066 0.733383 27.390583 207 207 207 0
4.617421 0.734590 27.435659 206 206 206 0
4.759582 0.740379 27.651893 206 206 206 0
4.903320 0.746157 27.867691 205 205 205 0
5.033281 0.749638 27.997669 204 204 204 0
5.179011 0.755272 28.208121 202 202 202 0
5.331236 0.761605 28.444638 200 200 200 0
5.495581 0.769381 28.735063 199 199 199 0
5.677230 0.779228 29.102805 196 196 196 0
5.891891 0.793139 29.622377 191 191 191 0
6.140370 0.810992 30.289160 163 163 163 0
-8.878668 0.887867 29.015254 205 205 205 0
-8.802985 0.891441 29.132075 203 203 203 0
-8.818949 0.904508 29.559072 205 205 205 0
-8.661822 0.899930 29.409462 203 203 203 0
-8.533632 0.898277 29.355459 204 204 204 0
-8.487597 0.905344 29.586396 203 203 203 0
-8.540188 0.923264 30.172011 202 202 202 0
-8.397259 0.920248 30.073451 201 201 201 0
-8.302885 0.922543 30.148455 203 203 203 0
-8.378601 0.944068 30.851885 205 205 205 0
-8.403210 0.960367 31.384539 205 205 205 0
-8.241382 0.955523 31.226226 205 205 205 0
-8.039416 0.945814 30.908945 201 201 201 0
-7.606574 0.908248 29.681296 153 153 153 0
-6.277646 0.760927 24.866889 126 126 126 0
-6.059377 0.745769 24.371551 135 135 135 0
-6.290595 0.786324 25.696875 138 138 138 0
-6.154185 0.781484 25.538685 135 135 135 0
-4.583618 0.591435 19.327927 146 146 146 0
-6.235732 0.817801 26.725519 149 149 149 0
-5.998380 0.799784 26.136732 159 159 159 0
-5.822525 0.789495 25.800486 160 160 160 0
-5.654073 0.779872 25.486018 163 163 163 0
-5.482210 0.769433 25.144870 170 170 170 0
-5.338338 0.762620 24.922212 171 171 171 0
-5.234752 0.761418 24.882957 171 171 171 0
-5.188877 0.768723 25.121652 173 173 173 0
-5.099993 0.769810 25.157198 179 179 179 0
-4.940842 0.760130 24.840834 180 180 180 0
-4.801884 0.753237 24.615576 181 181 181 0
-4.683040 0.749286 24.486482 182 182 182 0
-4.601322 0.751236 24.550206 182 182 182 0
-4.520964 0.753494 24.623989 186 186 186 0
-4.432142 0.754407 24.653830 188 188 188 0
-4.312246 0.749956 24.508361 188 188 188 0
-4.183496 0.743733 24.304989 189 189 189 0
-4.067532 0.739551 24.168340 189 189 189 0
-3.991210 0.742551 24.266364 190 190 190 0
-3.913648 0.745457 24.361334 192 192 192 0
-3.825714 0.746481 24.394794 194 194 194 0
-3.723107 0.744621 24.334036 195 195 195 0
-3.604446 0.739374 24.162534 196 196 196 0
-3.483633 0.733397 23.967206 196 196 196 0
-3.386980 0.732320 23.932024 196 196 196 0
-3.301375 0.733639 23.975125 197 197 197 0
-3.227035 0.737608 24.104838 197 197 197 0
-3.124548 0.735188 24.025740 197 197 197 0
