ply
    format ascii 1.0
    element vertex 19880
    property float x
    property float y
    property float z
    property uchar red
    property uchar green
    property uchar blue
    property uchar alpha
    end_header
3.971550 -1.018346 26.623427 207 207 207 0
4.077954 -1.019489 26.653297 207 207 207 0
4.168378 -1.016678 26.579807 207 207 207 0
4.252047 -1.012392 26.467766 208 208 208 0
4.341044 -1.009545 26.393339 208 208 208 0
4.441255 -1.009376 26.388920 208 208 208 0
4.557464 -1.012770 26.477641 208 208 208 0
4.640956 -1.008903 26.376560 208 208 208 0
4.724467 -1.005206 26.279886 208 208 208 0
4.808186 -1.001705 26.188375 208 208 208 0
4.897162 -0.999421 26.128647 208 208 208 0
5.006759 -1.001352 26.179133 208 208 208 0
5.112068 -1.002366 26.205655 208 208 208 0
5.196921 -0.999408 26.128312 208 208 208 0
5.280059 -0.996238 26.045427 207 207 207 0
5.364335 -0.993395 25.971123 209 209 209 0
5.462902 -0.993255 25.967451 208 208 208 0
5.566831 -0.994077 25.988942 208 208 208 0
5.660359 -0.993045 25.961972 208 208 208 0
5.752994 -0.991896 25.931911 208 208 208 0
5.834374 -0.988877 25.852990 209 209 209 0
5.928522 -0.988087 25.832341 208 208 208 0
6.034304 -0.989230 25.862226 208 208 208 0
6.131659 -0.988977 25.855616 208 208 208 0
6.222361 -0.987676 25.821602 209 209 209 0
6.298802 -0.984188 25.730400 208 208 208 0
6.383950 -0.982146 25.677024 209 209 209 0
6.472388 -0.980665 25.638298 209 209 209 0
6.569560 -0.980531 25.634806 209 209 209 0
6.673384 -0.981380 25.656994 209 209 209 0
6.753132 -0.978715 25.587316 209 209 209 0
6.828268 -0.975467 25.502401 209 209 209 0
6.911207 -0.973409 25.448612 210 210 210 0
6.998842 -0.972061 25.413368 209 209 209 0
7.106838 -0.973539 25.452011 209 209 209 0
7.187308 -0.971258 25.392361 209 209 209 0
7.270981 -0.969464 25.345468 210 210 210 0
7.352553 -0.967441 25.292580 210 210 210 0
7.442134 -0.966511 25.268260 209 209 209 0
7.535267 -0.966060 25.256467 209 209 209 0
7.629734 -0.965789 25.249390 210 210 210 0
-6.728711 -0.890565 25.869708 85 85 85 0
-6.504726 -0.873769 25.381820 118 118 118 0
-6.312667 -0.860818 25.005613 135 135 135 0
-6.261666 -0.867000 25.185182 145 145 145 0
-6.160715 -0.866351 25.166321 148 148 148 0
-5.985479 -0.855068 24.838587 159 159 159 0
-5.796854 -0.841479 24.443828 164 164 164 0
-5.623042 -0.829629 24.099611 163 163 163 0
-5.467373 -0.820106 23.822978 168 168 168 0
-4.249817 -0.648277 18.831581 174 174 174 0
-5.417381 -0.840628 24.419116 175 175 175 0
-5.317649 -0.839629 24.390089 177 177 177 0
-5.157488 -0.828882 24.077909 178 178 178 0
-4.997108 -0.817709 23.753335 179 179 179 0
-4.866242 -0.811040 23.559631 183 183 183 0
-4.778333 -0.811415 23.570515 185 185 185 0
-4.736312 -0.819746 23.812528 186 186 186 0
-4.663614 -0.822991 23.906774 187 187 187 0
-4.529005 -0.815221 23.681074 188 188 188 0
-4.402543 -0.808630 23.489628 188 188 188 0
-4.306414 -0.807453 23.455412 189 189 189 0
-4.238983 -0.811720 23.579380 190 190 190 0
-4.169864 -0.815843 23.699142 193 193 193 0
-4.084270 -0.816854 23.728512 193 193 193 0
-3.980647 -0.814223 23.652090 194 194 194 0
-3.865527 -0.809064 23.502215 196 196 196 0
-3.781993 -0.810427 23.541815 197 197 197 0
-3.708974 -0.814165 23.650399 196 196 196 0
-3.630777 -0.816925 23.730567 196 196 196 0
-3.541034 -0.817162 23.737448 197 197 197 0
-3.428763 -0.812075 23.589699 198 198 198 0
-3.327494 -0.809390 23.511705 197 197 197 0
-3.230176 -0.807544 23.458071 198 198 198 0
-3.159211 -0.812368 23.598213 199 199 199 0
-3.093235 -0.818798 23.784971 200 200 200 0
-2.988812 -0.815131 23.678447 200 200 200 0
-2.879571 -0.809879 23.525904 200 200 200 0
-2.780065 -0.807116 23.445623 201 201 201 0
-2.688180 -0.806454 23.426407 200 200 200 0
-2.604939 -0.808429 23.483789 201 201 201 0
-2.520484 -0.810156 23.533935 201 201 201 0
-2.437064 -0.812355 23.597811 202 202 202 0
-2.340192 -0.810067 23.531347 202 202 202 0
-2.255196 -0.811871 23.583750 202 202 202 0
-2.171893 -0.814460 23.658970 203 203 203 0
-2.083794 -0.815398 23.686210 203 203 203 0
-1.998799 -0.817691 23.752816 203 203 203 0
-1.909646 -0.818420 23.773995 203 203 203 0
-1.820708 -0.819319 23.800110 204 204 204 0
-1.731696 -0.820277 23.827948 204 204 204 0
-1.644393 -0.822197 23.883710 205 205 205 0
-1.560128 -0.825950 23.992746 205 205 205 0
-1.471403 -0.827664 24.042537 205 205 205 0
-1.377306 -0.826383 24.005326 205 205 205 0
-1.283550 -0.825139 23.969188 206 206 206 0
-1.195210 -0.827453 24.036398 206 206 206 0
-1.111599 -0.833699 24.217836 206 206 206 0
-1.019863 -0.834433 24.239168 207 207 207 0
-0.925156 -0.832641 24.187090 207 207 207 0
-0.829959 -0.829959 24.109203 206 206 206 0
-0.739402 -0.831827 24.163468 206 206 206 0
-0.652364 -0.838753 24.364656 206 206 206 0
-0.560581 -0.840871 24.426166 206 206 206 0
-0.467623 -0.841722 24.450895 206 206 206 0
-0.374019 -0.841543 24.445690 206 206 206 0
-0.281753 -0.845258 24.553613 206 206 206 0
-0.189350 -0.852076 24.751663 206 206 206 0
-0.094687 -0.852179 24.754669 206 206 206 0
0.000000 -0.852186 24.754850 207 207 207 0
0.094964 -0.854673 24.827096 207 207 207 0
0.192082 -0.864370 25.108785 206 206 206 0
0.289150 -0.867451 25.198285 206 206 206 0
0.385418 -0.867191 25.190733 206 206 206 0
0.482750 -0.868950 25.241823 207 207 207 0
0.593731 -0.890597 25.870634 207 207 207 0
0.684467 -0.880028 25.563643 206 206 206 0
0.782087 -0.879848 25.558410 205 205 205 0
0.881561 -0.881561 25.608160 205 205 205 0
0.991351 -0.892216 25.917663 205 205 205 0
1.095034 -0.895937 26.025764 206 206 206 0
1.196496 -0.897372 26.067456 207 207 207 0
1.301710 -0.901184 26.178170 206 206 206 0
1.417348 -0.911152 26.467748 205 205 205 0
1.536954 -0.922172 26.787864 205 205 205 0
1.654301 -0.930544 27.031054 206 206 206 0
1.771774 -0.937998 27.247585 206 206 206 0
1.878737 -0.939369 27.287394 208 208 208 0
1.976398 -0.936189 27.195022 211 211 211 0
2.074000 -0.933300 27.111109 209 209 209 0
2.172301 -0.930986 27.043896 209 209 209 0
2.558968 -1.046850 30.409598 210 210 210 0
2.381985 -0.932081 27.075708 209 209 209 0
2.485456 -0.932046 27.074683 210 210 210 0
2.578600 -0.928296 26.965750 209 209 209 0
2.678808 -0.927280 26.936228 209 209 209 0
2.776442 -0.925481 26.883967 209 209 209 0
2.884430 -0.927138 26.932118 209 209 209 0
2.987295 -0.927092 26.930766 208 208 208 0
3.087360 -0.926208 26.905094 207 207 207 0
3.176802 -0.922297 26.791502 209 209 209 0
3.274935 -0.921075 26.756005 208 208 208 0
3.374475 -0.920311 26.733813 208 208 208 0
3.476351 -0.920210 26.730877 208 208 208 0
3.575274 -0.919356 26.706064 208 208 208 0
3.669792 -0.917448 26.650635 208 208 208 0
3.763682 -0.915490 26.593759 208 208 208 0
3.861149 -0.914483 26.564491 207 207 207 0
3.967139 -0.915494 26.593861 209 209 209 0
4.073542 -0.916547 26.624455 208 208 208 0
4.165472 -0.914372 26.561274 208 208 208 0
4.249080 -0.910517 26.449302 208 208 208 0
4.339408 -0.908248 26.383392 208 208 208 0
4.439103 -0.907998 26.376131 208 208 208 0
4.552434 -0.910487 26.448416 208 208 208 0
4.636147 -0.907072 26.349228 208 208 208 0
4.721693 -0.904154 26.264457 209 209 209 0
4.804152 -0.900778 26.166403 208 208 208 0
4.894271 -0.898948 26.113224 208 208 208 0
5.000683 -0.900123 26.147361 208 208 208 0
5.106963 -0.901229 26.179482 208 208 208 0
5.195197 -0.899169 26.119641 208 208 208 0
5.276348 -0.895984 26.027119 208 208 208 0
5.360925 -0.893487 25.954610 208 208 208 0
5.459739 -0.893412 25.952415 208 208 208 0
5.560955 -0.893725 25.961507 209 209 209 0
5.654937 -0.892885 25.937104 208 208 208 0
5.744744 -0.891426 25.894723 208 208 208 0
5.824023 -0.888410 25.807126 208 208 208 0
5.920851 -0.888128 25.798915 209 209 209 0
6.028929 -0.889514 25.839188 208 208 208 0
6.124609 -0.889056 25.825886 209 209 209 0
6.215307 -0.887901 25.792332 208 208 208 0
6.299414 -0.885855 25.732902 208 208 208 0
6.379605 -0.883330 25.659549 209 209 209 0
6.465661 -0.881681 25.611648 209 209 209 0
6.563976 -0.881728 25.613016 209 209 209 0
6.669613 -0.882743 25.642494 210 210 210 0
6.749178 -0.880328 25.572334 209 209 209 0
6.823295 -0.877281 25.483828 209 209 209 0
6.902604 -0.874978 25.416935 209 209 209 0
6.994870 -0.874359 25.398946 209 209 209 0
7.101227 -0.875494 25.431919 208 208 208 0
7.184240 -0.873759 25.381522 209 209 209 0
7.266967 -0.872036 25.331476 209 209 209 0
7.351642 -0.870589 25.289445 209 209 209 0
7.441210 -0.869752 25.265121 210 210 210 0
7.532378 -0.869121 25.246784 209 209 209 0
7.623918 -0.868548 25.230143 210 210 210 0
-6.840916 -0.793150 25.919925 75 75 75 0
-6.577515 -0.773825 25.288410 108 108 108 0
-6.421917 -0.766796 25.058694 132 132 132 0
-6.227910 -0.754898 24.669877 143 143 143 0
-6.179481 -0.760551 24.854623 148 148 148 0
-6.120460 -0.765057 25.001877 158 158 158 0
-5.955069 -0.756199 24.712395 161 161 161 0
-5.769472 -0.744448 24.328368 164 164 164 0
-5.604898 -0.735069 24.021850 169 169 169 0
-5.456878 -0.727584 23.777247 174 174 174 0
-5.341248 -0.724237 23.667876 175 175 175 0
-5.402597 -0.745186 24.352476 174 174 174 0
-5.307583 -0.744924 24.343922 177 177 177 0
-5.137093 -0.733870 23.982693 180 180 180 0
-4.991325 -0.726011 23.725846 184 184 184 0
-4.850741 -0.718628 23.484585 185 185 185 0
-4.765975 -0.719392 23.509556 186 186 186 0
-4.717735 -0.725805 23.719130 186 186 186 0
-4.649433 -0.729323 23.834082 187 187 187 0
-4.522130 -0.723541 23.645126 188 188 188 0
-4.385523 -0.716004 23.398817 188 188 188 0
-4.288756 -0.714793 23.359237 190 190 190 0
-4.219445 -0.718203 23.470699 193 193 193 0
-4.153967 -0.722429 23.608791 195 195 195 0
-4.070162 -0.723584 23.646547 195 195 195 0
-3.967757 -0.721410 23.575503 195 195 195 0
-3.853786 -0.716983 23.430832 195 195 195 0
-3.758898 -0.715981 23.398060 196 196 196 0
-3.698048 -0.721570 23.580729 196 196 196 0
-3.614369 -0.722874 23.623329 196 196 196 0
-3.528566 -0.723808 23.653867 197 197 197 0
-3.420150 -0.720032 23.530445 197 197 197 0
-3.318876 -0.717595 23.450808 198 198 198 0
-3.221381 -0.715862 23.394195 198 198 198 0
-3.148535 -0.719665 23.518467 199 199 199 0
-3.081570 -0.725075 23.695274 200 200 200 0
-2.977598 -0.721842 23.589605 201 201 201 0
-2.871353 -0.717838 23.458766 200 200 200 0
-2.770888 -0.715068 23.368230 203 203 203 0
-2.680582 -0.714822 23.360191 202 202 202 0
-2.596761 -0.716348 23.410061 202 202 202 0
-2.514500 -0.718428 23.478055 203 203 203 0
-2.427860 -0.719366 23.508692 204 204 204 0
-2.332200 -0.717600 23.450976 204 204 204 0
-2.246065 -0.718741 23.488259 204 204 204 0
-2.162830 -0.720943 23.560238 204 204 204 0
-2.078311 -0.722891 23.623883 204 204 204 0
-1.989659 -0.723512 23.644192 204 204 204 0
-1.902837 -0.724890 23.689223 204 204 204 0
-1.815925 -0.726370 23.737587 204 204 204 0
-1.724433 -0.726077 23.728008 204 204 204 0
-1.639417 -0.728630 23.811435 206 206 206 0
-1.554860 -0.731699 23.911732 205 205 205 0
-1.468421 -0.734210 23.993804 205 205 205 0
-1.373855 -0.732723 23.945181 206 206 206 0
-1.279851 -0.731343 23.900110 206 206 206 0
-1.189419 -0.731950 23.919943 206 206 206 0
-1.106022 -0.737348 24.096350 206 206 206 0
-1.015902 -0.738838 24.145037 207 207 207 0
-0.921413 -0.737131 24.089237 207 207 207 0
-0.827689 -0.735724 24.043264 207 207 207 0
-0.735958 -0.735958 24.050910 207 207 207 0
-0.649444 -0.742222 24.255628 206 206 206 0
-0.557489 -0.743318 24.291440 207 207 207 0
-0.466034 -0.745654 24.367793 206 206 206 0
-0.372631 -0.745263 24.354999 205 205 205 0
-0.280584 -0.748225 24.451782 206 206 206 0
-0.188408 -0.753632 24.628491 207 207 207 0
-0.094407 -0.755254 24.681504 207 207 207 0
0.000000 -0.754480 24.656223 208 208 208 0
0.094290 -0.754317 24.650866 207 207 207 0
0.190831 -0.763325 24.945268 207 207 207 0
0.287922 -0.767791 25.091218 206 206 206 0
0.383786 -0.767573 25.084077 206 206 206 0
0.480756 -0.769210 25.137573 206 206 206 0
0.579476 -0.772635 25.249507 208 208 208 0
0.681990 -0.779417 25.471147 207 207 207 0
0.779280 -0.779280 25.466676 207 207 207 0
0.875775 -0.778467 25.440090 206 206 206 0
0.983168 -0.786534 25.703735 207 207 207 0
1.089990 -0.792720 25.905892 207 207 207 0
1.189520 -0.793013 25.915470 207 207 207 0
1.292453 -0.795356 25.992013 208 208 208 0
1.405922 -0.803384 26.254386 207 207 207 0
1.520320 -0.810837 26.497957 205 205 205 0
1.636942 -0.818471 26.747417 204 204 204 0
1.762692 -0.829502 27.107910 206 206 206 0
1.872515 -0.832229 27.197023 206 206 206 0
1.975360 -0.831731 27.180736 211 211 211 0
2.074053 -0.829621 27.111801 211 211 211 0
2.169823 -0.826599 27.013046 210 210 210 0
2.639026 -0.959646 31.360980 211 211 211 0
2.379890 -0.827788 27.051890 210 210 210 0
2.484791 -0.828264 27.067440 209 209 209 0
2.576832 -0.824586 26.947263 209 209 209 0
2.675627 -0.823270 26.904243 208 208 208 0
2.776584 -0.822692 26.885348 209 209 209 0
2.882950 -0.823700 26.918302 208 208 208 0
2.984519 -0.823316 26.905742 209 209 209 0
3.085185 -0.822716 26.886142 209 209 209 0
3.175755 -0.819550 26.782666 209 209 209 0
3.274099 -0.818525 26.749173 207 207 207 0
3.372574 -0.817594 26.718745 208 208 208 0
3.473708 -0.817343 26.710554 208 208 208 0
3.575418 -0.817238 26.707139 208 208 208 0
3.668705 -0.815268 26.642738 208 208 208 0
3.762836 -0.813586 26.587780 208 208 208 0
3.861212 -0.812887 26.564926 208 208 208 0
3.962875 -0.812897 26.565277 208 208 208 0
4.069410 -0.813882 26.597450 210 210 210 0
4.163603 -0.812410 26.549358 208 208 208 0
4.245668 -0.808699 26.428063 209 209 209 0
4.336937 -0.806872 26.368367 208 208 208 0
4.436079 -0.806560 26.358164 209 209 209 0
4.546169 -0.808208 26.412021 208 208 208 0
4.634201 -0.805948 26.338169 209 209 209 0
4.718190 -0.803096 26.244974 209 209 209 0
4.802606 -0.800434 26.157983 208 208 208 0
4.891650 -0.798637 26.099238 209 209 209 0
4.992749 -0.798840 26.105877 208 208 208 0
5.100072 -0.800011 26.144162 208 208 208 0
5.196309 -0.799432 26.125231 208 208 208 0
5.278241 -0.796716 26.036460 208 208 208 0
5.361414 -0.794284 25.956979 209 209 209 0
5.453435 -0.793227 25.922448 209 209 209 0
5.556785 -0.793826 25.942041 209 209 209 0
5.650253 -0.793018 25.915620 208 208 208 0
5.738860 -0.791567 25.868201 208 208 208 0
5.818847 -0.788996 25.784190 209 209 209 0
5.914944 -0.788659 25.773177 208 208 208 0
6.020970 -0.789635 25.805078 208 208 208 0
6.118629 -0.789500 25.800669 209 209 209 0
6.209091 -0.788456 25.766534 209 209 209 0
6.295295 -0.786912 25.716076 209 209 209 0
6.373949 -0.784486 25.636798 208 208 208 0
6.458851 -0.782891 25.584674 209 209 209 0
6.556291 -0.782841 25.583032 209 209 209 0
6.662341 -0.783805 25.614537 209 209 209 0
6.742727 -0.781765 25.547891 209 209 209 0
6.820561 -0.779493 25.473616 210 210 210 0
6.898574 -0.777304 25.402095 209 209 209 0
6.988745 -0.776527 25.376707 209 209 209 0
7.091836 -0.777187 25.398283 209 209 209 0
7.175864 -0.775769 25.351932 210 210 210 0
7.263599 -0.774784 25.319735 209 209 209 0
7.346026 -0.773266 25.270128 209 209 209 0
7.437189 -0.772695 25.251469 210 210 210 0
7.524489 -0.771743 25.220343 210 210 210 0
7.621987 -0.771847 25.223752 209 209 209 0
-6.698638 -0.679572 25.380840 101 101 101 0
-6.501444 -0.669266 24.995938 124 124 124 0
-6.346594 -0.663077 24.764781 141 141 141 0
-6.193423 -0.656878 24.533267 147 147 147 0
-6.116394 -0.658689 24.600881 157 157 157 0
-6.076855 -0.664656 24.823755 161 161 161 0
-5.937019 -0.659669 24.637488 161 161 161 0
-5.750454 -0.649245 24.248171 167 167 167 0
-5.598770 -0.642482 23.995587 173 173 173 0
-5.454126 -0.636315 23.765255 175 175 175 0
-5.361161 -0.636070 23.756113 175 175 175 0
-5.388302 -0.650312 24.288041 176 176 176 0
-5.282604 -0.648741 24.229352 179 179 179 0
-5.124834 -0.640604 23.925464 184 184 184 0
-4.970636 -0.632626 23.627506 186 186 186 0
-4.832834 -0.626479 23.397891 185 185 185 0
-4.737777 -0.625744 23.370463 185 185 185 0
-4.683813 -0.630513 23.548581 186 186 186 0
-4.634359 -0.636089 23.756808 188 188 188 0
-4.512236 -0.631713 23.593392 190 190 190 0
-4.377335 -0.625334 23.355127 192 192 192 0
-4.273346 -0.623196 23.275307 193 193 193 0
-4.203231 -0.626013 23.380509 194 194 194 0
-4.141948 -0.630296 23.540484 194 194 194 0
-4.052861 -0.630445 23.546032 195 195 195 0
-3.955379 -0.629265 23.501953 195 195 195 0
-3.840184 -0.625146 23.348135 195 195 195 0
-3.749110 -0.624852 23.337130 197 197 197 0
-3.688800 -0.629795 23.521759 197 197 197 0
-3.604464 -0.630781 23.558588 196 196 196 0
-3.519363 -0.631681 23.592176 198 198 198 0
-3.415715 -0.629211 23.499935 199 199 199 0
-3.307486 -0.625741 23.370329 199 199 199 0
-3.212039 -0.624563 23.326352 200 200 200 0
-3.140518 -0.628104 23.458583 202 202 202 0
-3.072953 -0.632667 23.629009 202 202 202 0
-2.966988 -0.629361 23.505550 202 202 202 0
-2.861679 -0.625992 23.379729 202 202 202 0
-2.761753 -0.623622 23.291190 203 203 203 0
-2.670719 -0.623168 23.274241 204 204 204 0
-2.586058 -0.624221 23.313574 203 203 203 0
-2.506550 -0.626637 23.403827 203 203 203 0
-2.419905 -0.627383 23.431667 204 204 204 0
-2.325909 -0.626206 23.387727 204 204 204 0
-2.242132 -0.627797 23.447134 204 204 204 0
-2.157147 -0.629168 23.498329 205 205 205 0
-2.071304 -0.630397 23.544236 206 206 206 0
-1.982233 -0.630710 23.555944 205 205 205 0
-1.897651 -0.632550 23.624667 206 206 206 0
-1.808022 -0.632808 23.634278 206 206 206 0
-1.721077 -0.634081 23.681828 206 206 206 0
-1.632779 -0.634970 23.715015 206 206 206 0
-1.548203 -0.637495 23.809351 205 205 205 0
-1.462996 -0.640061 23.905158 206 206 206 0
-1.370053 -0.639358 23.878915 206 206 206 0
-1.276553 -0.638276 23.838517 206 206 206 0
-1.185813 -0.638515 23.847421 206 206 206 0
-1.101934 -0.642795 24.007276 207 207 207 0
-1.012783 -0.644498 24.070902 207 207 207 0
-0.919126 -0.643388 24.029437 207 207 207 0
-0.825339 -0.641931 23.975000 207 207 207 0
-0.733931 -0.642190 23.984685 207 207 207 0
-0.646830 -0.646830 24.157980 208 208 208 0
-0.558093 -0.651109 24.317785 207 207 207 0
-0.464957 -0.650939 24.311453 207 207 207 0
-0.371620 -0.650335 24.288903 206 206 206 0
-0.279669 -0.652561 24.372022 207 207 207 0
-0.187648 -0.656768 24.529166 207 207 207 0
-0.094182 -0.659274 24.622730 207 207 207 0
0.000000 -0.658383 24.589466 207 207 207 0
0.094077 -0.658539 24.595308 208 208 208 0
0.189858 -0.664502 24.818006 208 208 208 0
0.286812 -0.669227 24.994478 208 208 208 0
0.382682 -0.669694 25.011920 208 208 208 0
0.478914 -0.670480 25.041275 207 207 207 0
0.577304 -0.673521 25.154864 207 207 207 0
0.680812 -0.680812 25.427140 207 207 207 0
0.776525 -0.679460 25.376644 208 208 208 0
0.872062 -0.678270 25.332229 208 208 208 0
0.975955 -0.683169 25.515175 207 207 207 0
1.085603 -0.690838 25.801609 207 207 207 0
1.183950 -0.690638 25.794128 206 206 206 0
1.284999 -0.691923 25.842113 207 207 207 0
1.391527 -0.695764 25.985574 207 207 207 0
1.507694 -0.703591 26.277892 207 207 207 0
1.628405 -0.712427 26.607919 206 206 206 0
1.749298 -0.720299 26.901923 207 207 207 0
1.863634 -0.724747 27.068035 207 207 207 0
1.971581 -0.726372 27.128739 206 206 206 0
2.072785 -0.725475 27.095229 212 212 212 0
2.169420 -0.723140 27.008029 210 210 210 0
2.655783 -0.845022 31.560102 210 210 210 0
2.377452 -0.723572 27.024173 211 211 211 0
2.484929 -0.724771 27.068938 210 210 210 0
2.578706 -0.722038 26.966864 211 211 211 0
2.674558 -0.720073 26.893495 210 210 210 0
2.774947 -0.719431 26.869498 209 209 209 0
2.880486 -0.720122 26.895295 209 209 209 0
2.985550 -0.720650 26.915031 209 209 209 0
3.083857 -0.719567 26.874574 208 208 208 0
3.174034 -0.716717 26.768154 209 209 209 0
3.270880 -0.715505 26.722876 208 208 208 0
3.366686 -0.714146 26.672104 209 209 209 0
3.469913 -0.714394 26.681376 209 209 209 0
3.572041 -0.714408 26.681916 208 208 208 0
3.667211 -0.713069 26.631885 208 208 208 0
3.762806 -0.711882 26.587569 209 209 209 0
3.856565 -0.710420 26.532953 207 207 207 0
3.960921 -0.710934 26.552174 208 208 208 0
4.068651 -0.712014 26.592490 208 208 208 0
4.161410 -0.710485 26.535371 209 209 209 0
4.245435 -0.707573 26.426612 208 208 208 0
4.332954 -0.705365 26.344151 208 208 208 0
4.432536 -0.705176 26.337114 208 208 208 0
4.543158 -0.706713 26.394526 208 208 208 0
4.631156 -0.704741 26.320867 208 208 208 0
4.716342 -0.702434 26.234695 209 209 209 0
4.799472 -0.699923 26.140915 209 209 209 0
4.887054 -0.698151 26.074720 209 209 209 0
4.985081 -0.697911 26.065782 209 209 209 0
5.096457 -0.699514 26.125628 208 208 208 0
5.194149 -0.699212 26.114374 208 208 208 0
5.268605 -0.695853 25.988924 209 209 209 0
5.360781 -0.694916 25.953913 208 208 208 0
5.456708 -0.694490 25.938005 208 208 208 0
5.554325 -0.694291 25.930554 208 208 208 0
5.648220 -0.693641 25.906294 209 209 209 0
5.738230 -0.692545 25.865361 208 208 208 0
5.817010 -0.690154 25.776049 209 209 209 0
5.908472 -0.689322 25.744975 208 208 208 0
6.006890 -0.689315 25.744735 209 209 209 0
6.111179 -0.689972 25.769255 208 208 208 0
6.205528 -0.689503 25.751752 208 208 208 0
6.290987 -0.688077 25.698476 209 209 209 0
6.369353 -0.685930 25.618315 209 209 209 0
6.454642 -0.684583 25.568003 209 209 209 0
6.550929 -0.684425 25.562109 209 209 209 0
6.658337 -0.685417 25.599143 210 210 210 0
6.736163 -0.683379 25.523021 209 209 209 0
6.814747 -0.681475 25.451904 209 209 209 0
6.894285 -0.679718 25.386304 209 209 209 0
6.983107 -0.678913 25.356234 210 210 210 0
7.082992 -0.679191 25.366612 210 210 210 0
7.174103 -0.678631 25.345711 210 210 210 0
7.257119 -0.677331 25.297146 210 210 210 0
7.347351 -0.676730 25.274684 209 209 209 0
7.436061 -0.676006 25.247641 210 210 210 0
7.527118 -0.675511 25.229155 210 210 210 0
7.620284 -0.675215 25.218115 210 210 210 0
-7.005616 -0.600481 26.164766 92 92 92 0
-6.683655 -0.581187 25.324070 118 118 118 0
-6.487448 -0.572422 24.942131 137 137 137 0
-6.287130 -0.563027 24.532748 143 143 143 0
-6.151910 -0.559265 24.368825 156 156 156 0
-6.057362 -0.559141 24.363447 160 160 160 0
-6.032066 -0.565506 24.640794 161 161 161 0
-5.908039 -0.562670 24.517230 166 166 166 0
-5.741692 -0.555648 24.211227 171 171 171 0
-5.587213 -0.549562 23.946054 174 174 174 0
-5.437261 -0.543726 23.691768 175 175 175 0
-5.335210 -0.542564 23.641119 175 175 175 0
-5.344687 -0.552899 24.091445 180 180 180 0
-5.256472 -0.553313 24.109493 183 183 183 0
-5.116347 -0.548180 23.885843 184 184 184 0
-4.966306 -0.541779 23.606922 185 185 185 0
-4.819326 -0.535481 23.332493 186 186 186 0
-4.720181 -0.534360 23.283663 185 185 185 0
-4.657343 -0.537386 23.415502 187 187 187 0
-4.608531 -0.542180 23.624405 190 190 190 0
-4.497086 -0.539650 23.514173 192 192 192 0
-4.363182 -0.534267 23.279616 193 193 193 0
-4.257444 -0.532181 23.188695 193 193 193 0
-4.187409 -0.534563 23.292499 193 193 193 0
-4.121754 -0.537620 23.425711 194 194 194 0
-4.036654 -0.538221 23.451875 195 195 195 0
-3.943951 -0.537812 23.434053 195 195 195 0
-3.833486 -0.534905 23.307411 195 195 195 0
-3.739110 -0.534159 23.274886 197 197 197 0
-3.673014 -0.537514 23.421102 197 197 197 0
-3.592594 -0.538889 23.481005 199 199 199 0
-3.509584 -0.539936 23.526626 199 199 199 0
-3.410417 -0.538487 23.463481 200 200 200 0
-3.298968 -0.534968 23.310142 201 201 201 0
-3.203394 -0.533899 23.263572 201 201 201 0
-3.129092 -0.536416 23.373239 202 202 202 0
-3.218857 -0.568034 24.750917 202 202 202 0
-2.967173 -0.539486 23.507019 203 203 203 0
-2.858700 -0.536006 23.355390 203 203 203 0
-2.755391 -0.533302 23.237538 203 203 203 0
-2.664585 -0.532917 23.220785 203 203 203 0
-2.576988 -0.533170 23.231807 203 203 203 0
-2.497888 -0.535262 23.322949 203 203 203 0
-2.413100 -0.536244 23.365772 205 205 205 0
-2.322560 -0.535975 23.354052 204 204 204 0
-2.233762 -0.536103 23.359604 205 205 205 0
-2.150597 -0.537649 23.426987 206 206 206 0
-2.062436 -0.538027 23.443436 206 206 206 0
-1.972771 -0.538029 23.443510 205 205 205 0
-1.889734 -0.539924 23.526100 206 206 206 0
-1.804282 -0.541285 23.585385 206 206 206 0
-1.714046 -0.541278 23.585079 207 207 207 0
-1.627377 -0.542459 23.636555 207 207 207 0
-1.542463 -0.544399 23.721071 207 207 207 0
-1.457683 -0.546631 23.818355 207 207 207 0
-1.365886 -0.546354 23.806295 207 207 207 0
-1.274705 -0.546302 23.804024 206 206 206 0
-1.181715 -0.545407 23.765006 207 207 207 0
-1.100011 -0.550005 23.965371 207 207 207 0
-1.009031 -0.550381 23.981727 206 206 206 0
-0.916938 -0.550163 23.972239 207 207 207 0
-0.823853 -0.549236 23.931833 207 207 207 0
-0.731695 -0.548771 23.911610 208 208 208 0
-0.644728 -0.552624 24.079459 208 208 208 0
-0.556527 -0.556527 24.249553 208 208 208 0
-0.463808 -0.556569 24.251379 208 208 208 0
-0.370544 -0.555815 24.218532 208 208 208 0
-0.278361 -0.556722 24.258025 208 208 208 0
-0.186984 -0.560953 24.442386 208 208 208 0
-0.094003 -0.564019 24.575996 207 207 207 0
0.000000 -0.563291 24.544276 208 208 208 0
0.093710 -0.562261 24.499384 208 208 208 0
0.188712 -0.566136 24.668227 208 208 208 0
0.285507 -0.571015 24.880823 207 207 207 0
0.381635 -0.572452 24.943433 208 208 208 0
0.476797 -0.572157 24.930583 207 207 207 0
0.573967 -0.573967 25.009440 207 207 207 0
0.677729 -0.580911 25.312017 206 206 206 0
0.774279 -0.580709 25.303230 208 208 208 0
0.869209 -0.579473 25.249365 208 208 208 0
0.970556 -0.582333 25.374006 208 208 208 0
1.077672 -0.587821 25.613118 207 207 207 0
1.179232 -0.589616 25.691324 207 207 207 0
1.274965 -0.588446 25.640330 207 207 207 0
1.382959 -0.592697 25.825572 207 207 207 0
1.498646 -0.599458 26.120185 208 208 208 0
1.617183 -0.606444 26.424557 206 206 206 0
1.732147 -0.611346 26.638164 207 207 207 0
1.854946 -0.618315 26.941845 207 207 207 0
1.966659 -0.621050 27.061016 208 208 208 0
2.070847 -0.621254 27.069897 209 209 209 0
2.168527 -0.619579 26.996909 211 211 211 0
2.616381 -0.713558 31.091870 212 212 212 0
2.378698 -0.620530 27.038341 210 210 210 0
2.482808 -0.620702 27.045835 210 210 210 0
2.576220 -0.618293 26.940864 210 210 210 0
2.673882 -0.617050 26.886698 209 209 209 0
2.770491 -0.615665 26.826343 210 210 210 0
2.879786 -0.617097 26.888760 208 208 208 0
2.984902 -0.617566 26.909188 209 209 209 0
3.080205 -0.616041 26.842748 208 208 208 0
3.170749 -0.613693 26.740450 209 209 209 0
3.268339 -0.612814 26.702114 210 210 210 0
3.365775 -0.611959 26.664885 208 208 208 0
3.466999 -0.611823 26.658970 208 208 208 0
3.569848 -0.611974 26.665534 208 208 208 0
3.665348 -0.610891 26.618358 208 208 208 0
3.759558 -0.609658 26.564624 209 209 209 0
3.852980 -0.608365 26.508293 208 208 208 0
3.957616 -0.608864 26.530023 209 209 209 0
4.065079 -0.609762 26.569143 209 209 209 0
4.158093 -0.608501 26.514223 208 208 208 0
4.242007 -0.606001 26.405273 208 208 208 0
4.330322 -0.604231 26.328146 208 208 208 0
4.429569 -0.604032 26.319481 208 208 208 0
4.537246 -0.604966 26.360177 209 209 209 0
4.630866 -0.604026 26.319216 208 208 208 0
4.714499 -0.601851 26.224439 208 208 208 0
4.796900 -0.599612 26.126905 209 209 209 0
4.883996 -0.598040 26.058403 208 208 208 0
4.979713 -0.597566 26.037715 209 209 209 0
5.092672 -0.599138 26.106224 209 209 209 0
5.188623 -0.598687 26.086590 208 208 208 0
5.273449 -0.596994 26.012820 207 207 207 0
5.355843 -0.595094 25.930005 208 208 208 0
5.451439 -0.594702 25.912960 208 208 208 0
5.548038 -0.594433 25.901204 209 209 209 0
5.642794 -0.593978 25.881407 208 208 208 0
5.731884 -0.592954 25.836756 208 208 208 0
5.807955 -0.590639 25.735924 208 208 208 0
5.902877 -0.590288 25.720596 208 208 208 0
5.999466 -0.590111 25.712917 209 209 209 0
6.106627 -0.590964 25.750061 209 209 209 0
6.201689 -0.590637 25.735819 209 209 209 0
6.290494 -0.589734 25.696464 209 209 209 0
6.365268 -0.587563 25.601884 209 209 209 0
6.448741 -0.586249 25.544627 209 209 209 0
6.545513 -0.586165 25.540974 208 208 208 0
6.653836 -0.587103 25.581840 209 209 209 0
6.733800 -0.585548 25.514066 209 209 209 0
6.812314 -0.583913 25.442815 209 209 209 0
6.892713 -0.582483 25.380512 208 208 208 0
6.979737 -0.581645 25.343999 210 210 210 0
7.073609 -0.581393 25.333008 209 209 209 0
7.167810 -0.581174 25.323477 209 209 209 0
7.256163 -0.580493 25.293813 209 209 209 0
7.342717 -0.579688 25.258744 210 210 210 0
7.423096 -0.578423 25.203619 210 210 210 0
7.524666 -0.578820 25.220935 209 209 209 0
7.616037 -0.578433 25.204060 210 210 210 0
-6.983311 -0.491782 25.714117 82 82 82 0
-6.949273 -0.496377 25.954334 112 112 112 0
-6.647310 -0.481689 25.186358 133 133 133 0
-6.460326 -0.475024 24.837853 141 141 141 0
-6.252442 -0.466600 24.397392 150 150 150 0
-6.133151 -0.464633 24.294519 158 158 158 0
-6.013627 -0.462587 24.187540 160 160 160 0
-5.979816 -0.467173 24.427354 165 165 165 0
-5.893635 -0.467749 24.457453 171 171 171 0
-5.722400 -0.461484 24.129877 172 172 172 0
-5.564332 -0.456093 23.847989 173 173 173 0
-5.409462 -0.450788 23.570640 176 176 176 0
-5.312204 -0.450187 23.539180 180 180 180 0
-5.308959 -0.457669 23.930399 183 183 183 0
-5.233951 -0.459118 24.006196 184 184 184 0
-5.099383 -0.455302 23.806644 184 184 184 0
-4.943790 -0.449435 23.499892 185 185 185 0
-4.806733 -0.445068 23.271524 187 187 187 0
-4.692043 -0.442646 23.144865 188 188 188 0
-4.621376 -0.444363 23.234671 191 191 191 0
-4.588822 -0.449885 23.523374 193 193 193 0
-4.486681 -0.448668 23.459771 193 193 193 0
-4.348567 -0.443731 23.201638 193 193 193 0
-4.248683 -0.442571 23.140976 194 194 194 0
-4.162130 -0.442780 23.151886 193 193 193 0
-4.100519 -0.445709 23.305024 195 195 195 0
-4.017081 -0.446342 23.338162 195 195 195 0
-3.930091 -0.446601 23.351698 196 196 196 0
-3.826254 -0.444913 23.263439 198 198 198 0
-3.726868 -0.443675 23.198678 199 199 199 0
-3.662807 -0.446684 23.356014 200 200 200 0
-3.580318 -0.447540 23.400774 200 200 200 0
-3.496807 -0.448309 23.440975 200 200 200 0
-3.399298 -0.447276 23.386985 201 201 201 0
-3.288885 -0.444444 23.238897 201 201 201 0
-3.187175 -0.442663 23.145788 201 201 201 0
-3.105915 -0.443702 23.200115 202 202 202 0
-3.033304 -0.446074 23.324134 202 202 202 0
-2.957872 -0.448162 23.433328 203 203 203 0
-2.848006 -0.445001 23.268022 202 202 202 0
-2.747827 -0.443198 23.173748 204 204 204 0
-2.653210 -0.442202 23.121659 203 203 203 0
-2.571189 -0.443308 23.179525 204 204 204 0
-2.489258 -0.444510 23.242371 203 203 203 0
-2.408241 -0.445971 23.318722 204 204 204 0
-2.318129 -0.445794 23.309497 205 205 205 0
-2.229548 -0.445910 23.315537 204 204 204 0
-2.143321 -0.446525 23.347718 206 206 206 0
-2.058564 -0.447514 23.399419 206 206 206 0
-1.968863 -0.447469 23.397067 206 206 206 0
-1.883037 -0.448342 23.442728 206 206 206 0
-1.797676 -0.449419 23.499031 207 207 207 0
-1.710492 -0.450130 23.536188 206 206 206 0
-1.621071 -0.450298 23.544973 207 207 207 0
-1.536560 -0.451929 23.630289 206 206 206 0
-1.451982 -0.453744 23.725199 208 208 208 0
-1.362852 -0.454284 23.753408 208 208 208 0
-1.270860 -0.453879 23.732212 208 208 208 0
-1.177093 -0.452728 23.672061 207 207 207 0
-0.997304 -0.415543 21.727753 208 208 208 0
-1.006524 -0.457511 23.922149 207 207 207 0
-0.914871 -0.457436 23.918202 207 207 207 0
-0.821591 -0.456440 23.866120 207 207 207 0
-0.729889 -0.456180 23.852566 208 208 208 0
-0.642094 -0.458639 23.981117 208 208 208 0
-0.553945 -0.461621 24.137051 208 208 208 0
-0.462612 -0.462612 24.188875 208 208 208 0
-0.369649 -0.462061 24.160051 208 208 208 0
-0.277713 -0.462856 24.201609 208 208 208 0
-0.186155 -0.465387 24.333983 208 208 208 0
-0.093531 -0.467654 24.452511 208 208 208 0
0.000000 -0.468182 24.480103 208 208 208 0
0.093458 -0.467290 24.433471 207 207 207 0
0.187927 -0.469818 24.565647 208 208 208 0
0.284556 -0.474260 24.797911 208 208 208 0
0.380629 -0.475786 24.877725 209 209 209 0
0.475727 -0.475727 24.874602 209 209 209 0
0.571470 -0.476225 24.900637 207 207 207 0
0.675633 -0.482595 25.233726 208 208 208 0
0.772325 -0.482703 25.239385 208 208 208 0
0.867106 -0.481726 25.188269 208 208 208 0
0.965593 -0.482796 25.244258 208 208 208 0
1.073041 -0.487746 25.503066 209 209 209 0
1.175020 -0.489592 25.599566 207 207 207 0
1.274553 -0.490213 25.632032 207 207 207 0
1.373905 -0.490680 25.656492 207 207 207 0
1.488544 -0.496181 25.944124 208 208 208 0
1.601375 -0.500430 26.166251 208 208 208 0
1.721118 -0.506211 26.468560 207 207 207 0
1.845037 -0.512510 26.797927 208 208 208 0
1.959244 -0.515590 26.958976 208 208 208 0
2.067278 -0.516819 27.023236 208 208 208 0
2.167504 -0.516072 26.984171 212 212 212 0
2.575208 -0.585274 30.602586 212 212 212 0
2.379970 -0.517385 27.052800 211 211 211 0
2.484203 -0.517542 27.061032 211 211 211 0
2.576551 -0.515310 26.944320 210 210 210 0
2.671294 -0.513710 26.860674 209 209 209 0
2.769837 -0.512933 26.820014 209 209 209 0
2.878571 -0.514031 26.877413 208 208 208 0
2.979478 -0.513703 26.860297 209 209 209 0
3.075264 -0.512544 26.799689 210 210 210 0
3.169785 -0.511256 26.732318 211 211 211 0
3.264892 -0.510139 26.673958 209 209 209 0
3.364596 -0.509787 26.655543 209 209 209 0
3.464242 -0.509447 26.637773 208 208 208 0
3.567673 -0.509668 26.649283 209 209 209 0
3.659987 -0.508332 26.579426 207 207 207 0
3.752568 -0.507104 26.515228 208 208 208 0
3.847767 -0.506285 26.472423 209 209 209 0
3.955072 -0.507061 26.512969 208 208 208 0
4.063821 -0.507978 26.560920 208 208 208 0
4.155133 -0.506723 26.495346 209 209 209 0
4.239294 -0.504678 26.388388 208 208 208 0
4.329694 -0.503453 26.324332 208 208 208 0
4.425934 -0.502947 26.297887 208 208 208 0
4.534891 -0.503877 26.346497 207 207 207 0
4.627569 -0.502997 26.300475 209 209 209 0
4.712471 -0.501327 26.213160 208 208 208 0
4.794880 -0.499467 26.115905 209 209 209 0
4.881581 -0.498120 26.045515 208 208 208 0
4.976668 -0.497667 26.021792 209 209 209 0
5.088105 -0.498834 26.082815 208 208 208 0
5.184787 -0.498537 26.067308 208 208 208 0
5.267385 -0.496923 25.982909 208 208 208 0
5.349972 -0.495368 25.901581 209 209 209 0
5.444716 -0.494974 25.881001 208 208 208 0
5.544155 -0.495014 25.883079 208 208 208 0
5.640396 -0.494772 25.870411 209 209 209 0
5.728367 -0.493825 25.820904 208 208 208 0
5.808546 -0.492250 25.738546 209 209 209 0
5.899947 -0.491662 25.707832 209 209 209 0
5.994524 -0.491354 25.691737 208 208 208 0
6.097973 -0.491772 25.713568 208 208 208 0
6.198001 -0.491905 25.720513 209 209 209 0
6.286322 -0.491119 25.679419 210 210 210 0
6.361538 -0.489349 25.586880 209 209 209 0
6.446631 -0.488381 25.536270 209 209 209 0
6.541266 -0.488154 25.524401 209 209 209 0
6.648381 -0.488852 25.560866 210 210 210 0
6.730036 -0.487684 25.499807 209 209 209 0
6.809910 -0.486422 25.433839 209 209 209 0
6.888210 -0.485085 25.363932 209 209 209 0
6.974476 -0.484339 25.324893 209 209 209 0
7.063892 -0.483828 25.298207 209 209 209 0
7.163377 -0.484012 25.307814 209 209 209 0
7.250660 -0.483377 25.274632 210 210 210 0
7.338881 -0.482821 25.245547 210 210 210 0
7.426824 -0.482261 25.216277 210 210 210 0
7.518863 -0.481978 25.201485 210 210 210 0
7.611361 -0.481732 25.188585 210 210 210 0
-6.910159 -0.383898 25.091354 74 74 74 0
-6.968087 -0.392568 25.658056 101 101 101 0
-6.854903 -0.391709 25.601878 128 128 128 0
-6.602337 -0.382744 25.015959 139 139 139 0
-6.431925 -0.378349 24.728663 147 147 147 0
-6.214347 -0.371006 24.248744 156 156 156 0
-6.089689 -0.369072 24.122356 159 159 159 0
-5.974328 -0.367651 24.029473 164 164 164 0
-5.940263 -0.371266 24.265782 171 171 171 0
-5.874153 -0.372962 24.376608 173 173 173 0
-5.709433 -0.368351 24.075197 173 173 173 0
-5.548040 -0.363806 23.778163 174 174 174 0
-5.395355 -0.359690 23.509173 179 179 179 0
-5.279836 -0.357955 23.395750 183 183 183 0
-5.453277 -0.376088 24.580921 184 184 184 0
-5.207160 -0.365415 23.883316 184 184 184 0
-5.089219 -0.363516 23.759192 184 184 184 0
-4.934420 -0.358867 23.455353 185 185 185 0
-4.786770 -0.354576 23.174872 189 189 189 0
-4.675223 -0.352847 23.061896 191 191 191 0
-4.595064 -0.353466 23.102385 191 191 191 0
-4.566496 -0.358157 23.408923 192 192 192 0
-4.473616 -0.357889 23.391457 194 194 194 0
-4.337624 -0.354092 23.143253 193 193 193 0
-4.236013 -0.353001 23.071969 194 194 194 0
-4.145869 -0.352840 23.061431 194 194 194 0
-4.074929 -0.354342 23.159584 195 195 195 0
-4.004723 -0.355975 23.266367 198 198 198 0
-3.920527 -0.356412 23.294873 198 198 198 0
-3.812863 -0.354685 23.182020 199 199 199 0
-3.711481 -0.353474 23.102903 199 199 199 0
-3.641040 -0.355223 23.217216 200 200 200 0
-3.568616 -0.356862 23.324291 200 200 200 0
-3.489275 -0.357874 23.390478 200 200 200 0
-3.391098 -0.356958 23.330565 201 201 201 0
-3.284169 -0.355045 23.205576 201 201 201 0
-3.184895 -0.353877 23.129232 201 201 201 0
-3.098331 -0.354095 23.143461 201 201 201 0
-3.024322 -0.355803 23.255072 202 202 202 0
-2.950478 -0.357634 23.374751 203 203 203 0
-2.842282 -0.355285 23.221261 202 202 202 0
-2.736891 -0.353147 23.081522 204 204 204 0
-2.649789 -0.353305 23.091840 204 204 204 0
-2.562629 -0.353466 23.102354 204 204 204 0
-2.484322 -0.354903 23.196286 204 204 204 0
-2.399244 -0.355444 23.231608 204 204 204 0
-2.312249 -0.355731 23.250366 205 205 205 0
-2.221419 -0.355427 23.230528 205 205 205 0
-2.134896 -0.355816 23.255952 206 206 206 0
-2.049283 -0.356397 23.293925 206 206 206 0
-1.962631 -0.356842 23.323008 206 206 206 0
-1.878046 -0.357723 23.380591 206 206 206 0
-1.793229 -0.358646 23.440906 207 207 207 0
-1.704357 -0.358812 23.451758 207 207 207 0
-1.614929 -0.358873 23.455764 206 206 206 0
-1.533214 -0.360756 23.578836 208 208 208 0
-1.449199 -0.362300 23.679720 207 207 207 0
-1.360383 -0.362769 23.710376 208 208 208 0
-1.267848 -0.362242 23.675973 208 208 208 0
-1.175966 -0.361836 23.649401 208 208 208 0
-1.087786 -0.362595 23.699050 208 208 208 0
-1.002658 -0.364603 23.830265 209 209 209 0
-0.911821 -0.364728 23.838451 208 208 208 0
-0.819272 -0.364121 23.798750 209 209 209 0
-0.727725 -0.363863 23.781879 208 208 208 0
-0.639067 -0.365181 23.868033 208 208 208 0
-0.551380 -0.367586 24.025259 208 208 208 0
-0.460902 -0.368721 24.099441 208 208 208 0
-0.368795 -0.368795 24.104266 208 208 208 0
-0.276842 -0.369123 24.125688 209 209 209 0
-0.185450 -0.370900 24.241798 209 209 209 0
-0.093206 -0.372826 24.367704 209 209 209 0
0.000000 -0.372927 24.374341 208 208 208 0
0.093330 -0.373318 24.399901 208 208 208 0
0.187239 -0.374478 24.475707 209 209 209 0
0.283613 -0.378151 24.715739 209 209 209 0
0.379509 -0.379509 24.804539 208 208 208 0
0.473722 -0.378977 24.769759 209 209 209 0
0.569321 -0.379548 24.807037 208 208 208 0
0.779632 -0.445504 29.117921 208 208 208 0
0.769885 -0.384943 25.159641 208 208 208 0
0.865376 -0.384611 25.138000 208 208 208 0
0.960716 -0.384286 25.116755 208 208 208 0
1.066969 -0.387989 25.358729 208 208 208 0
1.171182 -0.390394 25.515955 208 208 208 0
1.270391 -0.390890 25.548345 209 209 209 0
1.370096 -0.391456 25.585352 208 208 208 0
1.478957 -0.394389 25.777034 207 207 207 0
1.594378 -0.398595 26.051931 209 209 209 0
1.710873 -0.402558 26.311000 207 207 207 0
1.830832 -0.406852 26.591604 208 208 208 0
1.951171 -0.410773 26.847897 208 208 208 0
2.062844 -0.412569 26.965282 207 207 207 0
2.166444 -0.412656 26.970979 210 210 210 0
2.570626 -0.467386 30.548136 213 213 213 0
2.381047 -0.414095 27.065042 212 212 212 0
2.482520 -0.413753 27.042700 211 211 211 0
2.573454 -0.411753 26.911936 210 210 210 0
2.669082 -0.410628 26.838432 210 210 210 0
2.766403 -0.409837 26.786765 209 209 209 0
2.874951 -0.410707 26.843614 209 209 209 0
2.977742 -0.410723 26.844644 209 209 209 0
3.071511 -0.409535 26.766982 209 209 209 0
3.167134 -0.408662 26.709962 210 210 210 0
3.261575 -0.407697 26.646858 208 208 208 0
3.361169 -0.407414 26.628392 210 210 210 0
3.460897 -0.407164 26.612053 209 209 209 0
3.568028 -0.407775 26.651933 209 209 209 0
3.660002 -0.406667 26.579536 209 209 209 0
3.752324 -0.405657 26.513505 208 208 208 0
3.844471 -0.404681 26.449750 208 208 208 0
3.949574 -0.405084 26.476111 208 208 208 0
4.060563 -0.406056 26.539630 208 208 208 0
4.154482 -0.405315 26.491198 209 209 209 0
4.237911 -0.403611 26.379778 209 209 209 0
4.326699 -0.402484 26.306119 208 208 208 0
4.423458 -0.402133 26.283175 208 208 208 0
4.531965 -0.402841 26.329499 208 208 208 0
4.625991 -0.402260 26.291511 208 208 208 0
4.710983 -0.400935 26.204884 209 209 209 0
4.795874 -0.399656 26.121321 208 208 208 0
4.879332 -0.398313 26.033518 209 209 209 0
4.971944 -0.397755 25.997091 209 209 209 0
5.081691 -0.398564 26.049933 209 209 209 0
5.180170 -0.398475 26.044090 208 208 208 0
5.263012 -0.397208 25.961337 209 209 209 0
5.348417 -0.396179 25.894055 208 208 208 0
5.441750 -0.395764 25.866904 209 209 209 0
5.539839 -0.395703 25.862927 208 208 208 0
5.638852 -0.395709 25.863327 209 209 209 0
5.726274 -0.394915 25.811465 209 209 209 0
5.804846 -0.393549 25.722148 209 209 209 0
5.896083 -0.393072 25.690994 208 208 208 0
5.990094 -0.392793 25.672748 209 209 209 0
6.092721 -0.393079 25.691425 208 208 208 0
6.192195 -0.393155 25.696419 209 209 209 0
6.282564 -0.392660 25.664067 209 209 209 0
6.361112 -0.391453 25.585167 208 208 208 0
6.442791 -0.390472 25.521057 209 209 209 0
6.534612 -0.390126 25.498437 209 209 209 0
6.642967 -0.390763 25.540049 209 209 209 0
6.726730 -0.389955 25.487277 209 209 209 0
6.804362 -0.388821 25.413116 209 209 209 0
6.882940 -0.387771 25.344529 209 209 209 0
6.965712 -0.386984 25.293073 210 210 210 0
7.056189 -0.386640 25.270619 209 209 209 0
7.159632 -0.387007 25.294583 210 210 210 0
7.247916 -0.386556 25.265068 210 210 210 0
7.330885 -0.385836 25.218044 209 209 209 0
7.412071 -0.385043 25.166187 210 210 210 0
7.509060 -0.385080 25.168628 209 209 209 0
7.602894 -0.384957 25.160566 210 210 210 0
-7.004899 -0.291871 25.435363 87 87 87 0
-6.799578 -0.287306 25.037569 115 115 115 0
-6.677771 -0.286190 24.940322 138 138 138 0
-6.506334 -0.282884 24.652208 144 144 144 0
-6.361483 -0.280654 24.457837 155 155 155 0
-6.187218 -0.277040 24.142885 158 158 158 0
-6.048218 -0.274919 23.958081 161 161 161 0
-5.930531 -0.273717 23.853316 169 169 169 0
-5.892365 -0.276205 24.070120 172 172 172 0
-5.839569 -0.278075 24.233092 173 173 173 0
-5.686453 -0.275151 23.978297 173 173 173 0
-5.529418 -0.271939 23.698352 178 178 178 0
-5.349045 -0.267452 23.307385 182 182 182 0
-5.211004 -0.264966 23.090744 183 183 183 0
-4.212935 -0.217910 18.990015 183 183 183 0
-5.187677 -0.273036 23.793954 184 184 184 0
-5.071363 -0.271680 23.675830 185 185 185 0
-4.925084 -0.268641 23.410974 188 188 188 0
-4.778840 -0.265491 23.136482 192 192 192 0
-4.656822 -0.263594 22.971131 191 191 191 0
-4.581782 -0.264334 23.035606 191 191 191 0
-4.546575 -0.267446 23.306806 193 193 193 0
-4.459195 -0.267552 23.316054 193 193 193 0
-4.333442 -0.265313 23.120941 194 194 194 0
-4.229661 -0.264354 23.037368 194 194 194 0
-4.125734 -0.263345 22.949431 196 196 196 0
-4.064787 -0.265095 23.101943 197 197 197 0
-3.990947 -0.266063 23.186332 199 199 199 0
-3.907413 -0.266415 23.216954 199 199 199 0
-3.807257 -0.265623 23.147935 199 199 199 0
-3.703723 -0.264552 23.054606 199 199 199 0
-3.622005 -0.265025 23.095841 200 200 200 0
-3.558192 -0.266864 23.256157 200 200 200 0
-3.477464 -0.267497 23.311304 201 201 201 0
-3.382887 -0.267070 23.274076 201 201 201 0
-3.277163 -0.265716 23.156070 202 202 202 0
-3.171703 -0.264309 23.033430 201 201 201 0
-3.088350 -0.264716 23.068904 202 202 202 0
-3.017057 -0.266211 23.199210 203 203 203 0
-2.938636 -0.267149 23.280933 202 202 202 0
-2.835967 -0.265872 23.169663 203 203 203 0
-2.732535 -0.264439 23.044782 203 203 203 0
-2.642701 -0.264270 23.030071 204 204 204 0
-2.556959 -0.264513 23.051246 204 204 204 0
-2.473270 -0.264993 23.093088 205 205 205 0
-2.392602 -0.265845 23.167294 205 205 205 0
-2.305987 -0.266075 23.187403 205 205 205 0
-2.212935 -0.265552 23.141802 205 205 205 0
-2.128763 -0.266095 23.189138 206 206 206 0
-2.046314 -0.266910 23.260172 206 206 206 0
-1.959592 -0.267217 23.286895 206 206 206 0
-1.873641 -0.267663 23.325749 207 207 207 0
-1.788128 -0.268219 23.374223 207 207 207 0
-1.701971 -0.268732 23.418932 207 207 207 0
-1.612656 -0.268776 23.422746 207 207 207 0
-1.526822 -0.269439 23.480540 208 208 208 0
-1.444411 -0.270827 23.601480 208 208 208 0
-1.358605 -0.271721 23.679387 208 208 208 0
-1.265891 -0.271262 23.639425 208 208 208 0
-1.173456 -0.270797 23.598910 208 208 208 0
-1.085064 -0.271266 23.639740 209 209 209 0
-1.002621 -0.273442 23.829373 208 208 208 0
-0.910233 -0.273070 23.796936 209 209 209 0
-0.817428 -0.272476 23.745172 209 209 209 0
-0.726468 -0.272426 23.740797 209 209 209 0
-0.636452 -0.272765 23.770393 209 209 209 0
-0.549402 -0.274701 23.939065 208 208 208 0
-0.459914 -0.275948 24.047789 208 208 208 0
-0.368002 -0.276002 24.052447 209 209 209 0
-0.276001 -0.276001 24.052372 208 208 208 0
-0.184686 -0.277028 24.141896 209 209 209 0
-0.092868 -0.278604 24.279224 209 209 209 0
0.000000 -0.279069 24.319721 210 210 210 0
0.092954 -0.278863 24.301810 210 210 210 0
0.186312 -0.279468 24.354477 209 209 209 0
0.282549 -0.282549 24.623038 208 208 208 0
0.378394 -0.283795 24.731633 209 209 209 0
0.472648 -0.283589 24.713609 209 209 209 0
0.568155 -0.284077 24.756195 209 209 209 0
0.666375 -0.285589 24.887944 209 209 209 0
0.766716 -0.287519 25.056083 210 210 210 0
0.863660 -0.287887 25.088150 207 207 207 0
0.956881 -0.287064 25.016487 208 208 208 0
1.060722 -0.289288 25.210259 209 209 209 0
1.167642 -0.291911 25.438832 209 209 209 0
1.267680 -0.292541 25.493809 209 209 209 0
1.362396 -0.291942 25.441575 209 209 209 0
1.473642 -0.294728 25.684392 209 209 209 0
1.590369 -0.298194 25.986422 209 209 209 0
1.702168 -0.300383 26.177129 209 209 209 0
1.815254 -0.302542 26.365343 209 209 209 0
1.939407 -0.306222 26.686029 207 207 207 0
2.053352 -0.308003 26.841203 207 207 207 0
2.164233 -0.309176 26.943455 210 210 210 0
2.606253 -0.355398 30.971516 212 212 212 0
2.384498 -0.311021 27.104267 211 211 211 0
2.485053 -0.310632 27.070290 211 211 211 0
2.575696 -0.309084 26.935388 211 211 211 0
2.667198 -0.307754 26.819485 211 211 211 0
2.764186 -0.307132 26.765294 210 210 210 0
2.872213 -0.307737 26.818049 211 211 211 0
2.973275 -0.307580 26.804375 210 210 210 0
3.066569 -0.306657 26.723914 210 210 210 0
3.162742 -0.306072 26.672923 210 210 210 0
3.261113 -0.305729 26.643081 209 209 209 0
3.358030 -0.305275 26.603523 208 208 208 0
3.462814 -0.305542 26.626787 210 210 210 0
3.564792 -0.305554 26.627765 209 209 209 0
3.658420 -0.304868 26.568046 211 211 211 0
3.751710 -0.304193 26.509168 210 210 210 0
3.846818 -0.303696 26.465899 209 209 209 0
3.945981 -0.303537 26.452026 208 208 208 0
4.057636 -0.304323 26.520499 208 208 208 0
4.152321 -0.303828 26.477419 208 208 208 0
4.235965 -0.302569 26.367665 209 209 209 0
4.323727 -0.301655 26.288051 209 209 209 0
4.420648 -0.301408 26.266476 209 209 209 0
4.529441 -0.301963 26.314835 208 208 208 0
4.626322 -0.301717 26.293392 208 208 208 0
4.708911 -0.300569 26.193361 209 209 209 0
4.792168 -0.299510 26.101133 209 209 209 0
4.876749 -0.298576 26.019735 208 208 208 0
4.970306 -0.298218 25.988527 208 208 208 0
5.080132 -0.298831 26.041940 208 208 208 0
5.178188 -0.298742 26.034127 208 208 208 0
5.258697 -0.297662 25.940049 208 208 208 0
5.344587 -0.296921 25.875511 208 208 208 0
5.434495 -0.296427 25.832418 209 209 209 0
5.532622 -0.296390 25.829236 208 208 208 0
5.632576 -0.296451 25.834543 209 209 209 0
5.726301 -0.296188 25.811591 209 209 209 0
5.804559 -0.295147 25.720877 208 208 208 0
5.891312 -0.294566 25.670205 209 209 209 0
5.985649 -0.294376 25.653697 208 208 208 0
6.088571 -0.294608 25.673924 208 208 208 0
6.184294 -0.294490 25.663631 208 208 208 0
6.279394 -0.294347 25.651121 209 209 209 0
6.355376 -0.293325 25.562094 209 209 209 0
6.438115 -0.292642 25.502535 209 209 209 0
6.535876 -0.292651 25.503368 209 209 209 0
6.644173 -0.293125 25.544687 209 209 209 0
6.719817 -0.292166 25.461086 210 210 210 0
6.802674 -0.291543 25.406811 209 209 209 0
6.878317 -0.290633 25.327506 209 209 209 0
6.960508 -0.290021 25.274175 210 210 210 0
7.048833 -0.289678 25.244276 209 209 209 0
7.150651 -0.289891 25.262854 209 209 209 0
7.244336 -0.289773 25.252587 210 210 210 0
7.319376 -0.288923 25.178453 211 211 211 0
7.404264 -0.288478 25.139681 210 210 210 0
7.497947 -0.288383 25.131380 210 210 210 0
7.594693 -0.288406 25.133425 210 210 210 0
-6.991591 -0.191550 25.039275 76 76 76 0
-6.870053 -0.190835 24.945727 105 105 105 0
-6.631464 -0.186802 24.418538 129 129 129 0
-6.563351 -0.187524 24.512980 138 138 138 0
-6.457319 -0.187169 24.466491 152 152 152 0
-6.302115 -0.185356 24.229583 157 157 157 0
-6.148576 -0.183540 23.992103 158 158 158 0
