ply
    format ascii 1.0
    element vertex 19389
    property float x
    property float y
    property float z
    property uchar red
    property uchar green
    property uchar blue
    property uchar alpha
    end_header
4.011476 -6.819510 34.958398 201 201 201 0
4.144949 -6.819109 34.956346 201 201 201 0
4.278520 -6.818892 34.955231 201 201 201 0
4.411704 -6.818089 34.951114 200 200 200 0
4.545492 -6.818237 34.951877 174 174 174 0
4.679003 -6.817975 34.950533 75 75 75 0
-8.091764 -5.057353 26.443673 205 205 205 0
-8.040535 -5.088946 26.608869 204 204 204 0
-8.083330 -5.181622 27.093448 204 204 204 0
-8.032291 -5.215774 27.272019 206 206 206 0
-7.956055 -5.234246 27.368609 205 205 205 0
-7.857464 -5.238309 27.389852 205 205 205 0
-7.806492 -5.274657 27.579904 205 205 205 0
-7.826831 -5.360843 28.030551 206 206 206 0
-7.779117 -5.402165 28.246614 208 208 208 0
-7.629407 -5.372822 28.093185 206 206 206 0
-7.504743 -5.360530 28.028917 208 208 208 0
-7.481832 -5.421618 28.348327 207 207 207 0
-7.353747 -5.407167 28.272769 192 192 192 0
-7.092230 -5.292709 27.674295 177 177 177 0
-6.848599 -5.188333 27.128538 175 175 175 0
-6.679852 -5.138347 26.867176 177 177 177 0
-6.479339 -5.061984 26.467888 176 176 176 0
-6.363720 -5.050572 26.408219 178 178 178 0
-6.448112 -5.200090 27.190013 180 180 180 0
-6.324706 -5.184185 27.106850 180 180 180 0
-6.193060 -5.160884 26.985012 183 183 183 0
-5.991173 -5.077266 26.547794 184 184 184 0
-5.823092 -5.019907 26.247878 184 184 184 0
-5.717703 -5.015529 26.224990 185 185 185 0
-5.667886 -5.060612 26.460719 188 188 188 0
-5.590406 -5.082188 26.573529 189 189 189 0
-5.434737 -5.032164 26.311966 189 189 189 0
-5.297496 -4.997638 26.131440 190 190 190 0
-5.165844 -4.967158 25.972066 192 192 192 0
-5.077583 -4.978023 26.028877 194 194 194 0
-5.009350 -5.009350 26.192678 194 194 194 0
-4.910333 -5.010544 26.198925 194 194 194 0
-4.786838 -4.986289 26.072102 196 196 196 0
-4.657530 -4.954819 25.907550 197 197 197 0
-4.559785 -4.956288 25.915231 198 198 198 0
-4.497569 -4.997299 26.129665 197 197 197 0
-4.418352 -5.020854 26.252833 197 197 197 0
-4.306593 -5.007667 26.183877 198 198 198 0
-4.180179 -4.976404 26.020412 200 200 200 0
-4.069356 -4.962630 25.948391 201 201 201 0
-3.982843 -4.978554 26.031653 201 201 201 0
-3.908989 -5.011525 26.204050 201 201 201 0
-3.796327 -4.995167 26.118519 202 202 202 0
-3.679745 -4.972628 26.000669 202 202 202 0
-3.567553 -4.954935 25.908155 203 203 203 0
-3.473020 -4.961457 25.942261 202 202 202 0
-3.377848 -4.967423 25.973453 204 204 204 0
-3.286384 -4.979370 26.035924 204 204 204 0
-3.188506 -4.982041 26.049889 205 205 205 0
-3.080460 -4.968484 25.979001 205 205 205 0
-2.988208 -4.980346 26.041027 205 205 205 0
-2.893173 -4.988230 26.082246 205 205 205 0
-2.795070 -4.991196 26.097755 206 206 206 0
-2.702803 -5.005191 26.170934 205 205 205 0
-2.611207 -5.021553 26.256485 206 206 206 0
-2.515178 -5.030356 26.302516 207 207 207 0
-2.412805 -5.026677 26.283276 208 208 208 0
-2.322476 -5.048861 26.399275 207 207 207 0
-2.231642 -5.071913 26.519809 207 207 207 0
-2.129647 -5.070587 26.512876 207 207 207 0
-2.023788 -5.059470 26.454743 208 208 208 0
-1.921423 -5.056377 26.438575 208 208 208 0
-1.830961 -5.086003 26.593482 207 207 207 0
-1.731602 -5.092947 26.629786 208 208 208 0
-1.627736 -5.086675 26.596995 208 208 208 0
-1.523427 -5.078091 26.552108 208 208 208 0
-1.420579 -5.073496 26.528086 208 208 208 0
-1.328099 -5.108072 26.708874 208 208 208 0
-1.233608 -5.140032 26.875983 208 208 208 0
-1.128176 -5.128071 26.813441 208 208 208 0
-1.026844 -5.134218 26.845584 208 208 208 0
-0.927616 -5.153421 26.945992 208 208 208 0
-0.832205 -5.201282 27.196244 208 208 208 0
-0.729585 -5.211322 27.248743 207 207 207 0
-0.624518 -5.204319 27.212126 207 207 207 0
-0.521716 -5.217158 27.279258 208 208 208 0
-0.422652 -5.283146 27.624292 208 208 208 0
-0.317542 -5.292370 27.672521 207 207 207 0
-0.211118 -5.277945 27.597100 206 206 206 0
-0.105933 -5.296656 27.694931 206 206 206 0
0.000000 -5.348790 27.967532 206 206 206 0
0.107091 -5.354557 27.997683 205 205 205 0
0.213828 -5.345698 27.951363 206 206 206 0
0.321566 -5.359429 28.023156 205 205 205 0
0.433483 -5.418539 28.332228 205 205 205 0
0.543241 -5.432411 28.404762 205 205 205 0
0.653087 -5.442389 28.456938 204 204 204 0
0.767453 -5.481810 28.663060 202 202 202 0
0.885971 -5.537319 28.953300 202 202 202 0
1.000098 -5.556101 29.051510 200 200 200 0
1.120305 -5.601525 29.289018 199 199 199 0
1.244485 -5.656750 29.577780 198 198 198 0
1.370971 -5.712379 29.868648 196 196 196 0
1.498588 -5.763799 30.137509 193 193 193 0
1.642022 -5.864366 30.663350 191 191 191 0
1.767419 -5.891396 30.804686 188 188 188 0
1.917621 -5.992564 31.333669 183 183 183 0
2.275334 -6.692160 34.991688 192 192 192 0
2.407815 -6.688375 34.971896 203 203 203 0
2.541235 -6.687461 34.967115 202 202 202 0
2.675166 -6.687914 34.969484 202 202 202 0
2.809023 -6.688150 34.970717 202 202 202 0
2.942515 -6.687533 34.967493 201 201 201 0
3.075979 -6.686911 34.964242 202 202 202 0
3.209792 -6.687067 34.965054 202 202 202 0
3.343657 -6.687313 34.966344 201 201 201 0
3.477128 -6.686785 34.963580 203 203 203 0
3.610577 -6.686255 34.960808 201 201 201 0
3.744452 -6.686521 34.962201 202 202 202 0
3.878034 -6.686266 34.960869 201 201 201 0
4.011374 -6.685623 34.957506 202 202 202 0
4.144868 -6.685270 34.955661 200 200 200 0
4.278393 -6.684988 34.954187 201 201 201 0
4.411673 -6.684354 34.950869 200 200 200 0
4.545381 -6.684383 34.951025 170 170 170 0
4.679056 -6.684366 34.950932 79 79 79 0
-8.105570 -4.964662 26.488791 204 204 204 0
-8.043343 -4.988909 26.618162 205 205 205 0
-8.103951 -5.090943 27.162563 206 206 206 0
-8.043139 -5.118361 27.308849 206 206 206 0
-7.964571 -5.135052 27.397904 207 207 207 0
-7.859436 -5.134831 27.396725 207 207 207 0
-7.832336 -5.186276 27.671208 206 206 206 0
-7.861248 -5.276728 28.153810 207 207 207 0
-7.785112 -5.298201 28.268381 206 206 206 0
-7.655303 -5.283237 28.188542 207 207 207 0
-7.541045 -5.278732 28.164501 208 208 208 0
-7.478250 -5.310641 28.334753 207 207 207 0
-7.287074 -5.250980 28.016431 181 181 181 0
-7.017961 -5.132539 27.384493 175 175 175 0
-6.867933 -5.098920 27.205121 175 175 175 0
-6.678999 -5.034938 26.863746 179 179 179 0
-6.481624 -4.962493 26.477221 176 176 176 0
-6.363471 -4.949366 26.407182 178 178 178 0
-6.553005 -5.178988 27.632322 179 179 179 0
-6.330386 -5.085064 27.131195 180 180 180 0
-6.177495 -5.044954 26.917189 184 184 184 0
-5.997245 -4.980763 26.574697 183 183 183 0
-5.815038 -4.912704 26.211574 185 185 185 0
-5.699801 -4.899829 26.142876 187 187 187 0
-5.665285 -4.957124 26.448575 189 189 189 0
-5.586672 -4.977217 26.555781 189 189 189 0
-5.432868 -4.929825 26.302920 190 190 190 0
-5.287286 -4.888246 26.081076 192 192 192 0
-5.156265 -4.858788 25.923907 192 192 192 0
-5.073432 -4.874474 26.007599 194 194 194 0
-5.001050 -4.901029 26.149280 193 193 193 0
-4.911067 -4.911067 26.202839 195 195 195 0
-4.777850 -4.877388 26.023146 197 197 197 0
-4.641619 -4.839134 25.819044 197 197 197 0
-4.549918 -4.846651 25.859150 198 198 198 0
-4.492542 -4.891879 26.100461 198 198 198 0
-4.416067 -4.917893 26.239260 198 198 198 0
-4.299988 -4.899986 26.143716 200 200 200 0
-4.173779 -4.869408 25.980570 201 201 201 0
-4.068510 -4.862366 25.942993 202 202 202 0
-3.978539 -4.873710 26.003523 202 202 202 0
-3.935999 -4.945230 26.385113 203 203 203 0
-3.792746 -4.890646 26.093882 202 202 202 0
-3.682719 -4.877114 26.021685 202 202 202 0
-3.564103 -4.851140 25.883100 203 203 203 0
-3.473099 -4.862339 25.942850 204 204 204 0
-3.375089 -4.864098 25.952239 205 205 205 0
-3.282125 -4.873458 26.002176 205 205 205 0
-3.185671 -4.878059 26.026725 205 205 205 0
-3.076480 -4.862823 25.945432 205 205 205 0
-2.985318 -4.876019 26.015844 206 206 206 0
-2.896632 -4.894309 26.113429 206 206 206 0
-2.794304 -4.890032 26.090605 206 206 206 0
-2.699525 -4.899139 26.139196 206 206 206 0
-2.608806 -4.916596 26.232337 207 207 207 0
-2.510770 -4.921110 26.256423 207 207 207 0
-2.407773 -4.915871 26.228468 207 207 207 0
-2.318542 -4.939502 26.354550 207 207 207 0
-2.229840 -4.966461 26.498394 207 207 207 0
-2.126372 -4.961534 26.472106 208 208 208 0
-2.021441 -4.952529 26.424060 208 208 208 0
-1.920984 -4.954117 26.432530 208 208 208 0
-1.829669 -4.980765 26.574711 208 208 208 0
-1.731339 -4.990329 26.625739 209 209 209 0
-1.626755 -4.981937 26.580962 209 209 209 0
-1.521964 -4.971750 26.526613 208 208 208 0
-1.418960 -4.966360 26.497853 208 208 208 0
-1.326980 -5.001695 26.686381 208 208 208 0
-1.231479 -5.028540 26.829610 208 208 208 0
-1.126826 -5.019496 26.781360 209 209 209 0
-1.024170 -5.018432 26.775681 208 208 208 0
-0.926276 -5.043058 26.907071 208 208 208 0
-0.830214 -5.085061 27.131176 208 208 208 0
-0.728311 -5.098176 27.201152 208 208 208 0
-0.624293 -5.098396 27.202326 207 207 207 0
-0.520958 -5.105388 27.239634 207 207 207 0
-0.421965 -5.169076 27.579435 207 207 207 0
-0.317057 -5.178593 27.630212 208 208 208 0
-0.210942 -5.168090 27.574179 208 208 208 0
-0.105818 -5.185100 27.664931 206 206 206 0
0.000000 -5.236842 27.941001 207 207 207 0
0.106972 -5.241621 27.966498 207 207 207 0
0.213593 -5.233024 27.920629 206 206 206 0
0.321025 -5.243415 27.976068 205 205 205 0
0.432839 -5.302281 28.290150 204 204 204 0
0.542527 -5.316766 28.367435 205 205 205 0
0.652176 -5.326105 28.417258 204 204 204 0
0.766304 -5.364126 28.620121 202 202 202 0
0.883197 -5.409582 28.862651 202 202 202 0
0.998338 -5.435396 29.000380 201 201 201 0
1.117093 -5.473758 29.205059 199 199 199 0
1.240854 -5.527442 29.491490 199 199 199 0
1.366218 -5.578722 29.765091 197 197 197 0
1.485146 -5.597857 29.867186 195 195 195 0
1.717565 -6.011479 32.074052 193 193 193 0
1.764407 -5.763729 30.752188 189 189 189 0
1.901309 -5.822757 31.067133 184 184 184 0
2.270101 -6.543232 34.911201 186 186 186 0
2.408189 -6.555625 34.977324 202 202 202 0
2.541316 -6.553921 34.968233 203 203 203 0
2.675105 -6.554006 34.968688 202 202 202 0
2.808988 -6.554304 34.970277 202 202 202 0
2.942433 -6.553600 34.966521 203 203 203 0
3.075882 -6.552966 34.963136 203 203 203 0
3.209761 -6.553263 34.964722 203 203 203 0
3.343547 -6.553352 34.965197 203 203 203 0
3.477043 -6.552889 34.962728 203 203 203 0
3.610537 -6.552457 34.960419 200 200 200 0
3.744309 -6.552541 34.960872 202 202 202 0
3.877942 -6.552385 34.960036 202 202 202 0
4.011260 -6.551725 34.956515 201 201 201 0
4.144772 -6.551415 34.954860 201 201 201 0
4.278333 -6.551197 34.953698 201 201 201 0
4.411575 -6.550521 34.950091 201 201 201 0
4.545273 -6.550540 34.950194 167 167 167 0
-8.098146 -4.858888 26.464531 204 204 204 0
-8.051971 -4.892337 26.646715 205 205 205 0
-8.082756 -4.974004 27.091524 205 205 205 0
-8.078811 -5.036142 27.429966 205 205 205 0
-7.982759 -5.041743 27.460473 206 206 206 0
-7.911090 -5.063097 27.576783 205 205 205 0
-7.857896 -5.097013 27.761511 206 206 206 0
-7.874169 -5.177536 28.200085 207 207 207 0
-7.787714 -5.191809 28.277828 206 206 206 0
-7.628799 -5.157498 28.090947 207 207 207 0
-7.528551 -5.162435 28.117836 207 207 207 0
-7.409965 -5.154758 28.076025 200 200 200 0
-7.216021 -5.093662 27.743258 177 177 177 0
-7.037202 -5.041578 27.459574 175 175 175 0
-6.905293 -5.022031 27.353112 177 177 177 0
-6.692848 -4.942411 26.919450 176 176 176 0
-6.497238 -4.872928 26.541004 178 178 178 0
-6.394337 -4.871876 26.535271 179 179 179 0
-6.828064 -5.286243 28.792175 179 179 179 0
-6.321282 -4.974123 27.092174 183 183 183 0
-6.176221 -4.940977 26.911638 184 184 184 0
-5.983530 -4.867956 26.513923 184 184 184 0
-5.815420 -4.812761 26.213295 185 185 185 0
-5.694287 -4.795189 26.117589 189 189 189 0
-5.652295 -4.844824 26.387933 189 189 189 0
-5.575630 -4.866004 26.503292 189 189 189 0
-5.430506 -4.827117 26.291485 190 190 190 0
-5.283948 -4.785462 26.064610 193 193 193 0
-5.159352 -4.762479 25.939428 193 193 193 0
-5.070928 -4.772638 25.994763 193 193 193 0
-4.991864 -4.792189 26.101249 193 193 193 0
-4.899764 -4.799769 26.142532 196 196 196 0
-4.773438 -4.773438 25.999118 197 197 197 0
-4.643307 -4.742101 25.828436 197 197 197 0
-4.552719 -4.750663 25.875073 197 197 197 0
-4.489228 -4.788510 26.081207 198 198 198 0
-4.408782 -4.809580 26.195970 199 199 199 0
-4.300132 -4.800147 26.144593 200 200 200 0
-4.171229 -4.767119 25.964701 201 201 201 0
-4.065719 -4.759866 25.925198 201 201 201 0
-3.982136 -4.778564 26.027036 201 201 201 0
-2.624282 -3.229886 17.591971 201 201 201 0
-3.787044 -4.783634 26.054651 202 202 202 0
-3.675471 -4.768179 25.970472 203 203 203 0
-3.561542 -4.748722 25.864499 204 204 204 0
-3.465067 -4.752092 25.882856 205 205 205 0
-3.372526 -4.761213 25.932531 205 205 205 0
-3.279895 -4.770757 25.984514 205 205 205 0
-3.181962 -4.772942 25.996418 205 205 205 0
-3.072716 -4.757754 25.913693 205 205 205 0
-2.980540 -4.768864 25.974207 206 206 206 0
-2.889789 -4.783099 26.051740 206 206 206 0
-2.793832 -4.789426 26.086201 206 206 206 0
-2.696587 -4.793932 26.110743 207 207 207 0
-2.603075 -4.805678 26.174715 207 207 207 0
-2.506927 -4.813300 26.216231 207 207 207 0
-2.403384 -4.806767 26.180649 207 207 207 0
-2.317354 -4.836218 26.341056 207 207 207 0
-2.226652 -4.858150 26.460514 208 208 208 0
-2.125514 -4.858317 26.461423 208 208 208 0
-2.020830 -4.849991 26.416075 208 208 208 0
-1.921384 -4.854022 26.438027 208 208 208 0
-1.830388 -4.881035 26.585158 209 209 209 0
-1.731366 -4.888562 26.626157 208 208 208 0
-1.627210 -4.881630 26.588400 208 208 208 0
-1.520671 -4.866147 26.504070 208 208 208 0
-1.417225 -4.859055 26.465444 209 209 209 0
-1.325763 -4.895125 26.661901 208 208 208 0
-1.229531 -4.918124 26.787165 209 209 209 0
-1.125689 -4.912099 26.754351 208 208 208 0
-1.022209 -4.906603 26.724419 208 208 208 0
-0.925212 -4.934464 26.876166 209 209 209 0
-0.829407 -4.976440 27.104793 208 208 208 0
-0.727773 -4.990442 27.181057 209 209 209 0
-0.623538 -4.988302 27.169403 209 209 209 0
-0.519877 -4.990821 27.183123 208 208 208 0
-0.421146 -5.053746 27.525851 208 208 208 0
-0.316967 -5.071467 27.622369 208 208 208 0
-0.210794 -5.059056 27.554772 209 209 209 0
-0.105815 -5.079126 27.664085 207 207 207 0
0.000000 -5.131849 27.951247 206 206 206 0
0.106816 -5.127154 27.925677 206 206 206 0
0.213411 -5.121875 27.896920 207 207 207 0
0.320731 -5.131703 27.950450 205 205 205 0
0.432372 -5.188465 28.259616 204 204 204 0
0.541934 -5.202570 28.336437 205 205 205 0
0.651426 -5.211406 28.384564 204 204 204 0
0.764328 -5.241106 28.546329 203 203 203 0
0.881715 -5.290288 28.814207 202 202 202 0
0.997293 -5.318895 28.970018 202 202 202 0
1.114971 -5.351862 29.149577 201 201 201 0
1.236297 -5.394752 29.383183 199 199 199 0
1.361736 -5.446944 29.667453 198 198 198 0
1.482444 -5.473639 29.812846 195 195 195 0
1.552754 -5.323728 28.996337 193 193 193 0
1.759199 -5.629438 30.661429 192 192 192 0
1.895377 -5.686131 30.970213 188 188 188 0
2.035690 -5.747831 31.306267 183 183 183 0
2.308679 -6.156478 33.532015 198 198 198 0
2.541256 -6.420015 34.967403 203 203 203 0
2.675087 -6.420210 34.968463 203 203 203 0
2.808911 -6.420367 34.969319 202 202 202 0
2.942351 -6.419674 34.965545 202 202 202 0
3.075835 -6.419133 34.962598 201 201 201 0
3.209639 -6.419279 34.963392 201 201 201 0
3.343445 -6.419414 34.964128 200 200 200 0
3.476928 -6.418944 34.961570 202 202 202 0
3.610416 -6.418518 34.959249 201 201 201 0
3.744213 -6.418651 34.959972 202 202 202 0
3.877888 -6.418573 34.959548 201 201 201 0
4.011120 -6.417792 34.955292 201 201 201 0
4.144701 -6.417601 34.954253 201 201 201 0
4.278222 -6.417333 34.952793 200 200 200 0
4.411464 -6.416675 34.949208 200 200 200 0
4.545208 -6.416764 34.949698 165 165 165 0
-8.109361 -4.764250 26.501181 204 204 204 0
-8.048119 -4.788121 26.633966 205 205 205 0
-8.112123 -4.888074 27.189955 206 206 206 0
-8.106421 -4.948075 27.523711 205 205 205 0
-7.991349 -4.942018 27.490019 206 206 206 0
-7.922499 -4.964766 27.616555 206 206 206 0
-7.864197 -4.994828 27.783774 206 206 206 0
-7.895581 -5.083456 28.276771 207 207 207 0
-7.780145 -5.078706 28.250345 207 207 207 0
-7.633545 -5.053192 28.108422 208 208 208 0
-7.466767 -5.013401 27.887086 208 208 208 0
-7.338238 -4.998510 27.804254 191 191 191 0
-7.166819 -4.953537 27.554092 176 176 176 0
-7.050008 -4.945528 27.509541 173 173 173 0
-6.919042 -4.927197 27.407575 175 175 175 0
-6.701075 -4.845393 26.952541 176 176 176 0
-6.510205 -4.780931 26.593973 178 178 178 0
-6.410224 -4.782231 26.601201 180 180 180 0
-7.112309 -5.391589 29.990759 180 180 180 0
-6.303479 -4.856779 27.015874 183 183 183 0
-6.174661 -4.836817 26.904839 184 184 184 0
-5.985347 -4.767988 26.521977 184 184 184 0
-5.803677 -4.702979 26.160364 186 186 186 0
-5.689856 -4.691636 26.097265 188 188 188 0
-5.641173 -4.734556 26.336008 189 189 189 0
-5.572856 -4.762259 26.490107 190 190 190 0
-5.436961 -4.732170 26.322738 191 191 191 0
-5.279833 -4.682116 26.044313 194 194 194 0
-5.152741 -4.657285 25.906190 193 193 193 0
-5.069099 -4.671522 25.985383 193 193 193 0
-4.990167 -4.690757 26.092375 194 194 194 0
-4.890044 -4.690450 26.090669 197 197 197 0
-4.773486 -4.674039 25.999382 197 197 197 0
-4.640745 -4.640745 25.814186 197 197 197 0
-4.544941 -4.643744 25.830866 198 198 198 0
-4.484880 -4.684208 26.055946 198 198 198 0
-4.404423 -4.704725 26.170073 200 200 200 0
-4.296677 -4.696368 26.123587 201 201 201 0
-4.169994 -4.666422 25.957012 200 200 200 0
-4.052681 -4.645757 25.842062 202 202 202 0
-3.954724 -4.646800 25.847866 202 202 202 0
-3.361328 -4.050832 22.532786 202 202 202 0
-3.790815 -4.688639 26.080595 204 204 204 0
-3.674904 -4.668121 25.966464 204 204 204 0
-3.554211 -4.640220 25.811266 204 204 204 0
-3.464615 -4.652484 25.879481 204 204 204 0
-3.372659 -4.662205 25.933553 205 205 205 0
-3.277710 -4.668253 25.967200 205 205 205 0
-3.182879 -4.674854 26.003914 205 205 205 0
-3.075451 -4.662781 25.936761 205 205 205 0
-2.981128 -4.670434 25.979331 206 206 206 0
-2.888919 -4.682042 26.043898 207 207 207 0
-2.789916 -4.683073 26.049632 207 207 207 0
-2.695900 -4.692864 26.104095 207 207 207 0
-2.600693 -4.701252 26.150755 208 208 208 0
-2.505352 -4.710062 26.199759 208 208 208 0
-2.401677 -4.703285 26.162062 208 208 208 0
-2.311173 -4.722831 26.270787 207 207 207 0
-2.223782 -4.750808 26.426408 208 208 208 0
-2.125135 -4.756253 26.456701 207 207 207 0
-2.020628 -4.748475 26.413433 208 208 208 0
-1.919053 -4.747132 26.405961 208 208 208 0
-1.828144 -4.773488 26.552567 209 209 209 0
-1.729283 -4.780958 26.594118 209 209 209 0
-1.626087 -4.776630 26.570047 208 208 208 0
-1.519412 -4.760823 26.482118 208 208 208 0
-1.417028 -4.757166 26.461778 209 209 209 0
-1.323982 -4.786706 26.626091 209 209 209 0
-1.228628 -4.812126 26.767493 209 209 209 0
-1.125300 -4.808102 26.745107 209 209 209 0
-1.022502 -4.805759 26.732075 209 209 209 0
-0.923665 -4.823586 26.831241 209 209 209 0
-0.827642 -4.862395 27.047113 209 209 209 0
-0.726946 -4.880920 27.150159 209 209 209 0
-0.622361 -4.875160 27.118118 209 209 209 0
-0.519154 -4.880050 27.145319 208 208 208 0
-0.420193 -4.937262 27.463563 208 208 208 0
-0.316299 -4.955351 27.564184 207 207 207 0
-0.210755 -4.952733 27.549622 208 208 208 0
-0.105812 -4.973174 27.663326 207 207 207 0
0.000000 -5.138754 28.584363 206 206 206 0
0.106659 -5.012989 27.884797 207 207 207 0
0.213127 -5.008477 27.859695 206 206 206 0
0.320308 -5.018165 27.913586 207 207 207 0
0.431702 -5.072494 28.215792 206 206 206 0
0.541440 -5.089532 28.310566 206 206 206 0
0.650222 -5.093409 28.332129 205 205 205 0
0.762549 -5.119969 28.479873 205 205 205 0
0.880825 -5.174845 28.785123 203 203 203 0
0.996350 -5.203160 28.942620 203 203 203 0
1.114500 -5.238151 29.137260 202 202 202 0
1.232960 -5.268103 29.303871 200 200 200 0
1.358578 -5.321097 29.598647 200 200 200 0
1.481234 -5.355231 29.788517 197 197 197 0
1.603317 -5.382563 29.940554 195 195 195 0
1.751608 -5.488371 30.529109 193 193 193 0
1.883561 -5.532960 30.777137 190 190 190 0
2.055875 -5.683889 31.616683 183 183 183 0
2.404288 -6.277864 34.920675 193 193 193 0
2.541181 -6.286079 34.966372 203 203 203 0
2.675023 -6.286305 34.967626 203 203 203 0
2.808883 -6.286548 34.968978 202 202 202 0
2.942300 -6.285823 34.964947 200 200 200 0
3.075810 -6.285350 34.962315 203 203 203 0
3.209599 -6.285465 34.962954 203 203 203 0
3.343388 -6.285569 34.963531 202 202 202 0
3.476856 -6.285087 34.960849 203 203 203 0
3.610353 -6.284688 34.958630 202 202 202 0
3.744118 -6.284769 34.959080 201 201 201 0
3.877804 -6.284717 34.958792 201 201 201 0
4.011046 -6.283971 34.954646 200 200 200 0
4.144580 -6.283718 34.953235 201 201 201 0
4.278119 -6.283487 34.951951 201 201 201 0
4.411412 -6.282921 34.948801 200 200 200 0
4.545150 -6.283001 34.949250 159 159 159 0
-8.113715 -4.665386 26.515407 204 204 204 0
-8.072225 -4.700283 26.713742 205 205 205 0
-8.145316 -4.803648 27.301209 205 205 205 0
-8.079769 -4.826875 27.433220 206 206 206 0
-8.006198 -4.845857 27.541102 205 205 205 0
-7.933272 -4.865740 27.654109 206 206 206 0
-7.864080 -4.888482 27.783359 206 206 206 0
-7.886130 -4.969342 28.242923 206 206 206 0
-7.766475 -4.961915 28.200708 207 207 207 0
-7.622688 -4.938643 28.068447 206 206 206 0
-7.441655 -4.890230 27.793295 206 206 206 0
-7.259869 -4.839913 27.507318 183 183 183 0
-7.142081 -4.831408 27.458981 175 175 175 0
-7.092691 -4.869609 27.676093 174 174 174 0
-6.912824 -4.818029 27.382944 175 175 175 0
-6.697978 -4.740108 26.940083 174 174 174 0
-6.505291 -4.675678 26.573902 178 178 178 0
-6.378348 -4.657207 26.468921 178 178 178 0
-8.016182 -5.947490 33.802160 180 180 180 0
-6.297896 -4.749233 26.991945 183 183 183 0
-6.177138 -4.735806 26.915635 182 182 182 0
-5.973780 -4.657523 26.470722 185 185 185 0
-5.796429 -4.597168 26.127696 187 187 187 0
-5.676763 -4.581247 26.037210 189 189 189 0
-5.634053 -4.627972 26.302768 189 189 189 0
-5.572670 -4.660778 26.489221 189 189 189 0
-5.428971 -4.624679 26.284051 192 192 192 0
-5.277402 -4.580387 26.032321 193 193 193 0
-5.145072 -4.551410 25.867633 193 193 193 0
-5.056993 -4.561209 25.923326 193 193 193 0
-4.986146 -4.587254 26.071349 195 195 195 0
-4.889107 -4.589774 26.085670 197 197 197 0
-4.773640 -4.574739 26.000220 197 197 197 0
-4.635272 -4.536649 25.783741 197 197 197 0
-4.549242 -4.549242 25.855310 198 198 198 0
-4.476207 -4.575679 26.005562 199 199 199 0
-4.398563 -4.598498 26.135252 201 201 201 0
-4.291472 -4.590877 26.091943 201 201 201 0
-4.166645 -4.563468 25.936164 201 201 201 0
-4.053212 -4.547507 25.845448 201 201 201 0
-3.958715 -4.552522 25.873952 201 201 201 0
-3.755111 -4.429105 25.172520 202 202 202 0
-3.788846 -4.586497 26.067049 204 204 204 0
-3.672585 -4.565917 25.950082 204 204 204 0
-3.553881 -4.541070 25.808864 204 204 204 0
-3.461272 -4.549100 25.854504 204 204 204 0
-3.368293 -4.557102 25.899983 204 204 204 0
-3.275525 -4.565883 25.949890 205 205 205 0
-3.180671 -4.572214 25.985870 205 205 205 0
-3.073145 -4.560151 25.917311 206 206 206 0
-2.979693 -4.568862 25.966821 206 206 206 0
-2.887890 -4.580791 26.034619 206 206 206 0
-2.788446 -4.581019 26.035911 207 207 207 0
-2.690724 -4.584197 26.053975 207 207 207 0
-2.598147 -4.596722 26.125160 207 207 207 0
-2.499762 -4.599563 26.141307 207 207 207 0
-2.398958 -4.598003 26.132444 207 207 207 0
-2.308056 -4.616112 26.235364 208 208 208 0
-2.222397 -4.646830 26.409949 208 208 208 0
-2.125267 -4.655346 26.458346 208 208 208 0
-2.019570 -4.645011 26.399606 209 209 209 0
-1.918041 -4.643679 26.392040 208 208 208 0
-1.826320 -4.667262 26.526071 208 208 208 0
-1.727532 -4.674499 26.567203 209 209 209 0
-1.624830 -4.671387 26.549513 209 209 209 0
-1.519352 -4.659347 26.481088 209 209 209 0
-1.415952 -4.652414 26.441682 210 210 210 0
-1.323477 -4.683074 26.615937 209 209 209 0
-1.228273 -4.708381 26.759767 209 209 209 0
-1.125173 -4.705270 26.742084 209 209 209 0
-1.023225 -4.706835 26.750982 208 208 208 0
-0.922983 -4.717467 26.811408 209 209 209 0
-0.826297 -4.751210 27.003183 208 208 208 0
-0.726248 -4.772487 27.124109 208 208 208 0
-0.621850 -4.767515 27.095850 209 209 209 0
-0.518353 -4.768844 27.103404 209 209 209 0
-0.419581 -4.825178 27.423577 209 209 209 0
-0.316191 -4.848263 27.554775 209 209 209 0
-0.210634 -4.844588 27.533892 208 208 208 0
-0.105571 -4.856263 27.600244 208 208 208 0
0.000000 -5.535598 31.461199 208 208 208 0
0.106541 -4.900893 27.853894 208 208 208 0
0.212990 -4.898770 27.841829 206 206 206 0
0.319799 -4.903580 27.869169 207 207 207 0
0.431196 -4.958756 28.182757 206 206 206 0
0.541122 -4.978318 28.293935 205 205 205 0
0.649593 -4.980212 28.304700 205 205 205 0
0.761694 -5.005418 28.447955 205 205 205 0
0.879475 -5.056979 28.741000 203 203 203 0
0.994558 -5.083296 28.890569 203 203 203 0
1.109004 -5.101419 28.993574 202 202 202 0
1.229334 -5.140850 29.217675 200 200 200 0
1.354878 -5.193699 29.518039 199 199 199 0
1.478004 -5.229861 29.723566 198 198 198 0
1.603696 -5.269288 29.947642 195 195 195 0
1.747346 -5.358527 30.454828 193 193 193 0
1.875203 -5.391209 30.640576 190 190 190 0
2.056288 -5.564074 31.623040 188 188 188 0
2.195751 -5.611365 31.891815 185 185 185 0
2.541048 -6.152012 34.964548 201 201 201 0
2.674937 -6.152356 34.966502 203 203 203 0
2.808804 -6.152619 34.967998 201 201 201 0
2.942259 -6.151997 34.964462 202 202 202 0
3.075741 -6.151481 34.961529 203 203 203 0
3.209558 -6.151652 34.962502 202 202 202 0
3.343255 -6.151590 34.962148 202 202 202 0
3.476819 -6.151294 34.960468 200 200 200 0
3.610273 -6.150835 34.957857 202 202 202 0
3.743987 -6.150836 34.957862 202 202 202 0
3.877660 -6.150771 34.957496 201 201 201 0
4.010962 -6.150142 34.953920 201 201 201 0
4.144576 -6.150016 34.953204 201 201 201 0
4.278052 -6.149699 34.951401 201 201 201 0
4.411383 -6.149201 34.948568 200 200 200 0
4.545110 -6.149267 34.948944 153 153 153 0
-8.117717 -4.566216 26.528486 205 205 205 0
-8.102813 -4.615526 26.814968 205 205 205 0
-8.175232 -4.716480 27.401482 205 205 205 0
-8.125435 -4.748631 27.588268 205 205 205 0
-8.022348 -4.750074 27.596655 206 206 206 0
-7.940404 -4.764243 27.678970 205 205 205 0
-7.861790 -4.780818 27.775268 205 205 205 0
-7.903637 -4.872105 28.305621 207 207 207 0
-7.765927 -4.853705 28.198720 207 207 207 0
-7.602645 -4.818578 27.994643 207 207 207 0
-7.386346 -4.748365 27.586725 202 202 202 0
-7.227790 -4.713776 27.385772 177 177 177 0
-7.111222 -4.705956 27.340339 173 173 173 0
-7.108351 -4.774266 27.737202 176 176 176 0
-6.924820 -4.721468 27.430461 174 174 174 0
-6.712744 -4.647284 26.999473 176 176 176 0
-6.504153 -4.573233 26.569253 178 178 178 0
-6.341919 -4.529942 26.317747 179 179 179 0
-8.292607 -6.018828 34.967772 180 180 180 0
-6.285457 -4.636812 26.938634 183 183 183 0
-6.171249 -4.628437 26.889975 183 183 183 0
-5.969931 -4.553337 26.453667 185 185 185 0
-5.792301 -4.494027 26.109086 187 187 187 0
-5.674442 -4.479823 26.026565 188 188 188 0
-5.624060 -4.519334 26.256118 187 187 187 0
-5.561211 -4.550082 26.434752 189 189 189 0
-5.419228 -4.516024 26.236883 192 192 192 0
-5.274494 -4.478344 26.017973 193 193 193 0
-5.145564 -4.452892 25.870103 193 193 193 0
-5.056066 -4.461235 25.918577 193 193 193 0
-4.989143 -4.490229 26.087021 196 196 196 0
-4.893257 -4.493807 26.107813 197 197 197 0
-4.772921 -4.474613 25.996302 197 197 197 0
-4.634237 -4.437036 25.777986 197 197 197 0
-4.545390 -4.446577 25.833420 198 198 198 0
-4.473081 -4.473081 25.987397 200 200 200 0
-4.396766 -4.496692 26.124575 201 201 201 0
-4.286535 -4.485909 26.061925 201 201 201 0
-4.165584 -4.463126 25.929560 201 201 201 0
-4.056783 -4.452567 25.868216 201 201 201 0
-3.958009 -4.452761 25.869342 202 202 202 0
-3.870163 -4.465573 25.943777 204 204 204 0
-3.790565 -4.488827 26.078880 204 204 204 0
-3.675180 -4.469814 25.968417 204 204 204 0
-3.553178 -4.441473 25.803762 203 203 203 0
-3.457134 -4.444886 25.823595 204 204 204 0
-3.363954 -4.452292 25.866618 205 205 205 0
-3.276524 -4.467988 25.957807 205 205 205 0
-3.177711 -4.468657 25.961695 205 205 205 0
-3.071124 -4.458083 25.900267 206 206 206 0
-2.977642 -4.466463 25.948951 207 207 207 0
-2.886565 -4.479152 26.022669 207 207 207 0
-2.791139 -4.485758 26.061051 207 207 207 0
-2.693861 -4.489769 26.084351 207 207 207 0
-2.600248 -4.500429 26.146284 208 208 208 0
-2.501117 -4.502011 26.155475 208 208 208 0
-2.399064 -4.498244 26.133589 208 208 208 0
-2.307952 -4.515558 26.234181 207 207 207 0
-2.220206 -4.541331 26.383914 208 208 208 0
-2.123508 -4.550374 26.436450 209 209 209 0
-2.018370 -4.541334 26.383928 209 209 209 0
-1.917158 -4.540636 26.379878 209 209 209 0
-1.825561 -4.563902 26.515043 209 209 209 0
-1.727777 -4.573526 26.570959 208 208 208 0
-1.623991 -4.567474 26.535795 209 209 209 0
-1.518382 -4.555146 26.464173 209 209 209 0
-1.415272 -4.549089 26.428982 210 210 210 0
-1.321890 -4.575774 26.584017 210 210 210 0
-1.227974 -4.604901 26.753240 210 210 210 0
-1.124317 -4.599481 26.721746 209 209 209 0
-1.022191 -4.599859 26.723947 209 209 209 0
-0.922504 -4.612520 26.797500 210 210 210 0
-0.825816 -4.645215 26.987453 208 208 208 0
-0.725338 -4.662888 27.090124 209 209 209 0
-0.621042 -4.657812 27.060634 209 209 209 0
-0.517861 -4.660745 27.077679 209 209 209 0
-0.418964 -4.713341 27.383244 208 208 208 0
-0.315755 -4.736329 27.516796 208 208 208 0
-0.210444 -4.734980 27.508964 209 209 209 0
-0.105224 -4.735065 27.509454 208 208 208 0
0.000000 -4.442094 25.807374 208 208 208 0
0.106605 -4.797222 27.870571 207 207 207 0
0.213066 -4.793985 27.851767 208 208 208 0
0.319468 -4.792019 27.840344 207 207 207 0
0.430385 -4.841833 28.129751 207 207 207 0
0.540858 -4.867724 28.280168 205 205 205 0
0.649022 -4.867665 28.279827 206 206 206 0
0.760385 -4.888192 28.399079 205 205 205 0
0.878749 -4.942961 28.717273 204 204 204 0
0.993331 -4.966657 28.854942 203 203 203 0
1.106972 -4.981374 28.940447 202 202 202 0
1.226898 -5.019128 29.159782 200 200 200 0
1.351033 -5.066374 29.434275 199 199 199 0
1.472818 -5.098217 29.619270 198 198 198 0
1.597110 -5.133567 29.824644 196 196 196 0
1.742522 -5.227566 30.370752 194 194 194 0
1.878532 -5.283370 30.694962 191 191 191 0
2.054794 -5.439161 31.600067 187 187 187 0
2.175672 -5.439180 31.600174 184 184 184 0
2.540556 -6.017106 34.957770 196 196 196 0
2.674880 -6.018479 34.965748 203 203 203 0
2.808749 -6.018749 34.967314 202 202 202 0
2.942238 -6.018215 34.964212 203 203 203 0
3.075693 -6.017659 34.960984 202 202 202 0
3.209555 -6.017916 34.962473 202 202 202 0
3.343214 -6.017785 34.961713 203 203 203 0
3.476738 -6.017431 34.959657 201 201 201 0
3.610266 -6.017109 34.957788 201 201 201 0
3.743963 -6.017084 34.957641 201 201 201 0
3.877522 -6.016845 34.956251 201 201 201 0
4.010868 -6.016303 34.953102 202 202 202 0
4.144503 -6.016213 34.952583 202 202 202 0
4.277979 -6.015908 34.950811 201 201 201 0
4.411333 -6.015454 34.948174 199 199 199 0
4.545111 -6.015589 34.948953 151 151 151 0
-8.118826 -4.465354 26.532111 205 205 205 0
-8.076529 -4.498320 26.727987 203 203 203 0
-8.183370 -4.616260 27.428759 205 205 205 0
-8.127753 -4.644430 27.596140 205 205 205 0
-8.017879 -4.641930 27.581282 206 206 206 0
-7.938292 -4.657131 27.671607 206 206 206 0
-7.900374 -4.697520 27.911584 207 207 207 0
-7.882064 -4.750833 28.228360 206 206 206 0
-7.754192 -4.738673 28.156108 207 207 207 0
-7.618614 -4.721395 28.053446 207 207 207 0
-7.410228 -4.657858 27.675923 197 197 197 0
-7.202007 -4.592584 27.288083 175 175 175 0
-7.117884 -4.605690 27.365952 173 173 173 0
-7.091573 -4.657152 27.671731 174 174 174 0
-6.915709 -4.610472 27.394370 175 175 175 0
-6.715500 -4.545877 27.010560 177 177 177 0
-6.494955 -4.465282 26.531679 178 178 178 0
-6.316372 -4.411435 26.211733 178 178 178 0
-8.286050 -5.880423 34.940123 182 182 182 0
-6.290055 -4.537089 26.958343 185 185 185 0
-6.170074 -4.524721 26.884856 183 183 183 0
-5.957733 -4.443055 26.399615 185 185 185 0
-5.793692 -4.395215 26.115358 188 188 188 0
-5.674503 -4.380318 26.026846 188 188 188 0
-5.612452 -4.409783 26.201921 189 189 189 0
-5.558232 -4.446585 26.420590 190 190 190 0
-5.416797 -4.413687 26.225113 192 192 192 0
-5.262590 -4.368943 25.959255 193 193 193 0
-5.140111 -4.349325 25.842691 193 193 193 0
-5.056481 -4.362455 25.920704 194 194 194 0
-4.988968 -4.390292 26.086106 197 197 197 0
-4.895345 -4.395820 26.118955 198 198 198 0
-4.772994 -4.375245 25.996702 197 197 197 0
-4.637951 -4.341912 25.798643 198 198 198 0
-4.543844 -4.346286 25.824632 198 198 198 0
-4.471783 -4.372410 25.979856 200 200 200 0
-4.397408 -4.397408 26.128391 201 201 201 0
-4.286029 -4.385704 26.058846 200 200 200 0
-4.163066 -4.361307 25.913888 201 201 201 0
-4.054005 -4.350640 25.850504 201 201 201 0
-3.961140 -4.357254 25.889806 203 203 203 0
-3.882213 -4.379933 26.024558 204 204 204 0
-3.790701 -4.389233 26.079817 204 204 204 0
-3.670616 -4.365056 25.936164 204 204 204 0
-3.551402 -4.340603 25.790867 204 204 204 0
-3.456679 -4.345540 25.820200 204 204 204 0
-3.363015 -4.352136 25.859397 205 205 205 0
-3.273057 -4.364077 25.930342 205 205 205 0
-3.175820 -4.366753 25.946244 207 207 207 0
-3.070768 -4.358509 25.897260 206 206 206 0
-2.977385 -4.366831 25.946708 207 207 207 0
-2.886753 -4.379901 26.024369 207 207 207 0
-2.788516 -4.381954 26.036564 207 207 207 0
-2.694330 -4.390759 26.088886 208 208 208 0
-2.598364 -4.397231 26.127336 209 209 209 0
-2.500080 -4.400141 26.144629 208 208 208 0
-2.397727 -4.395833 26.119034 208 208 208 0
-2.306508 -4.412451 26.217770 208 208 208 0
-2.219618 -4.439236 26.376922 208 208 208 0
-2.123070 -4.448338 26.431005 208 208 208 0
-2.017226 -4.437897 26.368964 209 209 209 0
-1.917266 -4.439984 26.381367 209 209 209 0
-1.837076 -4.490631 26.682297 210 210 210 0
-1.726088 -4.467521 26.544987 209 209 209 0
-1.624102 -4.466280 26.537611 208 208 208 0
-1.517877 -4.452440 26.455377 209 209 209 0
-1.414455 -4.445429 26.413720 210 210 210 0
-1.321787 -4.473740 26.581935 210 210 210 0
-1.227619 -4.501270 26.745516 210 210 210 0
-1.124185 -4.496739 26.718594 210 210 210 0
-1.020474 -4.490087 26.679067 210 210 210 0
-0.922292 -4.508985 26.791353 210 210 210 0
-0.825418 -4.539799 26.974442 209 209 209 0
-0.725506 -4.560324 27.096400 210 210 210 0
-0.621109 -4.554803 27.063593 209 209 209 0
-0.517587 -4.554768 27.063384 209 209 209 0
-0.418292 -4.601214 27.339360 209 209 209 0
-0.315113 -4.621659 27.460836 209 209 209 0
-0.210134 -4.622946 27.468488 208 208 208 0
-0.105106 -4.624673 27.478746 209 209 209 0
0.000000 -4.586871 27.254138 208 208 208 0
0.106449 -4.683764 27.829854 208 208 208 0
0.212816 -4.681943 27.819032 207 207 207 0
0.319200 -4.681599 27.816990 207 207 207 0
0.429750 -4.727250 28.088234 206 206 206 0
0.540084 -4.752739 28.239686 206 206 206 0
0.648540 -4.755960 28.258825 205 205 205 0
0.759510 -4.774065 28.366402 206 206 206 0
0.875476 -4.815120 28.610339 203 203 203 0
0.991545 -4.847554 28.803051 203 203 203 0
1.105372 -4.863638 28.898623 202 202 202 0
1.225493 -4.901973 29.126402 202 202 202 0
1.348772 -4.945497 29.385009 200 200 200 0
1.470461 -4.976945 29.571866 200 200 200 0
1.592468 -5.004899 29.737961 198 198 198 0
1.732637 -5.082401 30.198461 196 196 196 0
1.870856 -5.144853 30.569538 192 192 192 0
2.028234 -5.249546 31.191600 189 189 189 0
2.178842 -5.326058 31.646217 183 183 183 0
2.539181 -5.880207 34.938844 191 191 191 0
2.674829 -5.884623 34.965080 202 202 202 0
2.808684 -5.884861 34.966495 203 203 203 0
2.942194 -5.884389 34.963689 202 202 202 0
3.075656 -5.883863 34.960566 203 203 203 0
3.209524 -5.884128 34.962138 202 202 202 0
3.343155 -5.883952 34.961095 202 202 202 0
3.476630 -5.883528 34.958573 201 201 201 0
3.610160 -5.883223 34.956763 202 202 202 0
3.743718 -5.882985 34.955346 201 201 201 0
3.877375 -5.882913 34.954922 201 201 201 0
4.010777 -5.882472 34.952302 202 202 202 0
4.144408 -5.882385 34.951784 200 200 200 0
4.277936 -5.882161 34.950454 202 202 202 0
4.411283 -5.881711 34.947779 199 199 199 0
4.545048 -5.881827 34.948467 146 146 146 0
-8.109944 -4.359095 26.503086 205 205 205 0
-8.107056 -4.412702 26.829011 204 204 204 0
-8.167103 -4.502377 27.374235 205 205 205 0
-8.106634 -4.527081 27.524434 206 206 206 0
-8.000808 -4.526773 27.522559 205 205 205 0
-7.940729 -4.552685 27.680102 206 206 206 0
-7.864387 -4.569846 27.784444 206 206 206 0
-7.887037 -4.645789 28.246169 207 207 207 0
-7.759531 -4.634165 28.175495 208 208 208 0
-7.562171 -4.579907 27.845609 209 209 209 0
-7.302163 -4.485615 27.272319 188 188 188 0
-7.169186 -4.467754 27.163726 173 173 173 0
-7.126748 -4.506620 27.400030 170 170 170 0
-7.104524 -4.559620 27.722269 175 175 175 0
-6.927192 -4.513171 27.439858 173 173 173 0
-6.711654 -4.440018 26.995091 177 177 177 0
-6.500153 -4.367290 26.552912 179 179 179 0
-6.323913 -4.316321 26.243024 177 177 177 0
-8.279117 -5.741968 34.910889 182 182 182 0
-6.291557 -4.435032 26.964780 182 182 182 0
-6.169959 -4.421804 26.884351 182 182 182 0
-5.954505 -4.339724 26.385311 185 185 185 0
-5.783924 -4.288081 26.071326 188 188 188 0
-5.668729 -4.276410 26.000363 189 189 189 0
-5.622018 -4.316907 26.246584 188 188 188 0
-5.560187 -4.347055 26.429884 191 191 191 0
-5.419420 -4.315464 26.237810 192 192 192 0
-5.263794 -4.270625 25.965192 192 192 192 0
-5.128409 -4.240800 25.783857 193 193 193 0
-5.051069 -4.258744 25.892959 195 195 195 0
-4.985653 -4.287661 26.068773 197 197 197 0
-4.883434 -4.285462 26.055401 197 197 197 0
-4.766770 -4.270231 25.962798 197 197 197 0
-4.635492 -4.240982 25.784967 197 197 197 0
-4.541823 -4.245617 25.813148 199 199 199 0
-4.476591 -4.277632 26.007792 200 200 200 0
-4.392909 -4.293070 26.101659 201 201 201 0
-4.284669 -4.284669 26.050577 201 201 201 0
-4.161915 -4.261009 25.906725 200 200 200 0
-4.051106 -4.248721 25.832015 203 203 203 0
-3.958127 -4.254987 25.870113 204 204 204 0
-3.880904 -4.278945 26.015778 203 203 203 0
-3.790162 -4.288867 26.076105 204 204 204 0
-3.671415 -4.266780 25.941814 204 204 204 0
-3.549833 -4.240079 25.779472 203 203 203 0
-3.456741 -4.246853 25.820663 205 205 205 0
-3.362363 -4.252400 25.854383 207 207 207 0
-3.271467 -4.262821 25.917743 206 206 206 0
-3.175069 -4.266499 25.940106 206 206 206 0
-3.066690 -4.253796 25.862875 206 206 206 0
-2.974579 -4.263563 25.922255 207 207 207 0
-2.882564 -4.274146 25.986601 208 208 208 0
-2.784078 -4.275548 25.995124 207 207 207 0
-2.693019 -4.288883 26.076199 208 208 208 0
-2.597656 -4.296123 26.120218 207 207 207 0
-2.499925 -4.299871 26.143008 208 208 208 0
-2.399234 -4.298628 26.135450 208 208 208 0
-2.306270 -4.311722 26.215058 209 209 209 0
-2.218968 -4.337073 26.369196 209 209 209 0
-2.122330 -4.345724 26.421791 208 208 208 0
-2.016356 -4.335165 26.357594 208 208 208 0
-1.919376 -4.343851 26.410404 210 210 210 0
-1.891753 -4.519187 27.476435 209 209 209 0
-1.723319 -4.358984 26.502408 209 209 209 0
-1.623278 -4.362559 26.524147 210 210 210 0
-1.517225 -4.349379 26.444013 210 210 210 0
-1.414826 -4.345536 26.420650 210 210 210 0
-1.321216 -4.370175 26.570453 210 210 210 0
-1.226823 -4.396117 26.728180 210 210 210 0
-1.123338 -4.391231 26.698468 210 210 210 0
-1.020099 -4.386427 26.669263 209 209 209 0
-0.921752 -4.403926 26.775658 209 209 209 0
-0.824759 -4.433079 26.952905 209 209 209 0
-0.725370 -4.455844 27.091313 209 209 209 0
-0.620696 -4.448319 27.045566 210 210 210 0
-0.517690 -4.452136 27.068772 209 209 209 0
-0.418164 -4.495263 27.330979 209 209 209 0
-0.315175 -4.517513 27.466259 209 209 209 0
-0.209859 -4.511975 27.432586 209 209 209 0
-0.104993 -4.514690 27.449094 210 210 210 0
0.000000 -4.530590 27.545767 208 208 208 0
0.106567 -4.582402 27.860780 208 208 208 0
0.212626 -4.571451 27.794198 208 208 208 0
0.318792 -4.569348 27.781413 207 207 207 0
0.428971 -4.611437 28.037310 207 207 207 0
0.539853 -4.642734 28.227594 207 207 207 0
0.648341 -4.646441 28.250134 206 206 206 0
0.759290 -4.664210 28.358171 205 205 205 0
0.874618 -4.701071 28.582284 204 204 204 0
0.990636 -4.733037 28.776636 204 204 204 0
1.104459 -4.749173 28.874738 204 204 204 0
1.225100 -4.789029 29.117065 202 202 202 0
1.346848 -4.826206 29.343095 201 201 201 0
1.467942 -4.855502 29.521215 201 201 201 0
1.588065 -4.877628 29.655739 199 199 199 0
1.728044 -4.953725 30.118409 196 196 196 0
1.864098 -5.009762 30.459112 193 193 193 0
2.008283 -5.079775 30.884786 190 190 190 0
2.163926 -5.169379 31.429572 186 186 186 0
2.240883 -5.071472 30.834304 188 188 188 0
2.674804 -5.750829 34.964761 201 201 201 0
2.808653 -5.751051 34.966108 202 202 202 0
2.942155 -5.750576 34.963222 201 201 201 0
3.075692 -5.750208 34.960982 204 204 204 0
3.209449 -5.750263 34.961317 202 202 202 0
3.343120 -5.750166 34.960728 201 201 201 0
3.476526 -5.749638 34.957522 201 201 201 0
3.610085 -5.749395 34.956043 202 202 202 0
3.743678 -5.749220 34.954980 201 201 201 0
3.877236 -5.749006 34.953675 202 202 202 0
4.010654 -5.748605 34.951236 202 202 202 0
4.144311 -5.748561 34.950971 201 201 201 0
4.278075 -5.748664 34.951597 201 201 201 0
4.411196 -5.747922 34.947084 199 199 199 0
4.545058 -5.748161 34.948540 142 142 142 0
-8.127533 -4.266955 26.560565 206 206 206 0
-8.097431 -4.304963 26.797157 205 205 205 0
-8.157692 -4.392604 27.342692 205 205 205 0
-8.094894 -4.415397 27.484574 206 206 206 0
-8.003198 -4.422820 27.530782 206 206 206 0
-7.920267 -4.435350 27.608775 205 205 205 0
-7.865595 -4.464256 27.788711 206 206 206 0
-7.818310 -4.498205 28.000034 206 206 206 0
-7.699429 -4.491334 27.957260 207 207 207 0
-7.592182 -4.491150 27.956115 207 207 207 0
-7.342174 -4.405305 27.421753 183 183 183 0
-7.193389 -4.378585 27.255429 174 174 174 0
-7.147864 -4.414857 27.481216 171 171 171 0
-7.113192 -4.459016 27.756089 174 174 174 0
-6.931813 -4.411154 27.458164 173 173 173 0
-6.707990 -4.334394 26.980352 177 177 177 0
-6.501727 -4.266758 26.559341 177 177 177 0
-6.322923 -4.215282 26.238917 178 178 178 0
-4.915964 -3.330169 20.729345 183 183 183 0
-6.292574 -4.332592 26.969136 182 182 182 0
-6.167055 -4.316938 26.871698 183 183 183 0
-5.956648 -4.240326 26.394809 186 186 186 0
-5.784577 -4.188832 26.074271 188 188 188 0
-5.665428 -4.174526 25.985220 187 187 187 0
-5.618185 -4.213639 26.228688 189 189 189 0
-5.561643 -4.247073 26.436808 192 192 192 0
-5.417884 -4.213910 26.230377 192 192 192 0
-5.255444 -4.164691 25.924004 193 193 193 0
-5.129492 -4.143051 25.789300 194 194 194 0
-5.052753 -4.161091 25.901592 195 195 195 0
-4.984195 -4.186723 26.061148 196 196 196 0
-4.889303 -4.190831 26.086719 197 197 197 0
-4.762481 -4.167171 25.939440 197 197 197 0
-4.629703 -4.137181 25.752762 197 197 197 0
-4.543711 -4.148606 25.823875 200 200 200 0
-4.469996 -4.171997 25.969477 200 200 200 0
-4.392212 -4.192566 26.097514 201 201 201 0
-4.285590 -4.185925 26.056178 201 201 201 0
-4.154462 -4.154462 25.860328 201 201 201 0
-4.050236 -4.149022 25.826468 203 203 203 0
-3.960473 -4.158496 25.885442 204 204 204 0
-3.879413 -4.177829 26.005782 204 204 204 0
-3.790985 -4.190036 26.081766 204 204 204 0
-3.668295 -4.164010 25.919765 203 203 203 0
-3.548042 -4.139382 25.766464 204 204 204 0
-3.455606 -4.146727 25.812182 205 205 205 0
-3.362261 -4.153382 25.853606 206 206 206 0
-3.270691 -4.162698 25.911596 206 206 206 0
-3.175443 -4.167769 25.943164 207 207 207 0
-3.062946 -4.149798 25.831298 207 207 207 0
-2.975278 -4.165389 25.928345 207 207 207 0
-2.885004 -4.178281 26.008597 207 207 207 0
-2.787654 -4.181480 26.028512 207 207 207 0
-2.690199 -4.184754 26.048892 207 207 207 0
-2.596322 -4.194059 26.106810 208 208 208 0
-2.499679 -4.199461 26.140437 209 209 209 0
-2.397307 -4.195288 26.114460 208 208 208 0
-2.304211 -4.207690 26.191661 209 209 209 0
-2.216922 -4.232306 26.344884 208 208 208 0
-2.120162 -4.240323 26.394791 209 209 209 0
-2.018005 -4.237811 26.379156 209 209 209 0
-1.921941 -4.248500 26.445690 209 209 209 0
-1.963076 -4.580511 28.512364 209 209 209 0
-1.723754 -4.258687 26.509100 210 210 210 0
-1.623170 -4.260822 26.522388 210 210 210 0
-1.517433 -4.248812 26.447633 209 209 209 0
-1.414367 -4.243100 26.412079 210 210 210 0
-1.321074 -4.268085 26.567600 209 209 209 0
-1.226896 -4.294136 26.729760 210 210 210 0
-1.123397 -4.289334 26.699872 211 211 211 0
-1.019940 -4.283748 26.665098 210 210 210 0
-0.920726 -4.296723 26.745864 210 210 210 0
-0.824143 -4.326751 26.932782 210 210 210 0
-0.724526 -4.347154 27.059779 210 210 210 0
-0.620471 -4.343300 27.035793 209 209 209 0
-0.517401 -4.346168 27.053647 210 210 210 0
-0.417713 -4.385988 27.301514 210 210 210 0
-0.315031 -4.410437 27.453702 209 209 209 0
-0.209883 -4.407536 27.435644 210 210 210 0
-0.104893 -4.405514 27.423055 208 208 208 0
0.000000 -4.435195 27.607811 208 208 208 0
0.106407 -4.469109 27.818919 208 208 208 0
0.212617 -4.464963 27.793110 208 208 208 0
0.318549 -4.459691 27.760294 208 208 208 0
0.428425 -4.498464 28.001646 208 208 208 0
0.539208 -4.529348 28.193889 207 207 207 0
0.647169 -4.530184 28.199092 207 207 207 0
0.758473 -4.550837 28.327651 207 207 207 0
0.873971 -4.588350 28.561158 205 205 205 0
0.989995 -4.619975 28.758014 204 204 204 0
1.102956 -4.632414 28.835446 204 204 204 0
1.224367 -4.674854 29.099621 202 202 202 0
1.345740 -4.710089 29.318949 201 201 201 0
1.466176 -4.736876 29.485687 201 201 201 0
1.584485 -4.753454 29.588885 198 198 198 0
1.736259 -4.861524 30.261588 198 198 198 0
1.858120 -4.877565 30.361440 195 195 195 0
2.000408 -4.942184 30.763672 191 191 191 0
2.153727 -5.025363 31.281441 186 186 186 0
2.266663 -5.010518 31.189031 185 185 185 0
2.675143 -5.617801 34.969191 201 201 201 0
2.808691 -5.617383 34.966590 202 202 202 0
2.942103 -5.616743 34.962607 202 202 202 0
3.075544 -5.616210 34.959293 202 202 202 0
3.209437 -5.616514 34.961186 203 203 203 0
3.343082 -5.616378 34.960336 202 202 202 0
3.476489 -5.615867 34.957155 201 201 201 0
3.610007 -5.615566 34.955282 201 201 201 0
3.743606 -5.615409 34.954303 201 201 201 0
3.877108 -5.615122 34.952516 200 200 200 0
4.010581 -5.614813 34.950595 201 201 201 0
3.590388 -4.864396 30.279467 201 201 201 0
4.279567 -5.616931 34.963780 200 200 200 0
4.411106 -5.614135 34.946377 198 198 198 0
4.545147 -5.614593 34.949224 134 134 134 0
-8.136161 -4.169783 26.588761 205 205 205 0
-8.102571 -4.205132 26.814167 205 205 205 0
-8.176999 -4.298166 27.407403 206 206 206 0
-8.104580 -4.315425 27.517459 204 204 204 0
-8.020856 -4.327041 27.591523 205 205 205 0
-7.927730 -4.333826 27.634789 207 207 207 0
-7.855084 -4.352141 27.751576 206 206 206 0
-7.848558 -4.408094 28.108364 207 207 207 0
-7.708063 -4.389314 27.988611 208 208 208 0
-7.553287 -4.361757 27.812896 202 202 202 0
-7.291783 -4.270901 27.233548 178 178 178 0
-7.211107 -4.284861 27.322560 172 172 172 0
-7.165450 -4.320345 27.548827 173 173 173 0
-7.107271 -4.349225 27.732985 173 173 173 0
-6.931612 -4.306002 27.457367 173 173 173 0
-6.705788 -4.229805 26.971495 178 178 178 0
-6.504140 -4.166715 26.569200 177 177 177 0
-6.331504 -4.120502 26.274525 180 180 180 0
-4.986899 -3.297788 21.028460 184 184 184 0
-6.297538 -4.232772 26.990414 182 182 182 0
-6.165201 -4.212887 26.863621 183 183 183 0
-5.957486 -4.139948 26.398520 188 188 188 0
-5.783642 -4.088437 26.070057 188 188 188 0
-5.666677 -4.076031 25.990952 188 188 188 0
-5.618419 -4.113485 26.229779 189 189 189 0
-5.551967 -4.138739 26.390810 191 191 191 0
-5.415976 -4.112130 26.221138 193 193 193 0
-5.265119 -4.073017 25.971732 192 192 192 0
-5.126012 -4.041664 25.771807 193 193 193 0
-5.042725 -4.053956 25.850188 196 196 196 0
-4.977316 -4.081399 26.025182 197 197 197 0
-4.877764 -4.081394 26.025151 197 197 197 0
-4.761614 -4.067212 25.934719 197 197 197 0
-4.632655 -4.041252 25.769184 197 197 197 0
-4.539491 -4.046068 25.799894 201 201 201 0
-4.468289 -4.071108 25.959558 200 200 200 0
-4.391861 -4.092416 26.095431 201 201 201 0
-4.282989 -4.083781 26.040368 201 201 201 0
-4.159502 -4.060466 25.891700 201 201 201 0
-4.046765 -4.046765 25.804337 202 202 202 0
-3.953763 -4.052607 25.841587 204 204 204 0
-3.877922 -4.076790 25.995792 204 204 204 0
-3.790537 -4.089790 26.078688 204 204 204 0
-3.667338 -4.063807 25.913008 204 204 204 0
-3.547828 -4.040582 25.764910 205 205 205 0
-3.448447 -4.039610 25.758710 206 206 206 0
-3.356186 -4.047165 25.806888 206 206 206 0
-3.270265 -4.063057 25.908221 206 206 206 0
-3.176623 -4.070048 25.952803 206 206 206 0
-3.070008 -4.060333 25.890854 207 207 207 0
-2.979150 -4.071506 25.962095 207 207 207 0
