ply
    format ascii 1.0
    element vertex 18192
    property float x
    property float y
    property float z
    property uchar red
    property uchar green
    property uchar blue
    property uchar alpha
    end_header
-3.438852 2.959012 20.908051 192 192 192 0
-3.369491 2.968361 20.974111 193 193 193 0
-3.299834 2.977899 21.041505 193 193 193 0
-3.222182 2.980519 21.060015 193 193 193 0
-3.130538 2.969998 20.985678 193 193 193 0
-3.036709 2.956795 20.892389 194 194 194 0
-2.944350 2.944350 20.804450 197 197 197 0
-2.864000 2.943555 20.798836 199 199 199 0
-2.798155 2.958049 20.901248 199 199 199 0
-2.726327 2.966885 20.963680 200 200 200 0
-2.643029 2.963396 20.939027 200 200 200 0
-2.550993 2.949585 20.841444 199 199 199 0
-2.457317 2.932927 20.723739 200 200 200 0
-2.363737 2.915276 20.599017 200 200 200 0
-2.286884 2.917749 20.616493 200 200 200 0
-2.211994 2.922993 20.653543 201 201 201 0
-2.146053 2.940887 20.779984 202 202 202 0
-2.056415 2.926437 20.677880 203 203 203 0
-1.965811 2.909400 20.557498 205 205 205 0
-1.883533 2.903780 20.517786 205 205 205 0
-1.804559 2.902987 20.512182 206 206 206 0
-1.726226 2.903198 20.513673 205 205 205 0
-1.653132 2.912661 20.580539 206 206 206 0
-1.571945 2.908099 20.548306 206 206 206 0
-1.490575 2.902698 20.510145 205 205 205 0
-1.409754 2.897827 20.475723 207 207 207 0
-1.333118 2.901491 20.501618 207 207 207 0
-1.255772 2.903973 20.519153 207 207 207 0
-1.176560 2.902181 20.506489 207 207 207 0
-1.098197 2.902377 20.507877 207 207 207 0
-1.020170 2.903560 20.516232 208 208 208 0
-0.942431 2.905830 20.532273 208 208 208 0
-0.864305 2.907208 20.542007 208 208 208 0
-0.785713 2.907140 20.541528 208 208 208 0
-0.708888 2.914318 20.592246 208 208 208 0
-0.631362 2.920049 20.632742 208 208 208 0
-0.553837 2.927427 20.684873 210 210 210 0
-0.474363 2.925237 20.669400 209 209 209 0
-0.394645 2.920375 20.635050 210 210 210 0
-0.314798 2.911880 20.575021 210 210 210 0
-0.236657 2.918766 20.623680 209 209 209 0
-0.158698 2.935920 20.744885 210 210 210 0
-0.079290 2.933727 20.729389 210 210 210 0
0.000000 2.926707 20.679789 211 211 211 0
0.079023 2.923851 20.659610 211 211 211 0
0.157777 2.918870 20.624411 211 211 211 0
0.237310 2.926822 20.680604 211 211 211 0
0.317429 2.936218 20.746993 210 210 210 0
0.397287 2.939926 20.773195 211 211 211 0
0.476832 2.940465 20.777001 212 212 212 0
0.556196 2.939891 20.772942 211 211 211 0
0.636065 2.941801 20.786438 211 211 211 0
0.718063 2.952035 20.858751 212 212 212 0
0.799697 2.958878 20.907108 211 211 211 0
0.881225 2.964119 20.944139 211 211 211 0
0.960270 2.960831 20.920906 211 211 211 0
1.041857 2.965284 20.952371 210 210 210 0
1.129146 2.984172 21.085832 211 211 211 0
1.215920 2.999269 21.192500 211 211 211 0
1.298834 3.003554 21.222783 211 211 211 0
1.376183 2.995222 21.163904 211 211 211 0
1.457567 2.996111 21.170186 212 212 212 0
1.544564 3.007835 21.253030 211 211 211 0
1.638137 3.030553 21.413552 212 212 212 0
1.717369 3.025840 21.380250 211 211 211 0
1.796523 3.021425 21.349058 212 212 212 0
1.880131 3.024558 21.371195 211 211 211 0
1.971755 3.039790 21.478817 211 211 211 0
2.064028 3.054761 21.584604 210 210 210 0
2.150011 3.059632 21.619018 210 210 210 0
2.236921 3.065411 21.659855 210 210 210 0
2.329416 3.078157 21.749915 210 210 210 0
2.423881 3.092538 21.851532 210 210 210 0
2.513429 3.099896 21.903522 211 211 211 0
2.604279 3.108332 21.963133 211 211 211 0
2.697306 3.118760 22.036815 209 209 209 0
2.800870 3.140369 22.189502 209 209 209 0
2.900742 3.156689 22.304819 208 208 208 0
2.996070 3.167274 22.379606 208 208 208 0
3.088787 3.174587 22.431278 208 208 208 0
3.188733 3.188733 22.531233 209 209 209 0
3.299648 3.212815 22.701396 208 208 208 0
3.394292 3.220226 22.753761 207 207 207 0
3.492937 3.230966 22.829650 206 206 206 0
3.607138 3.255222 23.001041 207 207 207 0
3.723591 3.280307 23.178284 206 206 206 0
3.831589 3.296949 23.295877 204 204 204 0
3.939181 3.312493 23.405710 203 203 203 0
4.075908 3.351302 23.679933 202 202 202 0
4.203273 3.380894 23.889021 203 203 203 0
4.337712 3.414794 24.128560 200 200 200 0
4.502475 3.470658 24.523286 200 200 200 0
4.648548 3.510128 24.802179 199 199 199 0
4.820546 3.567204 25.205470 195 195 195 0
5.445398 3.950583 27.914382 201 201 201 0
5.769101 4.104937 29.005034 211 211 211 0
5.866321 4.095356 28.937334 211 211 211 0
5.978837 4.096611 28.946199 210 210 210 0
5.565535 3.744087 26.455304 211 211 211 0
6.217465 4.107968 29.026449 212 212 212 0
6.333668 4.111329 29.050194 212 212 212 0
6.456508 4.118807 29.103035 210 210 210 0
6.593277 4.134767 29.215808 211 211 211 0
6.717335 4.142357 29.269434 211 211 211 0
6.836447 4.146697 29.300103 210 210 210 0
6.972898 4.161246 29.402901 210 210 210 0
7.104951 4.172749 29.484185 211 211 211 0
7.235796 4.183194 29.557989 211 211 211 0
7.348249 4.182849 29.555552 210 210 210 0
7.476209 4.191208 29.614612 210 210 210 0
7.615085 4.205345 29.714506 210 210 210 0
7.754060 4.219121 29.811840 210 210 210 0
7.863727 4.216781 29.795308 209 209 209 0
7.990712 4.223662 29.843931 210 210 210 0
8.140617 4.242293 29.975575 210 210 210 0
8.260454 4.244955 29.994386 209 209 209 0
9.769554 4.951692 34.988108 210 210 210 0
9.903351 4.951675 34.987990 209 209 209 0
10.036856 4.951516 34.986863 209 209 209 0
8.785677 4.277238 30.222489 209 209 209 0
10.304353 4.951443 34.986346 208 208 208 0
10.438242 4.951474 34.986565 209 209 209 0
10.571797 4.951348 34.985677 209 209 209 0
-6.840552 3.610292 24.838607 91 91 91 0
-6.619986 3.543091 24.376271 120 120 120 0
-6.479626 3.517511 24.200282 139 139 139 0
-6.386973 3.517463 24.199954 147 147 147 0
-6.224581 3.478442 23.931492 153 153 153 0
-6.066191 3.440526 23.670632 163 163 163 0
-5.910250 3.402871 23.411566 164 164 164 0
-5.783462 3.381101 23.261787 166 166 166 0
-5.671273 3.367319 23.166966 174 174 174 0
-5.633216 3.397813 23.376767 176 176 176 0
-5.565128 3.410885 23.466700 176 176 176 0
-5.405539 3.367385 23.167422 176 176 176 0
-5.269241 3.337186 22.959658 182 182 182 0
-5.130183 3.304186 22.732616 173 173 173 0
-4.977533 3.261143 22.436482 159 159 159 0
-4.853621 3.235748 22.261766 158 158 158 0
-5.115762 3.471410 23.883107 160 160 160 0
-4.714132 3.257037 22.408232 168 168 168 0
-4.598759 3.236164 22.264629 172 172 172 0
-4.459908 3.197670 21.999791 173 173 173 0
-4.322135 3.158483 21.730192 174 174 174 0
-4.182082 3.116061 21.438330 177 177 177 0
-4.071884 3.094632 21.290898 183 183 183 0
-3.992244 3.096026 21.300490 184 184 184 0
-3.944681 3.122873 21.485193 183 183 183 0
-3.872192 3.130708 21.539101 183 183 183 0
-3.760063 3.106139 21.370065 184 184 184 0
-3.644118 3.077255 21.171344 186 186 186 0
-3.546035 3.062485 21.069728 191 191 191 0
-3.450452 3.049236 20.978578 192 192 192 0
-3.383329 3.061107 21.060250 192 192 192 0
-3.314097 3.071602 21.132454 193 193 193 0
-3.234060 3.072357 21.137648 193 193 193 0
-3.138545 3.058069 21.039349 193 193 193 0
-3.042455 3.042455 20.931923 194 194 194 0
-2.953305 3.033124 20.867728 195 195 195 0
-2.878241 3.038143 20.902260 197 197 197 0
-2.810514 3.051415 20.993569 198 198 198 0
-2.734131 3.055793 21.023690 199 199 199 0
-2.648016 3.049231 20.978539 199 199 199 0
-2.555762 3.034967 20.880409 200 200 200 0
-2.462963 3.019116 20.771349 201 201 201 0
-2.369361 3.001190 20.648025 200 200 200 0
-2.295447 3.007828 20.693688 200 200 200 0
-2.218049 3.010210 20.710078 200 200 200 0
-2.150029 3.025967 20.818487 201 201 201 0
-2.060088 3.010897 20.714807 202 202 202 0
-1.971582 2.996804 20.617848 203 203 203 0
-1.886929 2.987638 20.554782 204 204 204 0
-1.807654 2.986558 20.547355 204 204 204 0
-1.730545 2.989123 20.565005 205 205 205 0
-1.658096 3.000364 20.642342 206 206 206 0
-1.577220 2.996718 20.617257 205 205 205 0
-1.495011 2.990023 20.571192 206 206 206 0
-1.413153 2.983323 20.525095 207 207 207 0
-1.337567 2.989856 20.570048 207 207 207 0
-1.259179 2.990549 20.574813 206 206 206 0
-1.180041 2.989438 20.567170 207 207 207 0
-1.100790 2.987858 20.556302 208 208 208 0
-1.021492 2.985900 20.542827 208 208 208 0
-0.945183 2.993078 20.592215 208 208 208 0
-0.866809 2.994431 20.601520 208 208 208 0
-0.788335 2.995672 20.610056 208 208 208 0
-0.711090 3.002380 20.656207 208 208 208 0
-0.633233 3.007857 20.693888 208 208 208 0
-0.554999 3.012850 20.728239 209 209 209 0
-0.475088 3.008888 20.700984 209 209 209 0
-0.395331 3.004516 20.670904 209 209 209 0
-0.315886 3.000917 20.646141 209 209 209 0
-0.237060 3.002766 20.658863 209 209 209 0
-0.159291 3.026525 20.822322 210 210 210 0
-0.079500 3.021016 20.784424 210 210 210 0
0.000000 3.011333 20.717807 210 210 210 0
0.079172 3.008545 20.698622 210 210 210 0
0.158150 3.004855 20.673237 210 210 210 0
0.238312 3.018625 20.767972 210 210 210 0
0.318407 3.024869 20.810931 211 211 211 0
0.398014 3.024910 20.811213 211 211 211 0
0.477616 3.024901 20.811151 211 211 211 0
0.557161 3.024590 20.809011 212 212 212 0
0.638092 3.030935 20.852665 211 211 211 0
0.719674 3.038624 20.905563 211 211 211 0
0.802356 3.048952 20.976625 211 211 211 0
0.883339 3.051535 20.994394 210 210 210 0
0.963530 3.051179 20.991946 211 211 211 0
1.044507 3.053173 21.005663 211 211 211 0
1.133417 3.076419 21.165592 211 211 211 0
1.219185 3.088602 21.249410 211 211 211 0
1.300934 3.089717 21.257083 211 211 211 0
1.379057 3.082599 21.208109 210 210 210 0
1.461843 3.086113 21.232287 211 211 211 0
1.554201 3.108403 21.385639 211 211 211 0
1.640520 3.116989 21.444711 212 212 212 0
1.721399 3.114912 21.430421 211 211 211 0
1.800118 3.109295 21.391781 211 211 211 0
1.884932 3.114236 21.425769 210 210 210 0
1.980509 3.135807 21.574176 210 210 210 0
2.070920 3.147799 21.656683 211 211 211 0
2.156091 3.151209 21.680147 210 210 210 0
2.247346 3.162931 21.760789 211 211 211 0
2.337057 3.171720 21.821257 210 210 210 0
2.428590 3.182290 21.893982 210 210 210 0
2.520203 3.192257 21.962552 210 210 210 0
2.610739 3.200261 22.017619 209 209 209 0
2.707180 3.214776 22.117480 209 209 209 0
2.810429 3.236252 22.265234 209 209 209 0
2.910240 3.252621 22.377855 208 208 208 0
3.005033 3.262608 22.446562 208 208 208 0
3.098903 3.271064 22.504742 208 208 208 0
3.052096 3.134585 21.565772 207 207 207 0
3.313523 3.313523 22.796855 207 207 207 0
3.410905 3.323446 22.865128 206 206 206 0
3.506438 3.331116 22.917895 207 207 207 0
3.627578 3.362146 23.131376 206 206 206 0
3.739804 3.383632 23.279201 205 205 205 0
3.856252 3.407850 23.445824 203 203 203 0
3.960315 3.420272 23.531285 203 203 203 0
4.104368 3.465911 23.845277 203 203 203 0
4.233198 3.496990 24.059097 201 201 201 0
4.375403 3.537560 24.338219 200 200 200 0
4.527730 3.584453 24.660837 197 197 197 0
5.172962 4.011684 27.600169 195 195 195 0
6.310838 4.796237 32.997847 196 196 196 0
5.650147 4.209913 28.963972 209 209 209 0
5.745470 4.198613 28.886224 212 212 212 0
5.861234 4.202394 28.912240 212 212 212 0
5.966025 4.198314 28.884168 211 211 211 0
5.846314 4.039272 27.789966 211 211 211 0
6.217880 4.219276 29.028383 211 211 211 0
6.330365 4.220243 29.035042 211 211 211 0
6.453821 4.228365 29.090921 211 211 211 0
6.587299 4.242667 29.189317 210 210 210 0
6.716650 4.253878 29.266448 210 210 210 0
6.828244 4.253660 29.264946 210 210 210 0
6.961124 4.266495 29.353252 211 211 211 0
7.097901 4.281274 29.454927 210 210 210 0
7.230938 4.293369 29.538145 210 210 210 0
7.345760 4.294444 29.545539 210 210 210 0
7.474895 4.303727 29.609407 210 210 210 0
7.612798 4.317706 29.705582 209 209 209 0
7.750275 4.331036 29.797289 210 210 210 0
7.866809 4.332445 29.806986 209 209 209 0
7.983633 4.333972 29.817488 210 210 210 0
8.140154 4.356702 29.973872 210 210 210 0
8.260937 4.359939 29.996139 210 210 210 0
9.769569 5.085529 34.988158 209 209 209 0
9.903438 5.085549 34.988299 209 209 209 0
10.036879 5.085352 34.986943 209 209 209 0
8.783037 4.391518 30.213404 210 210 210 0
10.304451 5.085313 34.986676 209 209 209 0
10.438225 5.085289 34.986508 210 210 210 0
10.571943 5.085238 34.986159 209 209 209 0
-6.768189 3.666103 24.575851 79 79 79 0
-6.632096 3.642983 24.420865 115 115 115 0
-6.514953 3.629759 24.332223 131 131 131 0
-6.405517 3.620510 24.270217 147 147 147 0
-6.258461 3.589411 24.061747 150 150 150 0
-6.056414 3.525375 23.632479 161 161 161 0
-5.903841 3.488633 23.386179 164 164 164 0
-5.794810 3.476886 23.307430 164 164 164 0
-5.683849 3.463596 23.218338 170 170 170 0
-5.628265 3.484164 23.356219 175 175 175 0
-5.570807 3.504217 23.490647 176 176 176 0
-5.413473 3.461073 23.201427 176 176 176 0
-5.259232 3.418501 22.916042 178 178 178 0
-5.147748 3.402749 22.810450 184 184 184 0
-5.018640 3.374602 22.621769 172 172 172 0
-4.890172 3.345907 22.429411 159 159 159 0
-4.942096 3.441817 23.072344 158 158 158 0
-4.757736 3.373668 22.615503 162 162 162 0
-4.612068 3.330938 22.329062 171 171 171 0
-4.480182 3.296738 22.099800 173 173 173 0
-4.334995 3.251247 21.794848 173 173 173 0
-4.197015 3.209482 21.514877 174 174 174 0
-4.091758 3.191572 21.394815 178 178 178 0
-4.011585 3.192894 21.403683 182 182 182 0
-3.965841 3.222246 21.600442 183 183 183 0
-3.884247 3.223099 21.606160 184 184 184 0
-3.767660 3.194321 21.413243 184 184 184 0
-3.656181 3.168690 21.241430 185 185 185 0
-3.555125 3.151134 21.123739 187 187 187 0
-3.469601 3.146848 21.095007 191 191 191 0
-3.400884 3.157964 21.169527 192 192 192 0
-3.328487 3.166122 21.224211 193 193 193 0
-3.245499 3.164362 21.212415 193 193 193 0
-3.148096 3.148096 21.103373 193 193 193 0
-3.049650 3.129904 20.981423 193 193 193 0
-2.964461 3.124702 20.946550 194 194 194 0
-2.889225 3.129994 20.982028 194 194 194 0
-2.820382 3.142712 21.067283 197 197 197 0
-2.742902 3.146269 21.091131 198 198 198 0
-2.653009 3.135374 21.018093 200 200 200 0
-2.562454 3.122991 20.935084 199 199 199 0
-2.467363 3.104102 20.808457 200 200 200 0
-2.379573 3.093444 20.737017 200 200 200 0
-2.298887 3.091607 20.724697 201 201 201 0
-1.812743 2.524891 16.925701 201 201 201 0
-2.154124 3.111513 20.858139 201 201 201 0
-2.064431 3.096646 20.758477 202 202 202 0
-1.974702 3.080536 20.650481 202 202 202 0
-1.891214 3.073223 20.601461 202 202 202 0
-1.812220 3.072895 20.599265 203 203 203 0
-1.734186 3.074238 20.608266 204 204 204 0
-1.662111 3.086778 20.692330 204 204 204 0
-1.581398 3.083727 20.671872 206 206 206 0
-1.497471 3.073756 20.605035 206 206 206 0
-1.416021 3.068045 20.566750 206 206 206 0
-1.342475 3.079795 20.645516 206 206 206 0
-1.263264 3.079206 20.641569 207 207 207 0
-1.183467 3.077013 20.626869 207 207 207 0
-1.103207 3.073220 20.601443 207 207 207 0
-1.025543 3.076630 20.624297 207 207 207 0
-0.946842 3.077235 20.628357 208 208 208 0
-0.869511 3.082810 20.665729 208 208 208 0
-0.790714 3.083785 20.672266 208 208 208 0
-0.713395 3.091380 20.723180 208 208 208 0
-0.635455 3.097842 20.766496 208 208 208 0
-0.556421 3.100058 20.781353 208 208 208 0
-0.476133 3.094863 20.746527 209 209 209 0
-0.395984 3.088676 20.705049 209 209 209 0
-0.316720 3.088018 20.700640 209 209 209 0
-0.228626 2.972144 19.923877 210 210 210 0
-0.159364 3.107606 20.831951 210 210 210 0
-0.079653 3.106471 20.824342 210 210 210 0
0.000000 3.097320 20.762999 210 210 210 0
0.079300 3.092715 20.732124 210 210 210 0
0.158478 3.090318 20.716060 210 210 210 0
0.238934 3.106141 20.822131 211 211 211 0
0.319239 3.112584 20.865318 210 210 210 0
0.399175 3.113566 20.871904 211 211 211 0
0.478756 3.111915 20.860838 211 211 211 0
0.558566 3.112009 20.861466 211 211 211 0
0.639506 3.117594 20.898903 209 209 209 0
0.721593 3.126905 20.961321 210 210 210 0
0.804372 3.137052 21.029343 210 210 210 0
0.885058 3.137932 21.035241 210 210 210 0
0.966201 3.140153 21.050131 211 211 211 0
1.049365 3.148094 21.103360 211 211 211 0
1.137968 3.170053 21.250567 211 211 211 0
1.223557 3.181247 21.325606 210 210 210 0
1.304372 3.179407 21.313272 211 211 211 0
1.384507 3.176222 21.291920 211 211 211 0
1.467580 3.179756 21.315609 211 211 211 0
1.565131 3.212637 21.536028 211 211 211 0
1.644496 3.206767 21.496676 211 211 211 0
1.725895 3.205233 21.486396 211 211 211 0
1.805072 3.199901 21.450653 210 210 210 0
1.891123 3.206687 21.496145 210 210 210 0
1.987450 3.229606 21.649779 210 210 210 0
2.076762 3.239748 21.717769 210 210 210 0
2.162113 3.243169 21.740700 210 210 210 0
2.253392 3.254900 21.819338 210 210 210 0
2.347423 3.269625 21.918049 209 209 209 0
2.437476 3.277985 21.974093 210 210 210 0
2.529021 3.287727 22.039398 209 209 209 0
2.619445 3.295431 22.091039 208 208 208 0
2.718565 3.313252 22.210502 208 208 208 0
2.822733 3.335957 22.362707 208 208 208 0
2.921334 3.350942 22.463158 208 208 208 0
3.017096 3.361907 22.536664 209 209 209 0
3.112599 3.371983 22.604208 208 208 208 0
3.227338 3.401789 22.804014 206 206 206 0
3.324209 3.411689 22.870377 206 206 206 0
3.423577 3.423577 22.950072 206 206 206 0
3.525868 3.437722 23.044890 205 205 205 0
3.646577 3.468695 23.252522 206 206 206 0
3.760800 3.492171 23.409895 204 204 204 0
3.872652 3.512405 23.545534 203 203 203 0
3.994218 3.540329 23.732726 203 203 203 0
4.133951 3.582757 24.017143 201 201 201 0
4.258402 3.610384 24.202339 199 199 199 0
4.420888 3.668397 24.591230 198 198 198 0
4.572942 3.715515 24.907090 196 196 196 0
4.977937 3.962031 26.559621 194 194 194 0
5.519089 4.304889 28.857980 205 205 205 0
5.627522 4.303400 28.847994 211 211 211 0
5.745694 4.309270 28.887348 212 212 212 0
5.860009 4.312082 28.906196 211 211 211 0
5.965349 4.308308 28.880897 211 211 211 0
5.999514 4.254201 28.518189 211 211 211 0
6.216067 4.329047 29.019923 211 211 211 0
6.329399 4.330641 29.030610 210 210 210 0
6.448835 4.336285 29.068446 210 210 210 0
6.584695 4.352595 29.177779 211 211 211 0
6.712752 4.363289 29.249465 210 210 210 0
6.829669 4.366510 29.271054 211 211 211 0
6.955457 4.375207 29.329359 210 210 210 0
7.091686 4.390091 29.429136 210 210 210 0
7.227246 4.404103 29.523066 210 210 210 0
7.344173 4.406504 29.539156 210 210 210 0
7.477938 4.418782 29.621463 210 210 210 0
7.613018 4.431458 29.706441 210 210 210 0
7.749314 4.444459 29.793593 209 209 209 0
7.860168 4.442703 29.781823 209 209 209 0
7.980796 4.446444 29.806896 210 210 210 0
8.139441 4.470961 29.971247 210 210 210 0
8.255513 4.471736 29.976445 209 209 209 0
9.769713 5.219436 34.988677 209 209 209 0
9.903581 5.219455 34.988803 209 209 209 0
10.037042 5.219262 34.987509 209 209 209 0
8.774137 4.502518 30.182791 210 210 210 0
8.886961 4.501188 30.173876 210 210 210 0
10.438623 5.219312 34.987843 209 209 209 0
10.572267 5.219220 34.987232 209 209 209 0
-6.665623 3.755280 24.544316 102 102 102 0
-6.584667 3.762667 24.592593 126 126 126 0
-6.415887 3.719355 24.309510 143 143 143 0
-6.265772 3.685748 24.089856 149 149 149 0
-6.075707 3.627288 23.707764 156 156 156 0
-5.920358 3.588096 23.451606 163 163 163 0
-5.810644 3.575781 23.371117 165 165 165 0
-5.701174 3.563234 23.289111 167 167 167 0
-5.661435 3.594562 23.493871 174 174 174 0
-5.575219 3.596915 23.509251 176 176 176 0
-5.414029 3.550183 23.203812 176 176 176 0
-5.256980 3.504653 22.906231 177 177 177 0
-5.127885 3.476532 22.722433 182 182 182 0
-5.041710 3.477042 22.725762 183 183 183 0
-4.506624 3.162543 20.670216 169 169 169 0
-4.946054 3.532896 23.090822 158 158 158 0
-4.779173 3.475762 22.717399 160 160 160 0
-4.627300 3.427629 22.402806 165 165 165 0
-4.490531 3.389080 22.150849 172 172 172 0
-4.346890 3.343761 21.854649 173 173 173 0
-4.220397 3.310115 21.634741 174 174 174 0
-4.120944 3.296755 21.547421 174 174 174 0
-4.037970 3.296302 21.544459 178 178 178 0
-3.984846 3.320705 21.703952 183 183 183 0
-3.892668 3.312909 21.652997 184 184 184 0
-3.772561 3.280488 21.441097 184 184 184 0
-3.661170 3.254373 21.270411 185 185 185 0
-3.563968 3.239971 21.176282 185 185 185 0
-3.488389 3.245013 21.209236 186 186 186 0
-3.419206 3.256387 21.283573 190 190 190 0
-3.340724 3.259243 21.302243 192 192 192 0
-3.255053 3.255053 21.274856 192 192 192 0
-3.156102 3.237027 21.157042 194 194 194 0
-3.059895 3.220942 21.051911 194 194 194 0
-2.972172 3.213158 21.001036 193 193 193 0
-2.906973 3.229970 21.110914 194 194 194 0
-2.831069 3.235508 21.147109 194 194 194 0
-2.750681 3.236096 21.150952 195 195 195 0
-2.658318 3.222204 21.060158 199 199 199 0
-2.565423 3.206779 20.959338 200 200 200 0
-2.471984 3.189657 20.847430 200 200 200 0
-2.384782 3.179709 20.782413 200 200 200 0
-2.312777 3.190038 20.849921 200 200 200 0
-2.241310 3.201872 20.927268 201 201 201 0
-2.154068 3.191212 20.857592 201 201 201 0
-2.069696 3.184148 20.811427 201 201 201 0
-1.980688 3.169101 20.713079 202 202 202 0
-1.895275 3.158791 20.645693 202 202 202 0
-1.816764 3.159589 20.650908 203 203 203 0
-1.739858 3.163378 20.675672 203 203 203 0
-1.666766 3.174793 20.750283 203 203 203 0
-1.585532 3.171064 20.725906 203 203 203 0
-1.501524 3.161103 20.660802 204 204 204 0
-1.421043 3.157874 20.639701 205 205 205 0
-1.345388 3.165620 20.690326 206 206 206 0
-1.267016 3.167541 20.702883 206 206 206 0
-1.186853 3.164942 20.685895 207 207 207 0
-1.106989 3.162825 20.672060 207 207 207 0
-1.028377 3.164236 20.681284 207 207 207 0
-0.948963 3.163210 20.674577 207 207 207 0
-0.871925 3.170635 20.723106 208 208 208 0
-0.793354 3.173416 20.741279 208 208 208 0
-0.715434 3.179709 20.782409 208 208 208 0
-0.637603 3.188013 20.836685 209 209 209 0
-0.558029 3.188735 20.841408 209 209 209 0
-0.477389 3.182593 20.801259 208 208 208 0
-0.397296 3.178370 20.773659 209 209 209 0
-0.317505 3.175049 20.751951 209 209 209 0
-0.239440 3.192530 20.866208 209 209 209 0
-0.159859 3.197181 20.896605 210 210 210 0
-0.079792 3.191683 20.860670 209 209 209 0
0.000000 3.184022 20.810601 210 210 210 0
0.079498 3.179932 20.783871 210 210 210 0
0.158914 3.178271 20.773015 210 210 210 0
0.239468 3.192907 20.868675 210 210 210 0
0.320251 3.202511 20.931445 209 209 209 0
0.400252 3.202017 20.928215 209 209 209 0
0.480091 3.200606 20.918991 209 209 209 0
0.560175 3.201002 20.921583 209 209 209 0
0.641553 3.207765 20.965786 209 209 209 0
0.723864 3.217175 21.027288 209 209 209 0
0.806800 3.227198 21.092798 210 210 210 0
0.887238 3.226319 21.087052 210 210 210 0
0.969659 3.232196 21.125462 210 210 210 0
1.053572 3.241760 21.187975 209 209 209 0
1.142078 3.263080 21.327323 210 210 210 0
1.226857 3.271617 21.383120 211 211 211 0
1.307188 3.267969 21.359275 211 211 211 0
1.387109 3.263786 21.331932 211 211 211 0
1.472758 3.272795 21.390815 210 210 210 0
1.568671 3.302466 21.584745 210 210 210 0
1.646998 3.293997 21.529391 210 210 210 0
1.729729 3.294722 21.534133 209 209 209 0
1.811241 3.293165 21.523952 209 209 209 0
1.899239 3.303024 21.588392 209 209 209 0
1.994576 3.324294 21.727411 209 209 209 0
2.082079 3.331327 21.773379 210 210 210 0
2.168608 3.336320 21.806011 210 210 210 0
2.261180 3.349896 21.894744 209 209 209 0
2.354081 3.362972 21.980211 210 210 210 0
2.446660 3.374704 22.056890 208 208 208 0
2.538091 3.384121 22.118439 207 207 207 0
2.631190 3.395084 22.190090 208 208 208 0
2.728514 3.410642 22.291777 208 208 208 0
2.832432 3.433251 22.439551 208 208 208 0
2.931635 3.448982 22.542369 208 208 208 0
3.027547 3.460054 22.614730 208 208 208 0
3.128199 3.475777 22.717494 206 206 206 0
3.244259 3.507307 22.923573 206 206 206 0
3.339541 3.515306 22.975857 206 206 206 0
3.436056 3.524160 23.033729 205 205 205 0
3.549316 3.549316 23.198143 205 205 205 0
3.664535 3.575156 23.367034 204 204 204 0
3.778621 3.598687 23.520830 203 203 203 0
3.895438 3.623664 23.684077 203 203 203 0
4.025976 3.659978 23.921426 202 202 202 0
4.157817 3.695837 24.155798 199 199 199 0
4.296701 3.736261 24.420010 199 199 199 0
4.454917 3.791419 24.780516 197 197 197 0
5.640080 4.700067 30.719391 195 195 195 0
5.315016 4.338788 28.358094 202 202 202 0
5.492377 4.393902 28.718311 212 212 212 0
5.605976 4.396844 28.737541 212 212 212 0
5.749466 4.422666 28.906312 212 212 212 0
5.855373 4.419149 28.883330 212 212 212 0
5.967069 4.420051 28.889221 211 211 211 0
6.082550 4.423673 28.912894 211 211 211 0
6.219356 4.442397 29.035277 212 212 212 0
6.328662 4.441166 29.027231 211 211 211 0
6.444396 4.444411 29.048440 210 210 210 0
6.578533 4.460022 29.150472 211 211 211 0
6.710174 4.473449 29.238231 211 211 211 0
6.824266 4.474929 29.247901 210 210 210 0
6.954949 4.487064 29.327215 210 210 210 0
7.085589 4.498787 29.403835 210 210 210 0
7.215825 4.509891 29.476409 210 210 210 0
7.340768 4.517396 29.525461 210 210 210 0
7.471816 4.528373 29.597212 210 210 210 0
7.609089 4.542740 29.691109 210 210 210 0
7.746140 4.556553 29.781394 209 209 209 0
7.860376 4.556740 29.782612 209 209 209 0
7.980035 4.560020 29.804052 209 209 209 0
8.135176 4.583198 29.955540 209 209 209 0
8.251332 4.584073 29.961265 209 209 209 0
8.361796 4.581806 29.946445 209 209 209 0
9.903626 5.353311 34.988962 209 209 209 0
8.646884 4.611671 30.141642 209 209 209 0
8.775739 4.618810 30.188302 209 209 209 0
8.883090 4.614592 30.160735 208 208 208 0
10.438728 5.353194 34.988194 209 209 209 0
9.142389 4.629058 30.255278 209 209 209 0
-6.666882 3.849890 24.548954 84 84 84 0
-6.614926 3.874457 24.705606 119 119 119 0
-6.435594 3.824049 24.384178 135 135 135 0
-6.286055 3.790121 24.167838 148 148 148 0
-6.087993 3.725489 23.755705 150 150 150 0
-5.927611 3.682304 23.480335 161 161 161 0
-5.824250 3.673758 23.425841 164 164 164 0
-5.713279 3.660070 23.338559 165 165 165 0
-5.649508 3.676664 23.444374 171 171 171 0
-5.585297 3.693503 23.551749 176 176 176 0
-5.431544 3.650710 23.278879 176 176 176 0
-5.260295 3.594535 22.920677 176 176 176 0
-5.130105 3.564988 22.732270 180 180 180 0
-5.054154 3.572764 22.781853 184 184 184 0
-5.676826 4.083331 26.037499 183 183 183 0
-4.932002 3.610930 23.025217 168 168 168 0
-4.808540 3.584548 22.856995 162 162 162 0
-4.652807 3.532687 22.526301 162 162 162 0
-4.509695 3.488632 22.245382 166 166 166 0
-4.363154 3.440179 21.936420 173 173 173 0
-4.243911 3.411772 21.755278 174 174 174 0
-4.141099 3.395701 21.652806 175 175 175 0
-4.073451 3.408398 21.733768 175 175 175 0
-4.011421 3.426422 21.848698 180 180 180 0
-3.904197 3.405789 21.717131 184 184 184 0
-3.781085 3.370097 21.489542 185 185 185 0
-3.675911 3.349163 21.356053 185 185 185 0
-3.576299 3.332460 21.249548 186 186 186 0
-3.505661 3.342607 21.314248 186 186 186 0
-3.436009 3.354200 21.388170 187 187 187 0
-3.357970 3.357970 21.412211 190 190 190 0
-3.266962 3.348636 21.352692 193 193 193 0
-3.166157 3.328524 21.224448 194 194 194 0
-3.068050 3.310265 21.108018 194 194 194 0
-2.987533 3.310509 21.109575 194 194 194 0
-2.919480 3.324964 21.201746 193 193 193 0
-2.844024 3.331571 21.243876 195 195 195 0
-2.760709 3.329090 21.228056 195 195 195 0
-2.667280 3.313894 21.131158 196 196 196 0
-2.570066 3.292897 20.997270 197 197 197 0
-2.479674 3.279569 20.912281 199 199 199 0
-2.394560 3.272566 20.867627 200 200 200 0
-2.322039 3.282883 20.933417 201 201 201 0
-2.256785 3.304578 21.071755 201 201 201 0
-2.165179 3.287864 20.965178 202 202 202 0
-2.074286 3.270989 20.857573 201 201 201 0
-1.986814 3.258374 20.777136 202 202 202 0
-1.899348 3.244719 20.690065 202 202 202 0
-1.821773 3.247508 20.707847 203 203 203 0
-1.746364 3.254587 20.752985 203 203 203 0
-1.671290 3.262995 20.806601 202 202 202 0
-1.588836 3.257114 20.769098 202 202 202 0
-1.506030 3.249854 20.722804 204 204 204 0
-1.425508 3.246989 20.704539 204 204 204 0
-1.349311 3.254220 20.750644 204 204 204 0
-1.269849 3.253987 20.749162 205 205 205 0
-1.190759 3.254741 20.753968 206 206 206 0
-1.112197 3.257149 20.769321 206 206 206 0
-1.031171 3.252154 20.737469 206 206 206 0
-0.953084 3.256372 20.764367 207 207 207 0
-0.874698 3.260237 20.789010 208 208 208 0
-0.796053 3.263816 20.811836 208 208 208 0
-0.717218 3.267325 20.834208 208 208 208 0
-0.639020 3.274976 20.882995 208 208 208 0
-0.559742 3.278492 20.905415 208 208 208 0
-0.478307 3.268434 20.841282 208 208 208 0
-0.398057 3.264064 20.813415 208 208 208 0
-0.318630 3.265958 20.825492 209 209 209 0
-0.240164 3.282241 20.929324 209 209 209 0
-0.160020 3.280411 20.917652 209 209 209 0
-0.079869 3.274635 20.880824 209 209 209 0
0.000000 3.271474 20.860666 209 209 209 0
0.079683 3.267001 20.832143 208 208 208 0
0.159328 3.266232 20.827240 209 209 209 0
0.240160 3.282193 20.929017 209 209 209 0
0.321123 3.291512 20.988442 208 208 208 0
0.401072 3.288787 20.971066 210 210 210 0
0.481272 3.288689 20.970437 209 209 209 0
0.561611 3.289433 20.975183 209 209 209 0
0.644270 3.301882 21.054564 209 209 209 0
0.726685 3.310454 21.109221 210 210 210 0
0.808952 3.316704 21.149078 210 210 210 0
0.889272 3.314559 21.135402 210 210 210 0
0.971933 3.320770 21.175003 210 210 210 0
1.058422 3.338099 21.285501 211 211 211 0
1.146160 3.356611 21.403547 211 211 211 0
1.231082 3.364958 21.456770 210 210 210 0
1.309789 3.356334 21.401776 211 211 211 0
1.391058 3.354905 21.392668 210 210 210 0
1.478170 3.366942 21.469421 209 209 209 0
1.572128 3.392486 21.632306 209 209 209 0
1.652023 3.386647 21.595071 209 209 209 0
1.733867 3.385169 21.585649 209 209 209 0
1.817290 3.386767 21.595835 210 210 210 0
1.908728 3.402516 21.696258 209 209 209 0
2.002335 3.420656 21.811933 210 210 210 0
2.087573 3.423619 21.830827 210 210 210 0
2.176267 3.431805 21.883023 210 210 210 0
2.270029 3.447080 21.980427 209 209 209 0
2.363942 3.461486 22.072284 208 208 208 0
2.458066 3.475197 22.159716 208 208 208 0
2.547592 3.481709 22.201240 208 208 208 0
2.642518 3.494943 22.285626 208 208 208 0
2.740947 3.511839 22.393361 208 208 208 0
2.844492 3.534065 22.535088 207 207 207 0
2.942711 3.548564 22.627537 208 208 208 0
3.039966 3.561103 22.707494 206 206 206 0
3.147224 3.584339 22.855661 205 205 205 0
3.249867 3.601204 22.963202 206 206 206 0
3.353771 3.618543 23.073762 205 205 205 0
3.452851 3.629920 23.146312 205 205 205 0
3.574421 3.663782 23.362230 203 203 203 0
3.688182 3.688182 23.517822 202 202 202 0
3.806564 3.715932 23.694767 202 202 202 0
3.923917 3.741409 23.857222 202 202 202 0
4.064578 3.787448 24.150790 200 200 200 0
4.196179 3.823186 24.378675 199 199 199 0
4.346821 3.874341 24.704865 197 197 197 0
4.479708 3.907831 24.918417 195 195 195 0
5.106011 4.361385 27.810520 197 197 197 0
5.311578 4.444381 28.339751 210 210 210 0
5.470194 4.485559 28.602321 212 212 212 0
5.613382 4.512718 28.775504 211 211 211 0
5.744543 4.529351 28.881565 212 212 212 0
5.852631 4.527507 28.869805 212 212 212 0
5.969532 4.532423 28.901148 211 211 211 0
6.098033 4.545807 28.986493 211 211 211 0
6.222247 4.555574 29.048772 210 210 210 0
6.331731 4.554403 29.041306 210 210 210 0
6.442641 4.554281 29.040527 211 211 211 0
6.575064 4.569112 29.135103 211 211 211 0
6.705540 4.582119 29.218037 211 211 211 0
6.824489 4.586951 29.248853 210 210 210 0
6.948390 4.594903 29.299559 210 210 210 0
7.085920 4.611472 29.405210 210 210 210 0
7.217578 4.623761 29.483570 211 211 211 0
7.341839 4.631006 29.529771 210 210 210 0
7.470991 4.641070 29.593942 210 210 210 0
7.609610 4.656627 29.693143 210 210 210 0
7.741397 4.667607 29.763158 209 209 209 0
7.858636 4.669624 29.776019 210 210 210 0
7.978620 4.673191 29.798766 210 210 210 0
8.130924 4.695323 29.939885 210 210 210 0
8.248274 4.696934 29.950161 209 209 209 0
8.359127 4.694852 29.936885 210 210 210 0
8.487243 4.702391 29.984959 209 209 209 0
8.645348 4.726124 30.136289 209 209 209 0
8.770651 4.731535 30.170797 209 209 209 0
8.880520 4.728588 30.152007 209 209 209 0
8.993529 4.727368 30.144224 210 210 210 0
9.131838 4.739308 30.220361 209 209 209 0
-6.650564 3.990339 24.838709 104 104 104 0
-6.417274 3.906167 24.314764 126 126 126 0
-6.271452 3.873544 24.111697 144 144 144 0
-6.066869 3.803112 23.673279 149 149 149 0
-5.924259 3.769983 23.467059 156 156 156 0
-5.839438 3.773175 23.486931 164 164 164 0
-5.726141 3.757780 23.391099 165 165 165 0
-5.662444 3.774963 23.498057 167 167 167 0
-5.599853 3.793449 23.613128 175 175 175 0
-5.437489 3.743845 23.304355 177 177 177 0
-5.281278 3.696895 23.012104 176 176 176 0
-5.138973 3.658252 22.771565 178 178 178 0
-5.056781 3.661807 22.793694 183 183 183 0
-5.054511 3.724377 23.183173 185 185 185 0
-4.963686 3.722764 23.173137 183 183 183 0
-4.836241 3.693130 22.988670 172 172 172 0
-4.685457 3.644245 22.684374 163 163 163 0
-4.534187 3.593129 22.366196 162 162 162 0
-4.390026 3.545790 22.071524 167 167 167 0
-4.275866 3.521302 21.919090 172 172 172 0
-4.175801 3.507673 21.834255 174 174 174 0
-4.109179 3.522154 21.924394 174 174 174 0
-4.034853 3.530496 21.976321 176 176 176 0
-3.921270 3.504114 21.812100 180 180 180 0
-3.797819 3.467574 21.584649 184 184 184 0
-3.700087 3.453415 21.496512 184 184 184 0
-3.591820 3.428555 21.341769 186 186 186 0
-3.517747 3.435939 21.387731 186 186 186 0
-3.453267 3.453267 21.495595 186 186 186 0
-3.373181 3.455454 21.509204 187 187 187 0
-3.280619 3.444650 21.441954 190 190 190 0
-3.174128 3.418291 21.277879 192 192 192 0
-3.078947 3.403046 21.182983 193 193 193 0
-3.004987 3.411066 21.232907 194 194 194 0
-2.930307 3.418691 21.280368 194 194 194 0
-2.857960 3.429552 21.347975 194 194 194 0
-2.770904 3.422881 21.306451 195 195 195 0
-2.674439 3.403831 21.187868 196 196 196 0
-2.575913 3.380886 21.045041 196 196 196 0
-2.484342 3.365883 20.951654 197 197 197 0
-2.402407 3.363370 20.936009 199 199 199 0
-2.331660 3.376887 21.020152 201 201 201 0
-2.264042 3.396063 21.139511 201 201 201 0
-2.173718 3.381339 21.047863 200 200 200 0
-2.075806 3.353225 20.872861 201 201 201 0
-1.991463 3.345658 20.825755 201 201 201 0
-1.906708 3.336738 20.770236 202 202 202 0
-1.828223 3.338494 20.781166 202 202 202 0
-1.752543 3.345764 20.826415 202 202 202 0
-1.675846 3.351693 20.863322 203 203 203 0
-1.592714 3.344699 20.819788 202 202 202 0
-1.508957 3.335588 20.763078 204 204 204 0
-1.430646 3.338174 20.779174 203 203 203 0
-1.354014 3.345211 20.822977 204 204 204 0
-1.274528 3.345637 20.825628 204 204 204 0
-1.194952 3.345866 20.827056 205 205 205 0
-1.115534 3.346601 20.831628 205 205 205 0
-1.035037 3.343965 20.815219 205 205 205 0
-0.956814 3.348849 20.845620 205 205 205 0
-0.876622 3.347103 20.834750 206 206 206 0
-0.798645 3.354310 20.879612 206 206 206 0
-0.719846 3.359281 20.910554 206 206 206 0
-0.641080 3.365673 20.950343 206 206 206 0
-0.561111 3.366668 20.956540 206 206 206 0
-0.479695 3.357868 20.901763 207 207 207 0
-0.398909 3.350839 20.858010 207 207 207 0
-0.319426 3.353971 20.877507 207 207 207 0
-0.240805 3.371268 20.985175 208 208 208 0
-0.160439 3.369215 20.972392 207 207 207 0
-0.080139 3.365846 20.951421 207 207 207 0
0.000000 3.359845 20.914067 208 208 208 0
0.079881 3.355017 20.884015 208 208 208 0
0.159916 3.358237 20.904061 209 209 209 0
0.240940 3.373159 20.996941 209 209 209 0
0.321809 3.378996 21.033278 208 208 208 0
0.402216 3.378611 21.030883 209 209 209 0
0.482239 3.375674 21.012596 210 210 210 0
0.563763 3.382580 21.055590 209 209 209 0
0.646657 3.394951 21.132590 210 210 210 0
0.729979 3.406569 21.204913 210 210 210 0
0.811794 3.409535 21.223375 210 210 210 0
0.892577 3.408021 21.213950 209 209 209 0
0.975021 3.412573 21.242287 210 210 210 0
1.062365 3.432255 21.364801 210 210 210 0
1.149118 3.447353 21.458778 210 210 210 0
1.233210 3.452988 21.493859 210 210 210 0
1.312779 3.446044 21.450634 210 210 210 0
1.397488 3.452618 21.491556 209 209 209 0
1.482517 3.459206 21.532564 209 209 209 0
1.576894 3.485767 21.697893 208 208 208 0
1.656391 3.478421 21.652168 209 209 209 0
1.737390 3.474781 21.629509 209 209 209 0
1.824147 3.482463 21.677331 209 209 209 0
1.919332 3.504867 21.816788 209 209 209 0
2.009537 3.516689 21.890379 209 209 209 0
2.093856 3.517679 21.896536 209 209 209 0
2.184293 3.528473 21.963727 208 208 208 0
2.276890 3.541828 22.046862 208 208 208 0
2.371043 3.556564 22.138588 207 207 207 0
2.465403 3.570583 22.225851 207 207 207 0
2.555774 3.578084 22.272540 208 208 208 0
2.652387 3.593556 22.368851 208 208 208 0
2.757178 3.618796 22.525960 208 208 208 0
2.860373 3.640475 22.660906 207 207 207 0
2.956486 3.652129 22.733454 205 205 205 0
3.052908 3.663489 22.804166 205 205 205 0
3.173495 3.702411 23.046440 205 205 205 0
3.269755 3.711614 23.103726 205 205 205 0
3.366731 3.721124 23.162924 205 205 205 0
3.473410 3.740596 23.284131 203 203 203 0
3.599423 3.779394 23.525641 202 202 202 0
3.713485 3.804058 23.679166 202 202 202 0
3.828561 3.828561 23.831689 201 201 201 0
3.962221 3.870076 24.090111 199 199 199 0
4.094358 3.908251 24.327739 198 198 198 0
4.232489 3.950323 24.589625 198 198 198 0
4.381504 4.000504 24.901984 195 195 195 0
5.505787 4.920065 30.625986 196 196 196 0
5.227159 4.573764 28.470364 208 208 208 0
5.323459 4.562965 28.403141 213 213 213 0
5.457528 4.584324 28.536094 213 213 213 0
5.609088 4.619249 28.753496 212 212 212 0
5.731382 4.629193 28.815396 212 212 212 0
5.850265 4.636059 28.858135 212 212 212 0
5.963291 4.638115 28.870931 211 211 211 0
6.098638 4.657141 28.989364 211 211 211 0
6.222547 4.666910 29.050172 211 211 211 0
6.327626 4.662462 29.022481 210 210 210 0
6.442257 4.665083 29.038797 211 211 211 0
6.576039 4.681248 29.139422 210 210 210 0
6.707194 4.695036 29.225246 211 211 211 0
6.820550 4.696116 29.231972 211 211 211 0
6.950043 4.708093 29.306526 210 210 210 0
7.087671 4.725114 29.412472 210 210 210 0
7.220594 4.738515 29.495890 211 211 211 0
7.337026 4.740848 29.510411 210 210 210 0
7.470202 4.753765 29.590820 211 211 211 0
7.608604 4.769573 29.689217 211 211 211 0
7.738343 4.779565 29.751416 209 209 209 0
7.860306 4.784534 29.782349 210 210 210 0
7.978408 4.787045 29.797975 210 210 210 0
8.128875 4.808630 29.932337 209 209 209 0
8.243421 4.808662 29.932537 210 210 210 0
8.357519 4.808436 29.931127 210 210 210 0
8.483818 4.815140 29.972862 210 210 210 0
8.641461 4.839218 30.122740 209 209 209 0
8.766109 4.844429 30.155175 209 209 209 0
8.879970 4.843620 30.150142 209 209 209 0
8.990087 4.840816 30.132686 209 209 209 0
9.127341 4.852510 30.205480 209 209 209 0
-6.661132 4.091838 24.878178 86 86 86 0
-6.468744 4.031246 24.509782 119 119 119 0
-6.294692 3.980467 24.201047 136 136 136 0
-6.081688 3.903173 23.731103 148 148 148 0
-5.936518 3.867731 23.515618 151 151 151 0
-5.841914 3.864651 23.496890 162 162 162 0
-5.747555 3.861638 23.478574 165 165 165 0
-5.679298 3.876347 23.567999 166 166 166 0
-5.613530 3.893255 23.670800 171 171 171 0
-5.452550 3.843601 23.368906 176 176 176 0
-5.292527 3.792977 23.061118 177 177 177 0
-5.145090 3.749812 22.798672 177 177 177 0
-5.052630 3.745915 22.774982 179 179 179 0
-5.058756 3.816254 23.202640 184 184 184 0
-4.980741 3.824497 23.252758 186 186 186 0
-4.859090 3.798925 23.097279 185 185 185 0
-4.708871 3.749657 22.797732 175 175 175 0
-4.561016 3.700447 22.498535 162 162 162 0
-4.421304 3.656078 22.228776 162 162 162 0
-4.305924 3.630485 22.073171 168 168 168 0
-4.211542 3.621926 22.021135 173 173 173 0
-4.145807 3.638157 22.119820 175 175 175 0
-4.053486 3.631247 22.077808 176 176 176 0
-3.935939 3.600965 21.893693 177 177 177 0
-3.814681 3.565898 21.680486 179 179 179 0
-3.708454 3.543634 21.545119 184 184 184 0
-3.613175 3.531058 21.468658 185 185 185 0
-3.540340 3.540340 21.525098 186 186 186 0
-3.471345 3.553996 21.608124 186 186 186 0
-3.389514 3.554856 21.613352 187 187 187 0
-3.290907 3.537726 21.509199 187 187 187 0
-3.185198 3.511885 21.352091 189 189 189 0
-3.092472 3.499376 21.276034 193 193 193 0
-3.023979 3.514354 21.367099 194 194 194 0
-2.946300 3.519192 21.396516 194 194 194 0
-2.869812 3.525769 21.436502 195 195 195 0
-2.781516 3.517800 21.388052 195 195 195 0
-2.683264 3.496374 21.257783 195 195 195 0
-2.586616 3.475765 21.132480 195 195 195 0
-2.491182 3.455510 21.009336 196 196 196 0
-2.415703 3.462507 21.051876 196 196 196 0
-2.337227 3.465544 21.070340 197 197 197 0
-2.277449 3.497511 21.264694 200 200 200 0
-2.181442 3.474148 21.122653 200 200 200 0
-2.082811 3.444649 20.943296 201 201 201 0
-1.996502 3.433983 20.878451 201 201 201 0
-1.914238 3.429676 20.852262 202 202 202 0
-1.835180 3.430989 20.860243 202 202 202 0
-1.760537 3.441049 20.921410 202 202 202 0
-1.680908 3.441859 20.926334 202 202 202 0
-1.596894 3.433322 20.874433 202 202 202 0
-1.513989 3.426395 20.832317 203 203 203 0
-1.435152 3.428418 20.844617 203 203 203 0
-1.358423 3.436011 20.890778 203 203 203 0
-1.278108 3.434916 20.884119 204 204 204 0
-1.198236 3.434943 20.884284 205 205 205 0
-1.119026 3.437009 20.896848 205 205 205 0
-1.038425 3.434790 20.883359 205 205 205 0
-0.959259 3.437343 20.898881 205 205 205 0
-0.879320 3.437343 20.898880 205 205 205 0
-0.801430 3.446150 20.952426 206 206 206 0
-0.722671 3.452763 20.992629 206 206 206 0
-0.643816 3.460509 21.039729 205 205 205 0
-0.562539 3.455595 21.009851 206 206 206 0
-0.480630 3.444516 20.942487 206 206 206 0
-0.399879 3.438963 20.908730 206 206 206 0
-0.320614 3.446602 20.955171 207 207 207 0
-0.242107 3.470201 21.098654 207 207 207 0
-0.160873 3.458779 21.029210 208 208 208 0
-0.080348 3.454966 21.006027 208 208 208 0
0.000000 3.450786 20.980608 207 207 207 0
0.080099 3.444245 20.940843 208 208 208 0
0.160616 3.453247 20.995571 209 209 209 0
0.241704 3.464426 21.063540 208 208 208 0
0.322751 3.469574 21.094844 208 208 208 0
0.403184 3.467380 21.081504 209 209 209 0
0.483459 3.464791 21.065758 209 209 209 0
0.565412 3.473246 21.117164 209 209 209 0
0.648741 3.486985 21.200696 209 209 209 0
0.731270 3.493844 21.242399 208 208 208 0
0.813760 3.499169 21.274775 209 209 209 0
0.894705 3.497482 21.264523 210 210 210 0
0.977291 3.501959 21.291740 210 210 210 0
1.067838 3.532079 21.474869 209 209 209 0
1.153604 3.543211 21.542552 209 209 209 0
1.236462 3.544524 21.550531 208 208 208 0
1.315451 3.535273 21.494290 209 209 209 0
1.399998 3.541173 21.530157 209 209 209 0
1.319312 3.151689 19.162114 208 208 208 0
1.579075 3.573695 21.727893 208 208 208 0
1.661079 3.571320 21.713449 208 208 208 0
1.741918 3.566784 21.685875 209 209 209 0
1.829941 3.576703 21.746180 209 209 209 0
1.926485 3.601690 21.898098 209 209 209 0
2.016065 3.612116 21.961490 209 209 209 0
2.099626 3.611356 21.956869 208 208 208 0
2.192772 3.626507 22.048986 207 207 207 0
2.287003 3.642264 22.144790 208 208 208 0
2.381193 3.656833 22.233365 207 207 207 0
2.476484 3.672029 22.325755 208 208 208 0
2.568905 3.682098 22.386976 208 208 208 0
2.669980 3.703521 22.517229 207 207 207 0
2.773462 3.726840 22.659004 207 207 207 0
2.873774 3.744614 22.767073 206 206 206 0
2.966845 3.752187 22.813113 205 205 205 0
3.071056 3.773012 22.939730 204 204 204 0
3.187708 3.807540 23.149660 205 205 205 0
3.284854 3.817533 23.210416 205 205 205 0
3.384743 3.830104 23.286848 204 204 204 0
3.502524 3.861757 23.479295 201 201 201 0
3.626306 3.898279 23.701348 202 202 202 0
3.744875 3.927552 23.879323 202 202 202 0
3.856223 3.948038 24.003879 199 199 199 0
4.006128 4.006128 24.357066 198 198 198 0
4.140878 4.046767 24.604150 198 198 198 0
4.313910 4.122181 25.062658 195 195 195 0
5.504032 5.145074 31.281797 193 193 193 0
5.110798 4.675837 28.428860 205 205 205 0
5.251902 4.704829 28.605132 212 212 212 0
5.359210 4.702980 28.593892 212 212 212 0
5.462860 4.698060 28.563974 212 212 212 0
5.602229 4.723448 28.718335 211 211 211 0
5.731006 4.739101 28.813503 212 212 212 0
5.847358 4.744083 28.843795 211 211 211 0
5.962665 4.748048 28.867900 211 211 211 0
6.092942 4.763573 28.962290 211 211 211 0
6.223289 4.778597 29.053637 210 210 210 0
6.327735 4.773555 29.022981 210 210 210 0
6.438451 4.773335 29.021643 210 210 210 0
6.572255 4.789948 29.122653 210 210 210 0
6.702721 4.803617 29.205755 210 210 210 0
6.813728 4.803120 29.202734 210 210 210 0
6.945511 4.817048 29.287416 211 211 211 0
7.080623 4.832806 29.383225 210 210 210 0
7.212884 4.846156 29.464394 210 210 210 0
7.337189 4.853833 29.511066 210 210 210 0
7.468224 4.865661 29.582982 211 211 211 0
7.603347 4.879760 29.668703 210 210 210 0
7.733065 4.890027 29.731123 210 210 210 0
7.859501 4.897950 29.779296 210 210 210 0
7.974817 4.898816 29.784565 210 210 210 0
8.126411 4.921629 29.923264 209 209 209 0
8.245083 4.924147 29.938573 210 210 210 0
8.357458 4.922886 29.930907 208 208 208 0
8.477522 4.926128 29.950616 209 209 209 0
8.635218 4.950859 30.100979 209 209 209 0
8.760075 4.956358 30.134417 209 209 209 0
8.873743 4.955467 30.128997 209 209 209 0
8.978801 4.949852 30.094860 209 209 209 0
9.124345 4.966416 30.195567 208 208 208 0
-6.532699 4.106268 24.398504 75 75 75 0
-6.534371 4.166845 24.758438 106 106 106 0
-6.322836 4.091247 24.309251 128 128 128 0
-6.121677 4.020206 23.887139 145 145 145 0
-5.954598 3.969732 23.587236 149 149 149 0
-5.856958 3.964710 23.557399 157 157 157 0
-5.772867 3.968846 23.581971 165 165 165 0
-5.718158 3.993634 23.729260 165 165 165 0
-5.622336 3.990045 23.707930 168 168 168 0
-5.473032 3.947761 23.456691 175 175 175 0
-5.308699 3.893046 23.131587 177 177 177 0
-5.171973 3.857065 22.917795 177 177 177 0
-5.073896 3.849163 22.870843 177 177 177 0
-5.084909 3.925193 23.322597 181 181 181 0
-4.997323 3.926468 23.330174 185 185 185 0
-4.864577 3.891662 23.123362 186 186 186 0
-4.715692 3.842416 22.830753 186 186 186 0
-4.569803 3.793799 22.541882 176 176 176 0
-4.448989 3.764529 22.367968 162 162 162 0
-4.345562 3.749112 22.276365 162 162 162 0
-4.259436 3.748304 22.271562 170 170 170 0
-4.177909 3.751592 22.291099 175 175 175 0
-4.075836 3.736183 22.199540 175 175 175 0
-3.952548 3.700258 21.986085 176 176 176 0
-3.836344 3.669546 21.803603 176 176 176 0
-3.725159 3.642377 21.642171 179 179 179 0
-3.639461 3.639461 21.624843 184 184 184 0
-3.567284 3.650245 21.688916 185 185 185 0
-3.492728 3.659049 21.741229 186 186 186 0
-3.406596 3.655860 21.722279 187 187 187 0
-3.301443 3.631587 21.578058 187 187 187 0
-3.193620 3.603058 21.408547 188 188 188 0
-3.101923 3.591700 21.341057 188 188 188 0
-3.043178 3.618914 21.502756 192 192 192 0
-2.963330 3.621848 21.520188 194 194 194 0
-2.882736 3.624011 21.533040 194 194 194 0
-2.790857 3.611697 21.459875 195 195 195 0
-2.690930 3.587906 21.318516 194 194 194 0
-2.594333 3.567208 21.195532 195 195 195 0
-2.502848 3.552430 21.107724 196 196 196 0
-2.423473 3.554426 21.119587 197 197 197 0
-2.060178 3.125787 18.572707 197 197 197 0
-2.282382 3.586600 21.310752 197 197 197 0
-2.188385 3.566257 21.189879 198 198 198 0
-2.088908 3.535074 21.004600 199 199 199 0
-2.002183 3.523843 20.937865 202 202 202 0
-1.918034 3.516395 20.893612 201 201 201 0
-1.840976 3.521866 20.926122 202 202 202 0
-1.766982 3.533963 20.997999 202 202 202 0
-1.685331 3.531171 20.981406 203 203 203 0
-1.599719 3.519381 20.911356 204 204 204 0
-1.518610 3.516780 20.895902 203 203 203 0
-1.440408 3.520997 20.920954 203 203 203 0
-1.362479 3.526415 20.953151 203 203 203 0
-1.282463 3.526772 20.955272 204 204 204 0
-1.202542 3.527458 20.959345 204 204 204 0
-1.122621 3.528239 20.963987 204 204 204 0
-1.040932 3.523154 20.933773 204 204 204 0
-0.963661 3.533425 20.994803 205 205 205 0
-0.882806 3.531222 20.981712 206 206 206 0
-0.803726 3.536394 21.012439 206 206 206 0
-0.725038 3.544629 21.061373 206 206 206 0
-0.645837 3.552105 21.105794 206 206 206 0
-0.563729 3.543437 21.054288 206 206 206 0
-0.481253 3.529190 20.969639 207 207 207 0
-0.401339 3.531782 20.985038 206 206 206 0
-0.319728 3.517012 20.897280 207 207 207 0
-0.242513 3.556863 21.134067 207 207 207 0
-0.161701 3.557431 21.137440 207 207 207 0
-0.080532 3.543418 21.054175 207 207 207 0
0.000000 3.539645 21.031760 207 207 207 0
0.080339 3.534902 21.003574 208 208 208 0
0.161350 3.549703 21.091523 208 208 208 0
0.242829 3.561499 21.161607 208 208 208 0
0.323973 3.563700 21.174685 208 208 208 0
0.404285 3.557710 21.139095 209 209 209 0
0.485169 3.557909 21.140279 209 209 209 0
0.567398 3.566504 21.191350 209 209 209 0
0.650849 3.579669 21.269572 208 208 208 0
0.733714 3.587046 21.313407 209 209 209 0
0.816094 3.590812 21.335780 208 208 208 0
0.897555 3.590221 21.332271 208 208 208 0
0.981835 3.600062 21.390741 209 209 209 0
1.072429 3.629760 21.567204 209 209 209 0
1.157618 3.638228 21.617519 208 208 208 0
1.239236 3.635092 21.598885 208 208 208 0
1.319288 3.628043 21.556999 208 208 208 0
1.404979 3.636417 21.606753 208 208 208 0
1.499255 3.664846 21.775676 209 209 209 0
1.583580 3.667239 21.789892 208 208 208 0
1.665759 3.664669 21.774624 208 208 208 0
1.747159 3.660714 21.751121 208 208 208 0
1.835829 3.671659 21.816154 208 208 208 0
1.932575 3.697100 21.967322 209 209 209 0
2.023102 3.709019 22.038143 208 208 208 0
