ply
    format ascii 1.0
    element vertex 21138
    property float x
    property float y
    property float z
    property uchar red
    property uchar green
    property uchar blue
    property uchar alpha
    end_header
-4.774929 2.061901 28.371533 202 202 202 0
-4.679011 2.067470 28.448158 203 203 203 0
-4.602761 2.082202 28.650864 204 204 204 0
-4.474695 2.073639 28.533046 204 204 204 0
-4.335268 2.059252 28.335087 205 205 205 0
-4.234723 2.063070 28.387620 205 205 205 0
-4.136700 2.068350 28.460270 205 205 205 0
-4.032013 2.070493 28.489755 201 201 201 0
-3.914732 2.066109 28.429426 199 199 199 0
-3.794465 2.059852 28.343340 197 197 197 0
-3.682766 2.058016 28.318080 199 199 199 0
-3.580462 2.061478 28.365711 200 200 200 0
-3.474272 2.062849 28.384574 199 199 199 0
-3.372485 2.067007 28.441792 200 200 200 0
-3.262168 2.066040 28.428480 201 201 201 0
-3.149639 2.063556 28.394309 200 200 200 0
-3.033254 2.058279 28.321696 200 200 200 0
-2.933365 2.064220 28.403441 201 201 201 0
-2.831827 2.069412 28.474887 202 202 202 0
-2.724183 2.070379 28.488188 203 203 203 0
-2.604253 2.061700 28.368766 203 203 203 0
-2.485263 2.053043 28.249647 204 204 204 0
-2.301597 1.987743 27.351122 204 204 204 0
-2.295198 2.076607 28.573889 203 203 203 0
-2.180297 2.071282 28.500615 205 205 205 0
-2.056634 2.056634 28.299054 205 205 205 0
-1.933881 2.041319 28.088322 206 206 206 0
-1.815918 2.029555 27.926458 200 200 200 0
-1.693771 2.011353 27.676001 175 175 175 0
-1.572046 1.991258 27.399493 162 162 162 0
-1.463800 1.986586 27.335209 166 166 166 0
-1.352954 1.977395 27.208737 170 170 170 0
-1.242743 1.967676 27.075004 170 170 170 0
-1.132587 1.956287 26.918298 170 170 170 0
-1.025295 1.948060 26.805088 174 174 174 0
-0.920921 1.944167 26.751528 176 176 176 0
-0.818231 1.943299 26.739581 177 177 177 0
-0.716095 1.943686 26.744910 177 177 177 0
-0.611333 1.935887 26.637597 178 178 178 0
-0.506169 1.923441 26.466338 184 184 184 0
-0.401967 1.909343 26.272348 183 183 183 0
-0.299922 1.899503 26.136958 185 185 185 0
-0.199966 1.899681 26.139396 186 186 186 0
-0.100289 1.905496 26.219421 186 186 186 0
0.000000 1.904293 26.202862 185 185 185 0
0.099636 1.893088 26.048684 187 187 187 0
0.197913 1.880173 25.870974 189 189 189 0
0.295438 1.871105 25.746199 191 191 191 0
0.394014 1.871568 25.752574 192 192 192 0
0.507107 1.927008 26.515413 193 193 193 0
0.592190 1.875269 25.803496 193 193 193 0
0.687384 1.865755 25.672590 193 193 193 0
0.781109 1.855135 25.526452 193 193 193 0
0.874312 1.845770 25.397598 194 194 194 0
0.970350 1.843664 25.368618 194 194 194 0
1.071044 1.849985 25.455594 195 195 195 0
1.168285 1.849784 25.452827 196 196 196 0
1.259621 1.840985 25.331753 198 198 198 0
1.353874 1.837401 25.282435 199 199 199 0
1.449018 1.835423 25.255221 198 198 198 0
1.545718 1.835540 25.256831 200 200 200 0
1.642645 1.835897 25.261741 200 200 200 0
1.739752 1.836405 25.268725 200 200 200 0
1.831846 1.831846 25.205996 200 200 200 0
1.925219 1.828958 25.166262 200 200 200 0
2.022251 1.829656 25.175860 201 201 201 0
2.124565 1.834851 25.247353 202 202 202 0
2.221624 1.835254 25.252899 202 202 202 0
2.318163 1.835212 25.252320 202 202 202 0
2.411561 1.832787 25.218942 202 202 202 0
2.499671 1.826683 25.134951 203 203 203 0
2.595040 1.826139 25.127476 203 203 203 0
2.702177 1.833620 25.230410 203 203 203 0
2.798385 1.833424 25.227719 203 203 203 0
2.889968 1.830313 25.184910 204 204 204 0
2.981568 1.827413 25.144998 203 203 203 0
3.075540 1.826102 25.126957 203 203 203 0
3.179970 1.830892 25.192869 204 204 204 0
3.281185 1.833603 25.230179 205 205 205 0
3.378725 1.834165 25.237911 205 205 205 0
3.477065 1.835117 25.251015 204 204 204 0
3.573651 1.835118 25.251022 204 204 204 0
3.676366 1.838183 25.293195 205 205 205 0
3.786420 1.844666 25.382402 206 206 206 0
3.886844 1.846251 25.404211 205 205 205 0
3.983595 1.846056 25.401533 206 206 206 0
4.085923 1.848394 25.433697 206 206 206 0
4.203781 1.857484 25.558781 206 206 206 0
4.309948 1.861114 25.608725 206 206 206 0
4.401095 1.858240 25.569181 205 205 205 0
4.498877 1.858232 25.569065 205 205 205 0
4.630648 1.871964 25.758017 204 204 204 0
4.733875 1.873825 25.783631 204 204 204 0
4.824642 1.870779 25.741720 205 205 205 0
4.923034 1.870753 25.741357 204 204 204 0
5.048328 1.880750 25.878909 205 205 205 0
5.172206 1.889845 26.004052 206 206 206 0
5.274587 1.890890 26.018434 205 205 205 0
5.389395 1.896269 26.092449 205 205 205 0
5.523102 1.907981 26.253604 204 204 204 0
5.649767 1.916885 26.376130 205 205 205 0
5.752878 1.917626 26.386323 204 204 204 0
5.891528 1.929983 26.556358 204 204 204 0
6.034202 1.943217 26.738458 205 205 205 0
6.157109 1.949751 26.828362 203 203 203 0
6.285415 1.957752 26.938453 203 203 203 0
6.454955 1.978131 27.218868 203 203 203 0
6.572093 1.982060 27.272923 203 203 203 0
6.721331 1.995395 27.456417 202 202 202 0
6.878175 2.010543 27.664857 202 202 202 0
7.086563 2.040071 28.071154 202 202 202 0
7.399674 2.098415 28.873960 202 202 202 0
7.579315 2.117750 29.140003 208 208 208 0
7.705900 2.121914 29.197308 212 212 212 0
7.805333 2.118590 29.151569 211 211 211 0
7.893062 2.112228 29.064023 210 210 210 0
7.992595 2.109157 29.021767 210 210 210 0
8.082501 2.103665 28.946192 210 210 210 0
8.455220 2.170935 29.871825 210 210 210 0
8.290018 2.100138 28.897668 210 210 210 0
8.386221 2.096555 28.848368 209 209 209 0
8.463433 2.088379 28.735872 210 210 210 0
8.541244 2.080559 28.628268 210 210 210 0
8.642746 2.078635 28.601789 210 210 210 0
-9.340454 2.335114 30.524360 125 125 125 0
-9.077853 2.298191 30.041707 140 140 140 0
-8.896645 2.281191 29.819491 146 146 146 0
-8.663615 2.250290 29.415552 157 157 157 0
-8.469188 2.228734 29.133775 160 160 160 0
-8.340086 2.224023 29.072195 163 163 163 0
-8.299170 2.243019 29.320508 170 170 170 0
-8.127884 2.226818 29.108727 170 170 170 0
-7.915474 2.198743 28.741734 171 171 171 0
-7.691553 2.166635 28.322022 177 177 177 0
-7.577885 2.165110 28.302093 180 180 180 0
-7.528215 2.182091 28.524068 180 180 180 0
-7.493215 2.203887 28.808979 180 180 180 0
-7.310891 2.182356 28.527524 183 183 183 0
-7.105439 2.153163 28.145926 187 187 187 0
-6.945006 2.136925 27.933660 187 187 187 0
-6.848768 2.140240 27.976994 187 187 187 0
-6.905157 2.192113 28.655075 188 188 188 0
-6.754158 2.178761 28.480533 189 189 189 0
-6.562361 2.151594 28.125410 192 192 192 0
-6.390930 2.130310 27.847190 193 193 193 0
-6.298879 2.135213 27.911286 193 193 193 0
-6.293809 2.170279 28.369659 194 194 194 0
-6.192483 2.172801 28.402628 193 193 193 0
-6.025262 2.151879 28.129141 195 195 195 0
-5.885951 2.140346 27.978376 196 196 196 0
-5.798728 2.147677 28.074207 197 197 197 0
-5.736229 2.164615 28.295615 198 198 198 0
-5.649920 2.173046 28.405833 199 199 199 0
-5.518477 2.164109 28.289002 199 199 199 0
-5.364865 2.145946 28.051581 200 200 200 0
-5.267323 2.149928 28.103629 200 200 200 0
-5.234244 2.180935 28.508952 201 201 201 0
-5.128629 2.182395 28.528043 201 201 201 0
-4.996439 2.172365 28.396926 201 201 201 0
-4.872022 2.165343 28.305141 202 202 202 0
-4.764439 2.165654 28.309204 203 203 203 0
-4.702820 2.187358 28.592914 203 203 203 0
-4.606814 2.193721 28.676090 203 203 203 0
-4.466999 2.179024 28.483974 204 204 204 0
-4.331135 2.165567 28.308071 205 205 205 0
-4.230621 2.169549 28.360121 206 206 206 0
-4.129946 2.173656 28.413801 205 205 205 0
-4.028416 2.177522 28.464343 205 205 205 0
-3.919329 2.177405 28.462808 204 204 204 0
-3.797208 2.169833 28.363832 200 200 200 0
-3.691332 2.171372 28.383943 199 199 199 0
-3.586837 2.173840 28.416215 199 199 199 0
-3.475099 2.171937 28.391331 200 200 200 0
-3.366834 2.172151 28.394133 200 200 200 0
-3.265712 2.177141 28.459361 201 201 201 0
-3.152559 2.174179 28.420637 200 200 200 0
-3.035066 2.167904 28.338614 200 200 200 0
-2.933984 2.173322 28.409432 200 200 200 0
-2.832901 2.179155 28.485686 202 202 202 0
-2.727874 2.182299 28.526789 202 202 202 0
-2.610370 2.175309 28.435407 204 204 204 0
-2.494281 2.168940 28.352156 203 203 203 0
-2.016999 1.833636 23.969094 204 204 204 0
-2.295485 2.186176 28.577470 204 204 204 0
-2.182990 2.182990 28.535811 204 204 204 0
-2.060810 2.169274 28.356522 205 205 205 0
-1.941039 2.156710 28.192285 205 205 205 0
-1.824602 2.146591 28.060012 206 206 206 0
-1.712213 2.140267 27.977344 197 197 197 0
-1.595683 2.127577 27.811467 169 169 169 0
-1.474013 2.105733 27.525916 165 165 165 0
-1.361938 2.095289 27.389396 167 167 167 0
-1.251304 2.085507 27.261535 169 169 169 0
-1.138223 2.069496 27.052234 168 168 168 0
-1.032426 2.064852 26.991529 170 170 170 0
-0.928087 2.062415 26.959678 174 174 174 0
-0.825799 2.064499 26.986910 178 178 178 0
-0.720545 2.058701 26.911121 176 176 176 0
-0.614108 2.047027 26.758522 178 178 178 0
-0.508337 2.033349 26.579729 179 179 179 0
-0.404519 2.022596 26.439170 181 181 181 0
-0.301965 2.013100 26.315029 184 184 184 0
-0.201399 2.013990 26.326667 185 185 185 0
-0.100944 2.018882 26.390611 185 185 185 0
0.000000 2.012981 26.313473 186 186 186 0
0.099981 1.999621 26.138843 188 188 188 0
0.198447 1.984467 25.940750 187 187 187 0
0.296823 1.978823 25.866969 188 188 188 0
0.396137 1.980684 25.891300 191 191 191 0
0.497683 1.990733 26.022654 192 192 192 0
0.594492 1.981639 25.903774 193 193 193 0
0.689155 1.969014 25.738740 193 193 193 0
0.783092 1.957731 25.591254 194 194 194 0
0.878035 1.951188 25.505726 193 193 193 0
0.975389 1.950778 25.500372 194 194 194 0
1.076800 1.957818 25.592391 194 194 194 0
1.172115 1.953526 25.536282 195 195 195 0
1.265453 1.946851 25.449028 196 196 196 0
1.358299 1.940427 25.365064 197 197 197 0
1.454503 1.939338 25.350820 197 197 197 0
1.552955 1.941193 25.375078 199 199 199 0
1.650092 1.941285 25.376276 199 199 199 0
1.745252 1.939169 25.348618 200 200 200 0
1.836672 1.933339 25.272405 200 200 200 0
1.935858 1.935858 25.305333 201 201 201 0
2.030064 1.933394 25.273125 201 201 201 0
2.133191 1.939264 25.349858 202 202 202 0
2.228164 1.937534 25.327242 202 202 202 0
2.325448 1.937873 25.331673 202 202 202 0
2.416445 1.933156 25.270016 203 203 203 0
2.509425 1.930327 25.233034 202 202 202 0
2.608266 1.932049 25.255546 202 202 202 0
2.713140 1.937957 25.332771 203 203 203 0
2.807211 1.936007 25.307286 204 204 204 0
2.897985 1.931990 25.254770 204 204 204 0
2.992112 1.930395 25.233918 202 202 202 0
3.088741 1.930463 25.234809 203 203 203 0
3.192239 1.934690 25.290071 204 204 204 0
3.293066 1.937098 25.321538 204 204 204 0
3.391470 1.937983 25.333109 204 204 204 0
3.490713 1.939285 25.350129 204 204 204 0
3.586306 1.938544 25.340444 204 204 204 0
3.691774 1.943039 25.399199 205 205 205 0
3.797300 1.947333 25.455337 205 205 205 0
3.892991 1.946495 25.444383 205 205 205 0
3.991246 1.946950 25.450320 204 204 204 0
4.104863 1.954697 25.551589 205 205 205 0
4.220891 1.963205 25.662812 204 204 204 0
4.322096 1.964589 25.680902 203 203 203 0
4.415178 1.962301 25.650998 204 204 204 0
4.521475 1.965859 25.697498 204 204 204 0
4.656906 1.981662 25.904083 205 205 205 0
4.751377 1.979740 25.878960 205 205 205 0
4.845886 1.977913 25.855066 205 205 205 0
4.943332 1.977333 25.847489 205 205 205 0
5.081042 1.992566 26.046608 205 205 205 0
5.193846 1.997633 26.112853 204 204 204 0
5.293977 1.997727 26.114082 204 204 204 0
5.413842 2.005127 26.210806 204 204 204 0
5.551950 2.018891 26.390730 203 203 203 0
5.669938 2.024978 26.470300 204 204 204 0
5.786442 2.030331 26.540271 204 204 204 0
5.937103 2.047277 26.761789 204 204 204 0
6.072445 2.058456 26.907920 203 203 203 0
6.193577 2.064526 26.987264 202 202 202 0
6.349490 2.081800 27.213073 202 202 202 0
6.485108 2.091970 27.346018 203 203 203 0
6.622677 2.102437 27.482839 201 201 201 0
6.795165 2.123489 27.758029 202 202 202 0
6.984943 2.149213 28.094293 201 201 201 0
7.212785 2.185693 28.571144 199 199 199 0
7.464592 2.228236 29.127274 206 206 206 0
7.582744 2.230219 29.153188 211 211 211 0
7.707278 2.233994 29.202530 211 211 211 0
7.808158 2.230902 29.162123 211 211 211 0
7.899921 2.225330 29.089279 210 210 210 0
7.988186 2.218941 29.005760 211 211 211 0
8.083831 2.214748 28.950958 209 209 209 0
8.239522 2.226898 29.109775 210 210 210 0
8.305922 2.214913 28.953106 210 210 210 0
8.387394 2.207209 28.852403 209 209 209 0
8.471177 2.200306 28.762165 210 210 210 0
8.557535 2.194240 28.682871 209 209 209 0
8.658502 2.192026 28.653933 209 209 209 0
-9.223800 2.421247 30.143136 130 130 130 0
-8.978459 2.386679 29.712781 143 143 143 0
-8.868771 2.387746 29.726065 150 150 150 0
-8.616116 2.349850 29.254277 158 158 158 0
-8.433306 2.330256 29.010340 158 158 158 0
-8.282210 2.319019 28.870450 167 167 167 0
-8.254039 2.342362 29.161064 170 170 170 0
-8.106950 2.332136 29.033754 170 170 170 0
-7.898578 2.303752 28.680384 174 174 174 0
-7.685518 2.273181 28.299799 178 178 178 0
-7.560268 2.268080 28.236296 179 179 179 0
-7.522754 2.289534 28.503376 180 180 180 0
-7.468698 2.306510 28.714718 181 181 181 0
-7.300348 2.288169 28.486382 185 185 185 0
-7.103714 2.260273 28.139092 187 187 187 0
-6.933262 2.239977 27.886423 187 187 187 0
-6.829207 2.240834 27.897088 187 187 187 0
-6.880218 2.293406 28.551585 188 188 188 0
-6.733371 2.280658 28.392878 191 191 191 0
-6.552314 2.255715 28.082349 192 192 192 0
-6.385880 2.235058 27.825185 193 193 193 0
-6.275992 2.233828 27.809866 193 193 193 0
-6.288591 2.276904 28.346138 194 194 194 0
-6.191427 2.281052 28.397784 194 194 194 0
-6.024346 2.259130 28.124865 195 195 195 0
-5.884571 2.246836 27.971816 197 197 197 0
-5.786977 2.250491 28.017320 198 198 198 0
-5.729380 2.270132 28.261833 198 198 198 0
-5.636833 2.276413 28.340034 198 198 198 0
-5.503468 2.266134 28.212062 199 199 199 0
-5.358218 2.250452 28.016829 199 199 199 0
-5.258973 2.253846 28.059080 200 200 200 0
-5.222669 2.284918 28.445908 201 201 201 0
-5.120553 2.287907 28.483123 200 200 200 0
-4.995234 2.280433 28.390079 201 201 201 0
-4.865777 2.270696 28.268859 202 202 202 0
-4.763139 2.273316 28.301480 202 202 202 0
-4.684447 2.287753 28.481211 203 203 203 0
-4.602861 2.301431 28.651487 204 204 204 0
-4.460675 2.284736 28.443651 204 204 204 0
-4.323611 2.269896 28.258894 205 205 205 0
-4.228312 2.276784 28.344645 204 204 204 0
-4.127113 2.280773 28.394310 205 205 205 0
-4.025798 2.284913 28.445845 206 206 206 0
-3.917482 2.285198 28.449396 206 206 206 0
-3.797674 2.278605 28.367316 205 205 205 0
-3.696094 2.282882 28.420561 201 201 201 0
-3.588502 2.283592 28.429410 200 200 200 0
-3.475803 2.280996 28.397083 200 200 200 0
-3.373370 2.285186 28.449253 201 201 201 0
-3.263232 2.284263 28.437754 200 200 200 0
-3.151773 2.282318 28.413550 200 200 200 0
-3.038780 2.279085 28.373297 201 201 201 0
-2.937436 2.284673 28.442861 201 201 201 0
-2.837628 2.291930 28.533213 202 202 202 0
-2.733238 2.295920 28.582876 202 202 202 0
-2.614577 2.287755 28.481232 201 201 201 0
-2.501524 2.284000 28.434491 202 202 202 0
-2.518631 2.404148 29.930256 204 204 204 0
-2.292941 2.292941 28.545789 204 204 204 0
-2.184360 2.293578 28.553724 204 204 204 0
-2.063527 2.280740 28.393900 205 205 205 0
-1.946915 2.271400 28.277625 205 205 205 0
-1.832762 2.264000 28.185491 206 206 206 0
-1.731151 2.272136 28.286784 206 206 206 0
-1.614630 2.260482 28.141705 194 194 194 0
-1.487428 2.231142 27.776432 171 171 171 0
-1.366987 2.208211 27.490950 164 164 164 0
-1.258662 2.202658 27.421820 168 168 168 0
-1.146816 2.189376 27.256472 171 171 171 0
-1.040050 2.184105 27.190844 169 169 169 0
-0.937978 2.188614 27.246986 170 170 170 0
-0.832969 2.186543 27.221207 174 174 174 0
-0.724844 2.174533 27.071684 177 177 177 0
-0.616566 2.157979 26.865599 178 178 178 0
-0.510514 2.144159 26.693539 179 179 179 0
-0.405881 2.130875 26.528166 179 179 179 0
-0.304044 2.128308 26.496211 179 179 179 0
-0.203156 2.133133 26.556276 183 183 183 0
-0.101586 2.133314 26.558529 185 185 185 0
0.000000 2.121441 26.410723 186 186 186 0
0.100305 2.106395 26.223409 186 186 186 0
0.199119 2.090746 26.028590 186 186 186 0
0.298018 2.086128 25.971098 186 186 186 0
0.397305 2.085853 25.967675 187 187 187 0
0.498705 2.094559 26.076057 189 189 189 0
0.596319 2.087115 25.983380 191 191 191 0
0.691097 2.073291 25.811283 193 193 193 0
0.785110 2.060915 25.657200 194 194 194 0
0.881725 2.057358 25.612916 193 193 193 0
0.980685 2.059438 25.638815 193 193 193 0
1.081601 2.064874 25.706498 194 194 194 0
1.176760 2.059330 25.637470 195 195 195 0
1.268642 2.049346 25.513172 195 195 195 0
1.363036 2.044554 25.453524 195 195 195 0
1.460716 2.045002 25.459099 196 196 196 0
1.559198 2.046447 25.477092 197 197 197 0
1.655475 2.044999 25.459058 196 196 196 0
1.751771 2.043733 25.443301 197 197 197 0
1.843384 2.037424 25.364757 198 198 198 0
1.942308 2.039423 25.389642 199 199 199 0
2.041749 2.041749 25.418594 201 201 201 0
2.143642 2.046203 25.474055 201 201 201 0
2.239433 2.044699 25.455330 201 201 201 0
2.334265 2.042482 25.427726 202 202 202 0
2.423540 2.035774 25.344212 202 202 202 0
2.517917 2.033702 25.318419 202 202 202 0
2.621722 2.039117 25.385833 203 203 203 0
2.720580 2.040435 25.402238 202 202 202 0
2.820199 2.042213 25.424377 203 203 203 0
2.906936 2.034855 25.332771 204 204 204 0
3.001724 2.033426 25.314986 203 203 203 0
3.102604 2.036084 25.348073 203 203 203 0
3.206515 2.040510 25.403171 204 204 204 0
3.305486 2.041624 25.417041 203 203 203 0
3.403806 2.042284 25.425257 203 203 203 0
3.502657 2.043216 25.436868 204 204 204 0
3.603096 2.045000 25.459075 204 204 204 0
3.711616 2.051156 25.535711 204 204 204 0
3.814262 2.053833 25.569042 203 203 203 0
3.913629 2.054655 25.579273 203 203 203 0
4.009388 2.053589 25.565998 203 203 203 0
4.128017 2.064008 25.695716 203 203 203 0
4.244174 2.072736 25.804373 203 203 203 0
4.337201 2.070028 25.770655 204 204 204 0
4.430942 2.067773 25.742585 204 204 204 0
4.542360 2.073686 25.816198 205 205 205 0
4.668493 2.085922 25.968531 204 204 204 0
4.766602 2.085388 25.961882 205 205 205 0
4.860883 2.083236 25.935084 204 204 204 0
4.977056 2.090363 26.023821 204 204 204 0
5.108573 2.103530 26.187739 203 203 203 0
5.215417 2.106226 26.221303 203 203 203 0
5.323210 2.109197 26.258283 203 203 203 0
5.448256 2.118766 26.377420 203 203 203 0
5.583664 2.131944 26.541481 203 203 203 0
5.690234 2.133838 26.565051 202 202 202 0
5.833292 2.149108 26.755152 203 203 203 0
5.984043 2.166636 26.973373 203 203 203 0
6.110994 2.175100 27.078738 202 202 202 0
6.241356 2.184475 27.195450 202 202 202 0
6.411748 2.207323 27.479900 202 202 202 0
6.529170 2.211493 27.531816 201 201 201 0
6.686017 2.228672 27.745686 201 201 201 0
6.865349 2.252692 28.044724 200 200 200 0
7.121928 2.300931 28.645261 200 200 200 0
7.351029 2.338964 29.118753 204 204 204 0
7.481720 2.345017 29.194108 210 210 210 0
7.590409 2.344097 29.182657 211 211 211 0
7.712569 2.347304 29.222578 211 211 211 0
7.813977 2.344193 29.183853 209 209 209 0
7.907601 2.338868 29.117560 211 211 211 0
7.994169 2.331633 29.027482 210 210 210 0
8.086403 2.326225 28.960167 209 209 209 0
8.204570 2.328324 28.986293 209 209 209 0
8.308613 2.326412 28.962484 210 210 210 0
8.395630 2.319845 28.880735 209 209 209 0
8.479263 2.312526 28.789619 209 209 209 0
8.565993 2.306229 28.711222 210 210 210 0
8.673727 2.305674 28.704318 209 209 209 0
-9.125202 2.509431 29.820921 136 136 136 0
-8.903536 2.479466 29.464833 144 144 144 0
-8.818492 2.487267 29.557539 153 153 153 0
-8.564166 2.446904 29.077891 157 157 157 0
-8.400938 2.431851 28.898997 161 161 161 0
-8.264841 2.424353 28.809904 168 168 168 0
-8.219762 2.443713 29.039966 170 170 170 0
-8.089422 2.437908 28.970980 171 171 171 0
-7.890205 2.410896 28.649982 176 176 176 0
-7.666686 2.375593 28.230455 178 178 178 0
-7.543983 2.370966 28.175472 179 179 179 0
-7.479793 2.384861 28.340599 180 180 180 0
-7.459764 2.413453 28.680369 184 184 184 0
-7.287304 2.392846 28.435484 186 186 186 0
-7.092113 2.364038 28.093141 186 186 186 0
-6.926862 2.344476 27.860682 186 186 186 0
-6.825090 2.346125 27.880271 187 187 187 0
-6.859964 2.395543 28.467535 190 190 190 0
-6.722606 2.385441 28.347486 191 191 191 0
-6.544215 2.360209 28.047637 193 193 193 0
-6.371148 2.336088 27.760993 193 193 193 0
-6.268898 2.337555 27.778435 193 193 193 0
-6.272847 2.379356 28.275174 194 194 194 0
-6.177723 2.384384 28.334931 195 195 195 0
-6.018575 2.364440 28.097922 196 196 196 0
-5.883571 2.353428 27.967064 197 197 197 0
-5.774992 2.352774 27.959293 197 197 197 0
-5.719855 2.374280 28.214849 198 198 198 0
-5.633166 2.383263 28.321599 199 199 199 0
-5.504704 2.374578 28.218396 199 199 199 0
-5.351091 2.354480 27.979559 200 200 200 0
-5.253924 2.358905 28.032141 200 200 200 0
-5.209824 2.387836 28.375950 200 200 200 0
-5.111543 2.392637 28.433001 201 201 201 0
-4.989353 2.386212 28.356652 202 202 202 0
-4.854750 2.373433 28.204791 202 202 202 0
-4.748320 2.374160 28.213431 203 203 203 0
-4.670638 2.389629 28.397251 203 203 203 0
-4.595333 2.407079 28.604625 204 204 204 0
-4.456419 2.391249 28.416509 204 204 204 0
-4.318110 2.374961 28.222941 205 205 205 0
-4.217965 2.379365 28.275279 205 205 205 0
-4.114443 2.382046 28.307143 205 205 205 0
-4.022398 2.391696 28.421816 205 205 205 0
-3.916105 2.393175 28.439400 207 207 207 0
-3.800021 2.388584 28.384842 207 207 207 0
-3.697369 2.392416 28.430369 207 207 207 0
-3.592938 2.395292 28.464552 202 202 202 0
-3.480031 2.392522 28.431628 199 199 199 0
-3.372883 2.393659 28.445145 200 200 200 0
-3.267625 2.396259 28.476039 201 201 201 0
-3.156875 2.394871 28.459543 201 201 201 0
-3.040427 2.388907 28.388675 202 202 202 0
-2.941337 2.396645 28.480633 201 201 201 0
-2.841088 2.403997 28.567999 201 201 201 0
-2.736019 2.407697 28.611965 202 202 202 0
-2.615942 2.397947 28.496101 202 202 202 0
-2.503893 2.395028 28.461418 202 202 202 0
-2.411123 2.411123 28.652680 203 203 203 0
-2.299802 2.409316 28.631209 203 203 203 0
-2.185897 2.404487 28.573815 204 204 204 0
-2.067420 2.393854 28.447467 203 203 203 0
-1.950305 2.383706 28.326873 204 204 204 0
-1.847358 2.390698 28.409958 204 204 204 0
-1.742724 2.396245 28.475877 207 207 207 0
-1.629546 2.390001 28.401670 205 205 205 0
-1.506990 2.368127 28.141740 192 192 192 0
-1.390384 2.352958 27.961469 169 169 169 0
-1.271150 2.330443 27.693910 165 165 165 0
-1.158585 2.317170 27.536182 167 167 167 0
-1.051229 2.312704 27.483110 169 169 169 0
-0.947063 2.315043 27.510914 172 172 172 0
-0.839343 2.308194 27.429515 171 171 171 0
-0.728346 2.289088 27.202472 175 175 175 0
-0.619790 2.272562 27.006084 177 177 177 0
-0.512773 2.256203 26.811678 177 177 177 0
-0.408722 2.247970 26.713843 179 179 179 0
-0.306355 2.246604 26.697608 178 178 178 0
-0.204499 2.249484 26.731832 179 179 179 0
-0.102081 2.245776 26.687774 183 183 183 0
0.000000 2.229535 26.494774 185 185 185 0
0.100646 2.214208 26.312634 186 186 186 0
0.200253 2.202779 26.176820 187 187 187 0
0.299859 2.198968 26.131527 186 186 186 0
0.402972 2.216346 26.338043 187 187 187 0
0.501099 2.204834 26.201232 187 187 187 0
0.598376 2.194047 26.073046 188 188 188 0
0.693280 2.178879 25.892803 189 189 189 0
0.788195 2.167536 25.758007 191 191 191 0
0.885554 2.164688 25.724161 193 193 193 0
0.986852 2.171075 25.800056 194 194 194 0
1.086130 2.172259 25.814132 195 195 195 0
1.179892 2.163135 25.705702 194 194 194 0
1.273359 2.154914 25.608015 195 195 195 0
1.367965 2.149660 25.545568 195 195 195 0
1.468202 2.153363 25.589575 195 195 195 0
1.568290 2.156399 25.625652 196 196 196 0
1.663890 2.153269 25.588462 196 196 196 0
1.757656 2.148246 25.528766 196 196 196 0
1.851249 2.143552 25.472985 196 196 196 0
1.950446 2.145491 25.496029 197 197 197 0
2.052164 2.149886 25.548257 197 197 197 0
2.151608 2.151608 25.568717 199 199 199 0
2.248830 2.151055 25.562153 198 198 198 0
2.341113 2.146020 25.502316 199 199 199 0
2.435469 2.143213 25.468962 201 201 201 0
2.529429 2.140286 25.434176 200 200 200 0
2.639889 2.151020 25.561739 200 200 200 0
2.732820 2.147216 25.516526 201 201 201 0
2.827380 2.144909 25.489115 201 201 201 0
2.918374 2.140141 25.432452 202 202 202 0
3.015047 2.139711 25.427341 202 202 202 0
3.118592 2.144032 25.478690 201 201 201 0
3.222207 2.148138 25.527487 201 201 201 0
3.320906 2.148821 25.535607 202 202 202 0
3.419362 2.149313 25.541449 202 202 202 0
3.516655 2.149067 25.538528 202 202 202 0
3.621138 2.153109 25.586563 202 202 202 0
3.727809 2.158205 25.647119 202 202 202 0
3.828238 2.159519 25.662732 203 203 203 0
3.928486 2.160667 25.676381 203 203 203 0
4.032523 2.163793 25.713521 202 202 202 0
4.153264 2.175519 25.852870 203 203 203 0
4.262135 2.180627 25.913572 204 204 204 0
4.355117 2.177559 25.877107 204 204 204 0
4.451521 2.176299 25.862141 203 203 203 0
4.592746 2.196530 26.102561 203 203 203 0
4.688865 2.194788 26.081853 204 204 204 0
4.782777 2.192106 26.049981 204 204 204 0
4.878309 2.190261 26.028061 203 203 203 0
5.011426 2.205028 26.203537 202 202 202 0
5.132922 2.214202 26.312558 202 202 202 0
5.238422 2.216255 26.336962 202 202 202 0
5.357584 2.223903 26.427840 203 203 203 0
5.498465 2.240115 26.620502 203 203 203 0
5.617219 2.246888 26.700981 203 203 203 0
5.733930 2.252615 26.769048 202 202 202 0
5.877598 2.268547 26.958368 202 202 202 0
6.020738 2.283728 27.138776 201 201 201 0
6.150106 2.293260 27.252048 201 201 201 0
6.299468 2.309805 27.448661 201 201 201 0
6.446059 2.324808 27.626954 201 201 201 0
6.585565 2.336813 27.769617 200 200 200 0
6.752251 2.357929 28.020544 200 200 200 0
6.965676 2.394451 28.454560 201 201 201 0
7.219354 2.443474 29.037119 203 203 203 0
7.378691 2.459564 29.228328 209 209 209 0
7.475908 2.454776 29.171431 210 210 210 0
7.598263 2.458262 29.212855 211 211 211 0
7.712633 2.459100 29.222821 209 209 209 0
7.819888 2.457679 29.205931 209 209 209 0
7.911785 2.451539 29.132964 209 209 209 0
8.001664 2.444953 29.054700 209 209 209 0
8.096356 2.439998 28.995815 209 209 209 0
8.215993 2.442593 29.026650 210 210 210 0
8.315599 2.439242 28.986836 209 209 209 0
8.401083 2.431893 28.899495 208 208 208 0
8.486859 2.424817 28.815413 209 209 209 0
8.584840 2.421365 28.774392 209 209 209 0
8.689100 2.419749 28.755192 209 209 209 0
-9.040866 2.599249 29.545315 138 138 138 0
-8.863985 2.580654 29.333947 145 145 145 0
-8.762606 2.583845 29.370224 156 156 156 0
-8.521462 2.545372 28.932898 158 158 158 0
-8.366814 2.532062 28.781610 164 164 164 0
-8.209858 2.517690 28.618241 168 168 168 0
-8.169679 2.539225 28.863024 169 169 169 0
-8.074655 2.544070 28.918096 172 172 172 0
-7.880440 2.517363 28.614525 178 178 178 0
-7.667847 2.483950 28.234731 178 178 178 0
-7.530176 2.474201 28.123905 178 178 178 0
-7.455508 2.485169 28.248586 181 181 181 0
-7.462886 2.524212 28.692373 185 185 185 0
-7.279814 2.499041 28.406257 186 186 186 0
-7.078353 2.466699 28.038632 186 186 186 0
-6.914421 2.446641 27.810643 186 186 186 0
-6.807457 2.446430 27.808241 188 188 188 0
-6.851108 2.501198 28.430783 192 192 192 0
-6.718467 2.492334 28.330031 191 191 191 0
-6.537864 2.465096 28.020420 192 192 192 0
-6.370657 2.442085 27.758856 193 193 193 0
-6.263299 2.441625 27.753625 194 194 194 0
-6.255575 2.480659 28.197320 194 194 194 0
-6.164468 2.487417 28.274132 197 197 197 0
-6.006801 2.467079 28.042956 197 197 197 0
-5.877960 2.458056 27.940394 197 197 197 0
-5.760523 2.453556 27.889243 198 198 198 0
-5.710421 2.478107 28.168311 198 198 198 0
-5.617933 2.484855 28.245012 198 198 198 0
-5.496853 2.478973 28.178154 199 199 199 0
-5.349971 2.460987 27.973705 199 199 199 0
-5.245497 2.462172 27.987178 200 200 200 0
-5.193061 2.488342 28.284646 202 202 202 0
-5.101881 2.496665 28.379255 202 202 202 0
-4.983297 2.491648 28.322231 203 203 203 0
-4.851691 2.479753 28.187024 202 202 202 0
-4.737549 2.476446 28.149432 203 203 203 0
-4.668601 2.497159 28.384867 204 204 204 0
-4.584581 2.510604 28.537698 204 204 204 0
-4.445189 2.493642 28.344899 204 204 204 0
-4.307987 2.477093 28.156778 206 206 206 0
-4.210543 2.483141 28.225526 206 206 206 0
-4.109959 2.487607 28.276290 206 206 206 0
-4.016213 2.496565 28.378118 205 205 205 0
-3.911030 2.498714 28.402544 206 206 206 0
-3.792351 2.492117 28.327554 207 207 207 0
-3.695109 2.499633 28.412991 207 207 207 0
-3.590157 2.502231 28.442522 208 208 208 0
-3.479669 2.501012 28.428667 204 204 204 0
-3.375298 2.504253 28.465513 200 200 200 0
-3.272147 2.508646 28.515445 201 201 201 0
-3.163950 2.509340 28.523331 201 201 201 0
-3.047455 2.503266 28.454294 201 201 201 0
-2.947460 2.510799 28.539913 201 201 201 0
-2.849965 2.521122 28.657260 201 201 201 0
-2.738157 2.519104 28.634319 202 202 202 0
-2.617824 2.508748 28.516601 201 201 201 0
-2.505235 2.505235 28.476671 202 202 202 0
-2.410606 2.520179 28.646536 203 203 203 0
-2.302174 2.521429 28.660742 203 203 203 0
-2.189124 2.517493 28.616001 204 204 204 0
-2.070562 2.506470 28.490707 204 204 204 0
-1.955952 2.499271 28.408882 203 203 203 0
-1.853886 2.508199 28.510361 203 203 203 0
-1.751103 2.517211 28.612801 205 205 205 0
-1.638988 2.513115 28.566246 205 205 205 0
-1.522647 2.501491 28.434114 203 203 203 0
-1.404270 2.484477 28.240720 192 192 192 0
-1.288141 2.468936 28.064069 170 170 170 0
-1.173178 2.453009 27.883021 163 163 163 0
-1.064405 2.448132 27.827592 167 167 167 0
-0.954108 2.438276 27.715553 172 172 172 0
-0.843527 2.425140 27.566240 173 173 173 0
-0.730940 2.401659 27.299332 171 171 171 0
-0.621930 2.384067 27.099364 172 172 172 0
-0.515367 2.370689 26.947308 178 178 178 0
-0.411954 2.368735 26.925098 177 177 177 0
-0.308537 2.365449 26.887739 178 178 178 0
-0.206049 2.369558 26.934452 180 180 180 0
-0.102500 2.357490 26.797278 180 180 180 0
0.000000 2.340977 26.609567 181 181 181 0
0.101020 2.323458 26.410432 184 184 184 0
0.201415 2.316270 26.328725 186 186 186 0
0.302624 2.320120 26.372496 186 186 186 0
0.404586 2.326369 26.443521 188 188 188 0
0.503362 2.315465 26.319578 188 188 188 0
0.599845 2.299405 26.137033 188 188 188 0
0.695851 2.286369 25.988849 189 189 189 0
0.792136 2.277391 25.886796 188 188 188 0
0.891389 2.277994 25.893647 189 189 189 0
0.992772 2.283377 25.954837 193 193 193 0
1.090745 2.280648 25.923824 194 194 194 0
1.184510 2.270312 25.806328 194 194 194 0
1.278018 2.261109 25.701725 194 194 194 0
1.375039 2.258992 25.677660 194 194 194 0
1.474487 2.260880 25.699119 196 196 196 0
1.573645 2.262115 25.713158 197 197 197 0
1.671242 2.261093 25.701535 196 196 196 0
1.764620 2.254792 25.629921 196 196 196 0
1.861158 2.252980 25.609326 196 196 196 0
1.959400 2.253310 25.613069 197 197 197 0
2.063199 2.259694 25.685640 197 197 197 0
2.161019 2.259247 25.680562 197 197 197 0
2.258473 2.258473 25.671762 198 198 198 0
2.348327 2.250480 25.580901 198 198 198 0
2.445680 2.250026 25.575744 199 199 199 0
2.539602 2.246571 25.536469 199 199 199 0
2.650974 2.258237 25.669077 199 199 199 0
2.744863 2.254709 25.628974 199 199 199 0
2.835887 2.249152 25.565805 200 200 200 0
2.931186 2.247242 25.544102 200 200 200 0
3.029119 2.247411 25.546015 200 200 200 0
3.136541 2.254389 25.625334 200 200 200 0
3.238123 2.256873 25.653576 200 200 200 0
3.334511 2.255699 25.640224 201 201 201 0
3.434780 2.257141 25.656622 201 201 201 0
3.532442 2.256838 25.653177 201 201 201 0
3.641097 2.263385 25.727591 201 201 201 0
3.749701 2.269556 25.797735 201 201 201 0
3.848421 2.269581 25.798026 203 203 203 0
3.943440 2.267478 25.774115 202 202 202 0
4.062792 2.279127 25.906532 202 202 202 0
4.179662 2.288863 26.017192 203 203 203 0
4.277953 2.288208 26.009748 204 204 204 0
4.377609 2.288295 26.010747 204 204 204 0
4.490839 2.295318 26.090567 203 203 203 0
4.612056 2.306028 26.212313 202 202 202 0
4.707342 2.303593 26.184629 202 202 202 0
4.798463 2.299264 26.135420 202 202 202 0
4.907618 2.303576 26.184437 202 202 202 0
5.046868 2.321559 26.388854 202 202 202 0
5.159342 2.326762 26.447994 203 203 203 0
5.269712 2.330834 26.494277 202 202 202 0
5.397508 2.342315 26.624779 202 202 202 0
5.536964 2.358337 26.806897 202 202 202 0
5.645418 2.360811 26.835025 201 201 201 0
5.782118 2.374798 26.994013 200 200 200 0
5.934363 2.394568 27.218727 202 202 202 0
6.068142 2.406332 27.352456 201 201 201 0
6.205687 2.419166 27.498335 202 202 202 0
6.381803 2.446358 27.807421 200 200 200 0
6.508973 2.454203 27.896594 199 199 199 0
6.673224 2.475551 28.139253 199 199 199 0
6.868992 2.507727 28.504999 200 200 200 0
7.116175 2.557375 29.069341 201 201 201 0
7.268221 2.571832 29.233669 211 211 211 0
7.400971 2.579126 29.316582 210 210 210 0
7.500353 2.574748 29.266814 212 212 212 0
7.604485 2.572105 29.236775 210 210 210 0
7.722484 2.574161 29.260147 211 211 211 0
7.826680 2.571624 29.231299 209 209 209 0
7.916297 2.564434 29.149579 209 209 209 0
8.005328 2.557258 29.068004 209 209 209 0
8.105526 2.553796 29.028654 208 208 208 0
8.224931 2.556397 29.058225 209 209 209 0
8.322499 2.552233 29.010890 209 209 209 0
8.404675 2.543520 28.911849 208 208 208 0
8.498377 2.538476 28.854517 208 208 208 0
8.594590 2.534302 28.807072 208 208 208 0
8.713075 2.536718 28.834534 209 209 209 0
-8.981291 2.694387 29.350626 140 140 140 0
-8.823776 2.680641 29.200880 148 148 148 0
-8.721239 2.683458 29.231571 157 157 157 0
-8.478051 2.642509 28.785506 159 159 159 0
-8.339101 2.633400 28.686279 166 166 166 0
-8.185688 2.619420 28.533987 169 169 169 0
-8.143330 2.641080 28.769934 169 169 169 0
-8.028910 2.639642 28.754267 174 174 174 0
-7.854681 2.618227 28.520990 178 178 178 0
-7.649129 2.585621 28.165807 178 178 178 0
-7.523411 2.579455 28.098640 179 179 179 0
-7.432053 2.585062 28.159716 183 183 183 0
-7.447241 2.628438 28.632221 185 185 185 0
-7.271412 2.604685 28.373474 185 185 185 0
-7.072389 2.571778 28.015009 186 186 186 0
-6.907233 2.550363 27.781730 187 187 187 0
-6.801807 2.550678 27.785159 190 190 190 0
-6.835458 2.603984 28.365838 191 191 191 0
-6.705043 2.595500 28.273425 191 191 191 0
-6.530698 2.569455 27.989704 192 192 192 0
-6.362750 2.545100 27.724402 193 193 193 0
-6.246602 2.540991 27.679637 194 194 194 0
-6.240542 2.582293 28.129557 195 195 195 0
-6.157439 2.592606 28.241896 196 196 196 0
-5.999208 2.571089 28.007505 197 197 197 0
-5.864976 2.559262 27.878672 198 198 198 0
-5.756987 2.558661 27.872122 197 197 197 0
-5.693832 2.578339 28.086480 198 198 198 0
-5.620516 2.594084 28.258000 199 199 199 0
-5.490788 2.583900 28.147063 200 200 200 0
-5.340399 2.563392 27.923655 201 201 201 0
-5.238803 2.565944 27.951463 202 202 202 0
-5.187779 2.593890 28.255878 201 201 201 0
-5.097452 2.602954 28.354618 203 203 203 0
-4.973455 2.594846 28.266299 203 203 203 0
-4.840298 2.581492 28.120828 203 203 203 0
-4.734610 2.582514 28.131965 203 203 203 0
-4.662368 2.602252 28.346971 204 204 204 0
-4.579936 2.617106 28.508782 204 204 204 0
-4.441772 2.600062 28.323110 205 205 205 0
-4.304118 2.582471 28.131487 205 205 205 0
-4.201502 2.585540 28.164919 205 205 205 0
-4.104793 2.592501 28.240750 206 206 206 0
-4.015641 2.604740 28.374078 206 206 206 0
-3.909393 2.606262 28.390653 206 206 206 0
-3.793821 2.601477 28.338531 207 207 207 0
-3.694038 2.607556 28.404750 206 206 206 0
-3.595514 2.614919 28.484959 207 207 207 0
-3.485602 2.614202 28.477143 207 207 207 0
-3.377543 2.614872 28.484441 207 207 207 0
-3.274092 2.619273 28.532390 202 202 202 0
-3.167294 2.621209 28.553477 200 200 200 0
-3.054904 2.618489 28.523848 201 201 201 0
-2.952433 2.624385 28.588074 201 201 201 0
-2.854601 2.635017 28.703885 202 202 202 0
-2.742033 2.632351 28.674852 201 201 201 0
-2.622437 2.622437 28.566855 202 202 202 0
-2.512338 2.621570 28.557409 202 202 202 0
-2.415396 2.634977 28.703455 202 202 202 0
-2.308841 2.638675 28.743736 202 202 202 0
-2.193190 2.631828 28.669154 203 203 203 0
-2.075748 2.621997 28.562063 204 204 204 0
-1.960046 2.613395 28.468358 203 203 203 0
-1.859865 2.625692 28.602307 204 204 204 0
-1.759404 2.639107 28.748438 204 204 204 0
-1.641300 2.626080 28.606539 205 205 205 0
-1.527373 2.618354 28.522370 205 205 205 0
-1.415059 2.612416 28.457695 203 203 203 0
-1.301635 2.603271 28.358071 188 188 188 0
-1.189527 2.595332 28.271585 170 170 170 0
-1.077171 2.585210 28.161328 165 165 165 0
-0.961886 2.565028 27.941482 167 167 167 0
-0.847637 2.542911 27.700557 174 174 174 0
-0.735102 2.520348 27.454772 172 172 172 0
-0.625409 2.501637 27.250952 172 172 172 0
-0.518464 2.488626 27.109215 172 172 172 0
-0.415449 2.492693 27.153514 175 175 175 0
-0.312031 2.496250 27.192270 179 179 179 0
-0.207424 2.489083 27.114196 179 179 179 0
-0.102933 2.470380 26.910463 180 180 180 0
0.000000 2.452828 26.719262 180 180 180 0
0.101631 2.439155 26.570319 180 180 180 0
0.203151 2.437816 26.555731 182 182 182 0
0.324118 2.592943 28.245572 186 186 186 0
0.406510 2.439058 26.569262 187 187 187 0
0.504905 2.423544 26.400263 187 187 187 0
0.602073 2.408291 26.234103 187 187 187 0
0.698580 2.395131 26.090748 188 188 188 0
0.797539 2.392616 26.063358 188 188 188 0
0.898975 2.397267 26.114021 189 189 189 0
0.999051 2.397723 26.118992 189 189 189 0
1.093674 2.386197 25.993431 191 191 191 0
1.190039 2.380078 25.926771 191 191 191 0
1.287379 2.376700 25.889976 193 193 193 0
1.383898 2.372396 25.843097 195 195 195 0
1.482019 2.371230 25.830395 196 196 196 0
1.580445 2.370667 25.824261 195 195 195 0
1.676655 2.367043 25.784780 196 196 196 0
1.771765 2.362353 25.733696 196 196 196 0
1.870945 2.363299 25.744002 197 197 197 0
1.972479 2.366975 25.784042 197 197 197 0
2.072629 2.368719 25.803039 197 197 197 0
2.171883 2.369327 25.809663 197 197 197 0
2.267515 2.366102 25.774535 197 197 197 0
2.358075 2.358075 25.687092 198 198 198 0
2.453793 2.355641 25.660581 198 198 198 0
2.374816 2.192138 23.879494 198 198 198 0
2.660698 2.365065 25.763235 198 198 198 0
2.757907 2.363921 25.750769 198 198 198 0
2.847990 2.356958 25.674918 200 200 200 0
2.942461 2.353969 25.642364 199 199 199 0
3.044426 2.356975 25.675105 200 200 200 0
3.152757 2.364568 25.757817 199 199 199 0
3.254287 2.366754 25.781636 201 201 201 0
3.354192 2.367665 25.791560 200 200 200 0
3.449846 2.365609 25.769158 201 201 201 0
3.549997 2.366664 25.780658 201 201 201 0
3.662134 2.375439 25.876236 201 201 201 0
3.767695 2.379597 25.921535 202 202 202 0
3.865141 2.378548 25.910114 202 202 202 0
3.971278 2.382767 25.956066 202 202 202 0
4.089996 2.394144 26.080000 202 202 202 0
4.203754 2.402145 26.167157 203 203 203 0
4.297269 2.398476 26.127188 202 202 202 0
4.400048 2.400026 26.144077 202 202 202 0
4.671728 2.491589 27.141487 201 201 201 0
4.631665 2.416521 26.323759 200 200 200 0
4.728791 2.414702 26.303939 201 201 201 0
4.824277 2.412138 26.276017 201 201 201 0
4.947944 2.423483 26.399594 203 203 203 0
5.076039 2.436499 26.541379 201 201 201 0
5.187454 2.441155 26.592101 201 201 201 0
5.309455 2.450518 26.694091 201 201 201 0
5.455598 2.470460 26.911325 201 201 201 0
5.578256 2.479225 27.006808 201 201 201 0
5.699382 2.487003 27.091534 200 200 200 0
5.843447 2.504334 27.280331 202 202 202 0
5.983746 2.519472 27.445229 201 201 201 0
6.121163 2.532895 27.591451 201 201 201 0
6.154754 2.503629 27.272642 199 199 199 0
6.439075 2.575630 28.056974 199 199 199 0
6.597679 2.595808 28.276779 198 198 198 0
6.780454 2.624692 28.591413 197 197 197 0
7.024320 2.675931 29.149578 202 202 202 0
7.176684 2.691256 29.316518 211 211 211 0
7.291745 2.692337 29.328286 210 210 210 0
7.407442 2.693615 29.342212 209 209 209 0
7.496896 2.685455 29.253325 210 210 210 0
7.609087 2.685560 29.254467 209 209 209 0
7.730183 2.688759 29.289316 209 209 209 0
7.832206 2.685328 29.251935 209 209 209 0
7.923772 2.678458 29.177103 209 209 209 0
8.012090 2.670697 29.092555 210 210 210 0
8.110889 2.666594 29.047862 208 208 208 0
8.234885 2.670774 29.093393 209 209 209 0
8.330848 2.665871 29.039993 209 209 209 0
8.410586 2.655974 28.932184 208 208 208 0
8.504308 2.650693 28.874655 209 209 209 0
8.600473 2.646299 28.826791 209 209 209 0
8.708050 2.645483 28.817902 208 208 208 0
-8.961994 2.800623 29.287561 141 141 141 0
-8.814101 2.789272 29.168861 151 151 151 0
-8.707179 2.790763 29.184446 156 156 156 0
-8.473795 2.751232 28.771055 160 160 160 0
-8.317967 2.736173 28.613577 168 168 168 0
-8.169036 2.723012 28.475943 169 169 169 0
-8.096621 2.735345 28.604913 170 170 170 0
-8.018747 2.746146 28.717870 176 176 176 0
-7.852483 2.726557 28.513010 177 177 177 0
-7.642540 2.691035 28.141546 177 177 177 0
-7.509963 2.682130 28.048416 180 180 180 0
-7.422551 2.689330 28.123712 185 185 185 0
-7.435023 2.733464 28.585249 185 185 185 0
-7.262112 2.709743 28.337184 185 185 185 0
-7.064149 2.675814 27.982370 186 186 186 0
-6.898353 2.653213 27.746013 189 189 189 0
-6.791535 2.652943 27.743199 191 191 191 0
-6.815393 2.704521 28.282572 191 191 191 0
-6.702379 2.702572 28.262191 192 192 192 0
-6.523977 2.673761 27.960899 192 192 192 0
-6.355913 2.648297 27.694611 193 193 193 0
-6.235189 2.642029 27.629065 195 195 195 0
-6.236187 2.688012 28.109927 196 196 196 0
-6.154515 2.699349 28.228484 197 197 197 0
-5.994860 2.676277 27.987210 197 197 197 0
-5.857865 2.662666 27.844871 197 197 197 0
-5.747554 2.660905 27.826453 197 197 197 0
-5.692016 2.684913 28.077524 198 198 198 0
-5.599766 2.692195 28.153673 199 199 199 0
-5.483331 2.687907 28.108835 201 201 201 0
-5.341474 2.670737 27.929273 201 201 201 0
-5.237360 2.672122 27.943763 201 201 201 0
-5.184538 2.700280 28.238222 202 202 202 0
-5.087913 2.706337 28.301560 201 201 201 0
-4.971791 2.702060 28.256839 203 203 203 0
-4.833396 2.685220 28.080729 203 203 203 0
-4.727796 2.686248 28.091480 204 204 204 0
-4.655058 2.706429 28.302525 204 204 204 0
-4.574507 2.722921 28.474989 204 204 204 0
-4.437950 2.706067 28.298742 204 204 204 0
-4.305649 2.691030 28.141495 206 206 206 0
-4.195534 2.689445 28.124915 205 205 205 0
-4.099687 2.697162 28.205619 205 205 205 0
-4.007511 2.707777 28.316627 206 206 206 0
-3.905949 2.712465 28.365644 206 206 206 0
-3.790369 2.707407 28.312750 207 207 207 0
-3.691160 2.714088 28.382624 207 207 207 0
-3.595481 2.723849 28.484700 208 208 208 0
-3.488656 2.725512 28.502091 208 208 208 0
-3.385270 2.730056 28.549609 209 209 209 0
-3.283690 2.736408 28.616034 208 208 208 0
-3.175580 2.737569 28.628169 204 204 204 0
-3.064083 2.735788 28.609548 202 202 202 0
-2.962309 2.742879 28.683702 201 201 201 0
-2.862458 2.752364 28.782888 202 202 202 0
-2.748478 2.748478 28.742249 202 202 202 0
-2.625419 2.734812 28.599337 202 202 202 0
-2.514852 2.733534 28.585981 202 202 202 0
-2.422045 2.752324 28.782468 201 201 201 0
-2.313513 2.754182 28.801899 202 202 202 0
-2.196918 2.746147 28.717882 202 202 202 0
-2.079776 2.736547 28.617488 204 204 204 0
-1.963006 2.726398 28.511347 203 203 203 0
-1.863943 2.741093 28.665026 204 204 204 0
-1.761227 2.751917 28.778220 204 204 204 0
-1.644031 2.740051 28.654133 205 205 205 0
-1.529590 2.731411 28.563776 205 205 205 0
-1.420978 2.732650 28.576729 205 205 205 0
-1.313026 2.735471 28.606233 203 203 203 0
-1.204492 2.737481 28.627257 191 191 191 0
-1.089429 2.723572 28.481799 172 172 172 0
-0.968322 2.689784 28.128458 166 166 166 0
-0.852218 2.663182 27.850268 165 165 165 0
-0.740176 2.643487 27.644307 170 170 170 0
-0.631454 2.631059 27.514341 173 173 173 0
-0.524786 2.623931 27.439802 171 171 171 0
-0.419480 2.621747 27.416963 172 172 172 0
-0.314507 2.620892 27.408026 175 175 175 0
-0.208466 2.605830 27.250510 178 178 178 0
-0.103532 2.588308 27.067273 179 179 179 0
0.000000 2.568260 26.857622 181 181 181 0
0.102245 2.556119 26.730651 179 179 179 0
0.204834 2.560421 26.775645 180 180 180 0
0.307953 2.566273 26.836837 181 181 181 0
0.408878 2.555486 26.724032 183 183 183 0
0.507285 2.536427 26.524730 186 186 186 0
0.604497 2.518736 26.339720 186 186 186 0
0.702099 2.507495 26.222169 187 187 187 0
0.803035 2.509483 26.242963 188 188 188 0
0.905495 2.515263 26.303405 190 190 190 0
1.004643 2.511608 26.265185 189 189 189 0
1.100573 2.501303 26.157420 190 190 190 0
1.195016 2.489617 26.035205 189 189 189 0
1.293260 2.487038 26.008237 190 190 190 0
1.391662 2.485110 25.988080 191 191 191 0
1.491101 2.485168 25.988681 192 192 192 0
1.589352 2.483363 25.969811 194 194 194 0
1.685068 2.478042 25.914161 194 194 194 0
1.780693 2.473185 25.863369 196 196 196 0
1.879579 2.473130 25.862802 197 197 197 0
1.984921 2.481151 25.946681 198 198 198 0
2.085501 2.482739 25.963284 198 198 198 0
2.182531 2.480149 25.936194 197 197 197 0
2.275733 2.473623 25.867955 197 197 197 0
2.371473 2.470284 25.833037 199 199 199 0
2.469177 2.469177 25.821454 198 198 198 0
2.574138 2.475133 25.883743 198 198 198 0
2.673542 2.475502 25.887604 198 198 198 0
2.768032 2.471457 25.845303 198 198 198 0
2.861816 2.467083 25.799561 199 199 199 0
2.956969 2.464141 25.768793 200 200 200 0
3.062090 2.469427 25.824078 200 200 200 0
3.167392 2.474525 25.877385 200 200 200 0
3.266721 2.474788 25.880139 200 200 200 0
3.366798 2.475587 25.888488 201 201 201 0
3.463799 2.474142 25.873385 200 200 200 0
3.572143 2.480655 25.941487 201 201 201 0
3.680974 2.487144 26.009352 201 201 201 0
3.778008 2.485531 25.992484 201 201 201 0
3.877224 2.485400 25.991112 201 201 201 0
3.994190 2.496369 26.105819 201 201 201 0
4.115672 2.509556 26.243725 200 200 200 0
4.220755 2.512354 26.272988 200 200 200 0
4.315089 2.508773 26.235533 200 200 200 0
4.425421 2.514444 26.294838 200 200 200 0
4.552201 2.529001 26.447065 201 201 201 0
4.652565 2.528568 26.442541 200 200 200 0
4.749624 2.526396 26.419823 201 201 201 0
4.853823 2.528033 26.436942 202 202 202 0
4.994243 2.548083 26.646620 202 202 202 0
5.112384 2.556192 26.731421 200 200 200 0
5.220518 2.559077 26.761593 199 199 199 0
5.363691 2.578698 26.966771 199 199 199 0
5.504054 2.596252 27.150346 201 201 201 0
5.617280 2.600593 27.195741 200 200 200 0
5.753340 2.615155 27.348022 200 200 200 0
5.902107 2.634869 27.554189 199 199 199 0
6.035933 2.647339 27.684591 198 198 198 0
6.186356 2.666533 27.885308 199 199 199 0
6.354329 2.692512 28.156993 199 199 199 0
6.507354 2.711398 28.354485 198 198 198 0
6.717388 2.753028 28.789833 197 197 197 0
6.917151 2.789174 29.167830 203 203 203 0
7.076402 2.808096 29.365708 211 211 211 0
7.199752 2.812403 29.410751 210 210 210 0
7.308550 2.810981 29.395878 210 210 210 0
7.420510 2.810799 29.393978 209 209 209 0
7.501595 2.799103 29.271660 208 208 208 0
7.619535 2.801300 29.294637 209 209 209 0
7.738002 2.803624 29.318941 209 209 209 0
7.839753 2.799912 29.280124 208 208 208 0
7.926702 2.791092 29.187893 209 209 209 0
8.018904 2.784342 29.117300 209 209 209 0
8.115409 2.779250 29.064050 208 208 208 0
8.246222 2.785886 29.133447 210 210 210 0
8.337217 2.779072 29.062194 208 208 208 0
8.421263 2.770152 28.968915 208 208 208 0
8.509143 2.762709 28.891072 208 208 208 0
8.608987 2.759291 28.855329 209 209 209 0
8.708004 2.755697 28.817751 208 208 208 0
-8.929786 2.902181 29.182308 142 142 142 0
-8.791268 2.893329 29.093299 153 153 153 0
-8.676911 2.892304 29.082993 156 156 156 0
-8.443248 2.850967 28.667340 161 161 161 0
-8.299851 2.839423 28.551258 167 167 167 0
-8.143191 2.822973 28.385851 169 169 169 0
-8.070918 2.835728 28.514109 172 172 172 0
-8.008050 2.852182 28.679561 177 177 177 0
-7.847219 2.833718 28.493895 177 177 177 0
-7.640224 2.797828 28.133016 179 179 179 0
-7.510241 2.789518 28.049454 181 181 181 0
-7.415203 2.794135 28.095873 184 184 184 0
-7.405494 2.831512 28.471718 185 185 185 0
-7.262805 2.818402 28.339890 186 186 186 0
-7.065082 2.783214 27.986066 186 186 186 0
-6.893075 2.757230 27.724786 189 189 189 0
-6.779272 2.754079 27.693106 191 191 191 0
-6.809563 2.810296 28.258381 192 192 192 0
-6.692909 2.806704 28.222262 192 192 192 0
-6.517129 2.777793 27.931551 192 192 192 0
-6.352643 2.752812 27.680361 193 193 193 0
-6.233358 2.746903 27.620948 196 196 196 0
-6.223656 2.789915 28.053441 196 196 196 0
-6.151206 2.805813 28.213308 196 196 196 0
-5.995990 2.783852 27.992483 197 197 197 0
-5.853309 2.767019 27.823213 197 197 197 0
-5.735221 2.761403 27.766744 197 197 197 0
-5.678885 2.785868 28.012752 199 199 199 0
-5.590090 2.795045 28.105029 200 200 200 0
-5.473982 2.790658 28.060911 201 201 201 0
-5.338732 2.776141 27.914940 201 201 201 0
-5.231070 2.775670 27.910204 201 201 201 0
-5.169445 2.800116 28.156021 202 202 202 0
-5.086308 2.813703 28.292635 202 202 202 0
-4.966119 2.806937 28.224605 202 202 202 0
-4.836151 2.794220 28.096735 203 203 203 0
-4.719155 2.788591 28.040134 204 204 204 0
-4.645812 2.809096 28.246310 204 204 204 0
-4.567335 2.827398 28.430346 205 205 205 0
-4.434248 2.811962 28.275136 204 204 204 0
