ply
    format ascii 1.0
    element vertex 14940
    property float x
    property float y
    property float z
    property uchar red
    property uchar green
    property uchar blue
    property uchar alpha
    end_header
2.638860 -7.036961 32.852294 201 201 201 0
2.775675 -7.065354 32.984846 201 201 201 0
2.907752 -7.079745 33.052032 201 201 201 0
3.022104 -7.051575 32.920520 201 201 201 0
3.136626 -7.026043 32.801321 201 201 201 0
3.261811 -7.025440 32.798506 202 202 202 0
3.406582 -7.065503 32.985541 201 201 201 0
3.519143 -7.038286 32.858479 201 201 201 0
3.628161 -7.006105 32.708238 202 202 202 0
3.739271 -6.979972 32.586237 202 202 202 0
3.870988 -6.992753 32.645905 202 202 202 0
4.005499 -7.009623 32.724666 202 202 202 0
4.123665 -6.997735 32.669166 202 202 202 0
4.232141 -6.970585 32.542413 202 202 202 0
4.350229 -6.960366 32.494706 203 203 203 0
4.483909 -6.974970 32.562883 202 202 202 0
4.608153 -6.974502 32.560700 202 202 202 0
4.720982 -6.957237 32.480098 202 202 202 0
4.831188 -6.937091 32.386045 202 202 202 0
4.952001 -6.932802 32.366022 203 203 203 0
5.088618 -6.950307 32.447745 203 203 203 0
5.210962 -6.947950 32.436740 202 202 202 0
5.321144 -6.929862 32.352296 203 203 203 0
5.429226 -6.909924 32.259216 203 203 203 0
5.559281 -6.918216 32.297929 203 203 203 0
5.689088 -6.925846 32.333547 203 203 203 0
5.800595 -6.911347 32.265859 203 203 203 0
5.899401 -6.882635 32.131814 203 203 203 0
6.011667 -6.870477 32.075056 204 204 204 0
6.132859 -6.868802 32.067237 204 204 204 0
6.260718 -6.874514 32.093905 203 203 203 0
6.377126 -6.867674 32.061971 203 203 203 0
6.485094 -6.852175 31.989612 204 204 204 0
6.606378 -6.851059 31.984400 204 204 204 0
6.725280 -6.847558 31.968059 204 204 204 0
6.841611 -6.841611 31.940293 204 204 204 0
6.962376 -6.840229 31.933843 204 204 204 0
7.074696 -6.830741 31.889547 204 204 204 0
7.185030 -6.819690 31.837955 204 204 204 0
7.305082 -6.818076 31.830422 204 204 204 0
7.433272 -6.823987 31.858016 205 205 205 0
7.546902 -6.816557 31.823328 204 204 204 0
7.654409 -6.803920 31.764330 204 204 204 0
7.756221 -6.786693 31.683908 204 204 204 0
7.894354 -6.801289 31.752052 205 205 205 0
8.001069 -6.788786 31.693678 204 204 204 0
8.106045 -6.775202 31.630261 204 204 204 0
8.199215 -6.752295 31.523320 205 205 205 0
8.299331 -6.735689 31.445792 205 205 205 0
8.432532 -6.746026 31.494051 205 205 205 0
8.559075 -6.750820 31.516433 204 204 204 0
8.666660 -6.740736 31.469355 205 205 205 0
8.760019 -6.720014 31.372616 205 205 205 0
8.865418 -6.708965 31.321030 205 205 205 0
8.994705 -6.716047 31.354093 205 205 205 0
9.116433 -6.717372 31.360280 205 205 205 0
9.214734 -6.701625 31.286764 206 206 206 0
9.325553 -6.695269 31.257092 205 205 205 0
9.433740 -6.687208 31.219458 205 205 205 0
-2.107438 -7.244319 34.435267 174 174 174 0
-1.957504 -7.177513 34.117711 197 197 197 0
-1.811221 -7.115512 33.822990 197 197 197 0
-1.677764 -7.098234 33.740861 198 198 198 0
-1.556045 -7.131875 33.900773 197 197 197 0
-1.436634 -7.183170 34.144601 197 197 197 0
-1.297216 -7.134686 33.914136 197 197 197 0
-1.159682 -7.086947 33.687209 198 198 198 0
-1.029531 -7.078026 33.644804 198 198 198 0
-0.907262 -7.128483 33.884651 198 198 198 0
-0.776997 -7.122470 33.856067 198 198 198 0
-0.643960 -7.083563 33.671123 198 198 198 0
-0.513773 -7.064374 33.579914 199 199 199 0
-0.386216 -7.080624 33.657156 198 198 198 0
-0.257487 -7.080890 33.658420 198 198 198 0
-0.128475 -7.066130 33.588257 199 199 199 0
0.000000 -7.046630 33.495569 199 199 199 0
0.127993 -7.039590 33.462105 198 198 198 0
0.256293 -7.048070 33.502412 199 199 199 0
0.385068 -7.059589 33.557165 199 199 199 0
0.512879 -7.052085 33.521496 199 199 199 0
0.639723 -7.036955 33.449578 199 199 199 0
0.765685 -7.018778 33.363173 199 199 199 0
0.893688 -7.021838 33.377720 199 199 199 0
1.022658 -7.030771 33.420181 200 200 200 0
1.146952 -7.009153 33.317423 200 200 200 0
1.271834 -6.995087 33.250560 200 200 200 0
1.397113 -6.985567 33.205311 200 200 200 0
1.522918 -6.980041 33.179042 200 200 200 0
1.652731 -6.992322 33.237421 200 200 200 0
1.778932 -6.988662 33.220022 200 200 200 0
1.902010 -6.974037 33.150503 200 200 200 0
2.023151 -6.954580 33.058015 200 200 200 0
2.146938 -6.945977 33.017124 201 201 201 0
2.275085 -6.951649 33.044083 200 200 200 0
2.403261 -6.956807 33.068603 201 201 201 0
2.519652 -6.929042 32.936623 200 200 200 0
2.639373 -6.912643 32.858669 201 201 201 0
2.775099 -6.937747 32.978002 201 201 201 0
2.907684 -6.953158 33.051258 201 201 201 0
3.023796 -6.929533 32.938955 201 201 201 0
3.136526 -6.900357 32.800271 201 201 201 0
3.260947 -6.898157 32.789813 202 202 202 0
3.402636 -6.931297 32.947339 201 201 201 0
3.517999 -6.910356 32.847800 202 202 202 0
3.626697 -6.878219 32.695038 202 202 202 0
3.739338 -6.855453 32.586825 202 202 202 0
3.867921 -6.862440 32.620034 202 202 202 0
4.004916 -6.883449 32.719900 202 202 202 0
4.119056 -6.865094 32.632651 202 202 202 0
4.232526 -6.846733 32.545373 202 202 202 0
4.346861 -6.830782 32.469551 202 202 202 0
4.484607 -6.851483 32.567952 202 202 202 0
4.607943 -6.849646 32.559218 202 202 202 0
4.720436 -6.832210 32.476342 202 202 202 0
4.827664 -6.808245 32.362422 202 202 202 0
4.947286 -6.802518 32.335201 202 202 202 0
5.086717 -6.823645 32.435628 203 203 203 0
5.211443 -6.824508 32.439730 202 202 202 0
5.317418 -6.801348 32.329642 203 203 203 0
5.426455 -6.783068 32.242749 203 203 203 0
5.558077 -6.793205 32.290933 203 203 203 0
5.689500 -6.802663 32.335889 203 203 203 0
5.796890 -6.783594 32.245248 204 204 204 0
5.896512 -6.756420 32.116080 203 203 203 0
6.009587 -6.745455 32.063956 204 204 204 0
6.130615 -6.743677 32.055504 203 203 203 0
6.260546 -6.751569 32.093020 204 204 204 0
6.375002 -6.742791 32.051294 203 203 203 0
6.483176 -6.727824 31.980148 203 203 203 0
6.604407 -6.726711 31.974858 203 203 203 0
6.721923 -6.721923 31.952100 204 204 204 0
6.837690 -6.715588 31.921988 204 204 204 0
6.958506 -6.714347 31.916090 204 204 204 0
7.071884 -6.706097 31.876872 204 204 204 0
7.181934 -6.695023 31.824234 204 204 204 0
7.301256 -6.692818 31.813750 205 205 205 0
7.428289 -6.697638 31.836663 204 204 204 0
7.544623 -6.692811 31.813719 204 204 204 0
7.649743 -6.678347 31.744965 204 204 204 0
7.755925 -6.665248 31.682702 204 204 204 0
7.921181 -6.702538 31.859955 204 204 204 0
7.997003 -6.664169 31.677573 205 205 205 0
8.101681 -6.650634 31.613234 205 205 205 0
8.197753 -6.630535 31.517696 205 205 205 0
8.298443 -6.614701 31.442427 205 205 205 0
8.430283 -6.623794 31.485650 204 204 204 0
8.555893 -6.627804 31.504714 205 205 205 0
8.662941 -6.617524 31.455850 205 205 205 0
8.759464 -6.599596 31.370629 205 205 205 0
8.865155 -6.588967 31.320104 205 205 205 0
8.993018 -6.594880 31.348212 206 206 206 0
9.110553 -6.593163 31.340052 205 205 205 0
9.210191 -6.578708 31.271339 205 205 205 0
9.326377 -6.576292 31.259853 205 205 205 0
9.433274 -6.567469 31.217918 205 205 205 0
-2.262855 -7.187893 34.799771 79 79 79 0
-2.106384 -7.109047 34.418045 174 174 174 0
-1.958058 -7.049009 34.127374 196 196 196 0
-1.811456 -6.987043 33.827369 197 197 197 0
-1.676744 -6.964935 33.720334 198 198 198 0
-1.555506 -6.999779 33.889028 197 197 197 0
-1.435820 -7.048570 34.125246 198 198 198 0
-1.296950 -7.003528 33.907179 197 197 197 0
-1.158972 -6.953834 33.666590 198 198 198 0
-1.029281 -6.947649 33.636644 197 197 197 0
-0.906776 -6.995131 33.866526 197 197 197 0
-0.776773 -6.990954 33.846304 198 198 198 0
-0.643958 -6.954746 33.671003 197 197 197 0
-0.513416 -6.931118 33.556609 199 199 199 0
-0.386119 -6.950150 33.648752 198 198 198 0
-0.257653 -6.956619 33.680074 198 198 198 0
-0.128359 -6.931367 33.557817 198 198 198 0
0.000000 -6.919530 33.500507 198 198 198 0
0.127962 -6.909969 33.454218 199 199 199 0
0.256144 -6.915895 33.482910 199 199 199 0
0.384813 -6.926629 33.534880 199 199 199 0
0.512542 -6.919316 33.499471 200 200 200 0
0.639591 -6.907578 33.442642 199 199 199 0
0.766053 -6.894478 33.379222 199 199 199 0
0.893548 -6.893087 33.372484 200 200 200 0
1.021849 -6.897481 33.393760 200 200 200 0
1.147264 -6.883582 33.326470 200 200 200 0
1.272090 -6.869288 33.257264 200 200 200 0
1.396209 -6.854116 33.183810 200 200 200 0
1.521572 -6.847074 33.149719 200 200 200 0
1.651881 -6.861661 33.220337 200 200 200 0
1.778317 -6.859223 33.208535 200 200 200 0
1.900700 -6.842519 33.127666 200 200 200 0
2.022344 -6.825410 33.044831 200 200 200 0
2.145953 -6.816556 33.001968 201 201 201 0
2.274055 -6.822166 33.029125 201 201 201 0
2.400895 -6.823597 33.036054 200 200 200 0
2.520049 -6.804132 32.941816 201 201 201 0
2.637816 -6.782956 32.839293 201 201 201 0
2.771790 -6.803483 32.938675 201 201 201 0
2.907478 -6.826252 33.048909 202 202 202 0
3.022148 -6.799834 32.921007 201 201 201 0
3.135998 -6.773757 32.794755 202 202 202 0
3.258844 -6.768369 32.768669 201 201 201 0
3.401178 -6.802355 32.933214 201 201 201 0
3.516223 -6.781288 32.831217 201 201 201 0
3.626178 -6.752194 32.690358 202 202 202 0
3.739428 -6.730971 32.587611 202 202 202 0
3.866333 -6.734903 32.606645 202 202 202 0
4.002754 -6.754647 32.702235 202 202 202 0
4.119012 -6.740201 32.632298 203 203 203 0
4.230538 -6.719089 32.530086 202 202 202 0
4.344727 -6.703293 32.453611 202 202 202 0
4.482861 -6.724292 32.555274 203 203 203 0
4.606358 -6.722792 32.548014 203 203 203 0
4.718689 -6.705506 32.464322 202 202 202 0
4.827544 -6.684292 32.361616 203 203 203 0
4.945315 -6.676176 32.322323 203 203 203 0
5.087127 -6.700119 32.438242 203 203 203 0
5.210409 -6.699097 32.433297 203 203 203 0
5.315373 -6.675120 32.317209 203 203 203 0
5.426779 -6.660138 32.244679 203 203 203 0
5.558106 -6.669727 32.291101 203 203 203 0
5.688870 -6.678239 32.332311 203 203 203 0
5.796135 -6.659389 32.241050 204 204 204 0
5.895473 -6.632407 32.110419 203 203 203 0
6.008914 -6.622068 32.060365 203 203 203 0
6.125959 -6.616036 32.031159 203 203 203 0
6.260036 -6.628274 32.090407 204 204 204 0
6.373758 -6.618903 32.045040 203 203 203 0
6.483194 -6.605518 31.980239 204 204 204 0
6.603152 -6.603152 31.968783 203 203 203 0
6.722895 -6.600660 31.956719 204 204 204 0
6.836561 -6.592398 31.916718 203 203 203 0
6.956348 -6.590225 31.906196 204 204 204 0
7.070810 -6.583168 31.872030 204 204 204 0
7.181432 -6.572836 31.822008 204 204 204 0
7.302084 -6.571875 31.817358 204 204 204 0
7.422523 -6.570758 31.811951 204 204 204 0
7.543393 -6.570052 31.808529 204 204 204 0
7.647444 -6.554952 31.735425 204 204 204 0
7.754442 -6.542811 31.676643 204 204 204 0
8.160143 -6.779196 32.821089 204 204 204 0
7.989287 -6.536690 31.647009 205 205 205 0
8.101203 -6.529328 31.611367 205 205 205 0
8.197221 -6.509558 31.515651 205 205 205 0
8.298960 -6.494838 31.444388 204 204 204 0
8.430700 -6.503683 31.487207 205 205 205 0
8.556493 -6.507756 31.506926 205 205 205 0
8.661798 -6.496348 31.451699 205 205 205 0
8.761300 -6.480962 31.377205 205 205 205 0
8.861728 -6.466666 31.307995 205 205 205 0
8.989225 -6.472242 31.334990 205 205 205 0
9.112490 -6.474664 31.346716 206 206 206 0
9.212481 -6.460701 31.279114 205 205 205 0
9.322541 -6.454067 31.246994 205 205 205 0
9.429975 -6.445806 31.207000 205 205 205 0
-2.103511 -6.967880 34.371092 174 174 174 0
-1.956515 -6.913021 34.100484 197 197 197 0
-1.810790 -6.855134 33.814942 197 197 197 0
-1.677001 -6.837002 33.725500 198 198 198 0
-1.555729 -6.871134 33.893868 198 198 198 0
-1.435607 -6.917016 34.120193 197 197 197 0
-1.296164 -6.869667 33.886629 197 197 197 0
-1.159267 -6.826792 33.675135 198 198 198 0
-1.028550 -6.814146 33.612755 198 198 198 0
-0.906685 -6.864899 33.863109 198 198 198 0
-0.776406 -6.858249 33.830306 199 199 199 0
-0.643724 -6.823475 33.658774 198 198 198 0
-0.513641 -6.805740 33.571293 199 199 199 0
-0.385697 -6.813978 33.611925 198 198 198 0
-0.257360 -6.820038 33.641819 198 198 198 0
-0.128328 -6.801365 33.549709 198 198 198 0
0.000000 -6.791705 33.502058 199 199 199 0
0.127927 -6.780113 33.444880 198 198 198 0
0.256002 -6.784056 33.464329 199 199 199 0
0.384700 -6.796375 33.525094 200 200 200 0
0.512642 -6.792502 33.505991 199 199 199 0
0.639200 -6.775522 33.422233 199 199 199 0
0.765675 -6.763464 33.362751 199 199 199 0
0.893411 -6.764400 33.367371 199 199 199 0
1.021689 -6.768687 33.388515 200 200 200 0
1.146820 -6.753495 33.313576 200 200 200 0
1.270992 -6.736259 33.228555 200 200 200 0
1.396227 -6.727276 33.184247 200 200 200 0
1.522312 -6.723545 33.165838 200 200 200 0
1.651129 -6.731525 33.205202 200 200 200 0
1.777666 -6.729735 33.196374 199 199 199 0
1.901096 -6.717206 33.134571 200 200 200 0
2.021479 -6.696148 33.030697 200 200 200 0
2.145416 -6.688651 32.993714 201 201 201 0
2.273237 -6.693421 33.017246 201 201 201 0
2.401251 -6.698226 33.040949 201 201 201 0
2.519507 -6.676692 32.934726 201 201 201 0
2.636969 -6.655208 32.828750 201 201 201 0
2.769425 -6.671795 32.910571 202 202 202 0
2.906263 -6.697041 33.035100 201 201 201 0
3.020670 -6.670645 32.904897 201 201 201 0
3.135005 -6.646210 32.784362 202 202 202 0
3.258778 -6.642894 32.768004 202 202 202 0
3.398673 -6.671468 32.908957 201 201 201 0
3.516790 -6.656782 32.836511 202 202 202 0
3.626809 -6.628306 32.696047 202 202 202 0
3.737519 -6.602950 32.570971 202 202 202 0
3.864407 -6.606890 32.590404 203 203 203 0
4.001275 -6.627111 32.690153 202 202 202 0
4.118415 -6.614424 32.627567 202 202 202 0
4.229332 -6.592782 32.520813 203 203 203 0
4.343336 -6.577051 32.443217 203 203 203 0
4.480265 -6.595945 32.536416 203 203 203 0
4.604636 -6.595830 32.535851 202 202 202 0
4.719032 -6.581808 32.466682 203 203 203 0
4.827261 -6.560124 32.359721 203 203 203 0
4.946096 -6.553577 32.327423 203 203 203 0
5.084886 -6.573146 32.423953 202 202 202 0
5.208494 -6.572624 32.421377 203 203 203 0
5.315292 -6.551407 32.316719 203 203 203 0
5.425427 -6.535174 32.236644 203 203 203 0
5.555709 -6.543390 32.277174 203 203 203 0
5.688443 -6.554075 32.329882 203 203 203 0
5.792874 -6.532390 32.222912 203 203 203 0
5.893779 -6.507715 32.101194 204 204 204 0
6.007658 -6.498079 32.053662 203 203 203 0
6.124918 -6.492413 32.025713 203 203 203 0
6.256587 -6.501943 32.072725 204 204 204 0
6.372424 -6.494970 32.038329 204 204 204 0
6.480206 -6.480206 31.965501 204 204 204 0
6.599992 -6.477770 31.953483 204 204 204 0
6.718744 -6.474426 31.936990 204 204 204 0
6.834997 -6.468837 31.909418 204 204 204 0
6.954444 -6.466412 31.897459 205 205 205 0
7.069159 -6.459749 31.864590 205 205 205 0
7.182314 -6.451909 31.825919 204 204 204 0
7.300101 -6.448422 31.808717 205 205 205 0
7.421594 -6.448271 31.807969 205 205 205 0
7.543158 -6.448183 31.807539 204 204 204 0
7.640349 -6.427595 31.705980 204 204 204 0
7.735483 -6.405947 31.599194 205 205 205 0
7.379519 -6.017146 29.681321 204 204 204 0
7.999795 -6.424078 31.688633 205 205 205 0
8.098570 -6.406332 31.601093 205 205 205 0
8.195080 -6.387342 31.507422 205 205 205 0
8.297758 -6.373640 31.439834 205 205 205 0
8.424078 -6.378230 31.462474 204 204 204 0
8.552615 -6.384347 31.492646 205 205 205 0
8.661968 -6.376171 31.452316 205 205 205 0
8.755093 -6.356437 31.354975 206 206 206 0
8.862430 -6.347416 31.310475 205 205 205 0
8.986788 -6.350663 31.326493 206 206 206 0
9.112696 -6.354907 31.347425 206 206 206 0
9.211533 -6.340406 31.275895 205 205 205 0
9.319983 -6.332809 31.238421 204 204 204 0
9.428447 -6.325414 31.201942 206 206 206 0
-2.258722 -6.909032 34.736208 79 79 79 0
-2.104902 -6.840931 34.393822 175 175 175 0
-1.958211 -6.788466 34.130047 197 197 197 0
-1.809605 -6.721389 33.792806 197 197 197 0
-1.675965 -6.703860 33.704675 197 197 197 0
-1.555444 -6.740259 33.887678 197 197 197 0
-1.435457 -6.785795 34.116615 197 197 197 0
-1.296534 -6.741977 33.896314 197 197 197 0
-1.159238 -6.697817 33.674294 197 197 197 0
-1.028309 -6.684006 33.604856 198 198 198 0
-0.906316 -6.732630 33.849321 199 199 199 0
-0.776070 -6.725942 33.815697 198 198 198 0
-0.643313 -6.690451 33.637262 198 198 198 0
-0.513267 -6.672466 33.546839 198 198 198 0
-0.385938 -6.689597 33.632969 198 198 198 0
-0.257242 -6.688292 33.626407 199 199 199 0
-0.128377 -6.675579 33.562488 199 199 199 0
0.000000 -6.660005 33.484190 199 199 199 0
0.127850 -6.648191 33.424791 199 199 199 0
0.255996 -6.655890 33.463500 199 199 199 0
0.384584 -6.666117 33.514918 199 199 199 0
0.512247 -6.659213 33.480204 200 200 200 0
0.638732 -6.642814 33.397760 199 199 199 0
0.765822 -6.637124 33.369150 200 200 200 0
0.892837 -6.632504 33.345925 199 199 199 0
1.021856 -6.642064 33.393986 199 199 199 0
1.146623 -6.624931 33.307850 200 200 200 0
1.271174 -6.610105 33.233308 200 200 200 0
1.395071 -6.594881 33.156768 199 199 199 0
1.521857 -6.594714 33.155930 200 200 200 0
1.650016 -6.600065 33.182832 200 200 200 0
1.777136 -6.600791 33.186480 200 200 200 0
1.901304 -6.591187 33.138196 200 200 200 0
2.022460 -6.572996 33.046736 200 200 200 0
2.145212 -6.561826 32.990577 201 201 201 0
2.273337 -6.567418 33.018691 201 201 201 0
2.402697 -6.575802 33.060846 201 201 201 0
2.517423 -6.545299 32.907488 201 201 201 0
2.636405 -6.528241 32.821726 201 201 201 0
2.767408 -6.541147 32.886612 201 201 201 0
2.904670 -6.567080 33.016994 201 201 201 0
3.021985 -6.547634 32.919223 202 202 202 0
3.134258 -6.519256 32.776550 201 201 201 0
3.257524 -6.515048 32.755395 201 201 201 0
3.399947 -6.548046 32.921296 201 201 201 0
3.515728 -6.529210 32.826594 202 202 202 0
3.626399 -6.502508 32.692349 202 202 202 0
3.735953 -6.475652 32.557325 202 202 202 0
3.863303 -6.480379 32.581092 203 203 203 0
3.999871 -6.499790 32.678681 202 202 202 0
4.117472 -6.488138 32.620103 202 202 202 0
4.228949 -6.467805 32.517871 202 202 202 0
4.342418 -6.451592 32.436361 202 202 202 0
4.481745 -6.473632 32.547170 202 202 202 0
4.603742 -6.470124 32.529530 203 203 203 0
4.716522 -6.454188 32.449410 202 202 202 0
4.828037 -6.437383 32.364921 203 203 203 0
4.946810 -6.430853 32.332091 203 203 203 0
5.082474 -6.446065 32.408572 203 203 203 0
5.207754 -6.447696 32.416772 203 203 203 0
5.314825 -6.427231 32.313880 203 203 203 0
5.425775 -6.412279 32.238709 203 203 203 0
5.554227 -6.418218 32.268566 203 203 203 0
5.688036 -6.429954 32.327572 204 204 204 0
5.792105 -6.408286 32.218633 204 204 204 0
5.894030 -6.385199 32.102560 203 203 203 0
6.007322 -6.375117 32.051871 203 203 203 0
6.124584 -6.369567 32.023968 203 203 203 0
6.254790 -6.377433 32.063514 204 204 204 0
6.368599 -6.368599 32.019098 203 203 203 0
6.480083 -6.357817 31.964893 203 203 203 0
6.596489 -6.352175 31.936525 204 204 204 0
6.716799 -6.350428 31.927742 203 203 203 0
6.827687 -6.339995 31.875287 204 204 204 0
6.948126 -6.338641 31.868482 205 205 205 0
7.068629 -6.337392 31.862200 204 204 204 0
7.181687 -6.329622 31.823140 204 204 204 0
7.300023 -6.326687 31.808380 204 204 204 0
7.421292 -6.326348 31.806675 204 204 204 0
7.541477 -6.325110 31.800453 204 204 204 0
7.641597 -6.307350 31.711160 205 205 205 0
7.736384 -6.285812 31.602878 205 205 205 0
7.735371 -6.188297 31.112604 205 205 205 0
7.997660 -6.301187 31.680174 205 205 205 0
8.096517 -6.283864 31.593082 205 205 205 0
8.194891 -6.266682 31.506694 205 205 205 0
8.294433 -6.250877 31.427236 205 205 205 0
8.426335 -6.259563 31.470905 205 205 205 0
8.553386 -6.264451 31.495482 204 204 204 0
8.658788 -6.253569 31.440770 205 205 205 0
8.755303 -6.236654 31.355726 205 205 205 0
8.861710 -6.227148 31.307932 205 205 205 0
8.985446 -6.229909 31.321815 205 205 205 0
9.113063 -6.235254 31.348686 206 206 206 0
9.209675 -6.219521 31.269587 205 205 205 0
9.320729 -6.213819 31.240922 205 205 205 0
9.422338 -6.202045 31.181727 205 205 205 0
-2.232611 -6.697832 34.334649 79 79 79 0
-2.104615 -6.708459 34.389127 176 176 176 0
-1.956233 -6.651192 34.095565 197 197 197 0
-1.809341 -6.591173 33.787890 198 198 198 0
-1.676388 -6.576597 33.713173 197 197 197 0
-1.555141 -6.609347 33.881058 197 197 197 0
-1.434846 -6.652469 34.102112 198 198 198 0
-1.295720 -6.608170 33.875022 197 197 197 0
-1.158502 -6.564844 33.652921 197 197 197 0
-1.028495 -6.556653 33.610936 198 198 198 0
-0.905224 -6.595205 33.808562 198 198 198 0
-0.775487 -6.591637 33.790273 198 198 198 0
-0.643201 -6.560655 33.631448 199 199 199 0
-0.513038 -6.541229 33.531870 198 198 198 0
-0.385656 -6.556159 33.608403 199 199 199 0
-0.257209 -6.558842 33.622154 199 199 199 0
-0.128289 -6.542754 33.539685 198 198 198 0
0.000000 -6.525169 33.449541 199 199 199 0
0.127759 -6.515709 33.401045 199 199 199 0
0.255755 -6.521751 33.432019 198 198 198 0
0.384636 -6.538813 33.519483 199 199 199 0
0.512134 -6.529711 33.472823 199 199 199 0
0.639040 -6.518205 33.413841 200 200 200 0
0.765459 -6.506404 33.353345 200 200 200 0
0.892612 -6.503313 33.337500 200 200 200 0
1.021367 -6.511212 33.377991 200 200 200 0
1.146706 -6.498003 33.310282 200 200 200 0
1.270810 -6.481132 33.223798 199 199 199 0
1.395317 -6.469195 33.162606 199 199 199 0
1.520971 -6.464128 33.136628 200 200 200 0
1.650627 -6.475535 33.195103 200 200 200 0
1.775834 -6.469109 33.162162 201 201 201 0
1.900216 -6.460734 33.119230 200 200 200 0
2.021700 -6.444168 33.034312 200 200 200 0
2.143613 -6.430839 32.965980 200 200 200 0
2.273838 -6.442540 33.025965 201 201 201 0
2.401183 -6.445282 33.040020 201 201 201 0
2.517963 -6.420805 32.914546 201 201 201 0
2.636676 -6.403355 32.825094 201 201 201 0
2.766589 -6.413457 32.876880 202 202 202 0
2.904160 -6.439660 33.011199 202 202 202 0
3.020095 -6.417703 32.898642 201 201 201 0
3.133501 -6.392341 32.768634 201 201 201 0
3.256835 -6.388408 32.748470 201 201 201 0
3.396497 -6.415605 32.887891 202 202 202 0
3.515820 -6.403814 32.827448 201 201 201 0
3.625825 -6.376451 32.687179 202 202 202 0
3.735888 -6.351010 32.556760 202 202 202 0
3.859833 -6.350049 32.551832 202 202 202 0
3.999885 -6.374817 32.678800 202 202 202 0
4.118493 -6.364944 32.628189 202 202 202 0
4.229720 -6.344581 32.523801 202 202 202 0
4.344816 -6.331017 32.454273 202 202 202 0
4.479738 -6.346296 32.532594 203 203 203 0
4.600926 -6.341817 32.509633 202 202 202 0
4.714575 -6.327457 32.436020 202 202 202 0
4.825452 -6.310207 32.347594 203 203 203 0
4.944443 -6.304165 32.316620 203 203 203 0
5.081603 -6.321019 32.403017 203 203 203 0
5.207652 -6.323577 32.416131 202 202 202 0
5.315261 -6.304146 32.316527 203 203 203 0
5.423653 -6.286507 32.226103 204 204 204 0
5.551692 -6.291918 32.253839 203 203 203 0
5.686224 -6.304292 32.317272 203 203 203 0
5.790882 -6.283723 32.211831 203 203 203 0
5.894334 -6.262730 32.104217 203 203 203 0
6.004311 -6.249385 32.035805 204 204 204 0
6.124529 -6.247020 32.023681 204 204 204 0
6.252576 -6.252576 32.052164 204 204 204 0
6.370812 -6.248296 32.030224 203 203 203 0
6.478318 -6.233853 31.956185 204 204 204 0
6.596678 -6.230196 31.937438 204 204 204 0
6.715814 -6.227391 31.923062 203 203 203 0
6.826841 -6.217302 31.871340 204 204 204 0
6.946614 -6.215391 31.861546 204 204 204 0
7.065043 -6.212366 31.846036 204 204 204 0
7.180513 -6.206884 31.817936 205 205 205 0
7.295751 -6.201388 31.789764 204 204 204 0
7.418806 -6.202608 31.796017 205 205 205 0
7.537902 -6.200533 31.785378 205 205 205 0
7.641738 -6.186169 31.711745 204 204 204 0
7.739002 -6.167017 31.613568 205 205 205 0
7.847181 -6.157019 31.562316 204 204 204 0
7.992983 -6.176396 31.661648 204 204 204 0
8.095263 -6.162066 31.588187 205 205 205 0
8.190754 -6.143065 31.490786 205 205 205 0
8.293206 -6.129761 31.422586 205 205 205 0
8.424523 -6.137867 31.464139 205 205 205 0
8.551600 -6.142699 31.488908 205 205 205 0
8.656467 -6.131664 31.432342 205 205 205 0
8.751287 -6.113913 31.341345 206 206 206 0
8.860246 -6.106386 31.302759 204 204 204 0
8.982465 -6.108076 31.311426 205 205 205 0
9.108532 -6.112304 31.333099 206 206 206 0
9.212623 -6.101867 31.279595 205 205 205 0
9.321198 -6.094629 31.242493 206 206 206 0
9.424354 -6.084076 31.188397 205 205 205 0
-2.257477 -6.639637 34.717058 79 79 79 0
-2.103792 -6.574349 34.375681 176 176 176 0
-1.956985 -6.523282 34.108663 197 197 197 0
-1.809244 -6.461587 33.786075 198 198 198 0
-1.675148 -6.442876 33.688238 197 197 197 0
-1.555588 -6.481617 33.890810 197 197 197 0
-1.434046 -6.518391 34.083093 198 198 198 0
-1.296661 -6.483303 33.899621 198 198 198 0
-1.158358 -6.435322 33.648744 198 198 198 0
-1.028342 -6.427138 33.605951 199 199 199 0
-0.905714 -6.469389 33.826870 198 198 198 0
-0.776043 -6.467021 33.814489 198 198 198 0
-0.643067 -6.430669 33.624413 198 198 198 0
-0.512822 -6.410278 33.517794 199 199 199 0
-0.385368 -6.422794 33.583235 198 198 198 0
-0.257191 -6.429787 33.619800 198 198 198 0
-0.128340 -6.416980 33.552835 198 198 198 0
0.000000 -6.401101 33.469809 198 198 198 0
0.127856 -6.392794 33.426376 199 199 199 0
0.255837 -6.395913 33.442683 199 199 199 0
0.384622 -6.410373 33.518291 200 200 200 0
0.512041 -6.400519 33.466764 200 200 200 0
0.638512 -6.385117 33.386234 199 199 199 0
0.765823 -6.381862 33.369212 200 200 200 0
0.892416 -6.374397 33.330179 200 200 200 0
1.021234 -6.382714 33.373668 200 200 200 0
1.146506 -6.369477 33.304457 199 199 199 0
1.269759 -6.348794 33.196308 200 200 200 0
1.394864 -6.340292 33.151851 200 200 200 0
1.520039 -6.333495 33.116313 201 201 201 0
1.649295 -6.343441 33.168318 200 200 200 0
1.775741 -6.341932 33.160431 200 200 200 0
1.899350 -6.331167 33.104140 201 201 201 0
2.021345 -6.316703 33.028514 201 201 201 0
2.144099 -6.306173 32.973456 200 200 200 0
2.273680 -6.315777 33.023672 201 201 201 0
2.400329 -6.316654 33.028256 201 201 201 0
2.517614 -6.294034 32.909980 200 200 200 0
2.636230 -6.276737 32.819542 201 201 201 0
2.766007 -6.286380 32.869960 201 201 201 0
2.902002 -6.308700 32.986666 201 201 201 0
3.020641 -6.293001 32.904582 201 201 201 0
3.133926 -6.267851 32.773077 201 201 201 0
3.256681 -6.262848 32.746916 202 202 202 0
3.398430 -6.293389 32.906611 201 201 201 0
3.514087 -6.275155 32.811265 202 202 202 0
3.623894 -6.248093 32.669768 201 201 201 0
3.734755 -6.224592 32.546884 203 203 203 0
3.858195 -6.222895 32.538014 202 202 202 0
3.998747 -6.248042 32.669503 202 202 202 0
4.117380 -6.238455 32.619372 202 202 202 0
4.230495 -6.221316 32.529758 202 202 202 0
4.343860 -6.205515 32.447136 202 202 202 0
4.476842 -6.217836 32.511563 203 203 203 0
4.600914 -6.217451 32.509546 202 202 202 0
4.717636 -6.207416 32.457076 203 203 203 0
4.824953 -6.185837 32.344246 203 203 203 0
4.943570 -6.179462 32.310914 203 203 203 0
5.081936 -6.197483 32.405140 203 203 203 0
5.206447 -6.198152 32.408636 203 203 203 0
5.312649 -6.177498 32.300644 203 203 203 0
5.423468 -6.163032 32.225005 203 203 203 0
5.551819 -6.168688 32.254577 204 204 204 0
5.685802 -6.180220 32.314875 203 203 203 0
5.789776 -6.159336 32.205679 204 204 204 0
5.893797 -6.139372 32.101292 203 203 203 0
6.002073 -6.124564 32.023865 204 204 204 0
6.124458 -6.124458 32.023311 204 204 204 0
6.252837 -6.130232 32.053503 204 204 204 0
6.367794 -6.122879 32.015055 204 204 204 0
6.473354 -6.106937 31.931699 204 204 204 0
6.589855 -6.101718 31.904407 205 205 205 0
6.712767 -6.102515 31.908577 204 204 204 0
6.825095 -6.093835 31.863188 204 204 204 0
6.944368 -6.091550 31.851244 204 204 204 0
7.067134 -6.092357 31.855461 204 204 204 0
7.177442 -6.082578 31.804330 204 204 204 0
7.294125 -6.078437 31.782679 205 205 205 0
7.414971 -6.077845 31.779581 204 204 204 0
7.538064 -6.079084 31.786062 204 204 204 0
7.641205 -6.064448 31.709534 204 204 204 0
7.740708 -6.047428 31.620538 204 204 204 0
7.855305 -6.042542 31.594993 204 204 204 0
7.990844 -6.053670 31.653176 205 205 205 0
8.093718 -6.040088 31.582160 205 205 205 0
8.189957 -6.022027 31.487724 205 205 205 0
8.294500 -6.010507 31.427489 205 205 205 0
8.419717 -6.014084 31.446189 205 205 205 0
8.549342 -6.020664 31.480593 205 205 205 0
8.658852 -6.013092 31.441002 205 205 205 0
8.750598 -5.993560 31.338877 205 205 205 0
8.856707 -5.984261 31.290255 205 205 205 0
8.980633 -5.987088 31.305038 205 205 205 0
9.105815 -5.990668 31.323753 206 206 206 0
9.210850 -5.981071 31.273575 205 205 205 0
9.317203 -5.972566 31.229103 206 206 206 0
9.421474 -5.962958 31.178868 205 205 205 0
-2.260481 -6.515505 34.763267 80 80 80 0
-2.103327 -6.441439 34.368086 176 176 176 0
-1.957178 -6.393448 34.112033 197 197 197 0
-1.808322 -6.329126 33.768847 198 198 198 0
-1.675465 -6.315213 33.694614 197 197 197 0
-1.553861 -6.344934 33.853189 197 197 197 0
-1.433904 -6.387390 34.079713 198 198 198 0
-1.295409 -6.347506 33.866910 197 197 197 0
-1.158146 -6.305459 33.642572 198 198 198 0
-1.027666 -6.294456 33.583866 198 198 198 0
-0.905398 -6.337786 33.815051 198 198 198 0
-0.775945 -6.336886 33.810251 198 198 198 0
-0.643211 -6.303466 33.631935 198 198 198 0
-0.512841 -6.282300 33.519010 198 198 198 0
-0.385440 -6.295518 33.589529 200 200 200 0
-0.257162 -6.300481 33.616013 198 198 198 0
-0.128330 -6.288162 33.550285 198 198 198 0
0.000000 -6.276643 33.488822 199 199 199 0
0.127870 -6.265617 33.429998 200 200 200 0
0.255873 -6.268899 33.447506 199 199 199 0
0.384534 -6.280723 33.510592 199 199 199 0
0.512212 -6.274592 33.477883 199 199 199 0
0.638433 -6.256644 33.382120 200 200 200 0
0.764871 -6.246444 33.327699 200 200 200 0
0.892237 -6.245658 33.323506 199 199 199 0
1.020997 -6.253608 33.365922 200 200 200 0
1.146397 -6.241495 33.301293 200 200 200 0
1.269286 -6.219503 33.183959 200 200 200 0
1.394954 -6.213884 33.153978 201 201 201 0
1.520313 -6.207945 33.122287 200 200 200 0
1.648429 -6.213309 33.150906 200 200 200 0
1.775393 -6.213875 33.153928 201 201 201 0
1.899085 -6.203679 33.099526 201 201 201 0
2.021080 -6.189556 33.024176 200 200 200 0
2.143226 -6.177534 32.960030 200 200 200 0
2.272537 -6.186351 33.007073 201 201 201 0
2.400015 -6.189514 33.023948 201 201 201 0
2.517385 -6.167593 32.906994 201 201 201 0
2.635718 -6.150008 32.813170 202 202 202 0
2.765300 -6.159077 32.861554 202 202 202 0
2.901891 -6.182290 32.985408 202 202 202 0
3.020281 -6.166407 32.900665 202 202 202 0
3.132540 -6.139779 32.758590 202 202 202 0
3.255715 -6.135770 32.737200 202 202 202 0
3.396045 -6.163192 32.883513 202 202 202 0
3.514280 -6.149990 32.813070 201 201 201 0
3.623418 -6.122328 32.665480 202 202 202 0
3.735448 -6.101231 32.552921 202 202 202 0
3.858243 -6.098514 32.538421 202 202 202 0
3.995885 -6.118699 32.646122 202 202 202 0
4.118631 -6.115543 32.629279 202 202 202 0
4.228154 -6.093515 32.511753 202 202 202 0
4.341358 -6.077901 32.428443 203 203 203 0
4.476586 -6.093131 32.509701 202 202 202 0
4.602019 -6.094566 32.517357 202 202 202 0
4.716970 -6.082409 32.452494 203 203 203 0
4.823390 -6.060157 32.333769 203 203 203 0
4.944777 -6.057351 32.318802 203 203 203 0
5.080818 -6.072197 32.398011 203 203 203 0
5.205917 -6.073570 32.405336 203 203 203 0
5.313067 -6.054425 32.303188 204 204 204 0
5.421296 -6.037352 32.212098 203 203 203 0
5.550915 -6.044330 32.249324 203 203 203 0
5.683319 -6.053970 32.300761 203 203 203 0
5.790506 -6.036911 32.209741 204 204 204 0
5.891243 -6.013977 32.087381 204 204 204 0
6.000264 -6.000264 32.014212 203 203 203 0
6.119506 -5.997115 31.997414 204 204 204 0
6.249060 -6.003999 32.034140 203 203 203 0
6.362766 -5.995683 31.989774 204 204 204 0
6.470035 -5.981730 31.915326 204 204 204 0
6.591045 -5.980763 31.910168 204 204 204 0
6.711113 -5.978992 31.900717 204 204 204 0
6.821127 -5.968486 31.844664 204 204 204 0
6.944625 -5.969940 31.852423 205 205 205 0
7.064620 -5.968386 31.844131 204 204 204 0
7.176634 -5.960256 31.800750 204 204 204 0
7.294265 -5.956983 31.783292 204 204 204 0
7.413274 -5.954925 31.772310 205 205 205 0
7.536315 -5.956120 31.778685 204 204 204 0
7.640566 -5.942662 31.706882 204 204 204 0
7.739059 -5.925217 31.613802 205 205 205 0
7.856177 -5.922349 31.598499 205 205 205 0
7.986611 -5.929453 31.636406 205 205 205 0
8.090439 -5.916888 31.569364 205 205 205 0
8.190203 -5.901764 31.488669 205 205 205 0
8.297420 -5.892370 31.438551 205 205 205 0
8.420947 -5.894663 31.450781 205 205 205 0
8.548249 -5.899496 31.476569 205 205 205 0
8.651931 -5.888120 31.415871 205 205 205 0
8.750680 -5.873744 31.339171 205 205 205 0
8.852758 -5.861962 31.276306 205 205 205 0
8.975898 -5.864253 31.288533 206 206 206 0
9.101871 -5.868312 31.310186 205 205 205 0
9.204792 -5.857595 31.253007 205 205 205 0
9.316497 -5.852671 31.226738 206 206 206 0
9.418512 -5.841862 31.169064 205 205 205 0
-2.256616 -6.371621 34.703820 79 79 79 0
-2.102113 -6.306339 34.348254 176 176 176 0
-1.956578 -6.261049 34.101574 197 197 197 0
-1.808895 -6.201927 33.779561 198 198 198 0
-1.675224 -6.185444 33.689783 197 197 197 0
-1.553624 -6.214496 33.848018 198 198 198 0
-1.433456 -6.255082 34.069072 197 197 197 0
-1.295190 -6.216911 33.861171 197 197 197 0
-1.158007 -6.176035 33.638537 198 198 198 0
-1.027278 -6.163667 33.571172 198 198 198 0
-0.904764 -6.204095 33.791369 198 198 198 0
-0.775506 -6.204052 33.791132 199 199 199 0
-0.643016 -6.172952 33.621741 199 199 199 0
-0.512830 -6.153965 33.518325 199 199 199 0
-0.385547 -6.168748 33.598848 198 198 198 0
-0.257167 -6.172011 33.616616 199 199 199 0
-0.128406 -6.163495 33.570236 199 199 199 0
0.000000 -6.145596 33.472747 199 199 199 0
0.127735 -6.131288 33.394814 199 199 199 0
0.255729 -6.137494 33.428618 200 200 200 0
0.384682 -6.154915 33.523503 199 199 199 0
0.512445 -6.149341 33.493142 199 199 199 0
0.638538 -6.129962 33.387591 199 199 199 0
0.765228 -6.121820 33.343246 200 200 200 0
0.892474 -6.119823 33.332369 200 200 200 0
1.020805 -6.124828 33.359628 200 200 200 0
1.145593 -6.109828 33.277933 200 200 200 0
1.269155 -6.091942 33.180511 200 200 200 0
1.394308 -6.084251 33.138625 201 201 201 0
1.519934 -6.079738 33.114039 200 200 200 0
1.647956 -6.084761 33.141399 200 200 200 0
1.775121 -6.086128 33.148844 200 200 200 0
1.898567 -6.075414 33.090491 200 200 200 0
2.020255 -6.060766 33.010710 201 201 201 0
2.143231 -6.051476 32.960111 200 200 200 0
2.271362 -6.056966 32.990009 201 201 201 0
2.401203 -6.066197 33.040289 201 201 201 0
2.516525 -6.039659 32.895746 201 201 201 0
2.634014 -6.020603 32.791957 201 201 201 0
2.765047 -6.032830 32.858553 202 202 202 0
2.901337 -6.054964 32.979105 201 201 201 0
3.020728 -6.041457 32.905537 201 201 201 0
3.133596 -6.016504 32.769629 201 201 201 0
3.254489 -6.008287 32.724873 202 202 202 0
3.395515 -6.036471 32.878381 201 201 201 0
3.513415 -6.022996 32.804991 202 202 202 0
3.622439 -5.995761 32.656650 202 202 202 0
3.732386 -5.971818 32.526240 202 202 202 0
3.855549 -5.969882 32.515698 202 202 202 0
3.996928 -5.995392 32.654643 203 203 203 0
4.118089 -5.989947 32.624983 202 202 202 0
4.228079 -5.969053 32.511183 203 203 203 0
4.339673 -5.951552 32.415862 202 202 202 0
4.474954 -5.966605 32.497850 202 202 202 0
4.603470 -5.972069 32.527607 203 203 203 0
4.715583 -5.956525 32.442949 204 204 204 0
4.824292 -5.937590 32.339815 203 203 203 0
4.942827 -5.931392 32.306059 203 203 203 0
5.078345 -5.945380 32.382244 203 203 203 0
5.204497 -5.947997 32.396495 203 203 203 0
5.310636 -5.928152 32.288411 204 204 204 0
5.420558 -5.913336 32.207710 203 203 203 0
5.549374 -5.919332 32.240371 203 203 203 0
5.682237 -5.929291 32.294613 204 204 204 0
5.788146 -5.911298 32.196611 203 203 203 0
5.892823 -5.892823 32.095984 203 203 203 0
5.997064 -5.874675 31.997138 204 204 204 0
6.116746 -5.872076 31.982984 204 204 204 0
6.247487 -5.879988 32.026077 204 204 204 0
6.362579 -5.873150 31.988835 204 204 204 0
6.470356 -5.859945 31.916912 204 204 204 0
6.589175 -5.857044 31.901112 204 204 204 0
6.709206 -5.855307 31.891649 204 204 204 0
6.818957 -5.844820 31.834532 204 204 204 0
6.942784 -5.846555 31.843979 204 204 204 0
7.064724 -5.846668 31.844599 205 205 205 0
7.173740 -5.836263 31.787925 205 205 205 0
7.289281 -5.831425 31.761573 205 205 205 0
7.411324 -5.831861 31.763950 205 205 205 0
7.530766 -5.830271 31.755287 205 205 205 0
7.640945 -5.821673 31.708456 205 205 205 0
7.737106 -5.802829 31.605823 205 205 205 0
7.856462 -5.801695 31.599647 205 205 205 0
7.988072 -5.809507 31.642195 205 205 205 0
8.091273 -5.796733 31.572621 205 205 205 0
8.186742 -5.778877 31.475363 205 205 205 0
8.287263 -5.765053 31.400068 205 205 205 0
8.413650 -5.769360 31.423529 205 205 205 0
8.545311 -5.777111 31.465749 205 205 205 0
8.650020 -5.766680 31.408931 205 205 205 0
8.749059 -5.752806 31.333366 206 206 206 0
8.854235 -5.743287 31.281522 206 206 206 0
8.971830 -5.741971 31.274352 206 206 206 0
9.097949 -5.746073 31.296694 205 205 205 0
9.202443 -5.736588 31.245031 205 205 205 0
9.307719 -5.727827 31.197314 205 205 205 0
9.415430 -5.720768 31.158866 206 206 206 0
-2.102375 -6.175725 34.352525 176 176 176 0
-1.955073 -6.125894 34.075341 196 196 196 0
-1.808690 -6.072031 33.775725 197 197 197 0
-1.674840 -6.055189 33.682043 198 198 198 0
-1.553455 -6.084367 33.844345 198 198 198 0
-1.433722 -6.125903 34.075387 198 198 198 0
-1.294915 -6.086098 33.853975 198 198 198 0
-1.157402 -6.044210 33.620971 198 198 198 0
-1.026682 -6.031754 33.551683 198 198 198 0
-0.904740 -6.074680 33.790463 198 198 198 0
-0.775467 -6.074491 33.789407 198 198 198 0
-0.643136 -6.045482 33.628046 198 198 198 0
-0.512775 -6.025101 33.514679 199 199 199 0
-0.385117 -6.033502 33.561406 198 198 198 0
-0.257193 -6.044043 33.620039 198 198 198 0
-0.128351 -6.032515 33.555917 198 198 198 0
0.000000 -6.017548 33.472663 198 198 198 0
0.127736 -6.003594 33.395043 199 199 199 0
0.255709 -6.009160 33.426006 199 199 199 0
0.384425 -6.022661 33.501104 200 200 200 0
0.512167 -6.017963 33.474972 200 200 200 0
0.638410 -6.001050 33.380896 200 200 200 0
0.765381 -5.995488 33.349954 200 200 200 0
0.892523 -5.992655 33.334196 200 200 200 0
1.021352 -6.000440 33.377501 200 200 200 0
1.145852 -5.983892 33.285453 200 200 200 0
1.270250 -5.970174 33.209145 200 200 200 0
1.393863 -5.955598 33.128065 200 200 200 0
1.519461 -5.951221 33.103719 201 201 201 0
1.648318 -5.959305 33.148685 200 200 200 0
1.774386 -5.956867 33.135123 201 201 201 0
1.897000 -5.943934 33.063183 201 201 201 0
2.018762 -5.930114 32.986309 201 201 201 0
2.142415 -5.923148 32.947564 201 201 201 0
2.269826 -5.926769 32.967703 202 202 202 0
2.397573 -5.930839 32.990346 201 201 201 0
2.517143 -5.915286 32.903830 201 201 201 0
2.633294 -5.893563 32.782994 201 201 201 0
2.765503 -5.908120 32.863968 201 201 201 0
2.900978 -5.928085 32.975025 202 202 202 0
3.019381 -5.912954 32.890856 201 201 201 0
3.133247 -5.890504 32.765979 202 202 202 0
3.254198 -5.882588 32.721948 202 202 202 0
3.393232 -5.906738 32.856280 202 202 202 0
3.513256 -5.897252 32.803515 202 202 202 0
3.620667 -5.867977 32.640676 201 201 201 0
3.731700 -5.846329 32.520258 202 202 202 0
3.854131 -5.843359 32.503737 203 203 203 0
3.994568 -5.867021 32.635358 202 202 202 0
4.115880 -5.862011 32.607490 202 202 202 0
4.227560 -5.843980 32.507188 203 203 203 0
4.337103 -5.824109 32.396658 203 203 203 0
4.474269 -5.841407 32.492878 203 203 203 0
4.597712 -5.840337 32.486925 203 203 203 0
4.713143 -5.829413 32.426161 203 203 203 0
4.817088 -5.805208 32.291522 203 203 203 0
4.939468 -5.803874 32.284102 203 203 203 0
5.077948 -5.821063 32.379712 202 202 202 0
5.204179 -5.823724 32.394516 203 203 203 0
5.311921 -5.806053 32.296218 202 202 202 0
5.420488 -5.790067 32.207297 203 203 203 0
5.547921 -5.794495 32.231931 203 203 203 0
5.683280 -5.806829 32.300538 204 204 204 0
5.788770 -5.788770 32.200083 204 204 204 0
5.888561 -5.765883 32.072774 204 204 204 0
5.996271 -5.751525 31.992910 203 203 203 0
6.115227 -5.748314 31.975045 204 204 204 0
6.244009 -5.754282 32.008246 204 204 204 0
6.362382 -5.750614 31.987841 204 204 204 0
6.470647 -5.738121 31.918348 204 204 204 0
6.587106 -5.733222 31.891099 204 204 204 0
6.705671 -5.730301 31.874849 204 204 204 0
6.818773 -5.722899 31.833676 205 205 205 0
6.936865 -5.719871 31.816831 205 205 205 0
7.060386 -5.721348 31.825046 204 204 204 0
7.171781 -5.713114 31.779244 204 204 204 0
7.285116 -5.706674 31.743423 205 205 205 0
7.408752 -5.708383 31.752929 204 204 204 0
7.529984 -5.708214 31.751988 204 204 204 0
7.638671 -5.698691 31.699018 204 204 204 0
7.737848 -5.682482 31.608854 204 204 204 0
7.854800 -5.679624 31.592960 205 205 205 0
7.987892 -5.688347 31.641481 204 204 204 0
8.087831 -5.673553 31.559187 206 206 206 0
8.186770 -5.658503 31.475471 206 206 206 0
8.292642 -5.648611 31.420449 206 206 206 0
8.417003 -5.651417 31.436054 205 205 205 0
8.542439 -5.654854 31.455174 206 206 206 0
8.653374 -5.648730 31.421110 206 206 206 0
8.748218 -5.632414 31.330353 205 205 205 0
8.853119 -5.622927 31.277581 205 205 205 0
8.969333 -5.620782 31.265649 205 205 205 0
9.098255 -5.626553 31.297748 206 206 206 0
9.203002 -5.617417 31.246928 206 206 206 0
9.308886 -5.609201 31.201227 206 206 206 0
9.412729 -5.599978 31.149927 206 206 206 0
-2.203450 -5.962277 33.886201 78 78 78 0
-2.100459 -6.038819 34.321222 177 177 177 0
-1.955097 -5.995631 34.075766 197 197 197 0
-1.808922 -5.943600 33.780050 198 198 198 0
-1.674305 -5.924466 33.671302 198 198 198 0
-1.552989 -5.953126 33.834189 198 198 198 0
-1.434008 -5.996761 34.082188 198 198 198 0
-1.295743 -5.960419 33.875643 197 197 197 0
-1.158005 -5.918694 33.638500 198 198 198 0
-1.026807 -5.904139 33.555775 198 198 198 0
-0.904752 -5.945515 33.790937 197 197 197 0
-0.775362 -5.944443 33.784845 198 198 198 0
-0.642958 -5.915217 33.618740 198 198 198 0
-0.512853 -5.897812 33.519819 199 199 199 0
-0.385471 -5.910551 33.592222 199 199 199 0
-0.257139 -5.914188 33.612888 199 199 199 0
-0.128304 -5.901986 33.543543 199 199 199 0
0.000000 -5.890310 33.477184 199 199 199 0
0.127805 -5.879027 33.413052 200 200 200 0
0.255692 -5.880915 33.423784 198 198 198 0
0.384217 -5.891326 33.482953 200 200 200 0
0.511999 -5.887987 33.463978 200 200 200 0
0.638304 -5.872394 33.375355 199 199 199 0
0.764644 -5.862268 33.317804 199 199 199 0
0.892749 -5.866636 33.342629 200 200 200 0
1.020397 -5.867285 33.346322 200 200 200 0
1.145035 -5.852400 33.261723 200 200 200 0
1.268798 -5.836472 33.171195 200 200 200 0
1.393521 -5.827454 33.119940 200 200 200 0
1.518656 -5.821515 33.086190 200 200 200 0
1.648020 -5.831455 33.142683 201 201 201 0
1.774254 -5.829692 33.132662 200 200 200 0
1.896377 -5.815555 33.052315 201 201 201 0
2.017323 -5.799803 32.962790 201 201 201 0
2.141190 -5.793808 32.928718 201 201 201 0
2.271235 -5.804268 32.988165 201 201 201 0
2.400043 -5.810629 33.024321 202 202 202 0
2.516676 -5.788354 32.897723 201 201 201 0
2.634277 -5.770321 32.795231 201 201 201 0
2.764300 -5.779899 32.849670 201 201 201 0
2.901781 -5.803562 32.984157 201 201 201 0
3.018878 -5.786183 32.885382 201 201 201 0
3.131696 -5.762321 32.749766 202 202 202 0
3.254460 -5.757890 32.724580 202 202 202 0
3.393556 -5.781615 32.859418 203 203 203 0
3.512157 -5.769973 32.793251 202 202 202 0
3.622017 -5.745269 32.652849 202 202 202 0
3.731170 -5.721128 32.515644 202 202 202 0
3.851617 -5.715302 32.482535 203 203 203 0
3.993247 -5.740292 32.624565 202 202 202 0
4.114488 -5.735347 32.596457 202 202 202 0
4.223519 -5.714173 32.476119 202 202 202 0
4.335020 -5.697454 32.381100 202 202 202 0
4.467977 -5.709082 32.447183 203 203 203 0
4.592704 -5.709848 32.451537 203 203 203 0
4.708351 -5.699583 32.393195 203 203 203 0
4.818534 -5.683399 32.301215 203 203 203 0
4.937972 -5.678668 32.274328 203 203 203 0
5.075002 -5.693904 32.360922 203 203 203 0
5.202209 -5.697658 32.382254 203 203 203 0
5.309585 -5.680021 32.282017 203 203 203 0
5.418797 -5.665106 32.197252 204 204 204 0
5.546544 -5.669801 32.223932 203 203 203 0
5.678506 -5.678506 32.273406 203 203 203 0
5.786600 -5.663480 32.188010 203 203 203 0
5.888819 -5.643451 32.074175 204 204 204 0
5.996607 -5.629468 31.994704 204 204 204 0
6.113812 -5.624707 31.967643 205 205 205 0
6.245332 -5.633044 32.015030 204 204 204 0
6.358808 -5.625099 31.969872 204 204 204 0
6.467384 -5.613201 31.902249 204 204 204 0
6.585270 -5.609674 31.882206 204 204 204 0
6.705220 -5.608002 31.872704 204 204 204 0
6.814535 -5.597654 31.813890 204 204 204 0
6.936895 -5.598196 31.816968 204 204 204 0
7.059259 -5.598722 31.819962 204 204 204 0
7.171308 -5.591189 31.777150 205 205 205 0
7.284675 -5.584918 31.741505 205 205 205 0
7.406547 -5.585265 31.743479 205 205 205 0
7.527171 -5.584675 31.740125 204 204 204 0
7.633828 -5.573907 31.678923 205 205 205 0
7.738341 -5.561933 31.610871 205 205 205 0
7.854222 -5.558373 31.590637 206 206 206 0
7.985648 -5.565755 31.632593 204 204 204 0
8.087643 -5.552710 31.558455 205 205 205 0
8.186662 -5.538036 31.475054 205 205 205 0
8.289327 -5.526218 31.407888 205 205 205 0
8.411851 -5.527788 31.416810 205 205 205 0
8.542315 -5.534458 31.454718 206 206 206 0
8.650284 -5.526570 31.409891 205 205 205 0
8.747420 -5.512073 31.327498 205 205 205 0
8.850964 -5.501950 31.269965 205 205 205 0
8.970569 -5.501949 31.269957 205 205 205 0
9.090886 -5.502379 31.272399 205 205 205 0
9.195042 -5.493142 31.219904 205 205 205 0
9.309926 -5.490469 31.204713 206 206 206 0
9.412407 -5.480642 31.148860 205 205 205 0
-2.206758 -5.841419 33.937074 78 78 78 0
-2.101471 -5.910388 34.337768 176 176 176 0
-1.954976 -5.864927 34.073648 197 197 197 0
-1.808512 -5.813073 33.772395 198 198 198 0
-1.673769 -5.793815 33.660508 198 198 198 0
-1.553386 -5.825196 33.842824 198 198 198 0
-1.432787 -5.861400 34.053159 197 197 197 0
-1.294451 -5.825031 33.841866 198 198 198 0
-1.157553 -5.787765 33.625357 198 198 198 0
-1.027534 -5.779881 33.579558 197 197 197 0
-0.904056 -5.811789 33.764935 198 198 198 0
-0.775154 -5.813657 33.775785 198 198 198 0
-0.642876 -5.785887 33.614451 199 199 199 0
-0.512574 -5.766462 33.501597 199 199 199 0
-0.385350 -5.780246 33.581675 199 199 199 0
-0.257034 -5.783268 33.599233 199 199 199 0
-0.128244 -5.770965 33.527754 199 199 199 0
0.000000 -5.758871 33.457495 199 199 199 0
0.127780 -5.750109 33.406586 198 198 198 0
0.255710 -5.753471 33.426120 200 200 200 0
0.384228 -5.763419 33.483914 199 199 199 0
0.511990 -5.759892 33.463423 200 200 200 0
0.638153 -5.743378 33.367486 200 200 200 0
0.764811 -5.736079 33.325079 200 200 200 0
0.892152 -5.735261 33.320327 200 200 200 0
1.020483 -5.740219 33.349131 200 200 200 0
1.145044 -5.725220 33.261990 200 200 200 0
1.269131 -5.711090 33.179898 200 200 200 0
1.393444 -5.700452 33.118096 201 201 201 0
1.518254 -5.693454 33.077435 200 200 200 0
1.646363 -5.698949 33.109362 201 201 201 0
1.772900 -5.698608 33.107381 200 200 200 0
1.895272 -5.685815 33.033059 201 201 201 0
2.016654 -5.671840 32.951869 201 201 201 0
2.140697 -5.666550 32.921131 201 201 201 0
2.268933 -5.672332 32.954722 201 201 201 0
2.398268 -5.680109 32.999908 201 201 201 0
2.515655 -5.660224 32.884378 202 202 202 0
2.634097 -5.644493 32.792987 202 202 202 0
2.764965 -5.655610 32.857573 202 202 202 0
2.899691 -5.673308 32.960392 201 201 201 0
3.019631 -5.661808 32.893582 202 202 202 0
3.131191 -5.636144 32.744482 202 202 202 0
3.252973 -5.630146 32.709638 202 202 202 0
3.391088 -5.651813 32.835514 202 202 202 0
3.512566 -5.645195 32.797064 202 202 202 0
3.619975 -5.617203 32.634438 202 202 202 0
3.728233 -5.592350 32.490051 203 203 203 0
3.849720 -5.588303 32.466538 203 203 203 0
3.989656 -5.610453 32.595225 202 202 202 0
4.115101 -5.611502 32.601318 202 202 202 0
4.221181 -5.586858 32.458142 203 203 203 0
4.335636 -5.574389 32.385702 203 203 203 0
4.467664 -5.584580 32.444907 203 203 203 0
4.591690 -5.584488 32.444377 203 203 203 0
4.708189 -5.575487 32.392080 203 203 203 0
4.813810 -5.554396 32.269551 203 203 203 0
4.936958 -5.554077 32.267698 202 202 202 0
5.075812 -5.571013 32.366089 203 203 203 0
5.202193 -5.573778 32.382153 203 203 203 0
5.310117 -5.557099 32.285250 203 203 203 0
5.418593 -5.541743 32.196035 204 204 204 0
5.546776 -5.546776 32.225277 203 203 203 0
5.682487 -5.558954 32.296032 204 204 204 0
5.785645 -5.539447 32.182700 203 203 203 0
5.889585 -5.521486 32.078350 204 204 204 0
5.993544 -5.504275 31.978362 203 203 203 0
6.114507 -5.503056 31.971278 204 204 204 0
6.245426 -5.510670 32.015510 204 204 204 0
6.361275 -5.504950 31.982280 205 205 205 0
6.468043 -5.491735 31.905503 204 204 204 0
6.584192 -5.486827 31.876990 204 204 204 0
6.704399 -5.485417 31.868801 204 204 204 0
6.813685 -5.475283 31.809922 204 204 204 0
6.935326 -5.475257 31.809772 205 205 205 0
7.059680 -5.477338 31.821860 204 204 204 0
7.169867 -5.468543 31.770765 205 205 205 0
7.280588 -5.460441 31.723695 205 205 205 0
7.404959 -5.462674 31.736671 205 205 205 0
7.530188 -5.465459 31.752849 205 205 205 0
7.637378 -5.455270 31.693655 205 205 205 0
