ply
    format ascii 1.0
    element vertex 24408
    property float x
    property float y
    property float z
    property uchar red
    property uchar green
    property uchar blue
    property uchar alpha
    end_header
2.928391 -4.061962 24.696529 211 211 211 0
3.024618 -4.064330 24.710929 212 212 212 0
3.123095 -4.069487 24.742284 211 211 211 0
3.229492 -4.084357 24.832693 212 212 212 0
3.337689 -4.100590 24.931385 212 212 212 0
3.440211 -4.109141 24.983377 211 211 211 0
3.542548 -4.117015 25.031252 211 211 211 0
3.641569 -4.120722 25.053791 211 211 211 0
3.743461 -4.127405 25.094425 211 211 211 0
3.852550 -4.141492 25.180067 211 211 211 0
3.955933 -4.148906 25.225145 212 212 212 0
4.062891 -4.159626 25.290325 212 212 212 0
4.182777 -4.182777 25.431083 211 211 211 0
4.293522 -4.195942 25.511125 211 211 211 0
4.395046 -4.199710 25.534033 212 212 212 0
4.496159 -4.202931 25.553615 211 211 211 0
4.799332 -4.390879 26.696329 211 211 211 0
4.728449 -4.235902 25.754078 211 211 211 0
4.822081 -4.231622 25.728057 211 211 211 0
4.916080 -4.227829 25.704996 211 211 211 0
5.034293 -4.244600 25.806960 211 211 211 0
5.156901 -4.264361 25.927106 211 211 211 0
5.257906 -4.265849 25.936152 211 211 211 0
5.366083 -4.272992 25.979584 211 211 211 0
5.485079 -4.288335 26.072866 210 210 210 0
5.605695 -4.304373 26.170378 211 211 211 0
5.711388 -4.308591 26.196025 210 210 210 0
5.816871 -4.312508 26.219839 210 210 210 0
5.941901 -4.330538 26.329460 210 210 210 0
6.077059 -4.355226 26.479561 211 211 211 0
6.182296 -4.358012 26.496500 211 211 211 0
6.288764 -4.361562 26.518087 210 210 210 0
6.414575 -4.378202 26.619256 210 210 210 0
6.539718 -4.393873 26.714533 211 211 211 0
6.636214 -4.390111 26.691659 210 210 210 0
6.735800 -4.388476 26.681718 210 210 210 0
6.858550 -4.401756 26.762464 210 210 210 0
6.988498 -4.419198 26.868506 210 210 210 0
7.104154 -4.427226 26.917320 210 210 210 0
7.227536 -4.439772 26.993600 210 210 210 0
7.348407 -4.450444 27.058480 209 209 209 0
7.468369 -4.460276 27.118261 210 210 210 0
7.593559 -4.472918 27.195124 210 210 210 0
7.713482 -4.482159 27.251307 210 210 210 0
7.838030 -4.493804 27.322109 210 210 210 0
7.971892 -4.510413 27.423090 210 210 210 0
8.098938 -4.522783 27.498303 210 210 210 0
8.223649 -4.533550 27.563763 210 210 210 0
8.326365 -4.532072 27.554777 210 210 210 0
-10.712911 -5.624278 35.009513 212 212 212 0
-10.578771 -5.624157 35.008757 212 212 212 0
-10.444787 -5.624116 35.008505 212 212 212 0
-10.250622 -5.591248 34.803910 212 212 212 0
-5.348675 -2.955847 18.399296 212 212 212 0
-5.274236 -2.953572 18.385138 211 211 211 0
-5.204772 -2.954060 18.388173 212 212 212 0
-5.145160 -2.960229 18.426572 212 212 212 0
-5.091875 -2.970261 18.489018 212 212 212 0
-5.029900 -2.975434 18.521219 212 212 212 0
-5.010636 -3.006382 18.713861 212 212 212 0
-4.969113 -3.024678 18.827747 213 213 213 0
-4.907486 -3.031094 18.867690 212 212 212 0
-4.867743 -3.051421 18.994217 212 212 212 0
-4.796381 -3.052243 18.999332 212 212 212 0
-4.747174 -3.067405 19.093713 212 212 212 0
-4.693931 -3.080392 19.174553 212 212 212 0
-4.628344 -3.085563 19.206740 211 211 211 0
-4.607047 -3.120903 19.426721 213 213 213 0
-4.541171 -3.126708 19.462856 212 212 212 0
-4.484744 -3.139321 19.541367 212 212 212 0
-4.415085 -3.142942 19.563909 212 212 212 0
-4.370384 -3.164761 19.699727 212 212 212 0
-4.350839 -3.205881 19.955687 211 211 211 0
-4.294786 -3.221089 20.050353 212 212 212 0
-4.202868 -3.209463 19.977981 212 212 212 0
-4.108563 -3.195549 19.891374 212 212 212 0
-4.055261 -3.213603 20.003752 213 213 213 0
-4.032299 -3.256857 20.272995 213 213 213 0
-3.960537 -3.261618 20.302636 212 212 212 0
-3.876528 -3.256284 20.269429 212 212 212 0
-3.787518 -3.246444 20.208180 212 212 212 0
-3.696382 -3.234334 20.132799 212 212 212 0
-3.627953 -3.242001 20.180523 212 212 212 0
-3.603340 -3.290006 20.479342 212 212 212 0
-3.547153 -3.310676 20.608006 212 212 212 0
-3.461106 -3.303783 20.565096 212 212 212 0
-3.373458 -3.295005 20.510460 212 212 212 0
-3.306388 -3.306388 20.581312 212 212 212 0
-3.250703 -3.329989 20.728222 212 212 212 0
-3.186625 -3.345956 20.827612 213 213 213 0
-3.116110 -3.355811 20.888958 212 212 212 0
-3.035990 -3.355568 20.887444 212 212 212 0
-2.961966 -3.362232 20.928924 212 212 212 0
-2.891007 -3.372842 20.994970 212 212 212 0
-2.842771 -3.411325 21.234519 212 212 212 0
-2.767185 -3.418288 21.277858 212 212 212 0
-2.684084 -3.416107 21.264285 212 212 212 0
-2.601684 -3.414710 21.255584 212 212 212 0
-2.527518 -3.424380 21.315779 212 212 212 0
-2.461540 -3.446156 21.451329 212 212 212 0
-2.392951 -3.465653 21.572693 212 212 212 0
-2.300444 -3.450666 21.479402 212 212 212 0
-2.215275 -3.445984 21.450258 212 212 212 0
-2.136169 -3.450735 21.479830 212 212 212 0
-2.060076 -3.460928 21.543282 213 213 213 0
-1.990113 -3.482698 21.678791 212 212 212 0
-1.912914 -3.493147 21.743836 212 212 212 0
-1.830158 -3.493938 21.748758 212 212 212 0
-1.752985 -3.505970 21.823652 212 212 212 0
-1.675643 -3.518851 21.903831 212 212 212 0
-1.595819 -3.527599 21.958291 212 212 212 0
-1.513094 -3.530552 21.976668 212 212 212 0
-1.434750 -3.544677 22.064595 212 212 212 0
-1.353272 -3.552338 22.112282 212 212 212 0
-1.273722 -3.566420 22.199940 212 212 212 0
-1.193032 -3.579096 22.278843 212 212 212 0
-1.111947 -3.592444 22.361927 212 212 212 0
-1.031727 -3.611046 22.477720 212 212 212 0
-0.944747 -3.607214 22.453868 213 213 213 0
-0.858317 -3.604933 22.439670 212 212 212 0
-0.774475 -3.614217 22.497460 212 212 212 0
-0.693134 -3.638955 22.651447 212 212 212 0
-0.606924 -3.641544 22.667565 212 212 212 0
-0.519593 -3.637153 22.640230 212 212 212 0
-0.432744 -3.635047 22.627119 212 212 212 0
-0.346441 -3.637632 22.643212 213 213 213 0
-0.261390 -3.659453 22.779044 212 212 212 0
-0.175152 -3.678200 22.895734 213 213 213 0
-0.087534 -3.676433 22.884736 211 211 211 0
0.000000 -3.680583 22.910572 212 212 212 0
0.087833 -3.688974 22.962803 212 212 212 0
0.176444 -3.705332 23.064626 212 212 212 0
0.265781 -3.720935 23.161748 212 212 212 0
0.354781 -3.725205 23.188331 212 212 212 0
0.443968 -3.729334 23.214033 212 212 212 0
0.535559 -3.748914 23.335913 212 212 212 0
0.628855 -3.773132 23.486657 212 212 212 0
0.719472 -3.777227 23.512149 212 212 212 0
0.808048 -3.770891 23.472713 212 212 212 0
0.898818 -3.775035 23.498507 212 212 212 0
0.995282 -3.800167 23.654947 212 212 212 0
1.089448 -3.813067 23.735247 212 212 212 0
1.177501 -3.804236 23.680271 211 211 211 0
1.265212 -3.795635 23.626735 211 211 211 0
1.358908 -3.804943 23.684677 212 212 212 0
1.459145 -3.830256 23.842239 212 212 212 0
1.555391 -3.842731 23.919893 212 212 212 0
1.646834 -3.842612 23.919155 212 212 212 0
1.742683 -3.852246 23.979121 212 212 212 0
1.839998 -3.863996 24.052264 212 212 212 0
1.934427 -3.868854 24.082501 212 212 212 0
2.031275 -3.877888 24.138736 212 212 212 0
2.125252 -3.880896 24.157458 212 212 212 0
2.227050 -3.897338 24.259806 212 212 212 0
2.329684 -3.913868 24.362704 212 212 212 0
2.434947 -3.933375 24.484129 212 212 212 0
2.531205 -3.937430 24.509365 211 211 211 0
2.627314 -3.940971 24.531409 211 211 211 0
2.727115 -3.949614 24.585213 211 211 211 0
2.832346 -3.965284 24.682751 211 211 211 0
2.924557 -3.962303 24.664193 212 212 212 0
3.021174 -3.965290 24.682792 212 212 212 0
3.120191 -3.971153 24.719282 212 212 212 0
3.224839 -3.983624 24.796915 212 212 212 0
3.332896 -3.999475 24.895581 212 212 212 0
3.436477 -4.009223 24.956262 211 211 211 0
3.539665 -4.017998 25.010882 211 211 211 0
3.636204 -4.018963 25.016885 211 211 211 0
3.738916 -4.026525 25.063957 212 212 212 0
3.849243 -4.041705 25.158450 211 211 211 0
3.949611 -4.045943 25.184828 211 211 211 0
4.059662 -4.059662 25.270229 211 211 211 0
4.177247 -4.080102 25.397458 211 211 211 0
4.291477 -4.096409 25.498970 211 211 211 0
4.390143 -4.097467 25.505553 211 211 211 0
4.491259 -4.100714 25.525767 211 211 211 0
4.602207 -4.112610 25.599815 211 211 211 0
4.724912 -4.134298 25.734816 211 211 211 0
4.817842 -4.129579 25.705442 211 211 211 0
4.911357 -4.125540 25.680298 211 211 211 0
5.024383 -4.137727 25.756162 210 210 210 0
5.150185 -4.159765 25.893337 210 210 210 0
5.254640 -4.164054 25.920039 211 211 211 0
5.361114 -4.169755 25.955527 211 211 211 0
5.474321 -4.180390 26.021726 211 211 211 0
5.595805 -4.196854 26.124206 210 210 210 0
5.705387 -4.203970 26.168501 210 210 210 0
5.809495 -4.206876 26.186591 210 210 210 0
5.933664 -4.223964 26.292960 211 211 211 0
6.070144 -4.249101 26.449429 211 211 211 0
6.181552 -4.256151 26.493313 210 210 210 0
6.281909 -4.255487 26.489181 211 211 211 0
6.401789 -4.267859 26.566196 210 210 210 0
6.529629 -4.285069 26.673319 210 210 210 0
6.625260 -4.280937 26.647600 210 210 210 0
6.729560 -4.282448 26.657003 210 210 210 0
6.849994 -4.294026 26.729077 210 210 210 0
6.983402 -4.313278 26.848911 210 210 210 0
7.099339 -4.321337 26.899078 210 210 210 0
7.220245 -4.332147 26.966366 210 210 210 0
7.339652 -4.341766 27.026243 210 210 210 0
7.459592 -4.351429 27.086392 210 210 210 0
7.584088 -4.363448 27.161208 210 210 210 0
7.702313 -4.371583 27.211844 210 210 210 0
7.823915 -4.381393 27.272907 210 210 210 0
7.960853 -4.399419 27.385117 209 209 209 0
8.092383 -4.414027 27.476048 209 209 209 0
8.207085 -4.419199 27.508244 209 209 209 0
8.490516 -4.513945 28.098009 210 210 210 0
-10.712920 -5.490371 35.009541 212 212 212 0
-10.578764 -5.490245 35.008734 211 211 211 0
-10.444794 -5.490212 35.008528 212 212 212 0
-10.250667 -5.458147 34.804064 211 211 211 0
-5.345347 -2.883674 18.387845 212 212 212 0
-5.267872 -2.879770 18.362952 212 212 212 0
-5.202215 -2.882308 18.379136 212 212 212 0
-5.144136 -2.889172 18.422905 212 212 212 0
-5.089640 -2.898267 18.480902 212 212 212 0
-5.029490 -2.904353 18.519707 212 212 212 0
-5.000949 -2.929127 18.677680 212 212 212 0
-4.961505 -2.948141 18.798920 212 212 212 0
-4.906404 -2.958273 18.863530 212 212 212 0
-4.854329 -2.970560 18.941875 212 212 212 0
-4.796993 -2.979950 19.001754 212 212 212 0
-4.738684 -2.989016 19.059563 212 212 212 0
-4.690621 -3.004929 19.161034 213 213 213 0
-4.623987 -3.009261 19.188658 212 212 212 0
-4.598269 -3.040791 19.389706 213 213 213 0
-4.543167 -3.053604 19.471411 212 212 212 0
-4.477405 -3.059560 19.509389 211 211 211 0
-4.410346 -3.064817 19.542909 212 212 212 0
-4.366607 -3.086739 19.682700 212 212 212 0
-4.346403 -3.126360 19.935341 212 212 212 0
-4.288202 -3.139577 20.019618 213 213 213 0
-4.196139 -3.128031 19.945999 212 212 212 0
-4.107329 -3.118527 19.885396 212 212 212 0
-4.052538 -3.134982 19.990322 212 212 212 0
-4.031022 -3.178306 20.266575 212 212 212 0
-3.961794 -3.184971 20.309079 212 212 212 0
-3.876243 -3.178519 20.267935 212 212 212 0
-3.782462 -3.164917 20.181204 212 212 212 0
-3.691154 -3.152860 20.104323 212 212 212 0
-3.627665 -3.164559 20.178920 212 212 212 0
-3.601432 -3.209972 20.468499 213 213 213 0
-3.543367 -3.228401 20.586013 212 212 212 0
-3.459601 -3.223719 20.556153 212 212 212 0
-3.370790 -3.214009 20.494238 213 213 213 0
-3.306086 -3.227370 20.579433 212 212 212 0
-3.246242 -3.246242 20.699777 212 212 212 0
-3.181397 -3.260932 20.793447 212 212 212 0
-3.111778 -3.271356 20.859917 212 212 212 0
-3.033747 -3.273253 20.872010 212 212 212 0
-2.962123 -3.282353 20.930037 212 212 212 0
-2.888136 -3.289266 20.974119 212 212 212 0
-2.835467 -3.321547 21.179961 212 212 212 0
-2.765136 -3.334429 21.262099 212 212 212 0
-2.684723 -3.335565 21.269347 212 212 212 0
-2.600221 -3.331534 21.243639 212 212 212 0
-2.526658 -3.341708 21.308518 212 212 212 0
-2.458151 -3.359473 21.421793 213 213 213 0
-2.390423 -3.379564 21.549905 212 212 212 0
-2.298402 -3.365517 21.460335 213 213 213 0
-2.211342 -3.357964 21.412171 212 212 212 0
-2.133276 -3.364011 21.450734 213 213 213 0
-2.058671 -3.376221 21.528590 212 212 212 0
-1.988933 -3.397761 21.665939 213 213 213 0
-1.911335 -3.407162 21.725889 212 212 212 0
-1.830084 -3.410611 21.747876 212 212 212 0
-1.751939 -3.420452 21.810628 212 212 212 0
-1.674502 -3.432730 21.888921 212 212 212 0
-1.593072 -3.437682 21.920499 212 212 212 0
-1.511877 -3.443719 21.958993 212 212 212 0
-1.433634 -3.457588 22.047430 212 212 212 0
-1.351989 -3.464473 22.091329 212 212 212 0
-1.273650 -3.481310 22.198691 213 213 213 0
-1.191547 -3.489531 22.251113 213 213 213 0
-1.111217 -3.504607 22.347248 212 212 212 0
-1.030997 -3.522574 22.461814 213 213 213 0
-0.944916 -3.521959 22.457892 213 213 213 0
-0.857692 -3.516537 22.423317 213 213 213 0
-0.773565 -3.524020 22.471036 212 212 212 0
-0.692370 -3.548395 22.626461 212 212 212 0
-0.605881 -3.548734 22.628626 212 212 212 0
-0.519396 -3.549203 22.631617 212 212 212 0
-0.432555 -3.546949 22.617242 212 212 212 0
-0.346154 -3.548082 22.624467 212 212 212 0
-0.261159 -3.569167 22.758918 212 212 212 0
-0.174987 -3.587230 22.874093 213 213 213 0
-0.087463 -3.585974 22.866083 212 212 212 0
0.000000 -3.591135 22.898998 212 212 212 0
0.087775 -3.598794 22.947831 213 213 213 0
0.176258 -3.613288 23.040256 212 212 212 0
0.265462 -3.627983 23.133960 212 212 212 0
0.354528 -3.633914 23.171775 212 212 212 0
0.443492 -3.636633 23.189113 212 212 212 0
0.534445 -3.652038 23.287345 212 212 212 0
0.628067 -3.678680 23.457230 211 211 211 0
0.718910 -3.684412 23.493777 212 212 212 0
0.807567 -3.678915 23.458727 212 212 212 0
0.898014 -3.681858 23.477496 212 212 212 0
0.993458 -3.702891 23.611609 212 212 212 0
1.088602 -3.719389 23.716814 212 212 212 0
1.176839 -3.711569 23.666949 212 212 212 0
1.264750 -3.703911 23.618119 212 212 212 0
1.357617 -3.710820 23.662172 212 212 212 0
1.457974 -3.736058 23.823102 212 212 212 0
1.554177 -3.748309 23.901220 212 212 212 0
1.645591 -3.748291 23.901104 213 213 213 0
1.741878 -3.758790 23.968052 211 211 211 0
1.838314 -3.768545 24.030254 212 212 212 0
1.933110 -3.774168 24.066112 212 212 212 0
2.028757 -3.780865 24.108814 212 212 212 0
2.125036 -3.788107 24.154997 211 211 211 0
2.224467 -3.800132 24.231671 212 212 212 0
2.327322 -3.816809 24.338012 212 212 212 0
2.431397 -3.834126 24.448437 212 212 212 0
2.527723 -3.838394 24.475653 212 212 212 0
2.624406 -3.842880 24.504259 212 212 212 0
2.724288 -3.851580 24.559734 212 212 212 0
2.831985 -3.870380 24.679609 211 211 211 0
2.921933 -3.864492 24.642066 212 212 212 0
3.020764 -3.870354 24.679445 211 211 211 0
3.117308 -3.873018 24.696435 212 212 212 0
3.220298 -3.883301 24.762000 212 212 212 0
3.329854 -3.900686 24.872859 211 211 211 0
3.433689 -3.910590 24.936011 212 212 212 0
3.538168 -3.920672 25.000301 211 211 211 0
3.632486 -3.919261 24.991305 212 212 212 0
3.734794 -3.926322 25.036324 211 211 211 0
3.845368 -3.941503 25.133126 212 212 212 0
3.948334 -3.948334 25.176690 211 211 211 0
4.054812 -3.958269 25.240037 211 211 211 0
4.172376 -3.978312 25.367841 211 211 211 0
4.287443 -3.995118 25.475004 211 211 211 0
4.389804 -3.999599 25.503583 211 211 211 0
4.487050 -3.999327 25.501846 211 211 211 0
4.604306 -4.016522 25.611491 211 211 211 0
4.723529 -4.034681 25.727282 211 211 211 0
4.814243 -4.028244 25.686238 212 212 212 0
4.905082 -4.022167 25.647486 211 211 211 0
5.016478 -4.032855 25.715635 211 211 211 0
5.146883 -4.058119 25.876736 211 211 211 0
5.254085 -4.064481 25.917302 212 212 212 0
5.357244 -4.067537 25.936789 211 211 211 0
5.469491 -4.077257 25.998767 211 211 211 0
5.589141 -4.092049 26.093094 211 211 211 0
5.698105 -4.098637 26.135097 210 210 210 0
5.799246 -4.099467 26.140393 210 210 210 0
5.928589 -4.119867 26.270472 211 211 211 0
6.062910 -4.142988 26.417908 211 211 211 0
6.173861 -4.149645 26.460351 210 210 210 0
6.272301 -4.147812 26.448667 211 211 211 0
6.397618 -4.163529 26.548889 210 210 210 0
6.525441 -4.180361 26.656214 210 210 210 0
6.623470 -4.177881 26.640403 211 211 211 0
6.722157 -4.175886 26.627678 210 210 210 0
6.844253 -4.188274 26.706673 210 210 210 0
6.977365 -4.206941 26.825702 210 210 210 0
7.096202 -4.216584 26.887193 210 210 210 0
7.211432 -4.223839 26.933454 210 210 210 0
7.333530 -4.234855 27.003701 209 209 209 0
7.445944 -4.240051 27.036834 210 210 210 0
7.571128 -4.252277 27.114791 210 210 210 0
7.691782 -4.261663 27.174641 210 210 210 0
7.812500 -4.270833 27.233116 210 210 210 0
7.951716 -4.289741 27.353683 210 210 210 0
8.081655 -4.303219 27.439623 210 210 210 0
8.194817 -4.307532 27.467127 209 209 209 0
7.726955 -4.010192 25.571125 210 210 210 0
-10.712905 -5.356453 35.009494 212 212 212 0
-10.578752 -5.356330 35.008692 212 212 212 0
-10.444786 -5.356300 35.008498 212 212 212 0
-10.250879 -5.325132 34.804784 212 212 212 0
-5.342048 -2.811604 18.376500 212 212 212 0
-5.264611 -2.807793 18.351586 212 212 212 0
-5.197841 -2.809644 18.363684 212 212 212 0
-5.139088 -2.815939 18.404827 213 213 213 0
-5.085118 -2.825065 18.464479 212 212 212 0
-5.027022 -2.832125 18.510621 212 212 212 0
-4.994595 -2.854054 18.653950 212 212 212 0
-4.952922 -2.871259 18.766399 212 212 212 0
-4.906290 -2.886053 18.863093 212 212 212 0
-4.847575 -2.894075 18.915520 212 212 212 0
-4.786710 -2.901036 18.961022 212 212 212 0
-4.744701 -2.919816 19.083763 212 212 212 0
-4.685782 -2.928614 19.141266 212 212 212 0
-4.622584 -2.934974 19.182837 212 212 212 0
-4.587525 -2.959694 19.344403 212 212 212 0
-4.538528 -2.976084 19.451529 212 212 212 0
-4.479563 -2.986376 19.518795 212 212 212 0
-4.398210 -2.981837 19.489132 212 212 212 0
-4.360596 -3.007308 19.655607 212 212 212 0
-4.337629 -3.043950 19.895101 212 212 212 0
-4.290087 -3.064348 20.028415 212 212 212 0
-4.194873 -3.050817 19.939980 212 212 212 0
-4.105418 -3.041050 19.876145 212 212 212 0
-4.049029 -3.055871 19.973014 213 213 213 0
-4.018691 -3.091301 20.204582 212 212 212 0
-3.952211 -3.099773 20.259955 212 212 212 0
-3.874341 -3.099473 20.257994 212 212 212 0
-3.783304 -3.088412 20.185697 213 213 213 0
-3.689308 -3.074423 20.094271 212 212 212 0
-3.622309 -3.082816 20.149124 212 212 212 0
-3.594903 -3.126002 20.431387 212 212 212 0
-3.542962 -3.149299 20.583656 212 212 212 0
-3.458124 -3.143749 20.547377 212 212 212 0
-3.370930 -3.135749 20.495093 213 213 213 0
-3.302775 -3.145500 20.558827 213 213 213 0
-3.246424 -3.167243 20.700932 212 212 212 0
-3.180391 -3.180391 20.786871 213 213 213 0
-3.109972 -3.189715 20.847812 212 212 212 0
-3.029512 -3.188960 20.842879 212 212 212 0
-2.956011 -3.195688 20.886847 212 212 212 0
-2.881673 -3.201859 20.927184 212 212 212 0
-2.834399 -3.239313 21.171978 212 212 212 0
-2.765194 -3.253169 21.262543 212 212 212 0
-2.682983 -3.252100 21.255558 213 213 213 0
-2.596519 -3.245648 21.213389 213 213 213 0
-2.524574 -3.257515 21.290946 212 212 212 0
-2.457144 -3.276192 21.413019 212 212 212 0
-2.386171 -3.291271 21.511572 213 213 213 0
-2.296079 -3.280112 21.438643 212 212 212 0
-2.210907 -3.275418 21.407963 212 212 212 0
-2.132008 -3.280013 21.437992 212 212 212 0
-2.057977 -3.292763 21.521327 212 212 212 0
-1.987619 -3.312699 21.651626 212 212 212 0
-1.910456 -3.322531 21.715892 212 212 212 0
-1.828432 -3.324423 21.728252 212 212 212 0
-1.748875 -3.331191 21.772491 212 212 212 0
-1.673105 -3.346211 21.870658 212 212 212 0
-1.591852 -3.351268 21.903715 212 212 212 0
-1.509638 -3.354751 21.926475 213 213 213 0
-1.431718 -3.368749 22.017969 213 213 213 0
-1.350485 -3.376212 22.066744 213 213 213 0
-1.271864 -3.391638 22.167571 212 212 212 0
-1.189581 -3.398804 22.214407 212 212 212 0
-1.110411 -3.416650 22.331044 212 212 212 0
-1.030221 -3.434069 22.444897 213 213 213 0
-0.943705 -3.431654 22.429110 213 213 213 0
-0.857379 -3.429516 22.415139 212 212 212 0
-0.772594 -3.433750 22.442809 212 212 212 0
-0.691070 -3.455349 22.583978 213 213 213 0
-0.605614 -3.460649 22.618622 212 212 212 0
-0.519110 -3.460731 22.619154 212 212 212 0
-0.432401 -3.459208 22.609205 212 212 212 0
-0.345834 -3.458338 22.603516 212 212 212 0
-0.260859 -3.478115 22.732777 212 212 212 0
-0.174810 -3.496192 22.850926 212 212 212 0
-0.087409 -3.496346 22.851936 212 212 212 0
0.000000 -3.498800 22.867974 212 212 212 0
0.087704 -3.508165 22.929181 212 212 212 0
0.176121 -3.522426 23.022394 212 212 212 0
0.265074 -3.534327 23.100174 212 212 212 0
0.354294 -3.542943 23.156490 212 212 212 0
0.443061 -3.544490 23.166604 212 212 212 0
0.533762 -3.558415 23.257614 212 212 212 0
0.627592 -3.586239 23.439473 212 212 212 0
0.718791 -3.593954 23.489894 212 212 212 0
0.806875 -3.586113 23.438644 212 212 212 0
0.896229 -3.584917 23.430829 213 213 213 0
0.991356 -3.604932 23.561648 212 212 212 0
1.087742 -3.625805 23.698072 212 212 212 0
1.175501 -3.616927 23.640048 212 212 212 0
1.263912 -3.611176 23.602457 212 212 212 0
1.357099 -3.618930 23.653134 212 212 212 0
1.456503 -3.641256 23.799061 212 212 212 0
1.552507 -3.652958 23.875540 212 212 212 0
1.644265 -3.653923 23.881850 212 212 212 0
1.738951 -3.660949 23.927768 212 212 212 0
1.836590 -3.673179 24.007709 212 212 212 0
1.931336 -3.678735 24.044021 212 212 212 0
2.028554 -3.688281 24.106411 212 212 212 0
2.123443 -3.692945 24.136896 212 212 212 0
2.225778 -3.709630 24.245946 212 212 212 0
2.324762 -3.719620 24.311240 212 212 212 0
2.428857 -3.736704 24.422901 212 212 212 0
2.527287 -3.744129 24.471432 211 211 211 0
2.622719 -3.746741 24.488503 212 212 212 0
2.720356 -3.752216 24.524285 212 212 212 0
2.827426 -3.769901 24.639875 212 212 212 0
2.920754 -3.768715 24.632124 212 212 212 0
3.017326 -3.771657 24.651354 212 212 212 0
3.114494 -3.775144 24.674143 211 211 211 0
3.215039 -3.782398 24.721558 211 211 211 0
3.325071 -3.800081 24.837129 212 212 212 0
3.427785 -3.808650 24.893140 211 211 211 0
3.533134 -3.819604 24.964734 211 211 211 0
3.629582 -3.820613 24.971325 211 211 211 0
3.731295 -3.826969 25.012872 212 212 212 0
3.842294 -3.842294 25.113033 211 211 211 0
3.947979 -3.851687 25.174423 211 211 211 0
4.052164 -3.859203 25.223552 211 211 211 0
4.167790 -3.877014 25.339958 211 211 211 0
4.283347 -3.893952 25.450666 211 211 211 0
4.386579 -3.899181 25.484844 211 211 211 0
4.479829 -3.895504 25.460808 212 212 212 0
4.593220 -3.909123 25.549826 211 211 211 0
4.714217 -3.928514 25.676562 212 212 212 0
4.808562 -3.925357 25.655926 211 211 211 0
4.901985 -3.921588 25.631295 211 211 211 0
5.010174 -3.929548 25.683322 211 211 211 0
5.139609 -3.953545 25.840164 211 211 211 0
5.250613 -3.962727 25.900175 211 211 211 0
5.352021 -3.964460 25.911501 211 211 211 0
5.463661 -3.973571 25.971055 211 211 211 0
5.581017 -3.986441 26.055168 211 211 211 0
5.690090 -3.993046 26.098339 211 211 211 0
5.793106 -3.995246 26.112718 210 210 210 0
5.920467 -4.013876 26.234481 210 210 210 0
6.056525 -4.037683 26.390088 211 211 211 0
6.167212 -4.044073 26.431851 211 211 211 0
6.266596 -4.042965 26.424610 210 210 210 0
6.387391 -4.055486 26.506445 210 210 210 0
6.519895 -4.074934 26.633558 210 210 210 0
6.614386 -4.070391 26.603865 210 210 210 0
6.713288 -4.068659 26.592544 210 210 210 0
6.834708 -4.080422 26.669428 210 210 210 0
6.967935 -4.098785 26.789446 210 210 210 0
7.087831 -4.108888 26.855474 210 210 210 0
7.201076 -4.114901 26.894775 210 210 210 0
7.324316 -4.126375 26.969771 210 210 210 0
7.436858 -4.131588 27.003841 210 210 210 0
7.562461 -4.143814 27.083752 210 210 210 0
7.679772 -4.151228 27.132209 210 210 210 0
7.804741 -4.162528 27.206068 210 210 210 0
7.941958 -4.179978 27.320117 210 210 210 0
8.077316 -4.196008 27.424889 210 210 210 0
8.197192 -4.203688 27.475087 210 210 210 0
8.223583 -4.163840 27.214639 210 210 210 0
-10.712891 -5.222534 35.009448 212 212 212 0
-10.578765 -5.222428 35.008738 212 212 212 0
-10.444790 -5.222395 35.008514 212 212 212 0
-10.250938 -5.192034 34.804986 212 212 212 0
-5.333601 -2.736979 18.347440 212 212 212 0
-5.261851 -2.736162 18.341963 212 212 212 0
-5.191172 -2.735888 18.340123 212 212 212 0
-5.132317 -2.741923 18.380577 212 212 212 0
-5.074828 -2.748865 18.427115 212 212 212 0
-5.022984 -2.759104 18.495752 213 213 213 0
-4.988768 -2.779456 18.632185 213 213 213 0
-4.949782 -2.797703 18.754503 211 211 211 0
-4.898385 -2.809368 18.832700 212 212 212 0
-4.843710 -2.819473 18.900439 212 212 212 0
-4.789160 -2.829958 18.970726 212 212 212 0
-4.742983 -2.845790 19.076853 212 212 212 0
-4.688207 -2.856876 19.151173 212 212 212 0
-4.620211 -2.860131 19.172990 212 212 212 0
-4.588443 -2.886279 19.348274 213 213 213 0
-4.531262 -2.897037 19.420389 212 212 212 0
-4.470512 -2.905833 19.479357 213 213 213 0
-4.399596 -2.908208 19.495276 212 212 212 0
-4.358194 -2.930510 19.644780 213 213 213 0
-4.332697 -2.964477 19.872478 213 213 213 0
-4.287964 -2.986261 20.018507 212 212 212 0
-4.197194 -2.976192 19.951010 212 212 212 0
-4.106165 -2.965563 19.879760 212 212 212 0
-4.047027 -2.978001 19.963136 212 212 212 0
-4.019204 -3.014403 20.207158 212 212 212 0
-3.952025 -3.022137 20.259002 212 212 212 0
-3.870168 -3.018731 20.236171 212 212 212 0
-3.777826 -3.006841 20.156469 213 213 213 0
-3.688527 -2.996928 20.090016 212 212 212 0
-3.617052 -3.001384 20.119885 212 212 212 0
-3.594568 -3.047569 20.429487 212 212 212 0
-3.538189 -3.066430 20.555926 212 212 212 0
-3.454851 -3.062254 20.527933 212 212 212 0
-3.367968 -3.054669 20.477084 212 212 212 0
-3.301758 -3.065918 20.552494 212 212 212 0
-3.242742 -3.084559 20.677456 212 212 212 0
-3.178263 -3.098806 20.772959 212 212 212 0
-3.110243 -3.110243 20.849624 213 213 213 0
-3.024995 -3.104600 20.811800 212 212 212 0
-2.952920 -3.112537 20.865003 212 212 212 0
-2.881133 -3.121228 20.923264 212 212 212 0
-2.829778 -3.153181 21.137463 212 212 212 0
-2.760863 -3.166872 21.229240 212 212 212 0
-2.679227 -3.166359 21.225800 212 212 212 0
-2.594271 -3.161768 21.195024 212 212 212 0
-2.519316 -3.169462 21.246606 212 212 212 0
-2.452085 -3.187710 21.368931 212 212 212 0
-2.381926 -3.203280 21.473305 213 213 213 0
-2.291893 -3.192280 21.399563 212 212 212 0
-2.207297 -3.188318 21.373003 213 213 213 0
-2.130599 -3.195899 21.423824 213 213 213 0
-2.055907 -3.207216 21.499686 212 212 212 0
-1.985744 -3.226834 21.631201 212 212 212 0
-1.908604 -3.236329 21.694849 212 212 212 0
-1.826424 -3.237752 21.704390 212 212 212 0
-1.748054 -3.246386 21.762264 212 212 212 0
-1.672206 -3.260801 21.858897 212 212 212 0
-1.590977 -3.265691 21.891675 213 213 213 0
-1.508361 -3.268116 21.907934 212 212 212 0
-1.430173 -3.280984 21.994196 213 213 213 0
-1.350127 -3.290935 22.060901 212 212 212 0
-1.270711 -3.303848 22.147467 213 213 213 0
-1.188418 -3.310594 22.192688 212 212 212 0
-1.108415 -3.325244 22.290897 212 212 212 0
-1.029553 -3.346046 22.430343 213 213 213 0
-0.942736 -3.342429 22.406096 213 213 213 0
-0.856016 -3.338462 22.379501 212 212 212 0
-0.771482 -3.343087 22.410503 212 212 212 0
-0.690209 -3.364768 22.555843 213 213 213 0
-0.604744 -3.369287 22.586139 213 213 213 0
-0.518278 -3.368807 22.582922 212 212 212 0
-0.431720 -3.367413 22.573575 213 213 213 0
-0.345625 -3.369846 22.589884 213 213 213 0
-0.260598 -3.387770 22.710041 213 213 213 0
-0.174682 -3.406307 22.834301 212 212 212 0
-0.087314 -3.405229 22.827076 213 213 213 0
0.000000 -3.410563 22.862830 212 212 212 0
0.087622 -3.417275 22.907825 212 212 212 0
0.175844 -3.428952 22.986102 212 212 212 0
0.264879 -3.443423 23.083107 212 212 212 0
0.353695 -3.448522 23.117289 213 213 213 0
0.442510 -3.451574 23.137752 212 212 212 0
0.533203 -3.465816 23.233225 212 212 212 0
0.626743 -3.491853 23.407766 212 212 212 0
0.718065 -3.500568 23.466187 213 213 213 0
0.806176 -3.493428 23.418320 212 212 212 0
0.895511 -3.492495 23.412064 212 212 212 0
0.990175 -3.510620 23.533570 212 212 212 0
1.086921 -3.532493 23.680194 212 212 212 0
1.174983 -3.524949 23.629625 212 212 212 0
1.262874 -3.518007 23.583089 213 213 213 0
1.355046 -3.523120 23.617363 212 212 212 0
1.453976 -3.544065 23.757770 212 212 212 0
1.552101 -3.560703 23.869302 212 212 212 0
1.642594 -3.558954 23.857575 212 212 212 0
1.736269 -3.563920 23.890868 212 212 212 0
1.833997 -3.576295 23.973823 212 212 212 0
1.929880 -3.584063 24.025896 212 212 212 0
2.026257 -3.592000 24.079104 212 212 212 0
2.122297 -3.598677 24.123862 212 212 212 0
2.220976 -3.609087 24.193643 211 211 211 0
2.321763 -3.621950 24.279872 212 212 212 0
2.425852 -3.638778 24.392677 212 212 212 0
2.523952 -3.645708 24.439136 212 212 212 0
2.619621 -3.648758 24.459581 212 212 212 0
2.719382 -3.657100 24.515502 211 211 211 0
2.826133 -3.673973 24.628613 212 212 212 0
2.915933 -3.668432 24.591466 212 212 212 0
3.015492 -3.675131 24.636371 212 212 212 0
3.110690 -3.676270 24.644007 212 212 212 0
3.209715 -3.681731 24.680619 212 212 212 0
3.320522 -3.700011 24.803154 212 212 212 0
3.422748 -3.707978 24.856561 212 212 212 0
3.525883 -3.716471 24.913500 212 212 212 0
3.625049 -3.720445 24.940139 212 212 212 0
3.726847 -3.726847 24.983054 211 211 211 0
3.837672 -3.741730 25.082821 211 211 211 0
3.944299 -3.751894 25.150959 211 211 211 0
4.048218 -3.759060 25.198994 211 211 211 0
4.161442 -3.774331 25.301364 211 211 211 0
4.281490 -3.794957 25.439629 211 211 211 0
4.382023 -3.797753 25.458377 211 211 211 0
4.474738 -3.793799 25.431872 211 211 211 0
4.587202 -3.806401 25.516350 211 211 211 0
4.713673 -3.829859 25.673599 211 211 211 0
4.804998 -3.824386 25.636910 211 211 211 0
4.897011 -3.819669 25.605286 211 211 211 0
5.003573 -3.826262 25.649483 211 211 211 0
5.134747 -3.851060 25.815721 211 211 211 0
5.245642 -3.860001 25.875654 212 212 212 0
5.343640 -3.859296 25.870928 210 210 210 0
5.455571 -3.868496 25.932602 210 210 210 0
5.576023 -3.883302 26.031855 211 211 211 0
5.686356 -3.890664 26.081209 211 211 211 0
5.790392 -3.893539 26.100481 211 211 211 0
5.913274 -3.908775 26.202611 211 211 211 0
6.047899 -3.931134 26.352501 211 211 211 0
6.162425 -3.939911 26.411336 211 211 211 0
6.260783 -3.938234 26.400095 211 211 211 0
6.381575 -3.950499 26.482311 211 211 211 0
6.512743 -3.968702 26.604340 210 210 210 0
6.610085 -3.966051 26.586564 210 210 210 0
6.711791 -3.966058 26.586613 210 210 210 0
6.827070 -3.973966 26.639626 211 211 211 0
6.962195 -3.993024 26.767379 211 211 211 0
7.081064 -4.002340 26.829834 210 210 210 0
7.193117 -4.007594 26.865051 210 210 210 0
7.312741 -4.016858 26.927151 210 210 210 0
7.426454 -4.022663 26.966065 211 211 211 0
7.551989 -4.034624 27.046249 210 210 210 0
7.667177 -4.040810 27.087714 210 210 210 0
7.795897 -4.053867 27.175242 210 210 210 0
7.931165 -4.069940 27.282990 210 210 210 0
8.074938 -4.089904 27.416816 210 210 210 0
8.197073 -4.098536 27.474687 210 210 210 0
8.281422 -4.088297 27.406047 210 210 210 0
-10.712928 -5.088641 35.009570 211 211 211 0
-10.578750 -5.088513 35.008686 212 212 212 0
-10.444789 -5.088487 35.008511 212 212 212 0
-10.250546 -5.058711 34.803653 212 212 212 0
-5.333449 -2.666725 18.346919 212 212 212 0
-5.262399 -2.666282 18.343874 212 212 212 0
-5.185392 -2.662769 18.319702 212 212 212 0
-5.133682 -2.672327 18.385465 213 213 213 0
-5.075190 -2.678573 18.428432 212 212 212 0
-5.017815 -2.685591 18.476719 212 212 212 0
-4.984738 -2.706001 18.617135 212 212 212 0
-4.947312 -2.724606 18.745142 212 212 212 0
-4.890231 -2.732776 18.801349 213 213 213 0
-4.840457 -2.745334 18.887747 212 212 212 0
-4.785904 -2.755521 18.957831 213 213 213 0
-4.732967 -2.766965 19.036568 213 213 213 0
-4.674393 -2.775421 19.094743 212 212 212 0
-4.611419 -2.781491 19.136504 212 212 212 0
-4.585945 -2.810740 19.337738 212 212 212 0
-4.529969 -2.821948 19.414848 212 212 212 0
-4.467046 -2.829129 19.464255 212 212 212 0
-4.397777 -2.832467 19.487214 213 213 213 0
-4.354576 -2.852998 19.628471 213 213 213 0
-4.334077 -2.889385 19.878808 213 213 213 0
-4.280391 -2.904551 19.983151 212 212 212 0
-4.191642 -2.896043 19.924619 212 212 212 0
-4.101426 -2.886189 19.856818 212 212 212 0
-4.047400 -2.901909 19.964977 213 213 213 0
-4.143948 -3.028270 20.834329 212 212 212 0
-3.945930 -2.940105 20.227761 212 212 212 0
-3.867285 -2.939137 20.221100 213 213 213 0
-3.771313 -2.924692 20.121717 212 212 212 0
-3.683420 -2.916041 20.062203 213 213 213 0
-3.615826 -2.923434 20.113062 212 212 212 0
-3.592130 -2.967411 20.415627 212 212 212 0
-3.538776 -2.988299 20.559335 212 212 212 0
-3.454318 -2.983275 20.524768 212 212 212 0
-3.367989 -2.976362 20.477207 212 212 212 0
-3.298746 -2.984579 20.533742 212 212 212 0
-3.240874 -3.003737 20.665543 212 212 212 0
-3.173952 -3.015255 20.744788 212 212 212 0
-3.106976 -3.027310 20.827726 213 213 213 0
-3.024158 -3.024158 20.806037 212 212 212 0
-2.945487 -3.025095 20.812489 212 212 212 0
-2.875962 -3.035738 20.885712 213 213 213 0
-2.827922 -3.070315 21.123597 213 213 213 0
-2.760633 -3.085414 21.227477 213 213 213 0
-2.678638 -3.084492 21.221135 213 213 213 0
-2.592083 -3.078099 21.177150 213 213 213 0
-2.515103 -3.083029 21.211070 212 212 212 0
-2.451632 -3.105401 21.364987 212 212 212 0
-2.380422 -3.119173 21.459740 212 212 212 0
-2.291211 -3.109501 21.393192 212 212 212 0
-2.205312 -3.103773 21.353787 212 212 212 0
-2.127696 -3.109709 21.394630 212 212 212 0
-2.053057 -3.120647 21.469880 212 212 212 0
-1.984680 -3.142410 21.619608 212 212 212 0
-1.905705 -3.148556 21.661889 213 213 213 0
-1.824981 -3.152241 21.687241 212 212 212 0
-1.745752 -3.158980 21.733607 212 212 212 0
-1.668841 -3.170798 21.814915 212 212 212 0
-1.589746 -3.179493 21.874736 213 213 213 0
-1.507677 -3.182874 21.898000 213 213 213 0
-1.429359 -3.195038 21.981685 213 213 213 0
-1.349338 -3.204678 22.048008 213 213 213 0
-1.269875 -3.217017 22.132902 213 213 213 0
-1.187268 -3.222585 22.171204 213 213 213 0
-1.107857 -3.238351 22.279675 212 212 212 0
-1.028337 -3.256401 22.403856 213 213 213 0
-0.942430 -3.255667 22.398809 212 212 212 0
-0.855787 -3.251991 22.373516 212 212 212 0
-0.771412 -3.257073 22.408481 212 212 212 0
-0.690009 -3.277543 22.549316 212 212 212 0
-0.604439 -3.281240 22.574751 213 213 213 0
-0.518161 -3.281688 22.577834 212 212 212 0
-0.431259 -3.277565 22.549470 213 213 213 0
-0.345310 -3.280448 22.569302 212 212 212 0
-0.260353 -3.297810 22.688754 213 213 213 0
-0.174533 -3.316128 22.814781 212 212 212 0
-0.087272 -3.316336 22.816209 213 213 213 0
0.000000 -3.320299 22.843476 213 213 213 0
0.087491 -3.324652 22.873420 212 212 212 0
0.175690 -3.338102 22.965959 212 212 212 0
0.265009 -3.356786 23.094502 212 212 212 0
0.353602 -3.359217 23.111228 212 212 212 0
0.442169 -3.360481 23.119926 212 212 212 0
0.532009 -3.369390 23.181219 212 212 212 0
0.626050 -3.398556 23.381876 213 213 213 0
0.717695 -3.409054 23.454101 212 212 212 0
0.805619 -3.401502 23.402150 212 212 212 0
0.895135 -3.401512 23.402218 212 212 212 0
0.988533 -3.414931 23.494537 212 212 212 0
1.085643 -3.437870 23.652358 212 212 212 0
1.172995 -3.428754 23.589641 213 213 213 0
1.262142 -3.425813 23.569403 211 211 211 0
1.353718 -3.429420 23.594219 212 212 212 0
1.451549 -3.447429 23.718121 213 213 213 0
1.549323 -3.463193 23.826574 212 212 212 0
1.639560 -3.461293 23.813507 212 212 212 0
1.733745 -3.467490 23.856142 212 212 212 0
1.831337 -3.479541 23.939047 212 212 212 0
1.928609 -3.489863 24.010067 212 212 212 0
2.025108 -3.497915 24.065459 212 212 212 0
2.120217 -3.502968 24.100225 212 212 212 0
2.218725 -3.512982 24.169121 211 211 211 0
2.319966 -3.526349 24.261086 212 212 212 0
2.423848 -3.542548 24.372533 211 211 211 0
2.521014 -3.548094 24.410695 212 212 212 0
2.617993 -3.552991 24.444381 212 212 212 0
2.718167 -3.561736 24.504549 212 212 212 0
2.936798 -3.719945 25.593014 212 212 212 0
2.916660 -3.575261 24.597598 212 212 212 0
3.012479 -3.577319 24.611760 212 212 212 0
3.105659 -3.576214 24.604155 211 211 211 0
3.205422 -3.582530 24.647609 211 211 211 0
3.315277 -3.599443 24.763970 211 211 211 0
3.419725 -3.609710 24.834607 212 212 212 0
3.522043 -3.617233 24.886364 212 212 212 0
3.622827 -3.622827 24.924848 212 212 212 0
3.725128 -3.629612 24.971527 211 211 211 0
3.836829 -3.644988 25.077315 211 211 211 0
3.942799 -3.654301 25.141392 212 212 212 0
4.042657 -3.657642 25.164374 211 211 211 0
4.154674 -3.671573 25.260219 211 211 211 0
4.274486 -3.691602 25.398018 211 211 211 0
4.380028 -3.698690 25.446787 212 212 212 0
4.471407 -3.693771 25.412939 211 211 211 0
4.579770 -3.702792 25.475008 212 212 212 0
4.706628 -3.726080 25.635228 212 212 212 0
4.800320 -3.722697 25.611952 212 212 212 0
4.893838 -3.719317 25.588698 211 211 211 0
4.997701 -3.723777 25.619383 211 211 211 0
5.128341 -3.747634 25.783516 211 211 211 0
5.239940 -3.756938 25.847528 211 211 211 0
5.341840 -3.759073 25.862214 211 211 211 0
5.449385 -3.765029 25.903194 211 211 211 0
5.567731 -3.778103 25.993143 210 210 210 0
5.682054 -3.788036 26.061480 211 211 211 0
5.787119 -3.791561 26.085729 210 210 210 0
5.903533 -3.802275 26.159446 211 211 211 0
6.039114 -3.824773 26.314224 211 211 211 0
6.153906 -3.833581 26.374823 211 211 211 0
6.254758 -3.833561 26.374691 211 211 211 0
6.374981 -3.845227 26.454949 211 211 211 0
6.506887 -3.863464 26.580422 211 211 211 0
6.605417 -3.861629 26.567792 211 211 211 0
6.704086 -3.859928 26.556092 210 210 210 0
6.821863 -3.869116 26.619306 210 210 210 0
6.954673 -3.886435 26.738458 210 210 210 0
7.072742 -3.895133 26.798302 210 210 210 0
7.185880 -3.900906 26.838021 210 210 210 0
7.303770 -3.909060 26.894117 211 211 211 0
7.421486 -3.916896 26.948026 210 210 210 0
7.541928 -3.925935 27.010217 210 210 210 0
7.658803 -3.932899 27.058128 210 210 210 0
7.789743 -3.946803 27.153787 210 210 210 0
7.919706 -3.959853 27.243571 209 209 209 0
8.056382 -3.975877 27.353814 211 211 211 0
8.182398 -3.986296 27.425499 209 209 209 0
8.269733 -3.977846 27.367365 210 210 210 0
-10.712917 -4.954724 35.009532 213 213 213 0
-10.578750 -4.954604 35.008687 212 212 212 0
-10.444782 -4.954576 35.008487 212 212 212 0
-10.250865 -4.925740 34.804735 212 212 212 0
-5.327393 -2.593599 18.326086 212 212 212 0
-5.250123 -2.590061 18.301083 211 211 211 0
-5.193215 -2.596607 18.347341 212 212 212 0
-5.130732 -2.600508 18.374902 212 212 212 0
-5.072697 -2.606803 18.419381 212 212 212 0
-5.014186 -2.613026 18.463356 212 212 212 0
-4.980737 -2.632675 18.602191 212 212 212 0
-4.940634 -2.649325 18.719840 212 212 212 0
-4.886948 -2.659075 18.788728 212 212 212 0
-4.834933 -2.670038 18.866192 212 212 212 0
-4.780398 -2.679920 18.936020 212 212 212 0
-4.736943 -2.696414 19.052563 212 212 212 0
-4.678068 -2.704508 19.109756 212 212 212 0
-4.614391 -2.710039 19.148837 212 212 212 0
-4.572833 -2.728949 19.282448 212 212 212 0
-4.524233 -2.744207 19.390264 212 212 212 0
-4.457670 -2.748897 19.423400 212 212 212 0
-4.383644 -2.749065 19.424589 212 212 212 0
-4.345979 -2.772435 19.589718 212 212 212 0
-4.324009 -2.806813 19.832628 212 212 212 0
-4.281172 -2.828632 19.986799 212 212 212 0
-4.184494 -2.815023 19.890641 212 212 212 0
-4.103124 -2.811400 19.865040 213 213 213 0
-4.043941 -2.823129 19.947917 213 213 213 0
-4.687838 -3.335577 23.568816 213 213 213 0
-3.935897 -2.855455 20.176329 212 212 212 0
-3.867696 -2.862095 20.223246 212 212 212 0
-3.771536 -2.847895 20.122910 213 213 213 0
-3.683561 -2.839412 20.062968 212 212 212 0
-3.611264 -2.842910 20.087690 213 213 213 0
-3.587377 -2.885499 20.388615 212 212 212 0
-3.532229 -2.904277 20.521303 213 213 213 0
-3.449150 -2.900421 20.494056 212 212 212 0
-3.360280 -2.891404 20.430341 213 213 213 0
-3.290560 -2.898827 20.482789 213 213 213 0
-3.235649 -2.919976 20.632226 212 212 212 0
-3.170330 -2.932555 20.721113 212 212 212 0
-3.103838 -2.944667 20.806691 213 213 213 0
-3.022675 -2.943131 20.795840 213 213 213 0
-2.943835 -2.943835 20.800814 212 212 212 0
-2.873610 -2.953432 20.868625 213 213 213 0
-2.823245 -2.984574 21.088668 213 213 213 0
-2.755689 -2.998838 21.189457 212 212 212 0
-2.675718 -3.000047 21.198003 212 212 212 0
-2.590198 -2.994917 21.161749 212 212 212 0
-2.514663 -3.001372 21.207365 212 212 212 0
-2.447728 -3.018864 21.330962 212 212 212 0
-2.377677 -3.033588 21.434998 212 212 212 0
-2.289962 -3.026021 21.381531 212 212 212 0
-2.203492 -3.019601 21.336165 213 213 213 0
-2.127109 -3.027039 21.388725 213 213 213 0
-2.052020 -3.036990 21.459037 212 212 212 0
-1.982082 -3.055710 21.591309 212 212 212 0
-1.903904 -3.062802 21.641418 212 212 212 0
-1.822429 -3.064994 21.656910 213 213 213 0
-1.743168 -3.071297 21.701442 212 212 212 0
-1.668016 -3.085830 21.804130 212 212 212 0
-1.588000 -3.092421 21.850705 212 212 212 0
-1.506149 -3.095973 21.875801 212 212 212 0
-1.427300 -3.106475 21.950012 212 212 212 0
-1.348843 -3.119199 22.039916 213 213 213 0
-1.268254 -3.128359 22.104637 212 212 212 0
-1.185892 -3.134142 22.145500 212 212 212 0
-1.106488 -3.149235 22.252146 212 212 212 0
-1.027226 -3.167279 22.379642 212 212 212 0
-0.941182 -3.165794 22.369147 212 212 212 0
-0.855106 -3.163891 22.355702 212 212 212 0
-0.770811 -3.168888 22.391014 212 212 212 0
-0.689132 -3.187236 22.520660 212 212 212 0
-0.603849 -3.191774 22.552726 212 212 212 0
-0.517677 -3.192343 22.556743 212 212 212 0
-0.430955 -3.189066 22.533586 212 212 212 0
-0.344804 -3.189437 22.536211 213 213 213 0
-0.260085 -3.207713 22.665343 212 212 212 0
-0.174357 -3.225613 22.791823 212 212 212 0
-0.087185 -3.225835 22.793391 212 212 212 0
0.000000 -3.229773 22.821216 212 212 212 0
0.087441 -3.235309 22.860337 212 212 212 0
0.175584 -3.248308 22.952187 212 212 212 0
0.264682 -3.264412 23.065975 212 212 212 0
0.353367 -3.268640 23.095851 213 213 213 0
0.441803 -3.269344 23.100821 213 213 213 0
0.531267 -3.276146 23.148885 212 212 212 0
0.625487 -3.306147 23.360869 212 212 212 0
0.717099 -3.316582 23.434602 212 212 212 0
0.804660 -3.308045 23.374282 213 213 213 0
0.894043 -3.307958 23.373666 212 212 212 0
0.986287 -3.317511 23.441164 212 212 212 0
1.084395 -3.343550 23.625158 212 212 212 0
1.172644 -3.337525 23.582579 212 212 212 0
1.260857 -3.332265 23.545417 212 212 212 0
1.351773 -3.334373 23.560308 212 212 212 0
1.449161 -3.351184 23.679094 212 212 212 0
1.546853 -3.366680 23.788587 213 213 213 0
1.637916 -3.366828 23.789636 212 212 212 0
1.730280 -3.369493 23.808463 212 212 212 0
1.829376 -3.384345 23.913406 212 212 212 0
1.926174 -3.393735 23.979753 212 212 212 0
2.022973 -3.402273 24.040084 212 212 212 0
2.118742 -3.408411 24.083458 212 212 212 0
2.216723 -3.417448 24.147307 212 212 212 0
2.316842 -3.428926 24.228412 212 212 212 0
2.419631 -3.443322 24.330130 213 213 213 0
2.519181 -3.452211 24.392938 211 211 211 0
2.612364 -3.452052 24.391817 212 212 212 0
2.709925 -3.457490 24.430243 212 212 212 0
2.806881 -3.461819 24.460832 212 212 212 0
2.913872 -3.477847 24.574084 212 212 212 0
3.010583 -3.480986 24.596264 211 211 211 0
3.102278 -3.478311 24.577363 211 211 211 0
3.202731 -3.485325 24.626922 212 212 212 0
3.311501 -3.500729 24.735767 211 211 211 0
3.417509 -3.512440 24.818513 212 212 212 0
3.517378 -3.517378 24.853401 212 212 212 0
3.619117 -3.523877 24.899324 212 212 212 0
3.721332 -3.530494 24.946083 211 211 211 0
3.831509 -3.544146 25.042543 212 212 212 0
3.938684 -3.554422 25.115151 212 212 212 0
4.041382 -3.560265 25.156437 212 212 212 0
4.148083 -3.569280 25.220141 211 211 211 0
4.271049 -3.591564 25.377594 211 211 211 0
4.373748 -3.596193 25.410299 211 211 211 0
4.466370 -3.592515 25.384316 211 211 211 0
4.574944 -3.601552 25.448166 211 211 211 0
4.700122 -3.623010 25.599791 211 211 211 0
4.797047 -3.622260 25.594489 211 211 211 0
4.887721 -3.616913 25.556709 211 211 211 0
4.993533 -3.622759 25.598015 211 211 211 0
5.120921 -3.643733 25.746212 211 211 211 0
5.235813 -3.655190 25.827168 211 211 211 0
5.332702 -3.653888 25.817971 211 211 211 0
5.442298 -3.661182 25.869508 210 210 210 0
5.563743 -3.676045 25.974526 211 211 211 0
5.675755 -3.684262 26.032586 211 211 211 0
5.783102 -3.689220 26.067623 211 211 211 0
5.897156 -3.698217 26.131189 211 211 211 0
6.030038 -3.718524 26.274676 211 211 211 0
6.148168 -3.729217 26.350232 211 211 211 0
6.248298 -3.728823 26.347453 211 211 211 0
6.363107 -3.737063 26.405671 210 210 210 0
6.506472 -3.761554 26.578727 210 210 210 0
6.599085 -3.756402 26.542322 211 211 211 0
6.700529 -3.756357 26.542004 211 211 211 0
6.816055 -3.764090 26.596646 210 210 210 0
6.944576 -3.778667 26.699640 211 211 211 0
7.069183 -3.790721 26.784816 211 211 211 0
7.178332 -3.794261 26.809830 210 210 210 0
7.296695 -3.802503 26.868067 210 210 210 0
7.414607 -3.810284 26.923045 210 210 210 0
7.536407 -3.819823 26.990443 211 211 211 0
7.655472 -3.827736 27.046360 210 210 210 0
7.779504 -3.837889 27.118096 210 210 210 0
7.909197 -3.850530 27.207419 210 210 210 0
8.047000 -3.866740 27.321959 209 209 209 0
8.174325 -3.877564 27.398441 210 210 210 0
8.266744 -3.871766 27.357471 210 210 210 0
-10.712890 -4.820800 35.009444 212 212 212 0
-10.578762 -4.820702 35.008726 212 212 212 0
-10.444779 -4.820667 35.008476 212 212 212 0
-10.250915 -4.792635 34.804905 213 213 213 0
-5.333749 -2.526512 18.347948 212 212 212 0
-5.251761 -2.520845 18.306791 212 212 212 0
-5.193772 -2.526700 18.349310 213 213 213 0
-5.119702 -2.524785 18.335401 211 211 211 0
-5.070062 -2.535031 18.409811 212 212 212 0
-5.010725 -2.540649 18.450611 212 212 212 0
-4.973007 -2.557546 18.573322 213 213 213 0
-4.932664 -2.573564 18.689645 212 212 212 0
-4.882278 -2.584736 18.770774 212 212 212 0
-4.835634 -2.598251 18.868927 212 212 212 0
-4.772278 -2.603061 18.903854 212 212 212 0
-4.729260 -2.619283 19.021661 212 212 212 0
-4.672768 -2.628432 19.088104 212 212 212 0
-4.608554 -2.633460 19.124615 213 213 213 0
-4.572579 -2.655046 19.281380 212 212 212 0
-4.521408 -2.668372 19.378153 212 212 212 0
-4.454815 -2.672889 19.410957 212 212 212 0
-4.384298 -2.675165 19.427487 212 212 212 0
-4.343236 -2.695802 19.577354 213 213 213 0
-4.323138 -2.730403 19.828635 212 212 212 0
-4.278007 -2.750147 19.972022 212 212 212 0
-4.185187 -2.739395 19.893939 212 212 212 0
-4.101729 -2.734486 19.858286 212 212 212 0
-4.019484 -2.730215 19.827271 212 212 212 0
-3.221051 -2.229958 16.194324 213 213 213 0
-3.942582 -2.782999 20.210594 212 212 212 0
-3.863719 -2.781877 20.202450 212 212 212 0
-3.769714 -2.769586 20.113189 212 212 212 0
-3.679246 -2.759435 20.039468 213 213 213 0
-3.608519 -2.763972 20.072420 212 212 212 0
-3.587135 -2.807323 20.387241 212 212 212 0
-3.530108 -2.824086 20.508978 212 212 212 0
-3.447110 -2.820363 20.481938 212 212 212 0
-3.358507 -2.811774 20.419562 212 212 212 0
-3.289361 -2.819453 20.475328 213 213 213 0
-3.228877 -2.835111 20.589044 213 213 213 0
-3.170376 -2.853338 20.721412 212 212 212 0
-3.100611 -2.862102 20.785055 212 212 212 0
-3.021094 -2.862089 20.784960 212 212 212 0
-2.945523 -2.865915 20.812742 213 213 213 0
-2.874469 -2.874469 20.874866 212 212 212 0
-2.821398 -2.902010 21.074870 213 213 213 0
-2.756118 -2.918242 21.192753 212 212 212 0
-2.674149 -2.917253 21.185574 212 212 212 0
-2.587541 -2.910984 21.140042 213 213 213 0
-2.510525 -2.915449 21.172467 212 212 212 0
-2.444962 -2.933954 21.306855 213 213 213 0
-2.374290 -2.947395 21.404466 213 213 213 0
-2.289963 -2.944238 21.381537 212 212 212 0
-2.203119 -2.937493 21.332553 213 213 213 0
-2.123659 -2.940451 21.354036 213 213 213 0
-2.047966 -2.949070 21.416633 213 213 213 0
-1.979049 -2.968574 21.558272 212 212 212 0
-1.900540 -2.974758 21.603179 213 213 213 0
-1.818301 -2.975402 21.607856 213 213 213 0
-1.741432 -2.985313 21.679831 212 212 212 0
-1.665212 -2.997382 21.767478 212 212 212 0
-1.587035 -3.007014 21.837429 212 212 212 0
-1.504906 -3.009812 21.857746 213 213 213 0
-1.427427 -3.022788 21.951980 213 213 213 0
-1.347550 -3.031987 22.018784 213 213 213 0
-1.266525 -3.039661 22.074516 212 212 212 0
-1.185117 -3.047444 22.131042 213 213 213 0
-1.105761 -3.062107 22.237525 213 213 213 0
-1.027361 -3.082084 22.382599 213 213 213 0
-0.940503 -3.078011 22.353019 213 213 213 0
-0.854692 -3.076891 22.344884 213 213 213 0
-0.770623 -3.082492 22.385565 212 212 212 0
-0.689030 -3.100637 22.517334 213 213 213 0
-0.603567 -3.104058 22.542182 212 212 212 0
-0.517527 -3.105164 22.550208 212 212 212 0
-0.430874 -3.102295 22.529377 212 212 212 0
-0.344616 -3.101541 22.523902 212 212 212 0
-0.259873 -3.118479 22.646905 213 213 213 0
-0.174129 -3.134314 22.761904 213 213 213 0
-0.087080 -3.134884 22.766040 212 212 212 0
0.000000 -3.138278 22.790690 213 213 213 0
0.087330 -3.143878 22.831361 212 212 212 0
0.175416 -3.157490 22.930211 212 212 212 0
0.264127 -3.169520 23.017571 212 212 212 0
0.352820 -3.175382 23.060146 212 212 212 0
0.441154 -3.176311 23.066894 212 212 212 0
0.529771 -3.178627 23.083707 212 212 212 0
0.624576 -3.212107 23.326849 212 212 212 0
