ply
    format ascii 1.0
    element vertex 15609
    property float x
    property float y
    property float z
    property uchar red
    property uchar green
    property uchar blue
    property uchar alpha
    end_header
-1.084476 0.813357 23.626937 197 197 197 0
-0.998695 0.817114 23.736063 197 197 197 0
-0.906028 0.815425 23.686999 199 199 199 0
-0.812242 0.812242 23.594528 198 198 198 0
-0.718958 0.808828 23.495365 199 199 199 0
-0.627350 0.806593 23.430457 200 200 200 0
-0.536515 0.804772 23.377559 200 200 200 0
-0.449464 0.809035 23.501375 199 199 199 0
-0.359903 0.809781 23.523042 200 200 200 0
-0.269307 0.807920 23.468987 201 201 201 0
-0.179089 0.805900 23.410303 200 200 200 0
-0.089426 0.804832 23.379278 201 201 201 0
0.000000 0.804265 23.362826 201 201 201 0
0.089601 0.806409 23.425087 201 201 201 0
0.179536 0.807910 23.468698 202 202 202 0
0.268553 0.805660 23.403331 203 203 203 0
0.357414 0.804182 23.360400 202 202 202 0
0.445918 0.802652 23.315966 202 202 202 0
0.538052 0.807078 23.444531 203 203 203 0
0.629343 0.809156 23.504882 203 203 203 0
0.718724 0.808564 23.487710 204 204 204 0
0.805093 0.805093 23.386862 203 203 203 0
0.891659 0.802493 23.311352 204 204 204 0
0.983515 0.804694 23.375287 204 204 204 0
1.080999 0.810749 23.551182 204 204 204 0
1.169026 0.809326 23.509828 205 205 205 0
1.254458 0.806437 23.425922 204 204 204 0
1.340119 0.804071 23.357186 205 205 205 0
1.428938 0.803778 23.348658 205 205 205 0
1.526133 0.807953 23.469946 206 206 206 0
1.619257 0.809629 23.518621 206 206 206 0
1.708311 0.809200 23.506168 206 206 206 0
1.796895 0.808603 23.488820 207 207 207 0
1.890322 0.810138 23.533426 206 206 206 0
1.984053 0.811658 23.577578 207 207 207 0
2.078754 0.813426 23.628922 207 207 207 0
2.170036 0.813763 23.638733 207 207 207 0
2.260259 0.813693 23.636694 207 207 207 0
2.357689 0.816123 23.707278 207 207 207 0
2.460310 0.820103 23.822904 207 207 207 0
2.557612 0.822090 23.880599 207 207 207 0
2.653554 0.823517 23.922051 207 207 207 0
2.742265 0.822679 23.897730 208 208 208 0
2.838312 0.824026 23.936850 207 207 207 0
2.943032 0.827728 24.044381 207 207 207 0
3.040176 0.829139 24.085368 206 206 206 0
3.131846 0.829018 24.081864 206 206 206 0
3.224998 0.829285 24.089625 206 206 206 0
3.325112 0.831278 24.147510 206 206 206 0
3.435917 0.835764 24.277810 206 206 206 0
3.538087 0.837968 24.341846 206 206 206 0
3.644068 0.840939 24.428145 206 206 206 0
3.741324 0.841798 24.453096 206 206 206 0
3.851870 0.845532 24.561578 205 205 205 0
3.964513 0.849538 24.677951 204 204 204 0
4.067630 0.851365 24.730995 204 204 204 0
4.181205 0.855246 24.843761 204 204 204 0
4.307214 0.861443 25.023755 203 203 203 0
4.419943 0.864772 25.120451 204 204 204 0
4.523301 0.866164 25.160900 204 204 204 0
4.431216 0.830853 24.135164 202 202 202 0
4.783188 0.878545 25.520543 200 200 200 0
4.891637 0.880495 25.577187 200 200 200 0
5.012506 0.884560 25.695275 200 200 200 0
5.169403 0.894704 25.989959 200 200 200 0
5.291266 0.898517 26.100708 196 196 196 0
5.420120 0.903353 26.241200 196 196 196 0
5.594972 0.915541 26.595234 194 194 194 0
5.758847 0.925529 26.885373 191 191 191 0
5.947122 0.939019 27.277247 189 189 189 0
6.054363 0.939470 27.290346 190 190 190 0
7.319728 1.116569 32.434818 201 201 201 0
7.408643 1.111296 32.281668 204 204 204 0
7.551549 1.114163 32.364937 204 204 204 0
7.684557 1.115500 32.403781 202 202 202 0
7.876196 1.125171 32.684700 202 202 202 0
8.032609 1.129586 32.812947 201 201 201 0
8.190069 1.134010 32.941454 199 199 199 0
8.404193 1.146026 33.290523 198 198 198 0
8.584875 1.153192 33.498682 197 197 197 0
8.807583 1.165710 33.862295 193 193 193 0
9.031344 1.178001 34.219360 191 191 191 0
9.338223 1.200629 34.876651 186 186 186 0
9.504263 1.204766 34.996824 167 167 167 0
9.634823 1.204353 34.984834 84 84 84 0
-5.307651 1.061530 27.752425 75 75 75 0
-5.165514 1.054187 27.560434 103 103 103 0
-5.056236 1.053383 27.539413 128 128 128 0
-4.989731 1.061645 27.755424 136 136 136 0
-4.876474 1.060103 27.715114 151 151 151 0
-4.745763 1.054614 27.571609 153 153 153 0
-4.589772 1.043130 27.271371 160 160 160 0
-4.461207 1.037490 27.123923 167 167 167 0
-4.348724 1.035410 27.069554 167 167 167 0
-4.240067 1.034163 27.036932 171 171 171 0
-4.147297 1.036824 27.106518 174 174 174 0
-4.009703 1.028129 26.879192 158 158 158 0
-3.857191 1.015050 26.537264 138 138 138 0
-3.709598 1.002594 26.211609 140 140 140 0
-3.563769 0.989936 25.880679 151 151 151 0
-3.419214 0.976918 25.540344 154 154 154 0
-3.291705 0.968148 25.311072 154 154 154 0
-3.185155 0.965198 25.233944 162 162 162 0
-3.067094 0.958467 25.057958 170 170 170 0
-2.961761 0.955407 24.977953 171 171 171 0
-2.858008 0.952669 24.906384 171 171 171 0
-2.744658 0.946434 24.743367 172 172 172 0
-2.637167 0.941845 24.623411 175 175 175 0
-2.537872 0.939952 24.573921 179 179 179 0
-2.439647 0.938326 24.531390 181 181 181 0
-2.339142 0.935657 24.461619 182 182 182 0
-2.244137 0.935057 24.445940 182 182 182 0
-2.146200 0.933130 24.395563 183 183 183 0
-2.046183 0.930083 24.315905 183 183 183 0
-1.945820 0.926581 24.224336 185 185 185 0
-1.849038 0.924519 24.170435 189 189 189 0
-1.752273 0.922249 24.111086 190 190 190 0
-1.660721 0.922623 24.120851 191 191 191 0
-1.571702 0.924531 24.170740 192 192 192 0
-1.473211 0.920757 24.072072 192 192 192 0
-1.374757 0.916505 23.960909 192 192 192 0
-1.274985 0.910703 23.809239 193 193 193 0
-1.180183 0.907833 23.734205 193 193 193 0
-1.073721 0.894767 23.392610 194 194 194 0
-1.003338 0.912126 23.846423 195 195 195 0
-0.910303 0.910303 23.798783 197 197 197 0
-0.814670 0.905189 23.665078 197 197 197 0
-0.720736 0.900920 23.553457 199 199 199 0
-0.628940 0.898486 23.489823 199 199 199 0
-0.538836 0.898060 23.478700 199 199 199 0
-0.450949 0.901898 23.579030 199 199 199 0
-0.360998 0.902494 23.594617 200 200 200 0
-0.269990 0.899966 23.528515 200 200 200 0
-0.179506 0.897532 23.464902 200 200 200 0
-0.089742 0.897421 23.461976 201 201 201 0
0.000000 0.897372 23.460716 200 200 200 0
0.090007 0.900070 23.531246 201 201 201 0
0.180043 0.900215 23.535040 201 201 201 0
0.269283 0.897609 23.466890 203 203 203 0
0.358507 0.896268 23.431833 202 202 202 0
0.447865 0.895729 23.417753 202 202 202 0
0.540421 0.900702 23.547764 203 203 203 0
0.631685 0.902407 23.592339 204 204 204 0
0.720656 0.900821 23.550865 203 203 203 0
0.807570 0.897300 23.458831 204 204 204 0
0.895447 0.895447 23.410377 203 203 203 0
0.988600 0.898728 23.496147 205 205 205 0
1.084490 0.903741 23.627225 204 204 204 0
1.172175 0.901673 23.573153 204 204 204 0
1.257274 0.898053 23.478513 205 205 205 0
1.344098 0.896065 23.426546 206 206 206 0
1.435119 0.896950 23.449661 205 205 205 0
1.533343 0.901967 23.580829 206 206 206 0
1.625094 0.902830 23.603395 205 205 205 0
1.712199 0.901157 23.559670 206 206 206 0
1.802698 0.901349 23.564682 206 206 206 0
1.897873 0.903749 23.627425 206 206 206 0
1.993354 0.906070 23.688103 206 206 206 0
2.086687 0.907255 23.719096 206 206 206 0
2.177726 0.907386 23.722505 207 207 207 0
2.272583 0.909033 23.765569 207 207 207 0
2.367362 0.910524 23.804541 207 207 207 0
2.471060 0.915207 23.926992 207 207 207 0
2.568327 0.917260 23.980643 207 207 207 0
2.661051 0.917604 23.989645 207 207 207 0
2.753246 0.917749 23.993430 207 207 207 0
2.851026 0.919686 24.044075 206 206 206 0
2.958930 0.924666 24.174264 206 206 206 0
3.050051 0.924258 24.163601 205 205 205 0
3.140125 0.923566 24.145524 206 206 206 0
3.236867 0.924819 24.178277 206 206 206 0
3.343264 0.928684 24.279330 205 205 205 0
3.453256 0.933312 24.400327 206 206 206 0
3.555045 0.935538 24.458514 206 206 206 0
3.657491 0.937818 24.518125 205 205 205 0
3.754522 0.938630 24.539357 205 205 205 0
3.871509 0.944270 24.686810 204 204 204 0
3.983365 0.948420 24.795298 203 203 203 0
4.087031 0.950472 24.848948 203 203 203 0
4.203960 0.955446 24.978968 203 203 203 0
4.336538 0.963675 25.194119 203 203 203 0
4.441559 0.965556 25.243301 203 203 203 0
4.546666 0.967376 25.290869 202 202 202 0
4.695900 0.978312 25.576795 200 200 200 0
4.803686 0.980344 25.629912 200 200 200 0
4.914527 0.982905 25.696873 200 200 200 0
5.060027 0.992162 25.938879 199 199 199 0
5.199400 0.999885 26.140774 197 197 197 0
5.334060 1.006426 26.311801 196 196 196 0
5.477556 1.014362 26.519273 195 195 195 0
5.634219 1.024404 26.781792 191 191 191 0
5.824152 1.040027 27.190252 188 188 188 0
5.982217 1.049512 27.438218 187 187 187 0
7.257257 1.251251 32.712451 200 200 200 0
7.226076 1.224759 32.019832 205 205 205 0
7.371992 1.228665 32.121971 205 205 205 0
7.539646 1.236007 32.313922 205 205 205 0
7.679462 1.238623 32.382299 203 203 203 0
7.857983 1.247299 32.609121 201 201 201 0
8.022775 1.253559 32.772772 200 200 200 0
8.176798 1.257969 32.888076 200 200 200 0
8.393079 1.271679 33.246501 197 197 197 0
8.566307 1.278553 33.426228 197 197 197 0
8.786989 1.292204 33.783117 194 194 194 0
8.997451 1.303978 34.090938 192 192 192 0
9.292129 1.327447 34.704495 187 187 187 0
9.504352 1.338641 34.997154 175 175 175 0
9.633684 1.338012 34.980696 89 89 89 0
-5.316191 1.169562 27.797075 72 72 72 0
-5.160192 1.158410 27.532037 99 99 99 0
-5.125395 1.174570 27.916095 126 126 126 0
-5.018254 1.174485 27.914082 134 134 134 0
-4.901346 1.172061 27.856472 149 149 149 0
-4.753132 1.161877 27.614418 153 153 153 0
-4.597897 1.149474 27.319648 158 158 158 0
-4.465968 1.142457 27.152867 166 166 166 0
-4.348470 1.138885 27.067976 167 167 167 0
-4.228994 1.134608 26.966322 169 169 169 0
-4.137400 1.137785 27.041830 176 176 176 0
-4.013944 1.132138 26.907616 176 176 176 0
-3.878730 1.122790 26.685446 168 168 168 0
-3.745824 1.113623 26.467576 147 147 147 0
-3.600332 1.100101 26.146198 143 143 143 0
-3.458394 1.086924 25.833009 152 152 152 0
-3.338597 1.080134 25.671642 156 156 156 0
-3.217379 1.072460 25.489237 157 157 157 0
-3.101225 1.066046 25.336802 163 163 163 0
-2.987291 1.060006 25.193261 169 169 169 0
-2.872624 1.053296 25.033763 170 170 170 0
-2.758763 1.046427 24.870525 171 171 171 0
-2.652016 1.041863 24.762051 171 171 171 0
-2.551254 1.039400 24.703497 174 174 174 0
-2.451045 1.036981 24.646002 181 181 181 0
-2.352355 1.035036 24.599788 182 182 182 0
-2.254522 1.033322 24.559060 182 182 182 0
-2.157436 1.031817 24.523290 183 183 183 0
-2.055432 1.027716 24.425812 183 183 183 0
-1.954503 1.023787 24.332433 184 184 184 0
-1.857179 1.021448 24.276845 185 185 185 0
-1.760174 1.019048 24.219807 188 188 188 0
-1.668184 1.019446 24.229254 191 191 191 0
-1.576583 1.020142 24.245794 191 191 191 0
-1.478718 1.016619 24.162056 191 191 191 0
-1.378333 1.010777 24.023227 192 192 192 0
-1.280100 1.005793 23.904756 192 192 192 0
-1.183410 1.001347 23.799099 193 193 193 0
-1.101575 1.009777 23.999457 194 194 194 0
-1.007360 1.007360 23.941998 194 194 194 0
-0.912850 1.004135 23.865368 194 194 194 0
-0.817469 0.999129 23.746383 196 196 196 0
-0.723345 0.994599 23.638715 197 197 197 0
-0.631190 0.991869 23.573838 198 198 198 0
-0.541427 0.992617 23.591605 199 199 199 0
-0.453292 0.997243 23.701559 199 199 199 0
-0.362192 0.996028 23.672685 200 200 200 0
-0.270759 0.992784 23.595575 200 200 200 0
-0.179983 0.989908 23.527231 201 201 201 0
-0.090015 0.990165 23.533322 201 201 201 0
0.000000 0.992058 23.578321 200 200 200 0
0.090320 0.993520 23.613073 201 201 201 0
0.180638 0.993507 23.612772 202 202 202 0
0.269823 0.989351 23.513997 202 202 202 0
0.359359 0.988237 23.487503 202 202 202 0
0.450474 0.991044 23.554221 202 202 202 0
0.542921 0.995355 23.656695 203 203 203 0
0.634175 0.996561 23.685341 203 203 203 0
0.722923 0.994019 23.624933 204 204 204 0
0.809868 0.989838 23.525564 203 203 203 0
0.899494 0.989443 23.516172 204 204 204 0
0.995564 0.995564 23.661645 205 205 205 0
1.087201 0.996601 23.686297 204 204 204 0
1.175790 0.994899 23.645852 205 205 205 0
1.260313 0.990246 23.535255 204 204 204 0
1.349420 0.989575 23.519304 204 204 204 0
1.440947 0.990651 23.544890 205 205 205 0
1.538755 0.995665 23.664045 205 205 205 0
1.629418 0.995755 23.666202 205 205 205 0
1.716751 0.993909 23.622309 205 205 205 0
1.809257 0.995091 23.650416 206 206 206 0
1.905956 0.998358 23.728056 206 206 206 0
2.000640 1.000320 23.774684 206 206 206 0
2.093026 1.001012 23.791144 206 206 206 0
2.183996 1.000998 23.790803 206 206 206 0
2.281275 1.003761 23.856472 206 206 206 0
2.380332 1.007063 23.934957 206 206 206 0
2.481850 1.011124 24.031469 206 206 206 0
2.578120 1.012833 24.072084 205 205 205 0
2.671079 1.013168 24.080047 206 206 206 0
2.763116 1.013142 24.079438 205 205 205 0
2.869597 1.018244 24.200688 205 205 205 0
2.967537 1.020091 24.244580 204 204 204 0
3.062209 1.020736 24.259922 205 205 205 0
3.152370 1.019884 24.239679 205 205 205 0
3.250178 1.021485 24.277710 206 206 206 0
3.361806 1.027219 24.413987 206 206 206 0
3.466969 1.030720 24.497219 206 206 206 0
3.570183 1.033474 24.562664 205 205 205 0
3.671806 1.035638 24.614084 204 204 204 0
3.776736 1.038602 24.684548 203 203 203 0
3.896132 1.045304 24.843820 204 204 204 0
3.999861 1.047583 24.897986 203 203 203 0
4.110899 1.051625 24.994066 203 203 203 0
4.235257 1.058814 25.164923 203 203 203 0
4.358841 1.065494 25.323695 202 202 202 0
4.459113 1.066310 25.343071 201 201 201 0
4.582904 1.072595 25.492443 199 199 199 0
4.720769 1.081843 25.712251 199 199 199 0
4.832106 1.084759 25.781546 200 200 200 0
4.951989 1.089438 25.892755 198 198 198 0
5.111612 1.102504 26.203314 195 195 195 0
5.250514 1.110686 26.397757 195 195 195 0
5.389813 1.118640 26.586818 195 195 195 0
5.556199 1.131818 26.900017 192 192 192 0
5.722366 1.144473 27.200787 189 189 189 0
5.904983 1.159907 27.567616 185 185 185 0
5.908773 1.140290 27.101355 196 196 196 0
7.093727 1.345362 31.975328 207 207 207 0
7.183423 1.339282 31.830830 205 205 205 0
7.352688 1.347993 32.037857 204 204 204 0
7.516551 1.355444 32.214941 204 204 204 0
7.672896 1.361320 32.354613 204 204 204 0
7.850378 1.370701 32.577561 202 202 202 0
8.015633 1.377687 32.743598 201 201 201 0
8.167136 1.382131 32.849214 200 200 200 0
8.374728 1.395788 33.173809 198 198 198 0
8.554017 1.404391 33.378272 197 197 197 0
8.764159 1.417732 33.695346 195 195 195 0
8.976105 1.430973 34.010059 192 192 192 0
9.254676 1.454306 34.564615 189 189 189 0
9.504775 1.472571 34.998712 178 178 178 0
8.717079 1.331776 31.652428 111 111 111 0
-5.292900 1.296220 28.240098 98 98 98 0
-5.184380 1.296095 28.237365 122 122 122 0
-5.059120 1.291690 28.141400 134 134 134 0
-4.921577 1.283890 27.971452 146 146 146 0
-4.765701 1.270854 27.687444 153 153 153 0
-4.615045 1.258649 27.421539 156 156 156 0
-4.484305 1.251434 27.264357 165 165 165 0
-4.363377 1.246679 27.160767 167 167 167 0
-4.191355 1.226738 26.726319 167 167 167 0
-4.122117 1.236635 26.941939 175 175 175 0
-4.002164 1.231435 26.828649 178 178 178 0
-3.883566 1.226389 26.718722 179 179 179 0
-3.745910 1.214890 26.468183 175 175 175 0
-3.622166 1.207389 26.304761 159 159 159 0
-3.496284 1.198726 26.116030 147 147 147 0
-3.363808 1.187226 25.865500 155 155 155 0
-3.250780 1.182102 25.753854 158 158 158 0
-3.127600 1.172850 25.552285 158 158 158 0
-3.008214 1.164470 25.369711 163 163 163 0
-2.888351 1.155341 25.170818 169 169 169 0
-2.776622 1.148947 25.031527 170 170 170 0
-2.666792 1.142911 24.900023 171 171 171 0
-2.566157 1.140514 24.847805 173 173 173 0
-2.465626 1.137981 24.792621 175 175 175 0
-2.367825 1.136556 24.761568 179 179 179 0
-2.269339 1.134670 24.720469 182 182 182 0
-2.163994 1.129040 24.597828 182 182 182 0
-2.065909 1.126860 24.550317 183 183 183 0
-1.964994 1.122853 24.463039 184 184 184 0
-1.866837 1.120102 24.403095 184 184 184 0
-1.770706 1.118341 24.364725 185 185 185 0
-1.677995 1.118664 24.371756 187 187 187 0
-1.583112 1.117490 24.346198 190 190 190 0
-1.483363 1.112522 24.237953 191 191 191 0
-1.383362 1.106690 24.110892 192 192 192 0
-1.284617 1.101101 23.989119 193 193 193 0
-1.193220 1.101434 23.996384 193 193 193 0
-1.107030 1.107030 24.118307 193 193 193 0
-1.012227 1.104247 24.057674 194 194 194 0
-0.915766 1.098919 23.941590 194 194 194 0
-0.820389 1.093852 23.831189 195 195 195 0
-0.725994 1.088992 23.725310 195 195 195 0
-0.634020 1.086892 23.679564 196 196 196 0
-0.545094 1.090188 23.751364 197 197 197 0
-0.454975 1.091940 23.789545 197 197 197 0
-0.363286 1.089858 23.744193 199 199 199 0
-0.271389 1.085556 23.650468 200 200 200 0
-0.180638 1.083827 23.612798 201 201 201 0
-0.090305 1.083655 23.609033 201 201 201 0
0.000000 1.086915 23.680070 201 201 201 0
0.090772 1.089269 23.731354 202 202 202 0
0.181241 1.087448 23.691683 202 202 202 0
0.270956 1.083825 23.612739 202 202 202 0
0.360856 1.082567 23.585336 202 202 202 0
0.452723 1.086536 23.671811 201 201 201 0
0.544850 1.089699 23.740721 203 203 203 0
0.636035 1.090346 23.754804 203 203 203 0
0.724416 1.086625 23.673737 202 202 202 0
0.813854 1.085138 23.641359 204 204 204 0
0.903918 1.084701 23.631837 204 204 204 0
1.003591 1.094827 23.852431 204 204 204 0
1.090885 1.090885 23.766562 204 204 204 0
1.177848 1.087244 23.687231 204 204 204 0
1.264681 1.084012 23.616819 204 204 204 0
1.353937 1.083150 23.598038 205 205 205 0
1.450325 1.087744 23.698120 205 205 205 0
1.545249 1.090764 23.763923 205 205 205 0
1.632959 1.088639 23.717627 205 205 205 0
1.723032 1.088231 23.708728 205 205 205 0
1.817897 1.090738 23.763365 206 206 206 0
1.914109 1.093776 23.829552 205 205 205 0
2.008780 1.095698 23.871420 206 206 206 0
2.101309 1.096335 23.885300 205 205 205 0
2.192106 1.096053 23.879146 205 205 205 0
2.288834 1.098640 23.935518 205 205 205 0
2.389646 1.102914 24.028618 205 205 205 0
2.491225 1.107211 24.122242 204 204 204 0
2.588894 1.109526 24.172675 204 204 204 0
2.682735 1.110097 24.185122 205 205 205 0
2.777984 1.111194 24.209012 205 205 205 0
2.894494 1.120449 24.410663 205 205 205 0
2.979864 1.117449 24.345298 205 205 205 0
3.071701 1.116982 24.335125 205 205 205 0
3.166327 1.117527 24.346995 205 205 205 0
3.269564 1.120994 24.422517 205 205 205 0
3.377344 1.125781 24.526823 205 205 205 0
3.483686 1.129844 24.615337 204 204 204 0
3.585938 1.132401 24.671055 203 203 203 0
3.688018 1.134775 24.722760 202 202 202 0
3.800743 1.140223 24.841459 202 202 202 0
3.918407 1.146851 24.985859 203 203 203 0
4.022755 1.149359 25.040492 203 203 203 0
4.139069 1.155089 25.165336 203 203 203 0
4.266580 1.163613 25.351040 202 202 202 0
4.380739 1.168197 25.450919 200 200 200 0
4.486380 1.170360 25.498041 199 199 199 0
4.645257 1.186023 25.839282 200 200 200 0
4.751813 1.187953 25.881335 200 200 200 0
4.864365 1.191273 25.953663 198 198 198 0
5.015109 1.203626 26.222793 196 196 196 0
5.156180 1.213219 26.431784 194 194 194 0
5.297693 1.222544 26.634956 194 194 194 0
5.467474 1.237919 26.969903 192 192 192 0
5.613597 1.247466 27.177908 190 190 190 0
5.799208 1.265282 27.566049 187 187 187 0
5.891237 1.262408 27.503441 193 193 193 0
6.936674 1.460352 31.815957 206 206 206 0
7.031405 1.454773 31.694410 208 208 208 0
7.161388 1.456554 31.733192 206 206 206 0
7.348658 1.469732 32.020298 205 205 205 0
7.507643 1.476913 32.176760 204 204 204 0
7.662522 1.483069 32.310866 204 204 204 0
7.845393 1.494361 32.556874 203 203 203 0
8.009836 1.501844 32.719918 201 201 201 0
8.162155 1.506859 32.829182 201 201 201 0
8.365455 1.520992 33.137076 199 199 199 0
8.543955 1.530261 33.339012 197 197 197 0
8.751568 1.544394 33.646935 195 195 195 0
8.963992 1.558955 33.964165 192 192 192 0
9.217794 1.580193 34.426867 189 189 189 0
9.488569 1.603702 34.939037 181 181 181 0
9.229683 1.538281 33.513737 124 124 124 0
-5.391805 1.430479 28.767800 90 90 90 0
-5.263210 1.425453 28.666722 116 116 116 0
-5.099012 1.410365 28.363297 133 133 133 0
-4.944116 1.397250 28.099549 142 142 142 0
-4.784799 1.382275 27.798397 153 153 153 0
-4.616235 1.363888 27.428611 154 154 154 0
-4.495923 1.359232 27.334992 164 164 164 0
-4.379890 1.355680 27.263556 167 167 167 0
-4.093840 1.298047 26.104514 168 168 168 0
-4.127996 1.341599 26.980369 174 174 174 0
-4.002217 1.334072 26.829005 178 178 178 0
-3.891273 1.331225 26.771746 178 178 178 0
-3.749782 1.317491 26.495546 179 179 179 0
-3.625919 1.309360 26.332022 181 181 181 0
-3.516352 1.306073 26.265932 169 169 169 0
-3.394812 1.298017 26.103902 155 155 155 0
-3.273037 1.289378 25.930181 157 157 157 0
-3.152886 1.280860 25.758868 157 157 157 0
-3.032690 1.271773 25.576136 157 157 157 0
-2.908234 1.260235 25.344084 163 163 163 0
-2.798767 1.254620 25.231162 169 169 169 0
-2.686313 1.247217 25.082284 172 172 172 0
-2.583545 1.243929 25.016167 172 172 172 0
-2.480973 1.240487 24.946943 173 173 173 0
-2.381632 1.238449 24.905954 175 175 175 0
-2.284272 1.237314 24.883137 178 178 178 0
-2.176047 1.229940 24.734835 182 182 182 0
-2.075577 1.226477 24.665202 183 183 183 0
-1.974808 1.222500 24.585218 184 184 184 0
-1.875778 1.219256 24.519977 185 185 185 0
-1.781552 1.218957 24.513964 185 185 185 0
-1.689045 1.219866 24.532248 185 185 185 0
-1.590420 1.216204 24.458596 185 185 185 0
-1.488488 1.209397 24.321704 188 188 188 0
-1.388427 1.203303 24.199157 192 192 192 0
-1.289559 1.197447 24.081396 192 192 192 0
-1.198596 1.198596 24.104504 193 193 193 0
-1.111792 1.204441 24.222049 193 193 193 0
-1.018500 1.203682 24.206783 193 193 193 0
-0.919147 1.194892 24.029998 194 194 194 0
-0.822711 1.188361 23.898657 195 195 195 0
-0.728846 1.184375 23.818496 195 195 195 0
-0.636311 1.181720 23.765098 195 195 195 0
-0.547627 1.186526 23.861764 195 195 195 0
-0.457067 1.188375 23.898952 195 195 195 0
-0.364595 1.184934 23.829738 196 196 196 0
-0.272277 1.179867 23.727839 198 198 198 0
-0.181229 1.177990 23.690104 198 198 198 0
-0.090643 1.178356 23.697451 199 199 199 0
0.000000 1.182405 23.778889 200 200 200 0
0.091043 1.183561 23.802126 201 201 201 0
0.181857 1.182069 23.772129 202 202 202 0
0.271983 1.178592 23.702194 201 201 201 0
0.362320 1.177539 23.681035 202 202 202 0
0.455406 1.184055 23.812064 202 202 202 0
0.547909 1.187136 23.874030 203 203 203 0
0.638030 1.184913 23.829314 203 203 203 0
0.726305 1.180246 23.735466 202 202 202 0
0.815230 1.177554 23.681326 203 203 203 0
0.908130 1.180570 23.741974 203 203 203 0
1.005727 1.188587 23.903205 204 204 204 0
1.094324 1.185517 23.841475 204 204 204 0
1.180376 1.180376 23.738073 204 204 204 0
1.267646 1.177100 23.672201 204 204 204 0
1.359138 1.177920 23.688680 205 205 205 0
1.458127 1.184729 23.825611 205 205 205 0
1.550821 1.185922 23.849607 205 205 205 0
1.639915 1.184383 23.818663 204 204 204 0
1.729711 1.183486 23.800631 205 205 205 0
1.825513 1.186584 23.862921 205 205 205 0
1.922596 1.190178 23.935211 205 205 205 0
2.016206 1.191394 23.959661 204 204 204 0
2.109662 1.192418 23.980244 203 203 203 0
2.201642 1.192556 23.983024 204 204 204 0
2.298326 1.195130 24.034786 204 204 204 0
2.402695 1.201348 24.159830 204 204 204 0
2.499996 1.203702 24.207177 204 204 204 0
2.596538 1.205535 24.244049 204 204 204 0
2.689229 1.205516 24.243665 204 204 204 0
2.790024 1.209010 24.313931 205 205 205 0
2.897632 1.215136 24.437125 205 205 205 0
2.993470 1.216097 24.456452 205 205 205 0
3.083167 1.214581 24.425963 204 204 204 0
3.181140 1.216318 24.460897 205 205 205 0
3.288240 1.221346 24.562019 204 204 204 0
3.395133 1.226020 24.656013 203 203 203 0
3.495652 1.228202 24.699893 202 202 202 0
3.602410 1.232403 24.784383 202 202 202 0
3.707768 1.235923 24.855156 203 203 203 0
3.821347 1.241938 24.976123 202 202 202 0
3.935733 1.247915 25.096339 203 203 203 0
4.041910 1.251067 25.159726 203 203 203 0
4.163707 1.258795 25.315135 201 201 201 0
4.290485 1.267643 25.493077 200 200 200 0
4.397886 1.270500 25.550537 199 199 199 0
4.519051 1.277123 25.683721 199 199 199 0
4.663722 1.289966 25.941996 199 199 199 0
4.777081 1.293793 26.018960 198 198 198 0
4.904480 1.301188 26.167691 195 195 195 0
5.072787 1.318925 26.524379 194 194 194 0
5.212005 1.328550 26.717953 194 194 194 0
5.364583 1.341146 26.971258 190 190 190 0
5.529614 1.356320 27.276430 189 189 189 0
5.704743 1.373364 27.619186 187 187 187 0
5.803531 1.371744 27.586598 192 192 192 0
6.771481 1.571951 31.612888 205 205 205 0
6.890410 1.571497 31.603760 208 208 208 0
7.038937 1.577693 31.728360 207 207 207 0
7.174763 1.580880 31.792458 206 206 206 0
7.333207 1.588861 31.952970 204 204 204 0
7.499647 1.598286 32.142494 205 205 205 0
7.653558 1.604778 32.273067 204 204 204 0
7.840133 1.617805 32.535047 203 203 203 0
8.003824 1.625777 32.695360 201 201 201 0
8.150504 1.630101 32.782318 200 200 200 0
8.349236 1.644547 33.072831 199 199 199 0
8.533479 1.655750 33.298133 197 197 197 0
8.743813 1.671611 33.617120 195 195 195 0
8.953954 1.686977 33.926132 193 193 193 0
9.201902 1.708925 34.367514 189 189 189 0
9.467323 1.733454 34.860805 183 183 183 0
9.524172 1.719642 34.583050 135 135 135 0
-5.514870 1.575677 29.424410 81 81 81 0
-5.342663 1.558277 29.099470 108 108 108 0
-5.142376 1.531772 28.604510 132 132 132 0
-4.961183 1.509925 28.196552 138 138 138 0
-4.804442 1.494715 27.912517 152 152 152 0
-4.629753 1.473103 27.508928 154 154 154 0
-4.501160 1.465494 27.366834 161 161 161 0
-4.395067 1.465022 27.358029 167 167 167 0
-3.619190 1.235821 23.077888 168 168 168 0
-4.131644 1.446075 27.004207 171 171 171 0
-4.010980 1.439839 26.887747 178 178 178 0
-3.891115 1.433569 26.770658 178 178 178 0
-3.758505 1.422137 26.557184 179 179 179 0
-3.636388 1.414151 26.408049 182 182 182 0
-3.514461 1.405784 26.251808 185 185 185 0
-3.403785 1.401559 26.172896 181 181 181 0
-3.292556 1.396842 26.084818 164 164 164 0
-3.176617 1.389770 25.952750 158 158 158 0
-3.047966 1.376501 25.704964 158 158 158 0
-2.929374 1.367041 25.528318 158 158 158 0
-2.821241 1.361979 25.433773 162 162 162 0
-2.706216 1.353108 25.268119 171 171 171 0
-2.601658 1.349008 25.191560 173 173 173 0
-2.499108 1.345673 25.129288 172 172 172 0
-2.397404 1.342546 25.070894 173 173 173 0
-2.296905 1.339861 25.020753 174 174 174 0
-2.186379 1.330840 24.852282 177 177 177 0
-2.082528 1.325245 24.747807 181 181 181 0
-1.986472 1.324315 24.730435 184 184 184 0
-1.886323 1.320426 24.657821 184 184 184 0
-1.790365 1.319216 24.635225 185 185 185 0
-1.697683 1.320420 24.657712 184 184 184 0
-1.597557 1.315635 24.568348 185 185 185 0
-1.494991 1.308117 24.427963 185 185 185 0
-1.394389 1.301430 24.303080 188 188 188 0
-1.294428 1.294428 24.172330 189 189 189 0
-1.221824 1.315810 24.571614 192 192 192 0
-1.116176 1.302205 24.317558 193 193 193 0
-1.020504 1.298823 24.254398 192 192 192 0
-0.921794 1.290512 24.099188 193 193 193 0
-0.825512 1.284130 23.980015 195 195 195 0
-0.731267 1.279718 23.897628 195 195 195 0
-0.641020 1.282040 23.940998 194 194 194 0
-0.551188 1.286105 24.016904 195 195 195 0
-0.458720 1.284416 23.985359 195 195 195 0
-0.366037 1.281130 23.924003 196 196 196 0
-0.273581 1.276713 23.841509 196 196 196 0
-0.182136 1.274952 23.808636 197 197 197 0
-0.091157 1.276198 23.831894 196 196 196 0
0.000000 1.279938 23.901736 197 197 197 0
0.091419 1.279862 23.900325 199 199 199 0
0.182380 1.276658 23.840476 198 198 198 0
0.272881 1.273446 23.780511 199 199 199 0
0.364424 1.275485 23.818579 200 200 200 0
0.457684 1.281516 23.931204 201 201 201 0
0.549858 1.283003 23.958971 202 202 202 0
0.640038 1.280077 23.904329 202 202 202 0
0.727585 1.273275 23.777304 202 202 202 0
0.817910 1.272304 23.759174 202 202 202 0
0.912270 1.277179 23.850209 203 203 203 0
1.009175 1.284405 23.985145 204 204 204 0
1.097315 1.280201 23.906642 203 203 203 0
1.184969 1.276121 23.830451 203 203 203 0
1.273124 1.273124 23.774486 203 203 203 0
1.367291 1.276138 23.830775 203 203 203 0
1.465598 1.282398 23.947672 203 203 203 0
1.556625 1.281926 23.938865 203 203 203 0
1.645705 1.279993 23.902762 203 203 203 0
1.739128 1.281463 23.930215 203 203 203 0
1.833657 1.283560 23.969367 203 203 203 0
1.931077 1.287385 24.040798 203 203 203 0
2.026363 1.289504 24.080369 203 203 203 0
2.117194 1.288727 24.065855 203 203 203 0
2.213405 1.291153 24.111170 203 203 203 0
2.313197 1.295390 24.190294 204 204 204 0
2.414215 1.299962 24.275666 203 203 203 0
2.511234 1.302121 24.315990 204 204 204 0
2.607623 1.303812 24.347557 204 204 204 0
2.704546 1.305643 24.381754 204 204 204 0
2.809307 1.311010 24.481978 205 205 205 0
2.907463 1.313048 24.520034 205 205 205 0
3.002891 1.313765 24.533424 205 205 205 0
3.094424 1.312786 24.515140 204 204 204 0
3.194809 1.315509 24.566003 202 202 202 0
3.306334 1.322534 24.697176 202 202 202 0
3.412884 1.327233 24.784923 203 203 203 0
3.518575 1.331353 24.861863 202 202 202 0
3.620975 1.334043 24.912108 202 202 202 0
3.726858 1.337847 24.983129 202 202 202 0
3.846896 1.346414 25.143114 202 202 202 0
3.949002 1.348440 25.180948 202 202 202 0
4.063414 1.354471 25.293581 200 200 200 0
4.193367 1.365282 25.495470 199 199 199 0
4.311548 1.371856 25.618229 198 198 198 0
4.422212 1.375799 25.691863 199 199 199 0
4.447254 1.353512 25.275668 198 198 198 0
4.688335 1.396525 26.078904 197 197 197 0
4.809122 1.402660 26.193473 195 195 195 0
4.963328 1.418094 26.481675 195 195 195 0
5.113293 1.431722 26.736173 193 193 193 0
5.277452 1.448712 27.053452 191 191 191 0
5.446853 1.466460 27.384883 188 188 188 0
5.616375 1.483571 27.704402 185 185 185 0
5.733267 1.486403 27.757285 190 190 190 0
6.637926 1.689654 31.552825 206 206 206 0
6.751405 1.687851 31.519164 208 208 208 0
6.906135 1.696244 31.675887 206 206 206 0
7.030009 1.696899 31.688119 207 207 207 0
7.169448 1.701225 31.768906 206 206 206 0
7.320950 1.708222 31.899565 205 205 205 0
7.497288 1.720689 32.132383 203 203 203 0
7.644025 1.726070 32.232869 204 204 204 0
7.833177 1.740706 32.506182 202 202 202 0
7.995311 1.748974 32.660586 201 201 201 0
8.142837 1.753842 32.751480 201 201 201 0
8.340218 1.769137 33.037109 199 199 199 0
8.524009 1.781136 33.261180 198 198 198 0
8.739444 1.799297 33.600325 196 196 196 0
8.946641 1.815260 33.898421 193 193 193 0
9.184524 1.836905 34.302612 190 190 190 0
9.457784 1.864915 34.825679 184 184 184 0
9.603857 1.867417 34.872394 140 140 140 0
-5.562216 1.702719 29.677025 74 74 74 0
-5.401194 1.687873 29.418269 103 103 103 0
-5.167500 1.649202 28.744264 127 127 127 0
-4.983158 1.624943 28.321443 136 136 136 0
-4.821314 1.607105 28.010541 150 150 150 0
-4.645823 1.583803 27.604416 154 154 154 0
-4.505273 1.571607 27.391838 158 158 158 0
-4.403966 1.572845 27.413421 167 167 167 0
-4.688526 1.715314 29.896546 168 168 168 0
-4.171569 1.564338 27.265155 170 170 170 0
-4.042046 1.554633 27.096002 176 176 176 0
-3.896914 1.538255 26.810551 179 179 179 0
-3.768077 1.527599 26.624815 179 179 179 0
-3.645378 1.518908 26.473335 180 180 180 0
-3.534178 1.514648 26.399090 184 184 184 0
-3.416175 1.507136 26.268168 187 187 187 0
-3.307343 1.503338 26.201962 185 185 185 0
-3.191829 1.496170 26.077034 176 176 176 0
-3.066679 1.483877 25.862778 163 163 163 0
-2.948774 1.474387 25.697376 159 159 159 0
-2.834268 1.466001 25.551212 161 161 161 0
-2.724711 1.459666 25.440808 164 164 164 0
-2.617415 1.454119 25.344125 170 170 170 0
-2.514771 1.450830 25.286789 174 174 174 0
-2.411130 1.446678 25.214428 174 174 174 0
-2.304546 1.440341 25.103990 174 174 174 0
-2.197318 1.433034 24.976619 174 174 174 0
-2.092054 1.426401 24.861013 177 177 177 0
-1.995295 1.425211 24.840272 181 181 181 0
-1.896230 1.422173 24.787325 184 184 184 0
-1.802494 1.423022 24.802126 184 184 184 0
-1.705963 1.421636 24.777964 184 184 184 0
-1.602366 1.413853 24.642314 185 185 185 0
-1.498771 1.405097 24.489716 186 186 186 0
-1.399371 1.399371 24.389908 187 187 187 0
-1.301868 1.394858 24.311258 186 186 186 0
-1.218096 1.405495 24.496648 187 187 187 0
-1.122743 1.403429 24.460640 190 190 190 0
-1.023449 1.395613 24.324401 191 191 191 0
-0.925715 1.388573 24.201707 194 194 194 0
-0.828594 1.380990 24.069535 194 194 194 0
-0.734332 1.376872 23.997777 194 194 194 0
-0.645231 1.382638 24.098268 195 195 195 0
-0.553571 1.383929 24.120759 195 195 195 0
-0.460729 1.382188 24.090416 195 195 195 0
-0.367089 1.376582 23.992717 196 196 196 0
-0.274549 1.372745 23.925837 196 196 196 0
-0.183013 1.372599 23.923287 196 196 196 0
-0.091806 1.377083 24.001438 196 196 196 0
0.000000 1.379304 24.040153 197 197 197 0
0.091786 1.376788 23.996309 198 198 198 0
0.182984 1.372380 23.919475 198 198 198 0
0.273823 1.369113 23.862528 198 198 198 0
0.366472 1.374271 23.952437 198 198 198 0
0.459864 1.379592 24.045180 198 198 198 0
0.552336 1.380840 24.066920 199 199 199 0
0.641969 1.375647 23.976415 200 200 200 0
0.729422 1.367667 23.837327 199 199 199 0
0.820851 1.368084 23.844605 199 199 199 0
0.913712 1.370568 23.887904 201 201 201 0
1.011861 1.379810 24.048982 201 201 201 0
1.101383 1.376729 23.995282 200 200 200 0
1.187601 1.370309 23.883386 201 201 201 0
1.278062 1.369353 23.866713 201 201 201 0
1.375057 1.375057 23.966135 201 201 201 0
1.471397 1.379435 24.042439 202 202 202 0
1.562553 1.378723 24.030030 201 201 201 0
1.651528 1.376273 23.987330 202 202 202 0
1.745984 1.378409 24.024553 202 202 202 0
1.841516 1.381137 24.072110 203 203 203 0
1.939793 1.385567 24.149312 203 203 203 0
2.033465 1.386453 24.164766 202 202 202 0
2.124306 1.385417 24.146702 203 203 203 0
2.223038 1.389399 24.216097 203 203 203 0
2.324842 1.394905 24.312077 203 203 203 0
2.424453 1.398723 24.378617 204 204 204 0
2.523347 1.401860 24.433284 203 203 203 0
2.616238 1.401556 24.427996 204 204 204 0
2.718042 1.405884 24.503419 203 203 203 0
2.933022 1.466511 25.560104 204 204 204 0
2.921438 1.413599 24.637893 203 203 203 0
3.014207 1.412910 24.625874 202 202 202 0
3.109282 1.413310 24.632852 201 201 201 0
3.214358 1.418099 24.716326 201 201 201 0
3.325906 1.425388 24.843367 201 201 201 0
3.433324 1.430552 24.933366 201 201 201 0
3.539264 1.434837 25.008047 202 202 202 0
3.637806 1.435976 25.027907 203 203 203 0
3.753326 1.443587 25.160554 202 202 202 0
3.869745 1.451154 25.292451 200 200 200 0
3.974660 1.454144 25.344556 198 198 198 0
4.091546 1.461266 25.468695 198 198 198 0
4.228661 1.475114 25.710054 199 199 199 0
4.341644 1.480106 25.797051 198 198 198 0
4.454992 1.484997 25.882305 198 198 198 0
4.602147 1.500700 26.155991 195 195 195 0
4.721425 1.506838 26.262968 194 194 194 0
4.845615 1.514255 26.392239 194 194 194 0
5.012380 1.534402 26.743390 193 193 193 0
5.157336 1.547201 26.966463 189 189 189 0
5.356372 1.575403 27.458012 188 188 188 0
5.545272 1.599598 27.879698 185 185 185 0
5.635061 1.594828 27.796574 187 187 187 0
6.453285 1.792579 31.243208 205 205 205 0
6.606418 1.801750 31.403054 209 209 209 0
6.731755 1.803149 31.427426 207 207 207 0
6.885984 1.812101 31.583460 207 207 207 0
7.029464 1.817965 31.685661 207 207 207 0
7.169139 1.822663 31.767539 207 207 207 0
7.320430 1.830107 31.897298 205 205 205 0
7.493489 1.842661 32.116099 204 204 204 0
7.643031 1.849120 32.228676 204 204 204 0
7.845155 1.867894 32.555889 203 203 203 0
7.993461 1.873467 32.653027 201 201 201 0
8.141150 1.878727 32.744697 201 201 201 0
8.331203 1.893455 33.001398 200 200 200 0
8.520212 1.907510 33.246363 197 197 197 0
8.721448 1.923849 33.531132 196 196 196 0
8.935617 1.942526 33.856654 193 193 193 0
9.165479 1.964031 34.231480 190 190 190 0
9.456045 1.997756 34.819277 185 185 185 0
9.616104 2.003355 34.916864 144 144 144 0
-5.434455 1.811485 29.599430 97 97 97 0
-5.195844 1.768798 28.901930 122 122 122 0
-5.003231 1.740254 28.435525 135 135 135 0
-4.831685 1.717933 28.070793 147 147 147 0
-4.657797 1.693744 27.675563 154 154 154 0
-4.517045 1.680761 27.463416 157 157 157 0
-4.418050 1.683067 27.501090 166 166 166 0
-4.363981 1.703017 27.827074 168 168 168 0
-4.193330 1.677332 27.407389 169 169 169 0
-4.050740 1.661842 27.154281 175 175 175 0
-3.898203 1.641349 26.819424 178 178 178 0
-3.775351 1.632584 26.676211 178 178 178 0
-3.661885 1.627504 26.593210 179 179 179 0
-3.546136 1.621091 26.488412 184 184 184 0
-3.433271 1.615657 26.399625 186 186 186 0
-3.321048 1.610205 26.310541 187 187 187 0
-3.203736 1.601868 26.174315 187 187 187 0
-3.076676 1.587962 25.947092 185 185 185 0
-2.969236 1.583592 25.875694 175 175 175 0
-2.854306 1.574789 25.731850 165 165 165 0
-2.744894 1.568511 25.629264 163 163 163 0
-2.635590 1.561831 25.520114 163 163 163 0
-2.529090 1.556363 25.430771 167 167 167 0
-2.425238 1.552153 25.361969 172 172 172 0
-2.317307 1.544871 25.242996 173 173 173 0
-2.208464 1.536323 25.103312 175 175 175 0
-2.106275 1.531836 25.030006 176 176 176 0
-2.003967 1.526832 24.948233 176 176 176 0
-1.907455 1.525964 24.934048 177 177 177 0
-1.812051 1.525938 24.933621 183 183 183 0
-1.713104 1.522759 24.881682 184 184 184 0
-1.607902 1.513320 24.727444 185 185 185 0
-1.503044 1.503044 24.559544 186 186 186 0
-1.403589 1.497162 24.463426 187 187 187 0
-1.311294 1.498622 24.487287 187 187 187 0
-1.223420 1.505747 24.603712 187 187 187 0
-1.126954 1.502605 24.552371 187 187 187 0
-1.027345 1.494320 24.417001 188 188 188 0
-0.927973 1.484757 24.260735 191 191 191 0
-0.832234 1.479527 24.175278 192 192 192 0
-0.737953 1.475906 24.116106 194 194 194 0
-0.648574 1.482454 24.223105 195 195 195 0
-0.556028 1.482743 24.227819 195 195 195 0
-0.462837 1.481078 24.200624 195 195 195 0
-0.368573 1.474293 24.089757 196 196 196 0
-0.276027 1.472143 24.054629 196 196 196 0
-0.184043 1.472346 24.057946 197 197 197 0
-0.092319 1.477102 24.135647 197 197 197 0
0.000000 1.479088 24.168099 197 197 197 0
0.092117 1.473866 24.082773 197 197 197 0
0.183774 1.470189 24.022695 198 198 198 0
0.275013 1.466738 23.966299 198 198 198 0
0.368943 1.475771 24.113898 198 198 198 0
0.462314 1.479404 24.173275 198 198 198 0
0.554094 1.477583 24.143519 199 199 199 0
0.643872 1.471708 24.047515 199 199 199 0
0.733148 1.466296 23.959078 199 199 199 0
0.825098 1.466840 23.967979 199 199 199 0
0.923483 1.477572 24.143339 200 200 200 0
1.015402 1.476949 24.133154 200 200 200 0
1.105133 1.473511 24.076978 200 200 200 0
1.192670 1.467901 23.985309 200 200 200 0
1.284736 1.468269 23.991331 201 201 201 0
1.383280 1.475499 24.109456 201 201 201 0
1.478791 1.478791 24.163252 201 201 201 0
1.568836 1.476552 24.126664 202 202 202 0
1.659483 1.475096 24.102874 202 202 202 0
1.756450 1.479116 24.168562 202 202 202 0
1.851433 1.481147 24.201741 203 203 203 0
1.948892 1.484870 24.262580 203 203 203 0
2.042669 1.485578 24.274144 203 203 203 0
2.137166 1.486724 24.292873 203 203 203 0
2.232722 1.488481 24.321588 203 203 203 0
2.337173 1.495791 24.441029 203 203 203 0
2.435993 1.499073 24.494654 203 203 203 0
2.533149 1.501126 24.528195 203 203 203 0
2.626938 1.501107 24.527897 203 203 203 0
2.729634 1.506005 24.607927 202 202 202 0
2.841192 1.515302 24.759842 201 201 201 0
2.933546 1.514088 24.740007 201 201 201 0
3.028129 1.514064 24.739615 201 201 201 0
3.124565 1.514941 24.753935 201 201 201 0
3.235347 1.522516 24.877717 201 201 201 0
3.345893 1.529551 24.992666 201 201 201 0
3.449954 1.533313 25.054129 201 201 201 0
3.558227 1.538693 25.142037 201 201 201 0
3.662325 1.542031 25.196591 200 200 200 0
3.785026 1.552831 25.373056 199 199 199 0
3.891378 1.556551 25.433840 198 198 198 0
4.003110 1.562189 25.525969 198 198 198 0
4.131462 1.573890 25.717159 198 198 198 0
4.255043 1.583272 25.870454 199 199 199 0
4.364812 1.587205 25.934714 196 196 196 0
4.502915 1.601036 26.160726 195 195 195 0
4.632665 1.611362 26.329441 194 194 194 0
4.758520 1.619922 26.469311 194 194 194 0
4.912938 1.637646 26.758919 191 191 191 0
5.069704 1.655414 27.049243 190 190 190 0
5.196191 1.662781 27.169627 187 187 187 0
5.449956 1.709790 27.937745 184 184 184 0
5.611922 1.726745 28.214790 182 182 182 0
6.317179 1.907073 31.161322 198 198 198 0
6.457253 1.913260 31.262420 210 210 210 0
6.585770 1.915860 31.304908 209 209 209 0
6.710908 1.917402 31.330102 209 209 209 0
6.872497 1.929122 31.521599 208 208 208 0
7.029131 1.939071 31.684162 207 207 207 0
7.164920 1.943029 31.748844 206 206 206 0
7.316092 1.950958 31.878396 205 205 205 0
7.492286 1.965190 32.110943 204 204 204 0
7.645613 1.973061 32.239565 204 204 204 0
7.954234 2.020123 33.008545 204 204 204 0
7.987032 1.996758 32.626766 202 202 202 0
8.137734 2.003135 32.730956 200 200 200 0
8.321888 2.017427 32.964501 199 199 199 0
8.513321 2.033032 33.219474 197 197 197 0
8.694673 2.045805 33.428193 196 196 196 0
8.918646 2.068092 33.792351 193 193 193 0
9.161156 2.093978 34.215334 190 190 190 0
9.447652 2.129048 34.788372 185 185 185 0
9.608301 2.135178 34.888529 148 148 148 0
-5.463768 1.935084 29.759083 90 90 90 0
-5.214511 1.886100 29.005761 116 116 116 0
-5.036091 1.861164 28.622286 134 134 134 0
-4.843470 1.829755 28.139257 143 143 143 0
-4.674063 1.805888 27.772208 154 154 154 0
-4.533218 1.792203 27.561747 155 155 155 0
-4.427530 1.792096 27.560101 164 164 164 0
-4.345794 1.801915 27.711108 167 167 167 0
-4.205162 1.787194 27.484716 168 168 168 0
-4.050705 1.765692 27.154047 172 172 172 0
-3.900576 1.744995 26.835749 178 178 178 0
-3.773167 1.733617 26.660781 178 178 178 0
-3.666434 1.731372 26.626246 179 179 179 0
-3.558046 1.728194 26.577377 181 181 181 0
-3.440864 1.720432 26.458009 187 187 187 0
-3.327540 1.714187 26.361972 187 187 187 0
-3.207817 1.704153 26.207659 187 187 187 0
-3.084307 1.691394 26.011444 188 188 188 0
-2.975146 1.685916 25.927196 189 189 189 0
-2.869426 1.682077 25.868159 188 188 188 0
-2.760031 1.675733 25.770602 178 178 178 0
-2.651547 1.669492 25.674624 169 169 169 0
-2.546177 1.664808 25.602586 163 163 163 0
-2.436255 1.656654 25.477180 165 165 165 0
-2.325856 1.647481 25.336123 171 171 171 0
-2.220194 1.641013 25.236641 176 176 176 0
-2.115887 1.635004 25.144231 175 175 175 0
-2.017141 1.632924 25.112246 176 176 176 0
-1.921124 1.632956 25.112738 175 175 175 0
-1.824352 1.632315 25.102886 178 178 178 0
-1.721082 1.625467 24.997565 180 180 180 0
-1.615217 1.615217 24.839933 184 184 184 0
-1.511612 1.606088 24.699550 187 187 187 0
-1.412443 1.600769 24.617741 186 186 186 0
-1.345735 1.634107 25.130435 186 186 186 0
-1.231822 1.610844 24.772689 187 187 187 0
-1.132176 1.603916 24.666147 187 187 187 0
-1.031510 1.594152 24.515983 188 188 188 0
-0.931933 1.584286 24.364257 189 189 189 0
-0.836066 1.579236 24.286596 189 189 189 0
-0.742818 1.578487 24.275084 189 189 189 0
-0.652690 1.585105 24.376849 191 191 191 0
-0.558709 1.583009 24.344622 193 193 193 0
-0.463929 1.577357 24.257708 195 195 195 0
-0.370036 1.572654 24.185376 195 195 195 0
-0.277299 1.571364 24.165531 196 196 196 0
-0.185230 1.574451 24.213010 196 196 196 0
-0.092813 1.577820 24.264825 196 196 196 0
0.000000 1.578437 24.274313 197 197 197 0
0.092439 1.571470 24.167166 197 197 197 0
0.184388 1.567296 24.102983 198 198 198 0
0.277168 1.570617 24.154055 197 197 197 0
0.371303 1.578037 24.268153 197 197 197 0
0.465193 1.581657 24.323827 198 198 198 0
0.556479 1.576690 24.247437 199 199 199 0
0.646074 1.569036 24.129739 199 199 199 0
0.737600 1.567400 24.104579 199 199 199 0
0.829994 1.567767 24.110220 199 199 199 0
0.929873 1.580785 24.310413 199 199 199 0
1.019050 1.574895 24.219837 201 201 201 0
1.107401 1.568818 24.126385 200 200 200 0
1.197898 1.566482 24.090454 200 200 200 0
1.291549 1.568309 24.118553 200 200 200 0
1.392565 1.578241 24.271292 201 201 201 0
1.483869 1.576611 24.246234 201 201 201 0
1.572953 1.572953 24.189979 202 202 202 0
1.667717 1.575066 24.222470 202 202 202 0
1.763138 1.577545 24.260590 202 202 202 0
1.862901 1.583466 24.351648 203 203 203 0
1.958430 1.585395 24.381320 203 203 203 0
2.051668 1.585380 24.381077 203 203 203 0
2.147271 1.587113 24.407740 202 202 202 0
2.247672 1.592101 24.484440 202 202 202 0
2.350646 1.598439 24.581918 202 202 202 0
2.448617 1.601019 24.621590 202 202 202 0
2.542210 1.600651 24.615925 201 201 201 0
2.638795 1.602126 24.638610 200 200 200 0
2.748679 1.611295 24.779617 200 200 200 0
2.850092 1.615052 24.837403 200 200 200 0
2.950069 1.617780 24.879348 200 200 200 0
3.041802 1.615957 24.851323 200 200 200 0
3.144555 1.619922 24.912296 201 201 201 0
3.256954 1.628477 25.043860 201 201 201 0
3.363169 1.633539 25.121710 201 201 201 0
3.469532 1.638390 25.196311 200 200 200 0
3.575058 1.642594 25.260964 199 199 199 0
3.689077 1.650377 25.380648 198 198 198 0
3.809772 1.660670 25.538946 198 198 198 0
3.915767 1.664201 25.593250 198 198 198 0
4.034014 1.672640 25.723029 198 198 198 0
4.169117 1.687500 25.951551 197 197 197 0
4.284103 1.693715 26.047137 196 196 196 0
4.396660 1.698710 26.123945 193 193 193 0
4.550058 1.718911 26.434612 194 194 194 0
4.674467 1.727520 26.567018 193 193 193 0
4.802933 1.737231 26.716357 191 191 191 0
4.976677 1.762573 27.106084 188 188 188 0
5.116087 1.774969 27.296714 187 187 187 0
5.308266 1.804810 27.755638 183 183 183 0
5.620526 1.873509 28.812129 183 183 183 0
6.137273 2.006416 30.856075 189 189 189 0
6.303153 2.021766 31.092135 206 206 206 0
6.447745 2.029846 31.216390 209 209 209 0
6.563905 2.028843 31.200975 208 208 208 0
6.714177 2.038232 31.345365 208 208 208 0
6.871522 2.049401 31.517130 206 206 206 0
7.023326 2.058561 31.657996 207 207 207 0
7.162146 2.063669 31.736550 206 206 206 0
7.314174 2.072349 31.870038 205 205 205 0
7.487434 2.086662 32.090150 204 204 204 0
7.643712 2.095857 32.231551 204 204 204 0
8.084168 2.181442 33.547746 203 203 203 0
7.989202 2.122132 32.635628 202 202 202 0
8.133264 2.127161 32.712976 200 200 200 0
8.315959 2.141989 32.941013 200 200 200 0
8.504991 2.157983 33.186972 197 197 197 0
8.680911 2.170228 33.375284 196 196 196 0
8.911969 2.195703 33.767053 193 193 193 0
9.150454 2.222253 34.175365 190 190 190 0
9.445479 2.261594 34.780369 185 185 185 0
9.622368 2.271948 34.939608 150 150 150 0
-5.418623 2.031984 29.513198 78 78 78 0
-5.229687 2.002859 29.090180 107 107 107 0
-5.067014 1.982745 28.798032 131 131 131 0
-4.855016 1.942007 28.206341 137 137 137 0
-4.702100 1.923586 27.938798 151 151 151 0
-4.573201 1.914363 27.804842 155 155 155 0
-4.441727 1.903597 27.648469 159 159 159 0
-4.351835 1.910562 27.749628 167 167 167 0
-4.208953 1.894029 27.509494 168 168 168 0
-4.058143 1.872989 27.203908 170 170 170 0
-3.907012 1.850690 26.880028 176 176 176 0
-3.773450 1.835733 26.662783 179 179 179 0
-3.666507 1.833253 26.626774 179 179 179 0
-3.561558 1.831658 26.603608 179 179 179 0
-3.447801 1.825307 26.511352 186 186 186 0
-3.333425 1.818232 26.408595 187 187 187 0
-3.211325 1.806370 26.236316 187 187 187 0
-3.092783 1.795809 26.082926 188 188 188 0
-2.985799 1.791480 26.020037 188 188 188 0
-2.884613 1.790449 26.005072 192 192 192 0
-2.776117 1.784646 25.920791 193 193 193 0
-2.668786 1.779191 25.841548 190 190 190 0
-2.562734 1.774201 25.769073 180 180 180 0
-2.452029 1.765461 25.642134 169 169 169 0
-2.343790 1.757843 25.531482 167 167 167 0
-2.236447 1.750263 25.421392 171 171 171 0
-2.130737 1.743330 25.320696 175 175 175 0
-2.031312 1.741125 25.288670 176 176 176 0
-1.936440 1.742796 25.312937 176 176 176 0
-1.836837 1.740162 25.274678 176 176 176 0
-1.728794 1.728794 25.109570 178 178 178 0
-1.623796 1.719313 24.971868 180 180 180 0
-1.519322 1.709238 24.825527 181 181 181 0
-1.423329 1.707995 24.807480 184 184 184 0
-1.336229 1.718008 24.952914 186 186 186 0
-1.237427 1.713360 24.885409 187 187 187 0
-1.136033 1.704049 24.750166 186 186 186 0
-1.035406 1.694300 24.608574 189 189 189 0
-0.936031 1.684856 24.471402 188 188 188 0
-0.840887 1.681774 24.426639 189 189 189 0
-0.747990 1.682978 24.444130 190 190 190 0
-0.656631 1.688479 24.524019 189 189 189 0
-0.561246 1.683737 24.455152 190 190 190 0
-0.466004 1.677614 24.366218 191 191 191 0
-0.371663 1.672483 24.291688 192 192 192 0
-0.278812 1.672869 24.297305 193 193 193 0
-0.186552 1.678969 24.385902 194 194 194 0
-0.093385 1.680922 24.414261 195 195 195 0
0.000000 1.677249 24.360909 197 197 197 0
0.092912 1.672410 24.290638 197 197 197 0
0.185263 1.667368 24.217399 197 197 197 0
0.279251 1.675506 24.335605 198 198 198 0
0.373747 1.681860 24.427890 197 197 197 0
0.467181 1.681850 24.427742 198 198 198 0
0.558245 1.674734 24.324383 198 198 198 0
0.648391 1.667292 24.216291 199 199 199 0
0.740008 1.665019 24.183280 199 199 199 0
0.756115 1.512229 21.964112 199 199 199 0
0.932839 1.679111 24.387957 200 200 200 0
1.023058 1.674095 24.315110 200 200 200 0
1.110868 1.666303 24.201927 200 200 200 0
1.203902 1.666941 24.211204 200 200 200 0
1.300633 1.672243 24.288206 200 200 200 0
1.397632 1.677158 24.359592 201 201 201 0
1.489422 1.675600 24.336961 201 201 201 0
1.580385 1.673348 24.304261 201 201 201 0
