ply
    format ascii 1.0
    element vertex 17569
    property float x
    property float y
    property float z
    property uchar red
    property uchar green
    property uchar blue
    property uchar alpha
    end_header
6.123792 4.164179 32.019829 214 214 214 0
6.247169 4.164779 32.024446 213 213 213 0
6.354264 4.154711 31.947030 212 212 212 0
6.447314 4.136013 31.803251 214 214 214 0
6.569324 4.136241 31.805004 211 211 211 0
6.698412 4.140836 31.840340 212 212 212 0
6.816542 4.138615 31.823259 211 211 211 0
6.939257 4.139206 31.827806 212 212 212 0
7.057778 4.137318 31.813288 211 211 211 0
7.166267 4.129713 31.754813 211 211 211 0
7.280378 4.125548 31.722781 212 212 212 0
7.402341 4.125895 31.725451 212 212 212 0
7.524626 4.126408 31.729397 212 212 212 0
7.623050 4.114027 31.634195 211 211 211 0
7.719138 4.100792 31.532427 211 211 211 0
7.819459 4.090178 31.450814 211 211 211 0
7.952429 4.096706 31.501006 211 211 211 0
8.056283 4.088263 31.436085 210 210 210 0
8.151065 4.075533 31.338199 210 210 210 0
8.238979 4.059787 31.217122 211 211 211 0
8.333835 4.047863 31.125433 210 210 210 0
8.470664 4.056374 31.190883 211 211 211 0
8.579606 4.051481 31.153253 211 211 211 0
8.671880 4.038958 31.056962 212 212 212 0
8.774210 4.031394 30.998799 212 212 212 0
7.437112 3.371491 25.924573 211 211 211 0
7.544112 3.374998 25.951538 211 211 211 0
7.646714 3.376471 25.962869 211 211 211 0
7.751231 3.378742 25.980329 210 210 210 0
7.846285 3.376882 25.966029 211 211 211 0
-10.713590 4.687196 35.011733 161 161 161 0
-6.364579 2.819750 21.062559 163 163 163 0
-6.216141 2.789294 20.835064 164 164 164 0
-6.101667 2.773485 20.716973 170 170 170 0
-5.965814 2.747414 20.522235 175 175 175 0
-5.842945 2.726708 20.367565 175 175 175 0
-5.737971 2.713905 20.271934 176 176 176 0
-5.625308 2.697066 20.146149 179 179 179 0
-5.568682 2.706998 20.220342 184 184 184 0
-5.546727 2.734302 20.424290 185 185 185 0
-5.462728 2.731364 20.402345 185 185 185 0
-5.366165 2.721968 20.332160 185 185 185 0
-5.270296 2.712652 20.262575 186 186 186 0
-5.181408 2.706706 20.218158 192 192 192 0
-5.091870 2.700234 20.169814 193 193 193 0
-5.020163 2.703165 20.191706 192 192 192 0
-4.964166 2.714778 20.278457 193 193 193 0
-4.892474 2.718041 20.302829 193 193 193 0
-4.797709 2.708384 20.230693 193 193 193 0
-4.695797 2.694310 20.125562 196 196 196 0
-4.621201 2.695701 20.135953 198 198 198 0
-4.556989 2.703298 20.192705 199 199 199 0
-4.508144 2.720431 20.320683 199 199 199 0
-4.440429 2.726579 20.366603 199 199 199 0
-4.334974 2.709359 20.237974 199 199 199 0
-4.219394 2.685069 20.056537 200 200 200 0
-4.116510 2.668108 19.929846 201 201 201 0
-4.028201 2.660133 19.870274 203 203 203 0
-3.167567 2.132016 15.925425 203 203 203 0
-3.944238 2.706830 20.219087 203 203 203 0
-3.856729 2.699710 20.165902 203 203 203 0
-3.743635 2.674025 19.974041 204 204 204 0
-3.638585 2.653135 19.818002 204 204 204 0
-3.548248 2.642312 19.737161 205 205 205 0
-3.472197 2.641889 19.733998 205 205 205 0
-3.430550 2.668205 19.930571 207 207 207 0
-3.366382 2.677804 20.002272 208 208 208 0
-3.275128 2.665802 19.912617 208 208 208 0
-3.181825 2.651521 19.805945 207 207 207 0
-3.102288 2.648295 19.781848 208 208 208 0
-3.031731 2.652765 19.815235 207 207 207 0
-2.966145 2.661925 19.883659 208 208 208 0
-2.899360 2.670463 19.947438 208 208 208 0
-2.821744 2.669217 19.938131 208 208 208 0
-2.741698 2.665539 19.910657 209 209 209 0
-2.660023 2.660023 19.869457 210 210 210 0
-2.590563 2.666756 19.919748 210 210 210 0
-2.529902 2.683230 20.042799 211 211 211 0
-2.459371 2.689938 20.092904 211 211 211 0
-2.385718 2.693553 20.119910 211 211 211 0
-2.304556 2.688648 20.083274 211 211 211 0
-2.219416 2.678606 20.008259 211 211 211 0
-2.140853 2.676067 19.989295 211 211 211 0
-2.064567 2.676290 19.990963 212 212 212 0
-1.788599 2.407730 17.984910 212 212 212 0
-1.926252 2.696753 20.143812 212 212 212 0
-1.844831 2.690379 20.096199 212 212 212 0
-1.758373 2.675785 19.987187 212 212 212 0
-1.680862 2.674099 19.974599 213 213 213 0
-1.607386 2.678977 20.011032 213 213 213 0
-1.532513 2.681897 20.032848 213 213 213 0
-1.459409 2.688385 20.081307 214 214 214 0
-1.383376 2.689897 20.092605 213 213 213 0
-1.304585 2.685910 20.062822 213 213 213 0
-1.230931 2.692661 20.113251 214 214 214 0
-1.157037 2.699753 20.166225 214 214 214 0
-1.081584 2.703960 20.197647 214 214 214 0
-1.003583 2.701954 20.182663 214 214 214 0
-0.928205 2.707264 20.222328 214 214 214 0
-0.851879 2.710524 20.246676 214 214 214 0
-0.776011 2.716037 20.287858 215 215 215 0
-0.699268 2.719375 20.312794 214 214 214 0
-0.623015 2.725689 20.359955 214 214 214 0
-0.546949 2.734743 20.427582 214 214 214 0
-0.470674 2.745601 20.508689 215 215 215 0
-0.391681 2.741768 20.480058 216 216 216 0
-0.312974 2.738521 20.455803 216 216 216 0
-0.235016 2.741855 20.480708 216 216 216 0
-0.157471 2.755734 20.584379 215 215 215 0
-0.078715 2.755033 20.579146 215 215 215 0
0.000000 2.756963 20.593563 215 215 215 0
0.078724 2.755339 20.581430 215 215 215 0
0.157333 2.753326 20.566393 215 215 215 0
0.236444 2.758516 20.605159 216 216 216 0
0.316739 2.771466 20.701896 216 216 216 0
0.397445 2.782116 20.781446 216 216 216 0
0.477644 2.786254 20.812356 215 215 215 0
0.557021 2.785104 20.803762 215 215 215 0
0.637952 2.791042 20.848118 216 216 216 0
0.719867 2.799482 20.911163 215 215 215 0
0.803222 2.811278 20.999279 215 215 215 0
0.884969 2.815811 21.033133 214 214 214 0
0.967134 2.820806 21.070448 215 215 215 0
1.048999 2.824229 21.096012 215 215 215 0
1.139432 2.848580 21.277909 215 215 215 0
1.225384 2.859229 21.357452 215 215 215 0
1.305692 2.856201 21.334831 215 215 215 0
1.387558 2.856738 21.338844 216 216 216 0
1.473906 2.865929 21.407501 215 215 215 0
1.568397 2.889153 21.580976 215 215 215 0
1.651052 2.889340 21.582375 215 215 215 0
1.734159 2.890265 21.589280 215 215 215 0
1.820085 2.895590 21.629058 214 214 214 0
1.911124 2.908232 21.723487 214 214 214 0
2.007344 2.927377 21.866495 213 213 213 0
2.095510 2.933714 21.913832 214 214 214 0
2.185086 2.941462 21.971704 214 214 214 0
2.281186 2.957093 22.088464 214 214 214 0
2.377623 2.972028 22.200023 214 214 214 0
2.474977 2.987041 22.312168 214 214 214 0
2.564484 2.991898 22.348447 213 213 213 0
2.668006 3.012265 22.500579 213 213 213 0
2.774664 3.034789 22.668823 213 213 213 0
2.874963 3.049203 22.776495 212 212 212 0
2.972839 3.060276 22.859204 213 213 213 0
3.076735 3.076735 22.982148 213 213 213 0
3.190313 3.101693 23.168575 212 212 212 0
3.288287 3.110542 23.234672 211 211 211 0
3.388580 3.121061 23.313247 211 211 211 0
3.503330 3.144014 23.484696 211 211 211 0
3.619646 3.167190 23.657817 210 210 210 0
3.722335 3.177603 23.735597 210 210 210 0
3.833584 3.194653 23.862954 210 210 210 0
3.985045 3.243642 24.228882 210 210 210 0
4.139462 3.292754 24.595733 208 208 208 0
4.297824 3.342752 24.969203 209 209 209 0
4.478183 3.407313 25.451454 208 208 208 0
5.792130 4.313288 32.218774 206 206 206 0
4.761248 3.471743 25.932723 213 213 213 0
5.993314 4.280939 31.977133 215 215 215 0
6.109437 4.276606 31.944770 214 214 214 0
6.237502 4.280639 31.974892 213 213 213 0
6.335901 4.264549 31.854708 213 213 213 0
6.438254 4.251677 31.758559 213 213 213 0
6.561003 4.252502 31.764718 213 213 213 0
6.684777 4.253949 31.775527 211 211 211 0
6.803959 4.252474 31.764512 211 211 211 0
6.927379 4.253654 31.773325 212 212 212 0
7.046816 4.252389 31.763875 213 213 213 0
7.158510 4.246574 31.720437 213 213 213 0
7.270360 4.241043 31.679128 212 212 212 0
7.388988 4.239583 31.668223 212 212 212 0
7.513325 4.241393 31.681741 212 212 212 0
7.610828 4.228238 31.583476 212 212 212 0
7.709245 4.215993 31.492013 211 211 211 0
7.808642 4.204653 31.407309 211 211 211 0
7.939834 4.210518 31.451113 211 211 211 0
8.042367 4.201236 31.381785 211 211 211 0
8.138931 4.189156 31.291547 212 212 212 0
8.228418 4.173835 31.177105 211 211 211 0
8.321986 4.160993 31.081179 210 210 210 0
8.442251 4.161673 31.086261 211 211 211 0
8.558296 4.160283 31.075876 212 212 212 0
8.661799 4.152917 31.020857 211 211 211 0
8.756924 4.141788 30.937727 211 211 211 0
7.421366 3.463304 25.869685 210 210 210 0
7.529223 3.467405 25.900319 211 211 211 0
7.621245 3.464202 25.876395 210 210 210 0
7.723071 3.465481 25.885943 210 210 210 0
7.827120 3.467711 25.902605 211 211 211 0
-10.713603 4.821121 35.011773 160 160 160 0
-6.375800 2.905428 21.099693 163 163 163 0
-6.210899 2.866569 20.817493 164 164 164 0
-6.092741 2.848554 20.686668 171 171 171 0
-5.963939 2.825024 20.515785 175 175 175 0
-5.841742 2.804036 20.363370 176 176 176 0
-5.733161 2.789106 20.254943 176 176 176 0
-5.628159 2.775530 20.156357 180 180 180 0
-5.564003 2.782001 20.203350 185 185 185 0
-5.543655 2.810868 20.412981 184 184 184 0
-5.479156 2.817852 20.463702 185 185 185 0
-5.363429 2.798311 20.321792 185 185 185 0
-5.265933 2.787847 20.245802 187 187 187 0
-5.171605 2.778773 20.179903 192 192 192 0
-5.080024 2.770922 20.122893 192 192 192 0
-5.011978 2.775865 20.158785 193 193 193 0
-4.963998 2.792249 20.277771 193 193 193 0
-4.886650 2.792371 20.278660 193 193 193 0
-4.788641 2.780501 20.192454 194 194 194 0
-4.689680 2.767680 20.099348 197 197 197 0
-4.615677 2.769406 20.111884 198 198 198 0
-4.545001 2.773221 20.139587 199 199 199 0
-4.503470 2.795257 20.299615 198 198 198 0
-4.443716 2.806557 20.381679 199 199 199 0
-4.332577 2.785228 20.226783 199 199 199 0
-4.218764 2.761373 20.053545 200 200 200 0
-4.100067 2.733378 19.850238 203 203 203 0
-4.007759 2.722251 19.769435 203 203 203 0
-3.663681 2.536394 18.419712 203 203 203 0
-3.942914 2.783234 20.212300 203 203 203 0
-3.849813 2.771865 20.129740 204 204 204 0
-3.744500 2.751061 19.978657 204 204 204 0
-3.639914 2.729936 19.825242 204 204 204 0
-3.544187 2.714697 19.714573 204 204 204 0
-3.470117 2.715743 19.722174 205 205 205 0
-3.423796 2.739037 19.891337 207 207 207 0
-3.365008 2.753188 19.994104 207 207 207 0
-3.274321 2.741292 19.907712 207 207 207 0
-3.179724 2.725477 19.792865 208 208 208 0
-3.100532 2.722419 19.770650 208 208 208 0
-3.028646 2.725782 19.795073 207 207 207 0
-2.963759 2.735778 19.867666 208 208 208 0
-2.894830 2.742470 19.916270 208 208 208 0
-2.820770 2.744533 19.931246 209 209 209 0
-2.743139 2.743139 19.921126 210 210 210 0
-2.660617 2.736634 19.873887 211 211 211 0
-2.591781 2.744239 19.929114 211 211 211 0
-2.528117 2.757946 20.028659 211 211 211 0
-2.460330 2.767872 20.100738 211 211 211 0
-2.386170 2.771036 20.123716 211 211 211 0
-2.303411 2.764094 20.073302 211 211 211 0
-2.217621 2.752909 19.992076 211 211 211 0
-2.138788 2.749871 19.970012 211 211 211 0
-2.065790 2.754387 20.002810 211 211 211 0
-1.971393 2.729621 19.822955 212 212 212 0
-1.928310 2.776766 20.165330 212 212 212 0
-1.842275 2.763413 20.068356 212 212 212 0
-1.757754 2.751268 19.980159 212 212 212 0
-1.680586 2.750050 19.971315 213 213 213 0
-1.605695 2.752621 19.989982 213 213 213 0
-1.531275 2.756296 20.016671 213 213 213 0
-1.457654 2.761870 20.057153 213 213 213 0
-1.382209 2.764417 20.075653 214 214 214 0
-1.303827 2.761046 20.051168 214 214 214 0
-1.230529 2.768691 20.106691 214 214 214 0
-1.156936 2.776646 20.164456 214 214 214 0
-1.081188 2.780198 20.190252 214 214 214 0
-1.003256 2.778248 20.176094 214 214 214 0
-0.927365 2.782096 20.204038 215 215 215 0
-0.851620 2.787122 20.240535 214 214 214 0
-0.775012 2.790043 20.261748 214 214 214 0
-0.698354 2.793417 20.286254 214 214 214 0
-0.622696 2.802134 20.349554 215 215 215 0
-0.546644 2.811314 20.416223 215 215 215 0
-0.470371 2.822226 20.495472 215 215 215 0
-0.391613 2.819610 20.476471 215 215 215 0
-0.312829 2.815460 20.446329 215 215 215 0
-0.234841 2.818093 20.465455 214 214 214 0
-0.157406 2.833313 20.575984 215 215 215 0
-0.078707 2.833467 20.577102 215 215 215 0
0.000000 2.834337 20.583419 216 216 216 0
0.078675 2.832299 20.568618 215 215 215 0
0.157206 2.829712 20.549835 215 215 215 0
0.236146 2.833746 20.579129 216 216 216 0
0.316487 2.848386 20.685445 216 216 216 0
0.397106 2.859165 20.763723 216 216 216 0
0.477144 2.862863 20.790578 215 215 215 0
0.556632 2.862681 20.789257 215 215 215 0
0.637604 2.869217 20.836724 216 216 216 0
0.719729 2.878916 20.907164 216 216 216 0
0.802444 2.888800 20.978940 215 215 215 0
0.884549 2.894888 21.023154 215 215 215 0
0.965678 2.897034 21.038738 215 215 215 0
1.048481 2.903485 21.085582 216 216 216 0
1.139494 2.930127 21.279066 216 216 216 0
1.225298 2.940715 21.355957 216 216 216 0
1.304623 2.935401 21.317365 215 215 215 0
1.387071 2.937327 21.331349 215 215 215 0
1.473332 2.946664 21.399159 214 214 214 0
1.567383 2.969778 21.567014 215 215 215 0
1.649977 2.969959 21.568330 214 214 214 0
1.732779 2.970479 21.572106 215 215 215 0
1.817635 2.974312 21.599941 215 215 215 0
1.909365 2.988571 21.703494 215 215 215 0
2.005025 3.007538 21.841234 214 214 214 0
2.094725 3.016404 21.905624 214 214 214 0
2.184635 3.024880 21.967172 214 214 214 0
2.276025 3.034700 22.038487 215 215 215 0
2.374667 3.053143 22.172427 214 214 214 0
2.469301 3.065340 22.261000 214 214 214 0
2.563150 3.075780 22.336822 214 214 214 0
2.665594 3.095529 22.480240 214 214 214 0
2.773068 3.119702 22.655786 213 213 213 0
2.874179 3.135468 22.770281 213 213 213 0
2.970270 3.144992 22.839448 213 213 213 0
3.072941 3.160739 22.953806 212 212 212 0
3.187480 3.187480 23.148006 211 211 211 0
3.285814 3.197008 23.217199 211 211 211 0
3.387467 3.209180 23.305589 211 211 211 0
3.499803 3.230588 23.461059 212 212 212 0
3.619663 3.257697 23.657928 210 210 210 0
3.726139 3.271732 23.759853 210 210 210 0
3.833117 3.285529 23.860053 210 210 210 0
3.980890 3.332838 24.203616 210 210 210 0
4.134535 3.382801 24.566458 208 208 208 0
4.292949 3.434360 24.940883 208 208 208 0
4.472733 3.500400 25.420479 209 209 209 0
5.785545 4.431482 32.182147 208 208 208 0
4.758457 3.568843 25.917522 216 216 216 0
5.981891 4.394859 31.916184 214 214 214 0
6.097576 4.390255 31.882750 213 213 213 0
6.214680 4.386833 31.857900 214 214 214 0
6.328538 4.381295 31.817687 213 213 213 0
6.432658 4.369353 31.730956 212 212 212 0
6.548779 4.365853 31.705540 212 212 212 0
6.666736 4.363681 31.689771 212 212 212 0
6.789323 4.364565 31.696188 213 213 213 0
6.914711 4.367186 31.715220 212 212 212 0
7.032187 4.364805 31.697934 212 212 212 0
7.140903 4.357161 31.642418 212 212 212 0
7.249163 4.349498 31.586768 211 211 211 0
7.373531 4.351592 31.601974 211 211 211 0
7.494940 4.351901 31.604218 212 212 212 0
7.600386 4.343078 31.540142 211 211 211 0
7.701307 4.331985 31.459586 212 212 212 0
7.798403 4.319115 31.366124 212 212 212 0
8.600996 4.691452 34.070098 212 212 212 0
8.032533 4.315988 31.343413 211 211 211 0
8.123347 4.300596 31.231631 212 212 212 0
8.215637 4.286419 31.128682 212 212 212 0
8.308384 4.272883 31.030381 210 210 210 0
8.419188 4.268884 31.001336 211 211 211 0
8.537071 4.268536 30.998806 211 211 211 0
8.649731 4.265621 30.977640 211 211 211 0
8.743867 4.253773 30.891599 211 211 211 0
7.403863 3.553854 25.808674 211 211 211 0
7.509951 3.557345 25.834026 210 210 210 0
7.600799 3.553620 25.806974 211 211 211 0
7.702275 3.554896 25.816238 211 211 211 0
7.803954 3.556232 25.825942 211 211 211 0
-10.713560 4.955022 35.011635 159 159 159 0
-6.383915 2.989935 21.126548 162 162 162 0
-6.208985 2.945288 20.811076 163 163 163 0
-6.080982 2.922030 20.646744 172 172 172 0
-5.962416 2.902755 20.510548 175 175 175 0
-5.832162 2.877200 20.329977 175 175 175 0
-5.729351 2.864676 20.241480 176 176 176 0
-5.623688 2.850362 20.140346 181 181 181 0
-5.568286 2.861480 20.218904 184 184 184 0
-5.541470 2.887808 20.404934 184 184 184 0
-5.460277 2.886147 20.393192 186 186 186 0
-5.355995 2.872055 20.293625 186 186 186 0
-5.261262 2.862746 20.227844 189 189 189 0
-5.174304 2.857452 20.190437 192 192 192 0
-5.089622 2.853273 20.160911 192 192 192 0
-5.007282 2.850299 20.139899 192 192 192 0
-4.962711 2.869067 20.272513 193 193 193 0
-4.885812 2.869445 20.275184 193 193 193 0
-4.788722 2.857786 20.192797 194 194 194 0
-4.696866 2.848918 20.130143 198 198 198 0
-4.613565 2.845032 20.102682 199 199 199 0
-4.549034 2.852784 20.157458 199 199 199 0
-4.503940 2.873203 20.301733 198 198 198 0
-4.439712 2.881918 20.363316 199 199 199 0
-4.324584 2.857315 20.189470 199 199 199 0
-4.216408 2.836492 20.042342 200 200 200 0
-4.104209 2.812143 19.870295 202 202 202 0
-4.011401 2.800412 19.787404 203 203 203 0
-3.901675 2.776192 19.616263 204 204 204 0
-3.945697 2.862565 20.226566 203 203 203 0
-3.847160 2.846898 20.115868 203 203 203 0
-3.740600 2.824534 19.957848 203 203 203 0
-3.637720 2.804076 19.813289 204 204 204 0
-3.544234 2.790141 19.714831 204 204 204 0
-3.466717 2.788447 19.702855 207 207 207 0
-3.423093 2.814543 19.887250 207 207 207 0
-3.361011 2.826304 19.970354 208 208 208 0
-3.270638 2.814270 19.885317 207 207 207 0
-3.178650 2.800240 19.786184 208 208 208 0
-3.099014 2.796671 19.760967 208 208 208 0
-3.025213 2.798322 19.772632 208 208 208 0
-2.958771 2.807039 19.834228 208 208 208 0
-2.894443 2.818274 19.913609 208 208 208 0
-2.819505 2.819505 19.922309 209 209 209 0
-2.738435 2.814502 19.886962 210 210 210 0
-2.655957 2.807726 19.839081 210 210 210 0
-2.588376 2.816762 19.902930 211 211 211 0
-2.529053 2.835604 20.036067 211 211 211 0
-2.458095 2.842173 20.082478 210 210 210 0
-2.383276 2.844556 20.099315 211 211 211 0
-2.302675 2.839966 20.066883 211 211 211 0
-2.218341 2.830297 19.998564 211 211 211 0
-2.137240 2.824210 19.955552 211 211 211 0
-2.064994 2.829807 19.995103 212 212 212 0
-1.997322 2.842343 20.083683 212 212 212 0
-1.928789 2.854608 20.170344 212 212 212 0
-1.840052 2.836747 20.044144 212 212 212 0
-1.757761 2.827702 19.980231 213 213 213 0
-1.679406 2.824455 19.957286 213 213 213 0
-1.604581 2.827119 19.976108 213 213 213 0
-1.530005 2.830510 20.000069 213 213 213 0
-1.457830 2.838932 20.059581 213 213 213 0
-1.381142 2.839013 20.060154 214 214 214 0
-1.303534 2.837103 20.046658 214 214 214 0
-1.229943 2.844244 20.097115 214 214 214 0
-1.155443 2.850093 20.138441 214 214 214 0
-1.080983 2.856884 20.186426 214 214 214 0
-1.003127 2.855053 20.173490 214 214 214 0
-0.926545 2.856846 20.186156 214 214 214 0
-0.850636 2.861230 20.217132 214 214 214 0
-0.774431 2.865393 20.246549 214 214 214 0
-0.698187 2.870326 20.281405 214 214 214 0
-0.622006 2.876776 20.326984 215 215 215 0
-0.546034 2.886178 20.393412 216 216 216 0
-0.469951 2.898031 20.477165 215 215 215 0
-0.391433 2.896603 20.467075 215 215 215 0
-0.312621 2.891742 20.432729 215 215 215 0
-0.234666 2.894210 20.450168 215 215 215 0
-0.157470 2.913199 20.584339 215 215 215 0
-0.078662 2.910512 20.565358 215 215 215 0
0.000000 2.912141 20.576869 216 216 216 0
0.078626 2.909170 20.555874 215 215 215 0
0.157120 2.906721 20.538567 216 216 216 0
0.235948 2.910021 20.561884 215 215 215 0
0.316322 2.925982 20.674662 215 215 215 0
0.396904 2.937090 20.753156 215 215 215 0
0.476925 2.941036 20.781033 216 216 216 0
0.556399 2.940968 20.780556 216 216 216 0
0.637150 2.946817 20.821882 215 215 215 0
0.719752 2.958979 20.907817 216 216 216 0
0.801899 2.967028 20.964690 215 215 215 0
0.883661 2.972314 21.002040 215 215 215 0
0.964160 2.972828 21.005670 215 215 215 0
1.047279 2.980716 21.061410 215 215 215 0
1.138655 3.009303 21.263400 216 216 216 0
1.224661 3.020830 21.344851 215 215 215 0
1.304746 3.017225 21.319380 216 216 216 0
1.386011 3.016612 21.315048 215 215 215 0
1.472677 3.027170 21.389650 215 215 215 0
1.567264 3.052040 21.565375 215 215 215 0
1.649155 3.050937 21.557582 215 215 215 0
1.732093 3.051783 21.563561 215 215 215 0
1.816263 3.054623 21.583631 215 215 215 0
1.906461 3.066916 21.670490 215 215 215 0
2.003239 3.088327 21.821780 215 215 215 0
2.092639 3.097106 21.883806 214 214 214 0
2.186032 3.110892 21.981218 214 214 214 0
2.277961 3.121650 22.057237 214 214 214 0
2.374322 3.137497 22.169210 214 214 214 0
2.466168 3.146490 22.232751 214 214 214 0
2.558831 3.155892 22.299185 214 214 214 0
2.662206 3.177471 22.451660 214 214 214 0
2.770400 3.203275 22.633986 212 212 212 0
2.872143 3.220282 22.754156 213 213 213 0
2.967483 3.229320 22.818016 213 213 213 0
3.071496 3.247010 22.943012 212 212 212 0
3.185149 3.273625 23.131075 212 212 212 0
3.284192 3.284192 23.205740 212 212 212 0
3.385217 3.296132 23.290105 212 212 212 0
3.497372 3.318019 23.444757 211 211 211 0
3.615374 3.344221 23.629897 211 211 211 0
3.724296 3.360950 23.748102 210 210 210 0
3.832455 3.376210 23.855929 210 210 210 0
3.978262 3.423156 24.187640 210 210 210 0
4.131960 3.474603 24.551158 209 209 209 0
4.291122 3.528256 24.930265 209 209 209 0
4.468018 3.593841 25.393680 209 209 209 0
5.779206 4.549588 32.146885 208 208 208 0
4.755193 3.665461 25.899744 215 215 215 0
5.977688 4.513764 31.893759 215 215 215 0
6.086424 4.503954 31.824440 213 213 213 0
6.202758 4.500040 31.796787 214 214 214 0
6.317264 4.494976 31.761004 213 213 213 0
6.418680 4.480965 31.662003 213 213 213 0
6.534267 4.477183 31.635278 212 212 212 0
6.651006 4.474313 31.615000 212 212 212 0
6.777529 4.478011 31.641127 213 213 213 0
6.900408 4.479212 31.649619 213 213 213 0
7.024199 4.480955 31.661930 212 212 212 0
7.128183 4.470217 31.586057 212 212 212 0
7.231571 4.459469 31.510112 212 212 212 0
7.355917 4.461786 31.526487 211 211 211 0
7.480580 4.464217 31.543662 211 211 211 0
7.589078 4.457077 31.493215 212 212 212 0
7.686651 4.443845 31.399717 212 212 212 0
7.780045 4.428641 31.292289 212 212 212 0
7.888206 4.422176 31.246605 212 212 212 0
8.014040 4.425664 31.271250 211 211 211 0
8.116660 4.416418 31.205919 211 211 211 0
8.202719 4.398559 31.079733 211 211 211 0
8.297739 4.385948 30.990623 212 212 212 0
8.398341 4.376600 30.924575 211 211 211 0
8.525609 4.381216 30.957187 211 211 211 0
8.627761 4.372975 30.898956 212 212 212 0
7.296163 3.648082 25.776941 210 210 210 0
7.389027 3.645253 25.756958 211 211 211 0
7.491380 3.647119 25.770141 211 211 211 0
7.583467 3.644004 25.748127 211 211 211 0
7.681428 3.643755 25.746366 211 211 211 0
7.779142 3.643395 25.743829 210 210 210 0
-10.713555 5.088939 35.011619 160 160 160 0
-6.376167 3.067017 21.100909 162 162 162 0
-6.207010 3.023928 20.804457 163 163 163 0
-6.085159 3.003065 20.660924 172 172 172 0
-5.964414 2.982207 20.517421 175 175 175 0
-5.835118 2.956460 20.340280 176 176 176 0
-5.716868 2.935689 20.197377 176 176 176 0
-5.615287 2.923026 20.110258 182 182 182 0
-5.557318 2.933029 20.179079 185 185 185 0
-5.538988 2.964529 20.395796 185 185 185 0
-5.471958 2.970491 20.436817 184 184 184 0
-5.344679 2.943446 20.250749 186 186 186 0
-5.260732 2.939821 20.225807 189 189 189 0
-5.164334 2.929025 20.151533 192 192 192 0
-5.081658 2.925803 20.129364 192 192 192 0
-4.997212 2.921447 20.099396 193 193 193 0
-4.954601 2.941794 20.239382 193 193 193 0
-4.882612 2.945067 20.261902 193 193 193 0
-4.791857 2.936944 20.206016 195 195 195 0
-4.684734 2.918359 20.078149 198 198 198 0
-4.609297 2.919221 20.084082 199 199 199 0
-4.543017 2.926011 20.130796 198 198 198 0
-4.488577 2.940792 20.232484 198 198 198 0
-4.439848 2.959898 20.363939 199 199 199 0
-4.329349 2.937773 20.211715 199 199 199 0
-4.213022 2.910815 20.026249 200 200 200 0
-4.101504 2.886244 19.857198 203 203 203 0
-4.013419 2.877546 19.797356 203 203 203 0
-3.954943 2.890151 19.884078 203 203 203 0
-3.943740 2.938473 20.216533 203 203 203 0
-3.837713 2.916662 20.066471 204 204 204 0
-3.742333 2.902217 19.967096 204 204 204 0
-3.633600 2.876600 19.790852 203 203 203 0
-3.542770 2.864367 19.706688 205 205 205 0
-3.466478 2.863612 19.701496 206 206 206 0
-3.422363 2.889996 19.883011 207 207 207 0
-3.359528 2.901410 19.961542 207 207 207 0
-3.270687 2.890375 19.885621 207 207 207 0
-3.179848 2.877005 19.793635 207 207 207 0
-3.095732 2.869215 19.740044 208 208 208 0
-3.022734 2.871597 19.756431 208 208 208 0
-2.957564 2.881729 19.826140 208 208 208 0
-2.890209 2.890209 19.884476 208 208 208 0
-2.819251 2.895447 19.920514 210 210 210 0
-2.737559 2.889645 19.880599 210 210 210 0
-2.655034 2.882608 19.832184 210 210 210 0
-2.588490 2.893018 19.903806 210 210 210 0
-2.525610 2.908279 20.008797 211 211 211 0
-2.455231 2.915586 20.059073 210 210 210 0
-2.382120 2.920018 20.089561 211 211 211 0
-2.301604 2.915366 20.057554 211 211 211 0
-2.215864 2.903546 19.976236 211 211 211 0
-2.136809 2.899956 19.951535 211 211 211 0
-2.064069 2.904986 19.986142 211 211 211 0
-1.995559 2.916586 20.065953 212 212 212 0
-1.926854 2.928817 20.150102 213 213 213 0
-1.838470 2.910912 20.026912 213 213 213 0
-1.755485 2.900367 19.954365 213 213 213 0
-1.678228 2.898757 19.943287 213 213 213 0
-1.602844 2.900384 19.954485 213 213 213 0
-1.529365 2.905793 19.991697 213 213 213 0
-1.456304 2.912608 20.038581 213 213 213 0
-1.381349 2.916181 20.063166 214 214 214 0
-1.302755 2.912041 20.034682 214 214 214 0
-1.227793 2.916008 20.061971 213 213 213 0
-1.154861 2.925647 20.128291 214 214 214 0
-1.079605 2.930356 20.160691 215 215 215 0
-1.001801 2.928343 20.146837 215 215 215 0
-0.926996 2.935488 20.195998 215 215 215 0
-0.850811 2.939165 20.221293 215 215 215 0
-0.774242 2.942120 20.241626 214 214 214 0
-0.697777 2.946171 20.269498 214 214 214 0
-0.622077 2.954868 20.329327 215 215 215 0
-0.545624 2.961957 20.378101 215 215 215 0
-0.469551 2.973821 20.459726 215 215 215 0
-0.391310 2.973956 20.460651 215 215 215 0
-0.312564 2.969362 20.429049 215 215 215 0
-0.234743 2.973411 20.456906 215 215 215 0
-0.159212 3.025027 20.812018 215 215 215 0
-0.078701 2.990651 20.575513 215 215 215 0
0.000000 2.989290 20.566151 215 215 215 0
0.078572 2.985748 20.541779 215 215 215 0
0.157020 2.983387 20.525538 215 215 215 0
0.235810 2.986922 20.549862 215 215 215 0
0.316120 3.003144 20.661463 216 216 216 0
0.396491 3.013331 20.731551 215 215 215 0
0.476387 3.017120 20.757621 216 216 216 0
0.555912 3.017809 20.762361 216 216 216 0
0.636915 3.025344 20.814201 216 216 216 0
0.718990 3.035737 20.885707 215 215 215 0
0.802064 3.047842 20.968988 216 216 216 0
0.883822 3.053203 21.005868 215 215 215 0
0.964599 3.054563 21.015229 216 216 216 0
1.046792 3.059853 21.051619 216 216 216 0
1.137888 3.088552 21.249070 216 216 216 0
1.223817 3.100337 21.330146 216 216 216 0
1.304174 3.097414 21.310040 215 215 215 0
1.386274 3.098729 21.319086 215 215 215 0
1.472952 3.109565 21.393639 215 215 215 0
1.566106 3.132211 21.549442 215 215 215 0
1.648794 3.132709 21.552865 215 215 215 0
1.731426 3.133057 21.555262 215 215 215 0
1.815279 3.135481 21.571938 215 215 215 0
1.904777 3.147023 21.651343 215 215 215 0
2.001797 3.169512 21.806065 215 215 215 0
2.094465 3.183586 21.902897 215 215 215 0
2.184567 3.192829 21.966487 214 214 214 0
2.277917 3.205957 22.056806 215 215 215 0
2.372587 3.219939 22.153002 214 214 214 0
2.464845 3.229797 22.220829 213 213 213 0
2.557762 3.239832 22.289869 214 214 214 0
2.660452 3.261200 22.436875 213 213 213 0
2.768746 3.287885 22.620470 213 213 213 0
2.870363 3.305267 22.740053 213 213 213 0
2.965703 3.314609 22.804326 212 212 212 0
3.071258 3.334509 22.941240 213 213 213 0
3.184375 3.361285 23.125453 212 212 212 0
3.283478 3.372220 23.200691 211 211 211 0
3.384381 3.384381 23.284353 212 212 212 0
3.495607 3.405976 23.432929 212 212 212 0
3.612507 3.431882 23.611159 212 212 212 0
3.723781 3.451309 23.744815 210 210 210 0
3.831812 3.466878 23.851928 211 211 211 0
3.981004 3.518097 24.204313 210 210 210 0
4.129382 3.566285 24.535843 208 208 208 0
4.283782 3.617416 24.887625 210 210 210 0
4.467457 3.690508 25.390494 208 208 208 0
5.788230 4.679846 32.197082 209 209 209 0
5.869386 4.646597 31.968334 213 213 213 0
5.970952 4.630534 31.857821 215 215 215 0
6.077519 4.618915 31.777879 215 215 215 0
6.189365 4.611683 31.728128 215 215 215 0
6.304446 4.607095 31.696563 214 214 214 0
6.418202 4.601730 31.659647 213 213 213 0
6.521181 4.588979 31.571926 212 212 212 0
6.636972 4.585545 31.548294 213 213 213 0
6.765059 4.590576 31.582907 212 212 212 0
6.889370 4.592914 31.598992 213 213 213 0
7.009383 4.592354 31.595145 211 211 211 0
7.111257 4.580131 31.511052 211 211 211 0
7.224457 4.575490 31.479116 211 211 211 0
7.342738 4.574165 31.470003 211 211 211 0
7.456641 4.570199 31.442718 212 212 212 0
7.579155 4.571554 31.452037 211 211 211 0
7.676689 4.558034 31.359024 211 211 211 0
7.769505 4.542172 31.249895 211 211 211 0
7.872518 4.532662 31.184465 211 211 211 0
8.006502 4.541001 31.241839 211 211 211 0
8.099981 4.526460 31.141794 212 212 212 0
8.189966 4.510416 31.031415 211 211 211 0
8.280627 4.495197 30.926710 211 211 211 0
8.380154 4.485153 30.857605 212 212 212 0
8.509319 4.491029 30.898035 211 211 211 0
8.625177 4.489818 30.889703 211 211 211 0
8.720043 4.477860 30.807430 211 211 211 0
7.379386 3.738889 25.723349 210 210 210 0
7.474046 3.737023 25.710514 211 211 211 0
7.567847 3.734782 25.695092 211 211 211 0
7.669519 3.736433 25.706450 211 211 211 0
7.764150 3.734654 25.694217 212 212 212 0
-10.713571 5.222866 35.011671 161 161 161 0
-6.386356 3.152758 21.134629 162 162 162 0
-6.219020 3.109510 20.844712 164 164 164 0
-6.078720 3.078832 20.639064 173 173 173 0
-5.963634 3.060286 20.514737 175 175 175 0
-5.835040 3.034221 20.340008 175 175 175 0
-5.731429 3.020618 20.248820 176 176 176 0
-5.622759 3.003940 20.137018 182 182 182 0
-5.560839 3.012121 20.191863 184 184 184 0
-5.538264 3.042145 20.393128 185 185 185 0
-5.468755 3.046878 20.424856 185 185 185 0
-5.348733 3.023197 20.266108 186 186 186 0
-5.264833 3.019537 20.241573 190 190 190 0
-5.173469 3.011422 20.187177 192 192 192 0
-5.075104 2.998925 20.103403 192 192 192 0
-4.994919 2.996951 20.090173 192 192 192 0
-4.948218 3.015321 20.213311 193 193 193 0
-4.867064 3.012944 20.197381 192 192 192 0
-4.784008 3.009295 20.172921 196 196 196 0
-4.687133 2.996692 20.088430 198 198 198 0
-4.603241 2.992106 20.057694 197 197 197 0
-4.537724 2.999512 20.107338 199 199 199 0
-4.492934 3.021111 20.252127 199 199 199 0
-4.428883 3.030289 20.313650 199 199 199 0
-4.322406 3.010247 20.179299 199 199 199 0
-4.214346 2.988354 20.032542 201 201 201 0
-4.101537 2.962221 19.857357 203 203 203 0
-4.018244 2.956821 19.821155 203 203 203 0
-3.965827 2.974370 19.938799 203 203 203 0
-3.932128 3.006922 20.157007 203 203 203 0
-3.838358 2.993919 20.069846 204 204 204 0
-3.739661 2.976465 19.952839 203 203 203 0
-3.634759 2.953242 19.797163 204 204 204 0
-3.540986 2.938265 19.696765 206 206 206 0
-3.465671 2.938287 19.696910 207 207 207 0
-3.422185 2.965893 19.881973 206 206 206 0
-3.359588 2.977817 19.961903 207 207 207 0
-3.270894 2.966625 19.886878 207 207 207 0
-3.176575 2.949676 19.773263 207 207 207 0
-3.096636 2.945581 19.745807 208 208 208 0
-3.021838 2.946292 19.750573 208 208 208 0
-2.954468 2.954468 19.805386 208 208 208 0
-2.890724 2.966795 19.888020 208 208 208 0
-2.818797 2.971165 19.917311 210 210 210 0
-2.735757 2.963736 19.867513 209 209 209 0
-2.656221 2.959789 19.841055 211 211 211 0
-2.584368 2.964422 19.872111 210 210 210 0
-2.525310 2.984457 20.006418 211 211 211 0
-2.456537 2.993904 20.069747 210 210 210 0
-2.380099 2.994318 20.072516 211 211 211 0
-2.298860 2.988518 20.033636 211 211 211 0
-2.215085 2.978907 19.969211 212 212 212 0
-2.136452 2.975772 19.948195 212 212 212 0
-2.061815 2.978177 19.964315 211 211 211 0
-1.993850 2.990775 20.048766 212 212 212 0
-1.925123 3.003192 20.132009 212 212 212 0
-1.835869 2.983287 19.998572 212 212 212 0
-1.753598 2.973493 19.932916 213 213 213 0
-1.676860 2.972615 19.927035 213 213 213 0
-1.601552 2.974310 19.938394 213 213 213 0
-1.528245 2.980077 19.977053 214 214 214 0
-1.455256 2.987105 20.024168 213 213 213 0
-1.380010 2.990022 20.043723 213 213 213 0
-1.302349 2.987742 20.028436 213 213 213 0
-1.228884 2.995406 20.079810 214 214 214 0
-1.154106 3.000676 20.115143 214 214 214 0
-1.078677 3.004885 20.143352 214 214 214 0
-1.002860 3.008580 20.168122 214 214 214 0
-0.926016 3.009552 20.174643 214 214 214 0
-0.849336 3.011282 20.186239 215 215 215 0
-0.773828 3.017927 20.230785 214 214 214 0
-0.697841 3.023979 20.271352 214 214 214 0
-0.621839 3.031464 20.321532 215 215 215 0
-0.545122 3.037110 20.359377 215 215 215 0
-0.469270 3.050257 20.447508 215 215 215 0
-0.390918 3.049157 20.440132 216 216 216 0
-0.312510 3.046968 20.425460 215 215 215 0
-0.234705 3.051160 20.453563 216 216 216 0
-0.167578 3.267763 21.905566 215 215 215 0
-0.078498 3.061420 20.522339 215 215 215 0
0.000000 3.067123 20.560572 215 215 215 0
0.078488 3.061034 20.519751 215 215 215 0
0.156951 3.060544 20.516468 215 215 215 0
0.235594 3.062725 20.531086 215 215 215 0
0.315807 3.079122 20.641006 215 215 215 0
0.396299 3.091135 20.721536 215 215 215 0
0.476367 3.096384 20.756719 216 216 216 0
0.555832 3.096780 20.759374 216 216 216 0
0.636406 3.102477 20.797567 215 215 215 0
0.718845 3.114994 20.881477 215 215 215 0
0.801562 3.126090 20.955857 216 216 216 0
0.882866 3.130161 20.983144 216 216 216 0
0.963708 3.132051 20.995820 216 216 216 0
1.046337 3.139011 21.042473 216 216 216 0
1.137338 3.168298 21.238799 216 216 216 0
1.223167 3.180235 21.318821 215 215 215 0
1.303996 3.178491 21.307126 215 215 215 0
1.386136 3.179959 21.316969 216 216 216 0
1.471757 3.188808 21.376286 215 215 215 0
1.565518 3.213432 21.541357 215 215 215 0
1.648422 3.214423 21.548001 215 215 215 0
1.730960 3.214640 21.549459 215 215 215 0
1.814605 3.216799 21.563929 215 215 215 0
1.903818 3.228214 21.640448 215 215 215 0
2.001659 3.252697 21.804569 215 215 215 0
2.092384 3.264119 21.881142 215 215 215 0
2.182977 3.274465 21.950498 213 213 213 0
2.276007 3.287565 22.038313 214 214 214 0
2.375161 3.308260 22.177038 213 213 213 0
2.468769 3.320069 22.256203 214 214 214 0
2.559834 3.327784 22.307922 214 214 214 0
2.659447 3.345756 22.428399 214 214 214 0
2.766749 3.371975 22.604159 212 212 212 0
2.870394 3.392284 22.740299 213 213 213 0
2.963795 3.399648 22.789660 213 213 213 0
3.071299 3.422304 22.941539 213 213 213 0
3.182856 3.448094 23.114422 212 212 212 0
3.283095 3.460560 23.197987 211 211 211 0
3.383845 3.472894 23.280670 212 212 212 0
3.494948 3.494948 23.428511 212 212 212 0
3.616324 3.525916 23.636106 211 211 211 0
3.726213 3.544447 23.760328 210 210 210 0
3.828456 3.554995 23.831039 211 211 211 0
3.983185 3.612656 24.217568 210 210 210 0
4.133026 3.663364 24.557494 210 210 210 0
4.286126 3.714642 24.901240 209 209 209 0
4.464755 3.785336 25.375136 208 208 208 0
5.841988 4.847607 32.496108 208 208 208 0
5.860394 4.761570 31.919357 213 213 213 0
5.964893 4.747568 31.825492 216 216 216 0
6.064298 4.730152 31.708746 213 213 213 0
6.178024 4.724371 31.669995 213 213 213 0
6.293432 4.720074 31.641186 214 214 214 0
6.410062 4.716838 31.619494 212 212 212 0
6.504064 4.697380 31.489055 212 212 212 0
6.626509 4.698797 31.498555 213 213 213 0
6.754675 4.704149 31.534431 213 213 213 0
6.877777 4.705848 31.545819 212 212 212 0
6.997955 4.705521 31.543633 211 211 211 0
7.105760 4.697028 31.486694 212 212 212 0
7.213945 4.689064 31.433310 212 212 212 0
7.331367 4.687268 31.421269 212 212 212 0
7.440370 4.680233 31.374109 211 211 211 0
7.563465 4.682145 31.386928 211 211 211 0
7.659778 4.667677 31.289944 212 212 212 0
7.754407 4.652644 31.189167 211 211 211 0
7.855732 4.642023 31.117972 212 212 212 0
7.983277 4.646982 31.151213 212 212 212 0
8.084654 4.636787 31.082867 211 211 211 0
8.180578 4.623805 30.995845 211 211 211 0
8.266653 4.605707 30.874522 212 212 212 0
8.365934 4.595372 30.805245 211 211 211 0
8.492545 4.600129 30.837128 211 211 211 0
8.606393 4.597936 30.822431 211 211 211 0
8.702806 4.586614 30.746533 211 211 211 0
8.802610 4.577357 30.684479 211 211 211 0
7.455485 3.825841 25.646662 212 212 212 0
7.547800 3.822912 25.627027 212 212 212 0
7.651833 3.825917 25.647170 211 211 211 0
7.735152 3.818619 25.598254 210 210 210 0
-10.713562 5.356781 35.011642 161 161 161 0
-6.384719 3.232769 21.129210 162 162 162 0
-6.216894 3.188151 20.837588 164 164 164 0
-6.078871 3.157855 20.639575 172 172 172 0
-5.969677 3.141935 20.535525 175 175 175 0
-5.839547 3.114425 20.355719 174 174 174 0
-5.734232 3.099585 20.258725 175 175 175 0
-5.621241 3.080132 20.131581 183 183 183 0
-5.569825 3.094347 20.224490 184 184 184 0
-5.536942 3.119404 20.388262 184 184 184 0
-5.463272 3.121869 20.404376 185 185 185 0
-5.347770 3.100157 20.262461 186 186 186 0
-5.251551 3.089148 20.190507 191 191 191 0
-5.160047 3.080625 20.134804 192 192 192 0
-5.080685 3.079203 20.125508 192 192 192 0
-4.986492 3.068610 20.056277 193 193 193 0
-4.951634 3.094771 20.227263 192 192 192 0
-4.875643 3.095647 20.232984 193 193 193 0
-4.785386 3.087345 20.178729 197 197 197 0
-4.680218 3.068996 20.058794 198 198 198 0
-4.602312 3.068208 20.053646 198 198 198 0
-4.526662 3.068924 20.058325 198 198 198 0
-4.487074 3.094534 20.225712 198 198 198 0
-4.424548 3.104946 20.293762 198 198 198 0
-4.322896 3.087783 20.181586 198 198 198 0
-4.208388 3.060646 20.004222 202 202 202 0
-4.101338 3.038028 19.856395 203 203 203 0
-4.021789 3.035313 19.838644 202 202 202 0
-3.964806 3.049851 19.933666 203 203 203 0
-3.933750 3.085294 20.165322 203 203 203 0
-3.833742 3.066994 20.045709 203 203 203 0
-3.736547 3.050242 19.936224 204 204 204 0
-3.633429 3.027857 19.789917 204 204 204 0
-3.536557 3.009836 19.672129 206 206 206 0
-3.461498 3.009998 19.673189 206 206 206 0
-3.420896 3.040796 19.874486 207 207 207 0
-3.356623 3.051475 19.944283 207 207 207 0
-3.271395 3.043158 19.889921 207 207 207 0
-3.178488 3.027132 19.785175 207 207 207 0
-3.093745 3.018288 19.727371 207 207 207 0
-3.023040 3.023040 19.758432 207 207 207 0
-2.957422 3.033254 19.825188 208 208 208 0
-2.888766 3.040807 19.874554 210 210 210 0
-2.816101 3.044433 19.898256 209 209 209 0
-2.735631 3.039589 19.866598 210 210 210 0
-2.649730 3.028263 19.792568 209 209 209 0
-2.583758 3.039716 19.867423 210 210 210 0
-2.520459 3.055102 19.967986 211 211 211 0
-2.453781 3.067226 20.047230 211 211 211 0
-2.378088 3.068501 20.055559 210 210 210 0
-2.297702 3.063603 20.023549 210 210 210 0
-2.213457 3.053043 19.954533 211 211 211 0
-2.134265 3.048951 19.927782 211 211 211 0
-2.061843 3.054582 19.964591 212 212 212 0
-1.992558 3.065473 20.035774 212 212 212 0
-1.923495 3.077592 20.114980 213 213 213 0
-1.835548 3.059247 19.995075 213 213 213 0
-1.752877 3.048481 19.924713 213 213 213 0
-1.676069 3.047399 19.917640 213 213 213 0
-1.600248 3.048091 19.922165 213 213 213 0
-1.527479 3.054959 19.967050 213 213 213 0
-1.454691 3.062508 20.016394 213 213 213 0
-1.379147 3.064772 20.031187 214 214 214 0
-1.301065 3.061331 20.008696 214 214 214 0
-1.227353 3.068381 20.054780 214 214 214 0
-1.153419 3.075785 20.103167 214 214 214 0
-1.078228 3.080651 20.134975 214 214 214 0
-1.001222 3.080683 20.135183 214 214 214 0
-0.925727 3.085756 20.168338 214 214 214 0
-0.850188 3.091592 20.206487 215 215 215 0
-0.774161 3.096642 20.239492 214 214 214 0
-0.697343 3.099304 20.256892 215 215 215 0
-0.621720 3.108600 20.317648 215 215 215 0
-0.545152 3.115152 20.360473 215 215 215 0
-0.469217 3.128116 20.445201 215 215 215 0
-0.390735 3.125879 20.430582 215 215 215 0
-0.312488 3.124878 20.424042 215 215 215 0
-0.234182 3.122433 20.408059 215 215 215 0
-0.135457 2.709148 17.706850 215 215 215 0
-0.078554 3.142153 20.536947 215 215 215 0
0.000000 3.142810 20.541245 215 215 215 0
0.078497 3.139861 20.521967 215 215 215 0
0.156946 3.138921 20.515821 215 215 215 0
0.235488 3.139841 20.521835 216 216 216 0
0.315633 3.156333 20.629626 215 215 215 0
0.396293 3.170346 20.721214 215 215 215 0
0.476173 3.174488 20.748287 216 216 216 0
0.555684 3.175339 20.753849 215 215 215 0
0.636186 3.180930 20.790395 215 215 215 0
0.718785 3.194601 20.879748 215 215 215 0
0.802093 3.208370 20.969740 215 215 215 0
0.883491 3.212693 20.997995 216 216 216 0
0.963771 3.212571 20.997196 216 216 216 0
1.045014 3.215427 21.015863 215 215 215 0
1.137064 3.248753 21.233680 216 216 216 0
1.222571 3.260190 21.308429 216 216 216 0
1.303472 3.258680 21.298564 216 216 216 0
1.385484 3.259962 21.306938 215 215 215 0
1.471893 3.270872 21.378251 214 214 214 0
1.565214 3.295187 21.537171 215 215 215 0
1.646858 3.293716 21.527556 215 215 215 0
1.729859 3.294969 21.535745 215 215 215 0
1.813978 3.298142 21.556487 215 215 215 0
1.903024 3.309607 21.631419 215 215 215 0
2.000654 3.334423 21.793614 214 214 214 0
2.089041 3.342465 21.846178 214 214 214 0
2.180551 3.354694 21.926105 214 214 214 0
2.273523 3.368182 22.014263 214 214 214 0
2.371363 3.387662 22.141581 214 214 214 0
2.466006 3.401387 22.231290 213 213 213 0
2.558043 3.410723 22.292310 213 213 213 0
2.658796 3.430705 22.422909 214 214 214 0
2.765675 3.457093 22.595380 213 213 213 0
2.867653 3.475943 22.718578 213 213 213 0
2.962716 3.485548 22.781358 213 213 213 0
3.069493 3.507992 22.928050 213 213 213 0
3.182214 3.535794 23.109763 211 211 211 0
3.283559 3.549794 23.201268 212 212 212 0
3.382763 3.560803 23.273222 212 212 212 0
3.494218 3.583813 23.423614 212 212 212 0
3.618146 3.618146 23.648010 211 211 211 0
3.726171 3.635289 23.760058 210 210 210 0
3.834236 3.651653 23.867013 210 210 210 0
3.981659 3.703869 24.208295 210 210 210 0
4.125747 3.750679 24.514241 209 209 209 0
4.286939 3.810612 24.905964 209 209 209 0
4.462507 3.880440 25.362356 208 208 208 0
5.988338 5.096458 33.310183 211 211 211 0
5.855037 4.879198 31.890182 217 217 217 0
5.957147 4.862977 31.784165 215 215 215 0
6.055370 4.844296 31.662067 214 214 214 0
6.169483 4.838810 31.626209 213 213 213 0
6.282941 4.833032 31.588443 213 213 213 0
6.398986 4.829424 31.564861 213 213 213 0
6.486888 4.805102 31.405897 213 213 213 0
6.615910 4.811571 31.448177 213 213 213 0
6.742794 4.816282 31.478965 213 213 213 0
6.865490 4.817888 31.489464 212 212 212 0
6.988811 4.819869 31.502415 212 212 212 0
7.095871 4.810760 31.442878 212 212 212 0
7.203381 4.802254 31.387280 212 212 212 0
7.309548 4.793147 31.327755 211 211 211 0
7.425920 4.790916 31.313178 212 212 212 0
7.546531 4.791448 31.316654 211 211 211 0
7.641747 4.776092 31.216286 212 212 212 0
7.742279 4.764479 31.140388 211 211 211 0
7.831037 4.746083 31.020152 211 211 211 0
7.986099 4.767820 31.162225 212 212 212 0
8.070770 4.747512 31.029488 211 211 211 0
8.168370 4.735287 30.949589 211 211 211 0
8.256814 4.718179 30.837774 211 211 211 0
8.351897 4.705294 30.753557 211 211 211 0
8.467418 4.704121 30.745889 211 211 211 0
8.584736 4.703965 30.744870 211 211 211 0
8.689696 4.697133 30.700214 211 211 211 0
8.788880 4.687402 30.636617 211 211 211 0
8.884220 4.675905 30.561472 211 211 211 0
7.535403 3.914495 25.584935 211 211 211 0
7.638965 3.917418 25.604038 211 211 211 0
7.726790 3.912299 25.570580 211 211 211 0
-10.713589 5.490714 35.011729 161 161 161 0
-6.381632 3.311986 21.118993 162 162 162 0
-6.222370 3.270733 20.855942 164 164 164 0
-6.087710 3.241508 20.669587 173 173 173 0
-5.980581 3.226366 20.573033 175 175 175 0
-5.841187 3.193182 20.361438 175 175 175 0
-5.734035 3.176966 20.258030 176 176 176 0
-5.634456 3.164558 20.178911 182 182 182 0
-5.581714 3.178476 20.267661 184 184 184 0
-5.541706 3.200140 20.405802 184 184 184 0
-5.469229 3.203405 20.426625 185 185 185 0
-5.357699 3.183560 20.300081 186 186 186 0
-5.260630 3.171850 20.225413 190 190 190 0
-5.164085 3.160112 20.150563 191 191 191 0
-5.071554 3.150511 20.089339 192 192 192 0
-4.991497 3.148483 20.076408 192 192 192 0
-4.956163 3.175042 20.245765 193 193 193 0
-4.866944 3.167376 20.196882 193 193 193 0
-4.778806 3.160178 20.150985 197 197 197 0
-4.684218 3.148409 20.075939 198 198 198 0
-4.594204 3.139373 20.018320 197 197 197 0
-4.527195 3.146017 20.060684 198 198 198 0
-4.483431 3.169322 20.209289 198 198 198 0
-4.418883 3.178495 20.267781 198 198 198 0
-4.314248 3.158646 20.141215 199 199 199 0
-4.206494 3.135750 19.995216 202 202 202 0
-4.100088 3.113030 19.850342 203 203 203 0
-4.018529 3.108673 19.822560 203 203 203 0
-3.958683 3.121270 19.902883 203 203 203 0
-3.930188 3.159563 20.147064 203 203 203 0
-3.829575 3.140252 20.023922 204 204 204 0
-3.733312 3.123792 19.918964 203 203 203 0
-3.631306 3.101741 19.778358 205 205 205 0
-3.535107 3.083817 19.664064 206 206 206 0
-3.459945 3.083864 19.664365 206 206 206 0
-3.419414 3.115466 19.865874 207 207 207 0
-3.357356 3.128446 19.948642 207 207 207 0
-3.268340 3.116324 19.871349 207 207 207 0
-3.174418 3.098836 19.759836 207 207 207 0
-3.090212 3.090212 19.704841 207 207 207 0
-3.019471 3.094958 19.735106 208 208 208 0
-2.951663 3.103030 19.786578 209 209 209 0
-2.887839 3.115826 19.868173 210 210 210 0
-2.814782 3.119083 19.888941 210 210 210 0
-2.730729 3.109997 19.831001 209 209 209 0
-2.651347 3.105863 19.804644 210 210 210 0
-2.582088 3.113695 19.854583 210 210 210 0
-2.519479 3.130262 19.960222 210 210 210 0
-2.450596 3.139826 20.021207 210 210 210 0
-2.377628 3.144605 20.051683 210 210 210 0
-2.296969 3.139191 20.017156 211 211 211 0
-2.213048 3.128793 19.950853 211 211 211 0
-2.133737 3.124400 19.922845 212 212 212 0
-2.061871 3.130990 19.964864 213 213 213 0
-1.993490 3.143581 20.045153 212 212 212 0
-1.922251 3.152492 20.101974 213 213 213 0
-1.833883 3.132883 19.976939 212 212 212 0
-1.751631 3.122473 19.910559 213 213 213 0
-1.675515 3.122551 19.911054 213 213 213 0
-1.600261 3.124318 19.922324 213 213 213 0
-1.525740 3.127767 19.944312 213 213 213 0
-1.454260 3.138139 20.010452 213 213 213 0
-1.379187 3.141482 20.031767 213 213 213 0
-1.300263 3.135929 19.996359 214 214 214 0
-1.227015 3.144226 20.049266 215 215 215 0
-1.152782 3.150936 20.092055 215 215 215 0
-1.077995 3.156986 20.130629 215 215 215 0
-1.001290 3.157914 20.136545 214 214 214 0
-0.925630 3.162568 20.166225 215 215 215 0
-0.849137 3.164967 20.181519 215 215 215 0
-0.773735 3.172313 20.228365 214 214 214 0
-0.697147 3.175890 20.251170 215 215 215 0
-0.621422 3.184789 20.307916 214 214 214 0
-0.545039 3.192371 20.356265 214 214 214 0
-0.468671 3.202585 20.421396 215 215 215 0
-0.390482 3.201950 20.417343 215 215 215 0
-0.312097 3.198994 20.398496 216 216 216 0
-0.233712 3.194063 20.367053 215 215 215 0
-0.152299 3.122125 19.908337 215 215 215 0
-0.078577 3.221657 20.543004 215 215 215 0
0.000000 3.219918 20.531916 215 215 215 0
0.078445 3.216250 20.508529 215 215 215 0
0.156864 3.215715 20.505120 215 215 215 0
0.235345 3.216382 20.509369 216 216 216 0
0.315464 3.233509 20.618583 215 215 215 0
0.396113 3.248123 20.711770 216 216 216 0
0.476036 3.252910 20.742294 216 216 216 0
0.555398 3.253044 20.743144 215 215 215 0
0.635979 3.259394 20.783639 215 215 215 0
0.718264 3.272090 20.864596 216 216 216 0
0.802268 3.289301 20.974338 216 216 216 0
0.883675 3.293696 21.002367 215 215 215 0
0.963802 3.292989 20.997854 215 215 215 0
1.044727 3.294908 21.010092 216 216 216 0
1.136439 3.328141 21.222008 216 216 216 0
1.223049 3.343001 21.316763 215 215 215 0
1.303452 3.340095 21.298233 216 216 216 0
1.385698 3.341977 21.310234 215 215 215 0
1.471081 3.350796 21.366468 215 215 215 0
1.563873 3.374672 21.518715 215 215 215 0
1.646873 3.376090 21.527754 215 215 215 0
1.729941 3.377504 21.536767 215 215 215 0
1.812968 3.378714 21.544484 215 215 215 0
1.902366 3.391174 21.623936 215 215 215 0
1.999743 3.416227 21.783692 215 215 215 0
2.087959 3.424253 21.834870 215 215 215 0
2.178266 3.434958 21.903125 214 214 214 0
2.271246 3.448929 21.992213 214 214 214 0
2.374024 3.476249 22.166420 214 214 214 0
2.465694 3.485981 22.228477 215 215 215 0
2.558549 3.496684 22.296726 214 214 214 0
2.658259 3.515762 22.418376 213 213 213 0
2.764616 3.542164 22.586732 213 213 213 0
2.867436 3.562572 22.716862 213 213 213 0
2.962922 3.572935 22.782942 213 213 213 0
3.068571 3.594611 22.921164 213 213 213 0
3.180926 3.622721 23.100405 212 212 212 0
3.281187 3.635910 23.184506 213 213 213 0
3.380871 3.647782 23.260209 211 211 211 0
3.494121 3.673307 23.422966 212 212 212 0
3.616750 3.707169 23.638891 212 212 212 0
3.719670 3.719670 23.718603 212 212 212 0
3.834226 3.742935 23.866954 210 210 210 0
3.982687 3.797446 24.214543 211 211 211 0
4.126418 3.845072 24.518231 209 209 209 0
4.293299 3.911673 24.942915 210 210 210 0
4.455225 3.970961 25.320972 209 209 209 0
6.231051 5.435598 34.660276 211 211 211 0
5.845854 4.993334 31.840165 215 215 215 0
5.952692 4.980824 31.760394 214 214 214 0
6.042986 4.955249 31.597313 214 214 214 0
6.158356 4.950835 31.569169 213 213 213 0
6.276707 4.948942 31.557100 213 213 213 0
6.388534 4.942074 31.513302 214 214 214 0
