ply
    format ascii 1.0
    element vertex 22157
    property float x
    property float y
    property float z
    property uchar red
    property uchar green
    property uchar blue
    property uchar alpha
    end_header
-5.164257 0.655779 21.430676 198 198 198 0
-5.089367 0.656693 21.460541 199 199 199 0
-5.049032 0.662168 21.639481 199 199 199 0
-5.012808 0.668374 21.842299 199 199 199 0
-4.913628 0.666255 21.773029 200 200 200 0
-4.787068 0.660285 21.577948 199 199 199 0
-4.672742 0.655823 21.432137 200 200 200 0
-4.569990 0.652856 21.335152 200 200 200 0
-4.512335 0.656340 21.449010 200 200 200 0
-4.482946 0.664140 21.703928 201 201 201 0
-4.388782 0.662458 21.648942 200 200 200 0
-4.271292 0.657122 21.474570 200 200 200 0
-4.153172 0.651478 21.290127 201 201 201 0
-4.046034 0.647365 21.155735 201 201 201 0
-3.962644 0.646962 21.142559 201 201 201 0
-3.916386 0.652731 21.331076 201 201 201 0
-3.852469 0.655739 21.429393 202 202 202 0
-3.748911 0.651985 21.306683 201 201 201 0
-3.642288 0.647518 21.160713 202 202 202 0
-3.550423 0.645531 21.095798 201 201 201 0
-3.480741 0.647580 21.162737 202 202 202 0
-3.412880 0.650072 21.244195 203 203 203 0
-3.335809 0.650889 21.270898 202 202 202 0
-3.252333 0.650467 21.257077 202 202 202 0
-3.156723 0.647533 21.161207 202 202 202 0
-3.066852 0.645653 21.099776 202 202 202 0
-2.984441 0.645285 21.087729 202 202 202 0
-2.914668 0.647704 21.166799 203 203 203 0
-2.839709 0.649076 21.211648 203 203 203 0
-2.755453 0.648342 21.187645 203 203 203 0
-2.666968 0.646538 21.128681 203 203 203 0
-2.569687 0.642422 20.994176 203 203 203 0
-2.478230 0.639543 20.900104 203 203 203 0
-2.393098 0.638159 20.854882 204 204 204 0
-2.323863 0.641066 20.949857 204 204 204 0
-2.250250 0.642929 21.010736 204 204 204 0
-2.160311 0.640092 20.918043 204 204 204 0
-2.070217 0.636990 20.816658 204 204 204 0
-1.979982 0.633594 20.705691 204 204 204 0
-1.895064 0.631688 20.643404 204 204 204 0
-1.814218 0.631032 20.621976 205 205 205 0
-1.735499 0.631091 20.623873 204 204 204 0
-1.660339 0.632510 20.670262 204 204 204 0
-1.580276 0.632110 20.657205 205 205 205 0
-1.496203 0.629980 20.587592 204 204 204 0
-1.413759 0.628338 20.533906 205 205 205 0
-1.334943 0.628208 20.529683 205 205 205 0
-1.257499 0.628749 20.547364 205 205 205 0
-1.177064 0.627767 20.515276 205 205 205 0
-1.097115 0.626923 20.487681 205 205 205 0
-1.017577 0.626201 20.464087 205 205 205 0
-0.939530 0.626354 20.469073 206 206 206 0
-0.858707 0.624514 20.408970 205 205 205 0
-0.780859 0.624687 20.414620 206 206 206 0
-0.702654 0.624581 20.411141 206 206 206 0
-0.624509 0.624509 20.408791 206 206 206 0
-0.545830 0.623806 20.385806 206 206 206 0
-0.468144 0.624192 20.398435 207 207 207 0
-0.389287 0.622859 20.354858 207 207 207 0
-0.309941 0.619882 20.257590 207 207 207 0
-0.231569 0.617517 20.180291 206 206 206 0
-0.153988 0.615954 20.129200 206 206 206 0
-0.077174 0.617393 20.176250 207 207 207 0
0.000000 0.618751 20.220634 207 207 207 0
0.077126 0.617007 20.163628 207 207 207 0
0.153636 0.614543 20.083110 207 207 207 0
0.229490 0.611973 19.999127 207 207 207 0
0.304900 0.609800 19.928118 207 207 207 0
0.380149 0.608239 19.877081 208 208 208 0
0.455254 0.607006 19.836794 207 207 207 0
0.532539 0.608616 19.889425 208 208 208 0
0.609046 0.609046 19.903449 208 208 208 0
0.683938 0.607945 19.867474 208 208 208 0
0.756479 0.605183 19.777225 208 208 208 0
0.830287 0.603845 19.733507 208 208 208 0
0.904962 0.603308 19.715942 208 208 208 0
0.980000 0.603077 19.708406 209 209 209 0
1.055703 0.603259 19.714342 208 208 208 0
1.129660 0.602485 19.689060 209 209 209 0
1.203914 0.601957 19.671791 209 209 209 0
1.275314 0.600148 19.612669 209 209 209 0
1.347127 0.598723 19.566114 209 209 209 0
1.420500 0.598105 19.545930 209 209 209 0
1.494858 0.597943 19.540624 209 209 209 0
1.570874 0.598428 19.556471 210 210 210 0
1.644709 0.598076 19.544964 210 210 210 0
1.717085 0.597247 19.517879 209 209 209 0
1.784965 0.594988 19.444061 209 209 209 0
1.850889 0.592284 19.355699 210 210 210 0
1.919465 0.590605 19.300809 209 209 209 0
1.993088 0.590545 19.298843 210 210 210 0
2.164745 0.618498 20.212368 210 210 210 0
2.141120 0.590654 19.302416 210 210 210 0
2.211399 0.589706 19.271452 210 210 210 0
2.275740 0.587288 19.192412 210 210 210 0
2.341617 0.585404 19.130860 210 210 210 0
2.404758 0.582972 19.051364 210 210 210 0
2.474982 0.582349 19.031003 211 211 211 0
2.551233 0.583139 19.056828 211 211 211 0
2.626369 0.583638 19.073126 211 211 211 0
2.694946 0.582691 19.042189 211 211 211 0
2.771269 0.583425 19.066175 211 211 211 0
2.843333 0.583248 19.060382 210 210 210 0
3.003286 0.600657 19.629321 200 200 200 0
3.462518 0.675613 22.078866 194 194 194 0
3.579536 0.681816 22.281578 190 190 190 0
3.707109 0.689695 22.539044 187 187 187 0
5.889124 1.070750 34.991825 183 183 183 0
5.000314 0.888945 29.050483 170 170 170 0
5.152635 0.896110 29.284656 102 102 102 0
-10.712300 1.205134 35.007516 196 196 196 0
-6.384041 0.727296 21.126967 196 196 196 0
-6.397630 0.738188 21.443372 196 196 196 0
-6.260020 0.731691 21.254629 197 197 197 0
-6.153263 0.728676 21.167054 197 197 197 0
-6.055215 0.726626 21.107504 197 197 197 0
-5.980128 0.727313 21.127460 197 197 197 0
-5.972524 0.736339 21.389646 197 197 197 0
-5.920707 0.740088 21.498573 198 198 198 0
-5.819940 0.737739 21.430322 198 198 198 0
-5.723609 0.735893 21.376692 198 198 198 0
-5.632715 0.734702 21.342104 197 197 197 0
-5.548453 0.734354 21.332000 198 198 198 0
-5.477192 0.735742 21.372321 198 198 198 0
-5.443429 0.742286 21.562402 198 198 198 0
-5.367811 0.743235 21.589990 199 199 199 0
-5.267920 0.740801 21.519279 199 199 199 0
-5.167645 0.738235 21.444734 198 198 198 0
-5.086777 0.738403 21.449620 199 199 199 0
-5.040390 0.743664 21.602442 199 199 199 0
-4.999970 0.749996 21.786362 200 200 200 0
-4.902989 0.747914 21.725884 199 199 199 0
-4.785981 0.742652 21.573048 200 200 200 0
-4.666605 0.736832 21.403992 200 200 200 0
-4.559034 0.732702 21.284004 200 200 200 0
-4.507258 0.737551 21.424874 201 201 201 0
-4.480461 0.746744 21.691897 200 200 200 0
-4.381750 0.744071 21.614256 200 200 200 0
-4.267514 0.738608 21.455578 200 200 200 0
-4.146176 0.731678 21.254264 200 200 200 0
-4.040720 0.727330 21.127946 201 201 201 0
-3.963081 0.727913 21.144888 201 201 201 0
-3.914880 0.734040 21.322878 201 201 201 0
-3.847063 0.736672 21.399322 201 201 201 0
-3.748945 0.733489 21.306878 201 201 201 0
-3.639216 0.727843 21.142864 201 201 201 0
-3.551254 0.726393 21.100738 202 202 202 0
-3.476071 0.727550 21.134341 202 202 202 0
-3.408077 0.730302 21.214296 202 202 202 0
-3.334075 0.731870 21.259845 202 202 202 0
-3.253369 0.732008 21.263852 202 202 202 0
-3.155080 0.728095 21.150194 203 203 203 0
-3.060754 0.724915 21.057817 202 202 202 0
-2.978420 0.724480 21.045184 203 203 203 0
-2.906801 0.726700 21.109669 203 203 203 0
-2.837761 0.729710 21.197093 202 202 202 0
-2.752391 0.728574 21.164099 203 203 203 0
-2.663348 0.726368 21.100006 203 203 203 0
-2.570868 0.723057 21.003821 203 203 203 0
-2.476844 0.719084 20.888420 204 204 204 0
-2.388801 0.716640 20.817437 203 203 203 0
-2.319489 0.719841 20.910425 204 204 204 0
-2.248546 0.722747 20.994826 204 204 204 0
-2.157508 0.719169 20.890905 204 204 204 0
-2.069326 0.716305 20.807706 204 204 204 0
-1.979061 0.712462 20.696063 204 204 204 0
-1.892291 0.709609 20.613193 204 204 204 0
-1.812734 0.709331 20.605101 204 204 204 0
-1.733415 0.709124 20.599112 204 204 204 0
-1.659149 0.711064 20.655455 205 205 205 0
-1.579837 0.710927 20.651464 205 205 205 0
-1.495373 0.708334 20.576165 204 204 204 0
-1.412530 0.706265 20.516051 205 205 205 0
-1.334140 0.706310 20.517345 206 206 206 0
-1.255918 0.706454 20.521541 205 205 205 0
-1.176460 0.705876 20.504748 205 205 205 0
-1.096582 0.704946 20.477721 206 206 206 0
-1.016652 0.703836 20.445480 205 205 205 0
-0.938543 0.703907 20.447550 206 206 206 0
-0.858194 0.702159 20.396770 206 206 206 0
-0.780024 0.702022 20.392795 206 206 206 0
-0.701922 0.701922 20.389884 206 206 206 0
-0.623741 0.701709 20.383696 206 206 206 0
-0.545397 0.701224 20.369619 207 207 207 0
-0.467571 0.701357 20.373469 206 206 206 0
-0.389186 0.700534 20.349575 206 206 206 0
-0.309783 0.697011 20.247247 206 206 206 0
-0.231409 0.694228 20.166387 207 207 207 0
-0.153881 0.692465 20.115191 206 206 206 0
-0.077083 0.693744 20.152331 207 207 207 0
0.000000 0.694832 20.183945 207 207 207 0
0.076989 0.692905 20.127971 207 207 207 0
0.153503 0.690765 20.065791 208 208 208 0
0.229253 0.687758 19.978456 208 208 208 0
0.304613 0.685379 19.909339 207 207 207 0
0.379577 0.683239 19.847179 208 208 208 0
0.454558 0.681837 19.806440 207 207 207 0
0.531991 0.683988 19.868933 208 208 208 0
0.608376 0.684423 19.881558 208 208 208 0
0.683087 0.683087 19.842766 208 208 208 0
0.755873 0.680286 19.761381 208 208 208 0
0.830206 0.679260 19.731580 207 207 207 0
0.904703 0.678527 19.710311 208 208 208 0
0.979067 0.677816 19.689637 209 209 209 0
1.054502 0.677894 19.691908 208 208 208 0
1.129024 0.677414 19.677979 208 208 208 0
1.202187 0.676230 19.643578 208 208 208 0
1.274051 0.674498 19.593255 209 209 209 0
1.345855 0.672928 19.547641 209 209 209 0
1.419033 0.672173 19.525736 209 209 209 0
1.493820 0.672219 19.527063 210 210 210 0
1.569488 0.672638 19.539225 209 209 209 0
1.642756 0.672037 19.521759 210 210 210 0
1.715925 0.671449 19.504692 210 210 210 0
1.783414 0.668780 19.427165 209 209 209 0
1.849991 0.665997 19.346316 210 210 210 0
1.916332 0.663346 19.269304 210 210 210 0
1.988442 0.662814 19.253860 210 210 210 0
1.936557 0.622465 18.081766 210 210 210 0
2.143266 0.665151 19.321757 210 210 210 0
2.210373 0.663112 19.262510 210 210 210 0
2.274957 0.660471 19.185803 210 210 210 0
2.339844 0.658081 19.116376 210 210 210 0
2.403503 0.655501 19.041418 211 211 211 0
2.472198 0.654405 19.009600 210 210 210 0
2.548882 0.655427 19.039268 211 211 211 0
2.622378 0.655595 19.044142 211 211 211 0
2.692813 0.655009 19.027122 210 210 210 0
2.766617 0.655251 19.034172 211 211 211 0
2.836572 0.654594 19.015063 210 210 210 0
3.033236 0.682478 19.825074 200 200 200 0
3.511653 0.770851 22.392177 194 194 194 0
3.565559 0.764048 22.194577 192 192 192 0
3.683079 0.770877 22.392940 189 189 189 0
5.889641 1.204699 34.994899 186 186 186 0
6.022557 1.204511 34.989440 177 177 177 0
6.155207 1.204280 34.982706 135 135 135 0
-10.712644 1.339080 35.008640 197 197 197 0
-6.375787 0.807062 21.099652 196 196 196 0
-6.384413 0.818514 21.399071 197 197 197 0
-6.261211 0.813144 21.258673 197 197 197 0
-6.145715 0.808647 21.141089 197 197 197 0
-6.055907 0.807454 21.109917 197 197 197 0
-5.970998 0.806892 21.095205 197 197 197 0
-5.962556 0.816788 21.353947 197 197 197 0
-5.913166 0.821273 21.471190 198 198 198 0
-5.812284 0.818632 21.402132 198 198 198 0
-5.725301 0.817900 21.383011 198 198 198 0
-5.628692 0.815753 21.326863 198 198 198 0
-5.544172 0.815319 21.315538 198 198 198 0
-5.464040 0.815528 21.321001 198 198 198 0
-5.424204 0.821849 21.486251 198 198 198 0
-5.359626 0.824558 21.557069 199 199 199 0
-5.260920 0.822019 21.490685 199 199 199 0
-5.166055 0.820009 21.438136 199 199 199 0
-5.084165 0.820027 21.438603 199 199 199 0
-5.036186 0.825604 21.584423 199 199 199 0
-5.004146 0.834024 21.804557 199 199 199 0
-4.906579 0.831624 21.741792 199 199 199 0
-4.775344 0.823335 21.525104 199 199 199 0
-4.662117 0.817915 21.383404 199 199 199 0
-4.551320 0.812736 21.247993 200 200 200 0
-4.504423 0.818986 21.411400 201 201 201 0
-4.471499 0.828055 21.648505 200 200 200 0
-4.375675 0.825599 21.584291 201 201 201 0
-4.263594 0.819922 21.435869 201 201 201 0
-4.147950 0.813324 21.263362 201 201 201 0
-4.039011 0.807802 21.119011 200 200 200 0
-3.955486 0.807242 21.104368 201 201 201 0
-3.910034 0.814590 21.296483 201 201 201 0
-3.845236 0.818135 21.389158 202 202 202 0
-3.747148 0.814597 21.296664 201 201 201 0
-3.637459 0.808324 21.132658 201 201 201 0
-3.547205 0.806183 21.076680 202 202 202 0
-3.475280 0.808205 21.129532 202 202 202 0
-3.405096 0.810737 21.195742 201 201 201 0
-3.331175 0.812482 21.241353 202 202 202 0
-3.245832 0.811458 21.214587 202 202 202 0
-3.150567 0.807838 21.119942 203 203 203 0
-3.060560 0.805410 21.056484 202 202 202 0
-2.975572 0.804209 21.025063 203 203 203 0
-2.906150 0.807264 21.104940 203 203 203 0
-2.834129 0.809751 21.169964 203 203 203 0
-2.749159 0.808576 21.139243 203 203 203 0
-2.662942 0.806952 21.096789 203 203 203 0
-2.568025 0.802508 20.980597 204 204 204 0
-2.474313 0.798166 20.867074 204 204 204 0
-2.389507 0.796502 20.823591 204 204 204 0
-2.317758 0.799227 20.894817 204 204 204 0
-2.248355 0.802984 20.993043 203 203 203 0
-2.156402 0.798668 20.880198 204 204 204 0
-2.068165 0.795448 20.796025 204 204 204 0
-1.978929 0.791572 20.694686 204 204 204 0
-1.891053 0.787939 20.599707 204 204 204 0
-1.811433 0.787580 20.590319 204 204 204 0
-1.732082 0.787310 20.583271 204 204 204 0
-1.658693 0.789854 20.649778 204 204 204 0
-1.577221 0.788610 20.617264 204 204 204 0
-1.494909 0.786794 20.569787 204 204 204 0
-1.412816 0.784898 20.520200 205 205 205 0
-1.333583 0.784461 20.508776 205 205 205 0
-1.254464 0.784040 20.497783 205 205 205 0
-1.175245 0.783497 20.483569 205 205 205 0
-1.095194 0.782282 20.451808 206 206 206 0
-1.016927 0.782252 20.451028 206 206 206 0
-0.938292 0.781910 20.442094 206 206 206 0
-0.858568 0.780517 20.405667 206 206 206 0
-0.779511 0.779511 20.379369 206 206 206 0
-0.701590 0.779544 20.380237 205 205 205 0
-0.623141 0.778926 20.364091 206 206 206 0
-0.544958 0.778512 20.353251 206 206 206 0
-0.467440 0.779067 20.367762 206 206 206 0
-0.388752 0.777505 20.326917 206 206 206 0
-0.309561 0.773902 20.232739 207 207 207 0
-0.231175 0.770582 20.145945 207 207 207 0
-0.153767 0.768835 20.100274 206 206 206 0
-0.076912 0.769120 20.107721 207 207 207 0
0.000000 0.772149 20.186904 207 207 207 0
0.076953 0.769527 20.118363 207 207 207 0
0.153369 0.766843 20.048181 207 207 207 0
0.229230 0.764099 19.976447 208 208 208 0
0.304247 0.760617 19.885408 208 208 208 0
0.379057 0.758114 19.819970 208 208 208 0
0.454145 0.756908 19.788452 208 208 208 0
0.531032 0.758617 19.833131 208 208 208 0
0.607774 0.759718 19.861898 208 208 208 0
0.682217 0.758019 19.817502 208 208 208 0
0.754978 0.754978 19.737999 208 208 208 0
0.828931 0.753574 19.701273 208 208 208 0
0.903353 0.752794 19.680883 208 208 208 0
0.977810 0.752162 19.664361 208 208 208 0
1.053345 0.752389 19.670305 209 209 209 0
1.127525 0.751683 19.651845 209 209 209 0
1.201698 0.751061 19.635582 209 209 209 0
1.272802 0.748707 19.574048 209 209 209 0
1.345129 0.747294 19.537092 209 209 209 0
1.417294 0.745944 19.501813 209 209 209 0
1.491205 0.745602 19.492873 209 209 209 0
1.567769 0.746557 19.517823 210 210 210 0
1.641521 0.746146 19.507088 209 209 209 0
1.714791 0.745561 19.491796 210 210 210 0
1.782567 0.742736 19.417944 210 210 210 0
1.849295 0.739718 19.339029 210 210 210 0
1.917453 0.737482 19.280576 209 209 209 0
1.991107 0.737447 19.279664 210 210 210 0
2.067067 0.738238 19.300347 210 210 210 0
2.142932 0.738942 19.318746 210 210 210 0
2.210859 0.736953 19.266748 210 210 210 0
2.273055 0.733244 19.169769 210 210 210 0
2.338749 0.730859 19.107425 211 211 211 0
2.401125 0.727614 19.022579 210 210 210 0
2.470603 0.726648 18.997329 211 211 211 0
2.545725 0.727350 19.015684 211 211 211 0
2.620386 0.727885 19.029672 210 210 210 0
2.689877 0.726994 19.006374 211 211 211 0
2.760270 0.726387 18.990504 211 211 211 0
2.831260 0.725964 18.979455 210 210 210 0
4.861768 1.215442 31.776262 202 202 202 0
3.657852 0.892159 23.324417 194 194 194 0
3.548936 0.844985 22.091103 193 193 193 0
5.717530 1.329658 34.762306 190 190 190 0
5.890069 1.338652 34.997437 187 187 187 0
6.022976 1.338439 34.991870 181 181 181 0
6.155591 1.338172 34.984888 159 159 159 0
6.291015 1.338514 34.993823 79 79 79 0
-10.713016 1.473040 35.009856 196 196 196 0
-6.431128 0.895474 21.282795 196 196 196 0
-6.394586 0.901801 21.433171 196 196 196 0
-6.252611 0.893230 21.229475 197 197 197 0
-6.133097 0.887685 21.097684 196 196 196 0
-6.047105 0.886909 21.079234 197 197 197 0
-5.964856 0.886668 21.073506 198 198 198 0
-5.964028 0.898689 21.359219 197 197 197 0
-5.907731 0.902570 21.451455 198 198 198 0
-5.807262 0.899717 21.383638 198 198 198 0
-5.718244 0.898581 21.356655 198 198 198 0
-5.630898 0.897679 21.335221 198 198 198 0
-5.542003 0.896501 21.307202 199 199 199 0
-5.470601 0.898158 21.346603 198 198 198 0
-5.412026 0.902004 21.438013 198 198 198 0
-5.355367 0.906293 21.539936 198 198 198 0
-5.257268 0.903593 21.475767 199 199 199 0
-5.164125 0.901673 21.430126 198 198 198 0
-5.079901 0.901273 21.420624 199 199 199 0
-5.030423 0.907125 21.559726 200 200 200 0
-4.993935 0.915555 21.760065 199 199 199 0
-4.902756 0.914073 21.724852 199 199 199 0
-4.773655 0.905348 21.517491 199 199 199 0
-4.662143 0.899712 21.383525 200 200 200 0
-4.545077 0.892783 21.218845 200 200 200 0
-4.492973 0.898595 21.356971 200 200 200 0
-4.462541 0.909036 21.605138 200 200 200 0
-4.368057 0.906578 21.546711 200 200 200 0
-4.256333 0.900378 21.399363 201 201 201 0
-4.142536 0.893488 21.235605 201 201 201 0
-4.030922 0.886803 21.076718 201 201 201 0
-3.956886 0.888280 21.111835 200 200 200 0
-3.904501 0.894781 21.266343 201 201 201 0
-3.841175 0.898998 21.366569 201 201 201 0
-3.744913 0.895523 21.283960 201 201 201 0
-3.634654 0.888471 21.116365 201 201 201 0
-3.548525 0.887131 21.084524 201 201 201 0
-3.472659 0.888355 21.113597 201 201 201 0
-3.402439 0.891115 21.179206 202 202 202 0
-3.327181 0.892658 21.215886 202 202 202 0
-3.243669 0.892009 21.200448 202 202 202 0
-3.150430 0.888583 21.119018 202 202 202 0
-3.057363 0.885026 21.034490 202 202 202 0
-2.973934 0.884143 21.013492 203 203 203 0
-2.900899 0.886386 21.066804 203 203 203 0
-2.830667 0.889638 21.144104 203 203 203 0
-2.749268 0.889469 21.140088 203 203 203 0
-2.661584 0.887195 21.086026 203 203 203 0
-2.567645 0.882628 20.977494 203 203 203 0
-2.475564 0.878426 20.877618 204 204 204 0
-2.387437 0.875393 20.805549 204 204 204 0
-2.317130 0.878911 20.889160 204 204 204 0
-2.246886 0.882705 20.979325 204 204 204 0
-2.155038 0.877978 20.866986 204 204 204 0
-2.067873 0.874869 20.793092 204 204 204 0
-1.976537 0.869676 20.669670 204 204 204 0
-1.888716 0.865662 20.574251 204 204 204 0
-1.811569 0.866402 20.591857 205 205 205 0
-1.731941 0.865970 20.581592 204 204 204 0
-1.656776 0.867835 20.625903 205 205 205 0
-1.577020 0.867361 20.614646 205 205 205 0
-1.493142 0.864451 20.545468 205 205 205 0
-1.410814 0.862164 20.491130 205 205 205 0
-1.332065 0.861924 20.485423 205 205 205 0
-1.254050 0.862159 20.491013 205 205 205 0
-1.174354 0.861193 20.468046 206 206 206 0
-1.095259 0.860560 20.453011 205 205 205 0
-1.016160 0.859828 20.435594 205 205 205 0
-0.937287 0.859180 20.420191 206 206 206 0
-0.857094 0.857094 20.370617 206 206 206 0
-0.779218 0.857140 20.371719 206 206 206 0
-0.700981 0.856754 20.362551 207 207 207 0
-0.623104 0.856768 20.362887 206 206 206 0
-0.543957 0.854789 20.315839 206 206 206 0
-0.466746 0.855701 20.337527 206 206 206 0
-0.388515 0.854733 20.314509 206 206 206 0
-0.309356 0.850729 20.219352 207 207 207 0
-0.231042 0.847156 20.134417 206 206 206 0
-0.153574 0.844658 20.075045 207 207 207 0
-0.076822 0.845045 20.084245 207 207 207 0
0.000000 0.848131 20.157598 207 207 207 0
0.076802 0.844826 20.079059 207 207 207 0
0.153245 0.842846 20.032001 207 207 207 0
0.229032 0.839785 19.959236 207 207 207 0
0.303844 0.835571 19.859095 208 208 208 0
0.378900 0.833580 19.811773 207 207 207 0
0.453487 0.831393 19.759775 208 208 208 0
0.530715 0.833981 19.821302 207 207 207 0
0.606977 0.834593 19.835836 209 209 209 0
0.681131 0.832494 19.785947 208 208 208 0
0.754215 0.829637 19.718047 209 209 209 0
0.827965 0.827965 19.678321 209 209 209 0
0.902018 0.826850 19.651813 208 208 208 0
0.976754 0.826484 19.643112 209 209 209 0
1.051925 0.826513 19.643799 208 208 208 0
1.125787 0.825577 19.621552 208 208 208 0
1.200153 0.825106 19.610351 209 209 209 0
1.271493 0.822731 19.553907 209 209 209 0
1.344074 0.821379 19.521775 209 209 209 0
1.415767 0.819654 19.480792 209 209 209 0
1.489635 0.819299 19.472356 209 209 209 0
1.567245 0.820938 19.511303 209 209 209 0
1.640102 0.820051 19.490215 209 209 209 0
1.713450 0.819476 19.476557 210 210 210 0
1.781436 0.816492 19.405624 209 209 209 0
1.848248 0.813229 19.328083 209 209 209 0
1.915887 0.810568 19.264826 209 209 209 0
1.990368 0.810891 19.272502 210 210 210 0
2.063194 0.810541 19.264183 210 210 210 0
2.142418 0.812641 19.314117 210 210 210 0
2.208519 0.809790 19.246357 210 210 210 0
2.271677 0.806079 19.158146 210 210 210 0
2.336808 0.803278 19.091565 210 210 210 0
2.399017 0.799672 19.005874 211 211 211 0
2.468245 0.798550 18.979203 211 211 211 0
2.544328 0.799646 19.005249 211 211 211 0
2.620592 0.800736 19.031169 211 211 211 0
2.688188 0.799191 18.994441 211 211 211 0
2.753172 0.796971 18.941673 211 211 211 0
3.618129 1.020498 24.254256 211 211 211 0
4.923376 1.353928 32.178926 203 203 203 0
4.835174 1.297242 30.831652 196 196 196 0
5.530371 1.448430 34.424966 194 194 194 0
5.692469 1.456213 34.609936 191 191 191 0
5.890417 1.472604 34.999508 189 189 189 0
6.023503 1.472412 34.994935 183 183 183 0
6.155838 1.472048 34.986289 170 170 170 0
6.289944 1.472115 34.987869 96 96 96 0
-10.713435 1.607015 35.011226 196 196 196 0
-6.442741 0.978644 21.321225 196 196 196 0
-6.404277 0.985273 21.465650 196 196 196 0
-6.251523 0.974263 21.225782 196 196 196 0
-6.132318 0.968261 21.095007 197 197 197 0
-6.050568 0.968091 21.091303 197 197 197 0
-5.958093 0.966177 21.049613 198 198 198 0
-5.950090 0.978097 21.309302 197 197 197 0
-5.901630 0.983605 21.429304 198 198 198 0
-5.804400 0.981025 21.373101 198 198 198 0
-5.715961 0.979879 21.348125 198 198 198 0
-5.620917 0.977551 21.297402 198 198 198 0
-5.535629 0.976876 21.282695 198 198 198 0
-5.463624 0.978559 21.319379 199 199 199 0
-5.425522 0.986459 21.491471 198 198 198 0
-5.350459 0.987777 21.520196 199 199 199 0
-5.261476 0.986527 21.492958 198 198 198 0
-5.151922 0.981318 21.379487 199 199 199 0
-5.076056 0.982462 21.404409 200 200 200 0
-5.026566 0.988833 21.543194 200 200 200 0
-4.986265 0.997253 21.726646 200 200 200 0
-4.899636 0.996536 21.711028 199 199 199 0
-4.774015 0.987727 21.519112 200 200 200 0
-4.654285 0.979849 21.347481 200 200 200 0
-4.543899 0.973693 21.213350 201 201 201 0
-4.483101 0.978131 21.310047 200 200 200 0
-4.460108 0.991135 21.593360 200 200 200 0
-4.360947 0.987384 21.511637 201 201 201 0
-4.260005 0.983078 21.417821 201 201 201 0
-4.140704 0.974283 21.226215 201 201 201 0
-4.032513 0.967803 21.085036 201 201 201 0
-3.940927 0.965125 21.026688 202 202 202 0
-3.894638 0.973659 21.212623 201 201 201 0
-3.835789 0.979350 21.336607 201 201 201 0
-3.741261 0.975981 21.263203 201 201 201 0
-3.632264 0.968604 21.102478 201 201 201 0
-3.543664 0.966454 21.055640 202 202 202 0
-3.466670 0.967443 21.077187 201 201 201 0
-3.395542 0.970155 21.136274 202 202 202 0
-3.322746 0.972511 21.187602 201 201 201 0
-3.243106 0.972932 21.196773 202 202 202 0
-3.147987 0.968611 21.102643 202 202 202 0
-3.056013 0.965057 21.025203 203 203 203 0
-2.971239 0.963645 20.994447 202 202 202 0
-2.900789 0.966930 21.066006 203 203 203 0
-2.830149 0.970337 21.140239 204 204 204 0
-2.745432 0.968976 21.110587 203 203 203 0
-2.658549 0.966745 21.061981 203 203 203 0
-2.565823 0.962184 20.962610 204 204 204 0
-2.473548 0.957502 20.860620 203 203 203 0
-2.387189 0.954876 20.803393 204 204 204 0
-2.314849 0.957869 20.868597 204 204 204 0
-2.244179 0.961791 20.954051 203 203 203 0
-2.154865 0.957718 20.865311 204 204 204 0
-2.066141 0.953604 20.775681 204 204 204 0
-1.977264 0.949087 20.677275 204 204 204 0
-1.888496 0.944248 20.571856 204 204 204 0
-1.807776 0.943187 20.548746 204 204 204 0
-1.729859 0.943559 20.556846 205 205 205 0
-1.656435 0.946534 20.621666 205 205 205 0
-1.574819 0.944891 20.585864 205 205 205 0
-1.491365 0.941914 20.521012 205 205 205 0
-1.409844 0.939896 20.477038 205 205 205 0
-1.330566 0.939223 20.462382 205 205 205 0
-1.253025 0.939769 20.474260 205 205 205 0
-1.173132 0.938505 20.446739 205 205 205 0
-1.094317 0.937986 20.435433 206 206 206 0
-1.015745 0.937611 20.427248 205 205 205 0
-0.936762 0.936762 20.408761 205 205 205 0
-0.857664 0.935633 20.384161 207 207 207 0
-0.778273 0.933928 20.347014 207 207 207 0
-0.700394 0.933858 20.345500 207 207 207 0
-0.622435 0.933653 20.341029 206 206 206 0
-0.544001 0.932573 20.317490 207 207 207 0
-0.466199 0.932399 20.313698 207 207 207 0
-0.388177 0.931624 20.296815 206 206 206 0
-0.309352 0.928057 20.219109 207 207 207 0
-0.230752 0.923009 20.109137 207 207 207 0
-0.153395 0.920372 20.051676 207 207 207 0
-0.076732 0.920779 20.060540 208 208 208 0
0.000000 0.924039 20.131558 207 207 207 0
0.076731 0.920771 20.060369 208 208 208 0
0.153092 0.918554 20.012070 208 208 208 0
0.228842 0.915370 19.942693 207 207 207 0
0.303813 0.911438 19.857028 208 208 208 0
0.378598 0.908635 19.795976 207 207 207 0
0.453147 0.906295 19.744987 208 208 208 0
0.530167 0.908858 19.800822 208 208 208 0
0.606173 0.909260 19.809582 207 207 207 0
0.681146 0.908195 19.786389 209 209 209 0
0.754031 0.904837 19.713228 208 208 208 0
0.827057 0.902244 19.656738 208 208 208 0
0.901673 0.901673 19.644284 208 208 208 0
0.975807 0.900745 19.624076 208 208 208 0
1.051484 0.901272 19.635564 208 208 208 0
1.125313 0.900250 19.613298 209 209 209 0
1.199878 0.899908 19.605846 209 209 209 0
1.270454 0.896791 19.537929 209 209 209 0
1.342640 0.895093 19.500946 209 209 209 0
1.414739 0.893519 19.466649 209 209 209 0
1.489015 0.893409 19.464247 209 209 209 0
1.566002 0.894858 19.495825 209 209 209 0
1.638071 0.893493 19.466081 209 209 209 0
1.712464 0.893459 19.465344 209 209 209 0
1.781111 0.890555 19.402079 209 209 209 0
1.847359 0.886732 19.318785 209 209 209 0
1.915340 0.884003 19.259330 210 210 210 0
1.987805 0.883469 19.247684 209 209 209 0
2.060139 0.882917 19.235661 210 210 210 0
2.139936 0.885491 19.291734 211 211 211 0
2.207053 0.882821 19.233575 210 210 210 0
2.271227 0.879185 19.154352 210 210 210 0
2.335679 0.875880 19.082344 211 211 211 0
2.398113 0.872041 18.998717 210 210 210 0
2.465011 0.870004 18.954333 211 211 211 0
2.541703 0.871441 18.985646 210 210 210 0
2.619380 0.873127 19.022369 210 210 210 0
2.691113 0.872793 19.015106 211 211 211 0
2.749733 0.868337 18.918011 211 211 211 0
3.621038 1.114165 24.273756 211 211 211 0
4.973534 1.492060 32.506756 203 203 203 0
5.058359 1.480495 32.254799 196 196 196 0
5.511159 1.574617 34.305381 194 194 194 0
5.679709 1.585035 34.532356 193 193 193 0
5.871713 1.601376 34.888373 189 189 189 0
6.023928 1.606381 34.997401 185 185 185 0
6.156102 1.605940 34.987793 176 176 176 0
6.289655 1.605869 34.986261 117 117 117 0
-10.713628 1.740965 35.011856 196 196 196 0
-6.469917 1.064670 21.411161 196 196 196 0
-6.387963 1.064660 21.410970 196 196 196 0
-6.250387 1.055260 21.221922 196 196 196 0
-6.122095 1.047200 21.059837 197 197 197 0
-6.037915 1.046572 21.047198 197 197 197 0
-5.946008 1.044569 21.006919 197 197 197 0
-5.951165 1.059797 21.313154 198 198 198 0
-5.894753 1.064330 21.404331 197 197 197 0
-5.816453 1.064984 21.417484 198 198 198 0
-5.727541 1.063686 21.391378 197 197 197 0
-5.615080 1.057914 21.275285 199 199 199 0
-5.531236 1.057442 21.265806 198 198 198 0
-5.453457 1.058133 21.279707 198 198 198 0
-5.413261 1.066248 21.442902 199 199 199 0
-5.352173 1.070435 21.527092 198 198 198 0
-5.256762 1.067780 21.473700 199 199 199 0
-5.159521 1.064663 21.411021 199 199 199 0
-5.076024 1.064328 21.404275 199 199 199 0
-5.020569 1.069957 21.517493 199 199 199 0
-4.980988 1.079214 21.703652 200 200 200 0
-4.896661 1.078925 21.697844 199 199 199 0
-4.769505 1.069027 21.498784 200 200 200 0
-4.648947 1.060286 21.323001 200 200 200 0
-4.536710 1.053165 21.179786 200 200 200 0
-4.477698 1.058365 21.284364 200 200 200 0
-4.452743 1.071957 21.557700 200 200 200 0
-4.361809 1.069878 21.515892 200 200 200 0
-4.253291 1.063323 21.384069 201 201 201 0
-4.137258 1.054595 21.208552 201 201 201 0
-4.030050 1.047813 21.072158 201 201 201 0
-3.941091 1.045596 21.027565 201 201 201 0
-3.886597 1.052620 21.168831 202 202 202 0
-3.833859 1.060429 21.325872 201 201 201 0
-3.742369 1.057626 21.269502 201 201 201 0
-3.632092 1.049271 21.101479 202 202 202 0
-3.539421 1.045738 21.030430 202 202 202 0
-3.458167 1.045492 21.025486 202 202 202 0
-3.391616 1.049786 21.111835 202 202 202 0
-3.321674 1.053214 21.180766 202 202 202 0
-3.241600 1.053520 21.186931 203 203 203 0
-3.147427 1.049142 21.098892 203 203 203 0
-3.053530 1.044629 21.008118 203 203 203 0
-2.969141 1.043212 20.979620 203 203 203 0
-2.898788 1.046784 21.051471 203 203 203 0
-2.828445 1.050565 21.127508 203 203 203 0
-2.745554 1.049771 21.111525 203 203 203 0
-2.658791 1.047402 21.063900 204 204 204 0
-2.564548 1.041847 20.952187 203 203 203 0
-2.474787 1.037814 20.871069 203 203 203 0
-2.384262 1.033180 20.777884 204 204 204 0
-2.312347 1.036569 20.846043 204 204 204 0
-2.241164 1.040540 20.925902 204 204 204 0
-2.152077 1.036185 20.838312 204 204 204 0
-2.064214 1.032107 20.756295 204 204 204 0
-1.973620 1.026283 20.639166 205 205 205 0
-1.887993 1.022663 20.566371 204 204 204 0
-1.807065 1.021384 20.540660 205 205 205 0
-1.727843 1.020998 20.532895 205 205 205 0
-1.655377 1.024757 20.608490 205 205 205 0
-1.574705 1.023558 20.584381 205 205 205 0
-1.490354 1.019716 20.507113 205 205 205 0
-1.408462 1.017223 20.456966 205 205 205 0
-1.330554 1.017483 20.462196 205 205 205 0
-1.251905 1.017173 20.455963 205 205 205 0
-1.171802 1.015562 20.423567 206 206 206 0
-1.093148 1.015066 20.413601 205 205 205 0
-1.013985 1.013985 20.391845 206 206 206 0
-0.935074 1.012997 20.371980 205 205 205 0
-0.855619 1.011187 20.335579 206 206 206 0
-0.777520 1.010776 20.327326 206 206 206 0
-0.699567 1.010485 20.321478 206 206 206 0
-0.621605 1.010108 20.313886 206 206 206 0
-0.542680 1.007834 20.268161 207 207 207 0
-0.465524 1.008635 20.284257 207 207 207 0
-0.387872 1.008468 20.280902 206 206 206 0
-0.308938 1.004049 20.192037 206 206 206 0
-0.230522 0.998927 20.089025 207 207 207 0
-0.153161 0.995545 20.021010 207 207 207 0
-0.076695 0.997034 20.050969 207 207 207 0
0.000000 0.999521 20.100967 207 207 207 0
0.076639 0.996308 20.036361 207 207 207 0
0.152869 0.993646 19.982826 208 208 208 0
0.228720 0.991118 19.931993 207 207 207 0
0.303488 0.986337 19.835828 207 207 207 0
0.378320 0.983632 19.781435 208 208 208 0
0.453108 0.981735 19.743283 208 208 208 0
0.529637 0.983611 19.781009 208 208 208 0
0.606111 0.984931 19.807552 207 207 207 0
0.680288 0.982638 19.761452 208 208 208 0
0.753397 0.979417 19.696666 208 208 208 0
0.826767 0.977088 19.649834 209 209 209 0
0.900801 0.975868 19.625305 209 209 209 0
0.974413 0.974413 19.596030 208 208 208 0
1.049764 0.974781 19.603433 209 209 209 0
1.123876 0.974026 19.588252 209 209 209 0
1.198871 0.974083 19.589394 209 209 209 0
1.269877 0.971082 19.529054 209 209 209 0
1.341966 0.969197 19.491151 209 209 209 0
1.413254 0.966964 19.446225 209 209 209 0
1.487268 0.966724 19.441414 209 209 209 0
1.564021 0.968203 19.471161 209 209 209 0
1.637348 0.967524 19.457498 209 209 209 0
1.711267 0.967238 19.451747 209 209 209 0
1.779423 0.963854 19.383694 210 210 210 0
1.846042 0.959942 19.305018 210 210 210 0
1.914237 0.957118 19.248234 210 210 210 0
1.986430 0.956429 19.234371 210 210 210 0
2.059598 0.956242 19.230608 210 210 210 0
2.137496 0.958188 19.269740 210 210 210 0
2.203468 0.954836 19.202332 210 210 210 0
2.267782 0.951005 19.125292 211 211 211 0
2.334240 0.948285 19.070587 210 210 210 0
2.396061 0.943903 18.982458 210 210 210 0
2.463792 0.942038 18.944963 211 211 211 0
2.538523 0.942880 18.961892 211 211 211 0
2.617784 0.945311 19.010774 211 211 211 0
2.690713 0.945386 19.012282 210 210 210 0
2.745618 0.939290 18.889701 211 211 211 0
3.624363 1.208121 24.296048 211 211 211 0
3.168291 1.029695 20.707784 204 204 204 0
5.239399 1.661273 33.409209 198 198 198 0
5.501428 1.702823 34.244806 195 195 195 0
5.665736 1.712897 34.447399 193 193 193 0
5.854483 1.729733 34.785992 190 190 190 0
6.024211 1.740328 34.999046 186 186 186 0
6.156473 1.739873 34.989901 180 180 180 0
6.289638 1.739687 34.986167 141 141 141 0
-10.713691 1.874896 35.012062 197 197 197 0
-6.484085 1.149078 21.458047 196 196 196 0
-6.399544 1.148636 21.449787 196 196 196 0
-6.244249 1.135318 21.201083 197 197 197 0
-6.116703 1.126761 21.041291 197 197 197 0
-6.033014 1.126163 21.030115 197 197 197 0
-5.948576 1.125406 21.015989 197 197 197 0
-5.951797 1.141441 21.315417 198 198 198 0
-5.901102 1.147437 21.427387 198 198 198 0
-5.801750 1.144007 21.363343 198 198 198 0
-5.723413 1.144683 21.375960 197 197 197 0
-5.618327 1.139950 21.287588 198 198 198 0
-5.532440 1.139032 21.270435 198 198 198 0
-5.456366 1.140136 21.291058 198 198 198 0
-5.418287 1.149334 21.462814 199 199 199 0
-5.345886 1.151422 21.501803 199 199 199 0
-5.248264 1.148058 21.438988 199 199 199 0
-5.150145 1.144477 21.372112 200 200 200 0
-5.073386 1.145603 21.393154 198 198 198 0
-5.018860 1.151869 21.510168 199 199 199 0
-4.979033 1.161774 21.695133 199 199 199 0
-4.892114 1.160841 21.677695 199 199 199 0
-4.766622 1.150564 21.485786 199 199 199 0
-4.646150 1.141160 21.310172 199 199 199 0
-4.534574 1.133643 21.169813 200 200 200 0
-4.472181 1.138373 21.258139 200 200 200 0
-4.444007 1.152150 21.515406 201 201 201 0
-4.356691 1.150824 21.490644 200 200 200 0
-4.246500 1.143289 21.349927 201 201 201 0
-4.135201 1.135153 21.198006 201 201 201 0
-4.023720 1.126642 21.039059 201 201 201 0
-3.943402 1.126686 21.039892 201 201 201 0
-3.877907 1.131056 21.121496 200 200 200 0
-3.834882 1.142305 21.331563 202 202 202 0
-3.737941 1.137634 21.244338 202 202 202 0
-3.629005 1.129024 21.083543 202 202 202 0
-3.535449 1.124915 21.006825 202 202 202 0
-3.453855 1.124511 20.999269 201 201 201 0
-3.387044 1.129015 21.083376 202 202 202 0
-3.315824 1.132233 21.143464 202 202 202 0
-3.236607 1.132813 21.154296 202 202 202 0
-3.144345 1.128739 21.078234 203 203 203 0
-3.047596 1.122799 20.967296 202 202 202 0
-2.964889 1.121850 20.949577 203 203 203 0
-2.892552 1.124881 21.006187 203 203 203 0
-2.825722 1.130289 21.107165 203 203 203 0
-2.742731 1.129360 21.089820 203 203 203 0
-2.656643 1.127061 21.046884 204 204 204 0
-2.564196 1.121836 20.949316 204 204 204 0
-2.470328 1.115632 20.833465 204 204 204 0
-2.382157 1.111673 20.759537 204 204 204 0
-2.309967 1.115157 20.824585 204 204 204 0
-2.248119 1.124060 20.990842 204 204 204 0
-2.150185 1.114911 20.819994 203 203 203 0
-2.062149 1.110388 20.735540 204 204 204 0
-1.971083 1.103806 20.612628 204 204 204 0
-1.886496 1.100456 20.550068 204 204 204 0
-1.805017 1.098706 20.517382 205 205 205 0
-1.728197 1.099762 20.537098 205 205 205 0
-1.653771 1.102514 20.588498 204 204 204 0
-1.573386 1.101370 20.567135 204 204 204 0
-1.489752 1.097712 20.498828 205 205 205 0
-1.407689 1.094869 20.445732 204 204 204 0
-1.328432 1.094003 20.429562 205 205 205 0
-1.251012 1.094636 20.441377 205 205 205 0
-1.170998 1.092932 20.409553 206 206 206 0
-1.091967 1.091967 20.391540 205 205 205 0
-1.013166 1.091102 20.375379 206 206 206 0
-0.934369 1.090097 20.356623 206 206 206 0
-0.855388 1.088676 20.330079 205 205 205 0
-0.776494 1.087091 20.300491 206 206 206 0
-0.698964 1.087277 20.303951 206 206 206 0
-0.621022 1.086789 20.294842 206 206 206 0
-0.542420 1.084841 20.258466 206 206 206 0
-0.465443 1.086034 20.280740 207 207 207 0
-0.387535 1.085099 20.263278 206 206 206 0
-0.308925 1.081237 20.191166 206 206 206 0
-0.230372 1.075068 20.075968 206 206 206 0
-0.153115 1.071807 20.015073 207 207 207 0
-0.076567 1.071942 20.017582 206 206 206 0
0.000000 1.074993 20.074572 207 207 207 0
0.076573 1.072024 20.019121 208 208 208 0
0.152853 1.069974 19.980841 207 207 207 0
0.228444 1.066072 19.907971 207 207 207 0
0.303261 1.061415 19.821007 207 207 207 0
0.378083 1.058633 19.769063 208 208 208 0
0.452784 1.056497 19.729171 208 208 208 0
0.529469 1.058937 19.774734 208 208 208 0
0.605393 1.059438 19.784086 208 208 208 0
0.679814 1.057488 19.747679 208 208 208 0
0.753024 1.054234 19.686905 209 209 209 0
0.825885 1.051126 19.628875 209 209 209 0
0.900279 1.050325 19.613920 209 209 209 0
0.974363 1.049314 19.595024 208 208 208 0
1.049281 1.049281 19.594416 209 209 209 0
1.123450 1.048553 19.580824 208 208 208 0
1.197510 1.047821 19.567150 208 208 208 0
1.268987 1.045048 19.515369 209 209 209 0
1.340861 1.042892 19.475110 209 209 209 0
1.411936 1.040374 19.428085 209 209 209 0
1.486355 1.040448 19.429472 209 209 209 0
1.563542 1.042362 19.465203 209 209 209 0
1.636769 1.041580 19.450610 210 210 210 0
1.708886 1.040191 19.424675 209 209 209 0
1.778631 1.037535 19.375068 209 209 209 0
1.844993 1.033196 19.294047 210 210 210 0
1.912473 1.029793 19.230501 209 209 209 0
1.984507 1.029004 19.215752 210 210 210 0
2.057574 1.028787 19.211708 210 210 210 0
2.135517 1.030939 19.251903 210 210 210 0
2.203150 1.028137 19.199562 211 211 211 0
2.267312 1.023947 19.121332 211 211 211 0
2.332432 1.020439 19.055815 211 211 211 0
2.394211 1.015726 18.967806 211 211 211 0
2.461774 1.013672 18.929443 210 210 210 0
2.536203 1.014481 18.944562 210 210 210 0
2.615592 1.017175 18.994856 211 211 211 0
2.692028 1.018605 19.021573 210 210 210 0
2.749140 1.012841 18.913935 210 210 210 0
3.629112 1.302758 24.327885 211 211 211 0
3.171449 1.110007 20.728427 204 204 204 0
5.327421 1.819119 33.970481 198 198 198 0
5.499714 1.833238 34.234134 195 195 195 0
5.657389 1.841941 34.396651 194 194 194 0
5.840154 1.858231 34.700855 190 190 190 0
6.024050 1.874149 34.998109 188 188 188 0
6.156692 1.873776 34.991145 182 182 182 0
6.289665 1.873517 34.986315 156 156 156 0
6.326002 1.845084 34.455347 78 78 78 0
-10.713702 2.008819 35.012098 196 196 196 0
-6.481938 1.230748 21.450942 196 196 196 0
-6.380637 1.227046 21.386416 196 196 196 0
-6.229827 1.213603 21.152115 197 197 197 0
-6.117682 1.207437 21.044659 196 196 196 0
-6.036765 1.207353 21.043190 197 197 197 0
-5.942216 1.204503 20.993520 196 196 196 0
-5.945475 1.221673 21.292776 197 197 197 0
-5.892527 1.227610 21.396249 197 197 197 0
-5.799184 1.225180 21.353896 198 198 198 0
-5.710047 1.223582 21.326039 198 198 198 0
-5.607842 1.219096 21.247862 199 199 199 0
-5.527432 1.219286 21.251181 198 198 198 0
-5.451390 1.220460 21.271640 198 198 198 0
-5.404243 1.228237 21.407181 198 198 198 0
-5.346427 1.233791 21.503979 198 198 198 0
-5.256839 1.232072 21.474015 199 199 199 0
-5.147415 1.225575 21.360785 199 199 199 0
-5.062289 1.224747 21.346359 199 199 199 0
-5.013340 1.232789 21.486511 199 199 199 0
-4.965407 1.241352 21.635760 200 200 200 0
-4.887228 1.242516 21.656046 200 200 200 0
-4.764839 1.232286 21.477751 200 200 200 0
-4.641542 1.221458 21.289036 200 200 200 0
-4.530503 1.213528 21.150810 200 200 200 0
-4.467663 1.218453 21.236662 200 200 200 0
-4.437612 1.232670 21.484443 200 200 200 0
-4.349556 1.231007 21.455451 201 201 201 0
-4.246725 1.225017 21.351057 200 200 200 0
-4.133820 1.215830 21.190929 201 201 201 0
-4.019213 1.205764 21.015494 201 201 201 0
-3.935494 1.204743 20.997702 201 201 201 0
-3.877092 1.211591 21.117058 201 201 201 0
-3.826417 1.221197 21.284479 201 201 201 0
-3.735771 1.218186 21.232001 202 202 202 0
-3.625806 1.208602 21.064959 202 202 202 0
-3.537058 1.205815 21.016385 202 202 202 0
-3.449853 1.203437 20.974939 202 202 202 0
-3.381834 1.207798 21.050942 202 202 202 0
-3.312010 1.211711 21.119145 202 202 202 0
-3.232379 1.212142 21.126661 202 202 202 0
-3.139067 1.207333 21.042847 202 202 202 0
-3.047555 1.202982 20.967011 203 203 203 0
-2.962177 1.200882 20.930412 202 202 202 0
-2.889456 1.203940 20.983700 203 203 203 0
-2.822689 1.209724 21.084511 202 202 202 0
-2.739671 1.208679 21.066293 203 203 203 0
-2.654447 1.206567 21.029483 203 203 203 0
-2.561428 1.200669 20.926701 203 203 203 0
-2.468848 1.194604 20.820980 203 203 203 0
-2.383653 1.191827 20.772578 204 204 204 0
-2.308224 1.193909 20.808869 204 204 204 0
-2.497729 1.338069 23.321470 203 203 203 0
-2.147480 1.193044 20.793802 204 204 204 0
-2.061812 1.189507 20.732144 205 205 205 0
-1.970106 1.182064 20.602416 205 205 205 0
-1.884655 1.177910 20.530014 204 204 204 0
-1.803943 1.176485 20.505183 204 204 204 0
-1.725969 1.176797 20.510619 204 204 204 0
-1.650966 1.179261 20.553573 205 205 205 0
-1.571503 1.178627 20.542517 205 205 205 0
-1.488372 1.175031 20.479838 205 205 205 0
-1.406082 1.171735 20.422403 205 205 205 0
-1.326014 1.170012 20.392365 205 205 205 0
-1.249994 1.171869 20.424735 205 205 205 0
-1.170110 1.170110 20.394073 206 206 206 0
-1.091307 1.169258 20.379219 205 205 205 0
-1.012214 1.167939 20.356235 205 205 205 0
-0.933668 1.167085 20.341359 206 206 206 0
-0.854487 1.165210 20.308675 205 205 205 0
-0.776435 1.164653 20.298965 206 206 206 0
-0.698423 1.164038 20.288243 206 206 206 0
-0.620650 1.163719 20.282679 206 206 206 0
-0.542366 1.162213 20.256444 207 207 207 0
-0.464631 1.161578 20.245360 207 207 207 0
-0.387166 1.161498 20.243979 207 207 207 0
-0.308479 1.156796 20.162023 206 206 206 0
-0.230168 1.150838 20.058180 207 207 207 0
-0.152918 1.146887 19.989308 207 207 207 0
-0.076567 1.148505 20.017523 207 207 207 0
0.000000 1.151585 20.071194 207 207 207 0
0.076491 1.147363 19.997618 208 208 208 0
0.152711 1.145331 19.962194 208 208 208 0
0.228394 1.141970 19.903610 207 207 207 0
0.303091 1.136593 19.809891 207 207 207 0
0.377868 1.133604 19.757800 207 207 207 0
0.452551 1.131378 19.719002 207 207 207 0
0.529066 1.133713 19.759701 208 208 208 0
0.605007 1.134388 19.771466 208 208 208 0
0.679548 1.132580 19.739950 208 208 208 0
0.752434 1.128652 19.671489 209 209 209 0
0.824987 1.124983 19.607542 209 209 209 0
0.899168 1.123960 19.589715 208 208 208 0
0.973592 1.123376 19.579534 209 209 209 0
1.048752 1.123663 19.584546 208 208 208 0
1.122697 1.122697 19.567704 209 209 209 0
1.196884 1.122079 19.556933 209 209 209 0
1.267547 1.118423 19.493219 208 208 208 0
1.339749 1.116458 19.458960 209 209 209 0
1.410956 1.113913 19.414599 209 209 209 0
1.483998 1.112998 19.398661 210 210 210 0
1.562052 1.115751 19.446647 209 209 209 0
1.635766 1.115295 19.438692 209 209 209 0
1.708409 1.114180 19.419254 209 209 209 0
1.777808 1.111130 19.366096 210 210 210 0
1.844768 1.106861 19.291693 209 209 209 0
1.910457 1.102187 19.210231 210 210 210 0
1.982673 1.101485 19.197995 209 209 209 0
2.054791 1.100781 19.185720 211 211 211 0
2.133468 1.103518 19.233430 209 209 209 0
2.202290 1.101145 19.192073 210 210 210 0
2.266968 1.096920 19.118433 210 210 210 0
2.331820 1.093041 19.050819 210 210 210 0
2.393724 1.088056 18.963946 210 210 210 0
3.174595 1.400556 24.410570 211 211 211 0
3.260080 1.397177 24.351670 211 211 211 0
3.352897 1.397040 24.349287 210 210 210 0
2.692625 1.091605 19.025788 211 211 211 0
2.753501 1.086908 18.943938 212 212 212 0
3.631858 1.396868 24.346292 211 211 211 0
5.026104 1.884789 32.850352 205 205 205 0
5.309945 1.942663 33.859046 197 197 197 0
5.498182 1.963636 34.224601 196 196 196 0
5.649140 1.970630 34.346498 195 195 195 0
5.826819 1.986416 34.621624 191 191 191 0
6.013833 2.004611 34.938751 189 189 189 0
6.157110 2.007753 34.993522 183 183 183 0
6.289768 2.007373 34.986888 164 164 164 0
6.425248 2.007890 34.995904 81 81 81 0
-10.713707 2.142741 35.012114 196 196 196 0
-6.469387 1.310256 21.409406 197 197 197 0
-6.374229 1.307534 21.364938 197 197 197 0
-6.216203 1.291679 21.105860 197 197 197 0
-6.111362 1.286602 21.022916 197 197 197 0
-6.026817 1.285721 21.008511 197 197 197 0
-5.933271 1.282869 20.961919 198 198 198 0
-5.927828 1.299250 21.229574 197 197 197 0
-5.877783 1.306174 21.342713 198 198 198 0
-5.786935 1.304098 21.308793 197 197 197 0
-5.694610 1.301625 21.268385 198 198 198 0
-5.597870 1.298057 21.210080 198 198 198 0
-5.523125 1.299559 21.234622 198 198 198 0
-5.448009 1.301017 21.258448 198 198 198 0
-5.402759 1.309760 21.401302 199 199 199 0
-5.345839 1.315899 21.501617 199 199 199 0
-5.250657 1.312664 21.448761 199 199 199 0
-5.145186 1.306714 21.351535 199 199 199 0
-5.067009 1.307615 21.366263 199 199 199 0
-5.006589 1.313204 21.457576 199 199 199 0
-4.959929 1.322648 21.611891 200 200 200 0
-4.885296 1.324826 21.647485 199 199 199 0
-4.762416 1.313770 21.466828 200 200 200 0
-4.639629 1.302352 21.280261 200 200 200 0
-4.525202 1.292915 21.126061 200 200 200 0
-4.462783 1.298264 21.213468 200 200 200 0
-4.437771 1.314895 21.485212 200 200 200 0
-4.347073 1.312324 21.443201 201 201 201 0
-4.244271 1.305930 21.338720 201 201 201 0
-4.129348 1.295482 21.168003 201 201 201 0
-4.015407 1.284930 20.995591 201 201 201 0
-3.928994 1.282937 20.963021 201 201 201 0
-3.865292 1.288431 21.052791 201 201 201 0
-3.820439 1.300575 21.251223 201 201 201 0
-3.731546 1.297929 21.207994 202 202 202 0
-3.618964 1.286743 21.025209 202 202 202 0
-3.531661 1.284240 20.984319 202 202 202 0
-3.447357 1.282738 20.959764 202 202 202 0
-3.380649 1.287866 21.043568 202 202 202 0
-3.307762 1.290834 21.092058 202 202 202 0
-3.226215 1.290486 21.086374 203 203 203 0
-3.136706 1.286854 21.027023 202 202 202 0
-3.043136 1.281320 20.936608 202 202 202 0
-2.960836 1.280361 20.920936 202 202 202 0
-2.886528 1.282902 20.962444 203 203 203 0
-2.821481 1.289820 21.075486 203 203 203 0
-2.739671 1.289257 21.066287 203 203 203 0
-2.652780 1.286196 21.016281 203 203 203 0
-2.560923 1.280462 20.922574 203 203 203 0
-2.466851 1.273213 20.804140 203 203 203 0
-2.377027 1.267748 20.714834 204 204 204 0
-2.295104 1.266264 20.690596 203 203 203 0
-2.117045 1.209740 19.766994 204 204 204 0
-2.151904 1.275203 20.836643 204 204 204 0
-2.059689 1.267501 20.710795 204 204 204 0
-1.969178 1.260274 20.592716 204 204 204 0
-1.884230 1.256153 20.525383 204 204 204 0
-1.802391 1.253837 20.487540 205 205 205 0
-1.725422 1.254852 20.504125 204 204 204 0
-1.649753 1.256955 20.538476 205 205 205 0
-1.570417 1.256333 20.528325 204 204 204 0
-1.487205 1.252384 20.463783 205 205 205 0
-1.404948 1.248843 20.405932 206 206 206 0
-1.324849 1.246917 20.374458 205 205 205 0
-1.248171 1.248171 20.394949 205 205 205 0
-1.169561 1.247532 20.384510 205 205 205 0
-1.090234 1.245981 20.359170 206 206 206 0
-1.011094 1.244423 20.333715 206 206 206 0
-0.932684 1.243579 20.319921 206 206 206 0
-0.854521 1.242940 20.309474 206 206 206 0
-0.775571 1.240914 20.276376 207 207 207 0
-0.697689 1.240336 20.266934 206 206 206 0
-0.619673 1.239347 20.250761 207 207 207 0
-0.541435 1.237566 20.221673 207 207 207 0
-0.464320 1.238186 20.231805 207 207 207 0
-0.386720 1.237505 20.220669 206 206 206 0
-0.308256 1.233026 20.147480 207 207 207 0
-0.230045 1.226909 20.047528 207 207 207 0
-0.152902 1.223217 19.987212 207 207 207 0
-0.076508 1.224123 20.002015 207 207 207 0
0.000000 1.226911 20.047561 207 207 207 0
0.076493 1.223895 19.998289 207 207 207 0
0.152520 1.220161 19.937276 207 207 207 0
0.228143 1.216760 19.881703 208 208 208 0
0.303002 1.212009 19.804067 208 208 208 0
0.377645 1.208465 19.746161 208 208 208 0
0.452264 1.206038 19.706508 207 207 207 0
0.528605 1.208240 19.742486 208 208 208 0
0.604559 1.209117 19.756817 208 208 208 0
0.678803 1.206760 19.718304 208 208 208 0
0.752356 1.203770 19.669450 209 209 209 0
0.824832 1.199755 19.603847 208 208 208 0
0.898887 1.198516 19.583602 208 208 208 0
0.973040 1.197588 19.568429 209 209 209 0
1.047269 1.196878 19.556835 209 209 209 0
1.121649 1.196426 19.549444 208 208 208 0
1.195903 1.195903 19.540895 208 208 208 0
1.267196 1.192655 19.487825 209 209 209 0
1.338847 1.190087 19.445860 209 209 209 0
1.409995 1.187365 19.401381 209 209 209 0
1.483371 1.186697 19.390475 210 210 210 0
1.562153 1.190212 19.447910 209 209 209 0
1.633800 1.188218 19.415326 209 209 209 0
1.708177 1.188297 19.416619 210 210 210 0
1.776997 1.184665 19.357265 210 210 210 0
1.843071 1.179566 19.273946 210 210 210 0
1.909653 1.175171 19.202142 210 210 210 0
1.981421 1.174175 19.185872 210 210 210 0
2.054077 1.173758 19.179060 210 210 210 0
2.131134 1.175798 19.212384 210 210 210 0
2.202091 1.174448 19.190332 210 210 210 0
2.265949 1.169522 19.109834 210 210 210 0
2.330975 1.165487 19.043912 210 210 210 0
