ply
    format ascii 1.0
    element vertex 14381
    property float x
    property float y
    property float z
    property uchar red
    property uchar green
    property uchar blue
    property uchar alpha
    end_header
10.005648 6.803840 34.878074 205 205 205 0
10.146590 6.808896 34.903991 205 205 205 0
10.308178 6.827494 34.999330 205 205 205 0
10.427405 6.817919 34.950243 206 206 206 0
10.566970 6.821715 34.969704 205 205 205 0
1.632498 6.529993 32.830533 171 171 171 0
1.755839 6.521689 32.788781 204 204 204 0
1.885270 6.535604 32.858743 206 206 206 0
2.012882 6.541868 32.890234 205 205 205 0
2.138567 6.541500 32.888386 206 206 206 0
2.271943 6.563392 32.998450 206 206 206 0
2.406156 6.585268 33.108437 206 206 206 0
2.527341 6.571086 33.037135 207 207 207 0
2.649710 6.561187 32.987368 206 206 206 0
2.794315 6.604743 33.206352 206 206 206 0
2.926096 6.615521 33.260540 206 206 206 0
3.044233 6.595838 33.161578 206 206 206 0
3.172914 6.599661 33.180800 206 206 206 0
3.324137 6.648274 33.425207 206 206 206 0
3.446974 6.638616 33.376652 206 206 206 0
3.562702 6.616447 33.265195 206 206 206 0
3.684386 6.606486 33.215111 206 206 206 0
3.836759 6.650382 33.435805 206 206 206 0
3.969236 6.658073 33.474474 205 205 205 0
4.089281 6.645082 33.409160 206 206 206 0
4.214107 6.640410 33.385673 206 206 206 0
4.366044 6.677480 33.572045 207 207 207 0
4.499863 6.685510 33.612421 207 207 207 0
4.618385 6.671001 33.539473 207 207 207 0
4.746346 6.670540 33.537156 206 206 206 0
4.901911 6.707878 33.724876 206 206 206 0
5.036266 6.715021 33.760792 206 206 206 0
5.156672 6.703673 33.703738 206 206 206 0
5.303517 6.726412 33.818061 207 207 207 0
5.455624 6.754582 33.959688 206 206 206 0
5.569270 6.734931 33.860889 206 206 206 0
5.686248 6.720112 33.786383 206 206 206 0
5.822701 6.728455 33.828330 207 207 207 0
5.972819 6.751883 33.946117 207 207 207 0
6.100067 6.749010 33.931675 207 207 207 0
6.235358 6.754971 33.961645 205 205 205 0
6.369140 6.759088 33.982341 206 206 206 0
6.508415 6.768751 34.030926 206 206 206 0
6.655358 6.785855 34.116919 206 206 206 0
6.789494 6.789494 34.135212 206 206 206 0
6.923005 6.792382 34.149733 206 206 206 0
7.072723 6.810771 34.242186 205 205 205 0
7.224819 6.830738 34.342572 206 206 206 0
7.343635 6.819090 34.284011 206 206 206 0
7.476590 6.820749 34.292352 206 206 206 0
7.638078 6.847932 34.429020 205 205 205 0
7.768726 6.847013 34.424397 206 206 206 0
7.888241 6.836475 34.371420 206 206 206 0
8.005769 6.824590 34.311664 206 206 206 0
8.169924 6.852195 34.450450 206 206 206 0
8.321091 6.868202 34.530932 205 205 205 0
8.444984 6.861549 34.497482 205 205 205 0
8.577160 6.861728 34.498379 205 205 205 0
8.742021 6.887653 34.628721 206 206 206 0
8.884762 6.895636 34.668859 206 206 206 0
8.996957 6.880026 34.590378 205 205 205 0
9.145281 6.892096 34.651061 206 206 206 0
9.315032 6.919738 34.790037 205 205 205 0
9.444562 6.917144 34.776993 206 206 206 0
9.571868 6.913016 34.756239 206 206 206 0
9.770128 6.959543 34.990161 205 205 205 0
9.876902 6.940525 34.894547 206 206 206 0
10.000586 6.933740 34.860431 206 206 206 0
10.135363 6.934722 34.865369 205 205 205 0
10.308274 6.961432 34.999658 205 205 205 0
10.424236 6.949491 34.939623 205 205 205 0
10.562027 6.952220 34.953343 205 205 205 0
1.632610 6.656027 32.832787 167 167 167 0
1.327820 5.026745 24.795883 205 205 205 0
1.884546 6.658729 32.846119 206 206 206 0
2.010778 6.660701 32.855845 205 205 205 0
2.137194 6.663017 32.867267 206 206 206 0
2.270157 6.684350 32.972499 207 207 207 0
2.402048 6.700450 33.051920 206 206 206 0
2.526839 6.696124 33.030578 206 206 206 0
2.647691 6.682269 32.962234 205 205 205 0
2.792716 6.727907 33.187356 206 206 206 0
2.925719 6.741874 33.256255 207 207 207 0
3.043097 6.720173 33.149208 206 206 206 0
3.173232 6.727252 33.184124 206 206 206 0
3.321673 6.771104 33.400437 207 207 207 0
3.447550 6.767413 33.382232 206 206 206 0
3.560389 6.739308 33.243597 206 206 206 0
3.682978 6.730960 33.202419 205 205 205 0
3.832896 6.771450 33.402144 207 207 207 0
3.968745 6.785274 33.470334 205 205 205 0
4.086967 6.769038 33.390250 207 207 207 0
4.211629 6.764131 33.366042 207 207 207 0
4.360021 6.796503 33.525725 206 206 206 0
4.495063 6.806809 33.576566 206 206 206 0
4.613230 6.791700 33.502035 206 206 206 0
4.744450 6.796104 33.523760 206 206 206 0
4.893919 6.825729 33.669891 207 207 207 0
5.029947 6.835568 33.718429 206 206 206 0
5.154984 6.830354 33.692706 205 205 205 0
5.300039 6.851270 33.795880 206 206 206 0
5.547643 7.000598 34.532483 206 206 206 0
5.562151 6.855674 33.817605 206 206 206 0
5.681537 6.843670 33.758391 206 206 206 0
5.821922 6.856931 33.823805 205 205 205 0
5.968384 6.876617 33.920912 205 205 205 0
6.098877 6.877458 33.925059 206 206 206 0
6.230798 6.879839 33.936808 207 207 207 0
6.365929 6.885596 33.965205 206 206 206 0
6.505669 6.896009 34.016568 206 206 206 0
6.644285 6.904845 34.060157 206 206 206 0
6.784415 6.914885 34.109680 207 207 207 0
6.919504 6.919504 34.132463 207 207 207 0
7.061136 6.930374 34.186085 206 206 206 0
7.211219 6.948993 34.277926 205 205 205 0
7.341924 6.948606 34.276020 206 206 206 0
7.473296 6.948854 34.277245 205 205 205 0
7.628416 6.970794 34.385467 206 206 206 0
7.764542 6.974928 34.405860 205 205 205 0
7.880548 6.961151 34.337900 206 206 206 0
8.004211 6.954478 34.304986 205 205 205 0
8.161054 6.976385 34.413047 206 206 206 0
8.307804 6.989105 34.475793 206 206 206 0
8.435250 6.985442 34.457721 207 207 207 0
8.566952 6.985361 34.457324 206 206 206 0
8.734773 7.014288 34.600013 206 206 206 0
8.871599 7.017832 34.617497 205 205 205 0
8.991512 7.008091 34.569444 205 205 205 0
9.135828 7.017375 34.615242 206 206 206 0
9.308941 7.048198 34.767286 205 205 205 0
9.432895 7.041457 34.734034 205 205 205 0
9.549358 7.029388 34.674502 205 205 205 0
9.251302 6.716699 33.132070 205 205 205 0
9.870202 7.069198 34.870876 205 205 205 0
9.988165 7.058303 34.817133 205 205 205 0
10.129448 7.063957 34.845022 205 205 205 0
10.304846 7.092946 34.988020 205 205 205 0
10.415625 7.077284 34.910760 205 205 205 0
10.564582 7.087631 34.961800 205 205 205 0
1.631529 6.777122 32.811047 167 167 167 0
1.325643 5.113194 24.755236 206 206 206 0
1.425123 5.130441 24.838737 205 205 205 0
2.009949 6.783577 32.842302 205 205 205 0
2.136644 6.786986 32.858803 206 206 206 0
2.270076 6.810228 32.971327 206 206 206 0
2.402703 6.828736 33.060935 206 206 206 0
2.524083 6.815025 32.994555 205 205 205 0
2.645788 6.803456 32.938542 206 206 206 0
2.791015 6.850673 33.167143 207 207 207 0
2.922248 6.860931 33.216803 206 206 206 0
3.042857 6.846427 33.146586 207 207 207 0
3.169512 6.846146 33.145225 206 206 206 0
3.319293 6.893916 33.376499 207 207 207 0
3.444813 6.889626 33.355731 206 206 206 0
3.559443 6.864640 33.234763 205 205 205 0
3.679544 6.851564 33.171457 207 207 207 0
3.830291 6.894525 33.379446 206 206 206 0
3.967139 6.910500 33.456789 207 207 207 0
4.084180 6.892054 33.367487 206 206 206 0
4.208475 6.886595 33.341055 206 206 206 0
4.359661 6.924168 33.522963 206 206 206 0
4.491670 6.930005 33.551221 206 206 206 0
4.613076 6.919615 33.500919 206 206 206 0
4.739451 6.917037 33.488437 206 206 206 0
4.888781 6.947215 33.634545 206 206 206 0
5.025669 6.958618 33.689753 206 206 206 0
5.154534 6.958620 33.689762 205 205 205 0
5.286070 6.962141 33.706805 206 206 206 0
5.617122 7.222014 34.964965 206 206 206 0
5.561295 6.983952 33.812403 206 206 206 0
5.683736 6.975494 33.771455 206 206 206 0
5.816456 6.979748 33.792048 206 206 206 0
5.966246 7.003854 33.908759 206 206 206 0
6.095302 7.003113 33.905171 206 206 206 0
6.225012 7.003138 33.905293 206 206 206 0
6.362009 7.011194 33.944293 206 206 206 0
6.501398 7.021510 33.994240 205 205 205 0
6.641402 7.032073 34.045380 206 206 206 0
6.781792 7.042631 34.096492 206 206 206 0
6.912676 7.043104 34.098786 206 206 206 0
7.054461 7.054461 34.153769 205 205 205 0
7.205539 7.074529 34.250928 206 206 206 0
7.339084 7.076974 34.262764 206 206 206 0
7.469273 7.076154 34.258793 206 206 206 0
7.620228 7.094695 34.348559 206 206 206 0
7.757693 7.100262 34.375510 206 206 206 0
7.879209 7.091288 34.332065 207 207 207 0
7.999462 7.081491 34.284631 205 205 205 0
8.156423 7.103982 34.393521 205 205 205 0
8.302032 7.116028 34.451841 206 206 206 0
8.425282 7.108831 34.417001 206 206 206 0
8.555146 7.107352 34.409839 205 205 205 0
8.723114 7.137093 34.553827 206 206 206 0
8.862479 7.142894 34.581911 205 205 205 0
8.984092 7.134426 34.540916 206 206 206 0
9.131605 7.146474 34.599243 205 205 205 0
9.301658 7.175565 34.740085 205 205 205 0
9.430076 7.172171 34.723653 206 206 206 0
9.546831 7.160124 34.665328 205 205 205 0
9.698907 7.174534 34.735095 205 205 205 0
9.860925 7.195810 34.838102 206 206 206 0
9.983510 7.188127 34.800908 205 205 205 0
10.118881 7.189731 34.808673 206 206 206 0
10.296705 7.221066 34.960377 206 206 206 0
10.411576 7.208014 34.897186 205 205 205 0
10.559260 7.217722 34.944187 205 205 205 0
1.630206 6.897026 32.784436 164 164 164 0
1.747735 6.866103 32.637448 205 205 205 0
1.424620 5.223606 24.829974 207 207 207 0
2.008520 6.904289 32.818960 205 205 205 0
2.136916 6.913553 32.862996 206 206 206 0
2.267876 6.929622 32.939378 206 206 206 0
2.401668 6.952197 33.046688 206 206 206 0
2.521521 6.934183 32.961059 206 206 206 0
2.644418 6.925856 32.921478 206 206 206 0
2.788073 6.970183 33.132184 206 206 206 0
2.922321 6.988159 33.217631 207 207 207 0
3.042148 6.971588 33.138863 206 206 206 0
3.170012 6.974027 33.150454 206 206 206 0
3.314856 7.012195 33.331883 205 205 205 0
3.442084 7.011653 33.329309 205 205 205 0
3.556415 6.985816 33.206491 205 205 205 0
3.679000 6.977414 33.166557 206 206 206 0
3.824815 7.012160 33.331719 206 206 206 0
3.967146 7.038485 33.456850 205 205 205 0
4.080836 7.013936 33.340160 206 206 206 0
4.206172 7.010287 33.322814 206 206 206 0
4.356350 7.047037 33.497504 206 206 206 0
4.487835 7.052311 33.522574 205 205 205 0
4.610920 7.044462 33.485261 206 206 206 0
4.737446 7.042149 33.474269 206 206 206 0
4.882588 7.066904 33.591939 205 205 205 0
5.023246 7.084064 33.673508 206 206 206 0
5.145182 7.074625 33.628640 206 206 206 0
5.274653 7.075754 33.634004 206 206 206 0
5.313589 6.958271 33.075561 205 205 205 0
5.559062 7.110428 33.798827 206 206 206 0
5.683855 7.104819 33.772163 206 206 206 0
5.812035 7.103598 33.766361 207 207 207 0
5.959090 7.124999 33.868088 206 206 206 0
6.092803 7.129876 33.891272 206 206 206 0
6.222172 7.129572 33.889824 206 206 206 0
6.360109 7.138898 33.934155 206 206 206 0
6.496373 7.146010 33.967963 205 205 205 0
6.635467 7.155896 34.014954 205 205 205 0
6.774267 7.165090 34.058657 206 206 206 0
6.907818 7.168491 34.074822 206 206 206 0
7.045158 7.175624 34.108731 206 206 206 0
7.194709 7.194709 34.199451 206 206 206 0
7.330859 7.199951 34.224366 205 205 205 0
7.464184 7.202283 34.235452 206 206 206 0
7.613333 7.219540 34.317480 206 206 206 0
7.750642 7.225175 34.344267 206 206 206 0
7.873298 7.217190 34.306310 205 205 205 0
7.989907 7.204014 34.243679 206 206 206 0
8.149278 7.229198 34.363389 205 205 205 0
8.295492 7.242096 34.424699 206 206 206 0
8.418424 7.234583 34.388986 206 206 206 0
8.548019 7.232939 34.381171 205 205 205 0
8.717179 7.264316 34.530319 206 206 206 0
8.859984 7.273121 34.572173 205 205 205 0
8.978823 7.262283 34.520656 206 206 206 0
9.125641 7.274062 34.576645 206 206 206 0
9.297034 7.304812 34.722815 205 205 205 0
9.430533 7.305343 34.725336 205 205 205 0
9.543168 7.289920 34.652025 205 205 205 0
9.707705 7.314024 34.766604 205 205 205 0
9.865661 7.332586 34.854835 205 205 205 0
9.981789 7.319979 34.794908 205 205 205 0
10.109757 7.316271 34.777285 205 205 205 0
10.287826 7.348447 34.930230 205 205 205 0
10.407426 7.338570 34.883278 205 205 205 0
10.559551 7.351586 34.945150 205 205 205 0
1.629851 7.020898 32.777299 164 164 164 0
1.746410 6.985640 32.612699 206 206 206 0
1.424279 5.317308 24.824035 205 205 205 0
2.006193 7.021676 32.780933 206 206 206 0
2.133740 7.028792 32.814155 207 207 207 0
2.265135 7.047087 32.899566 206 206 206 0
2.399650 7.072653 33.018922 206 206 206 0
2.520318 7.056889 32.945329 205 205 205 0
2.642409 7.046425 32.896474 206 206 206 0
2.786253 7.092281 33.110553 207 207 207 0
2.919686 7.108800 33.187675 206 206 206 0
3.038794 7.090519 33.102329 205 205 205 0
3.165431 7.090566 33.102549 207 207 207 0
3.314030 7.137911 33.323583 205 205 205 0
3.440779 7.136430 33.316668 206 206 206 0
3.555135 7.110270 33.194538 206 206 206 0
3.676695 7.099826 33.145778 206 206 206 0
3.821964 7.134332 33.306872 206 206 206 0
3.965164 7.162878 33.440138 206 206 206 0
4.078206 7.136861 33.318679 206 206 206 0
4.204907 7.135599 33.312789 206 206 206 0
4.353582 7.170606 33.476217 207 207 207 0
4.487218 7.179548 33.517967 206 206 206 0
4.608292 7.168455 33.466175 205 205 205 0
4.734028 7.165015 33.450117 206 206 206 0
4.880850 7.192831 33.579977 206 206 206 0
5.022220 7.211392 33.666630 206 206 206 0
5.144894 7.202852 33.626758 206 206 206 0
5.272091 7.200904 33.617667 206 206 206 0
5.416139 7.221519 33.713909 206 206 206 0
5.557413 7.237560 33.788798 206 206 206 0
5.675150 7.222918 33.720437 206 206 206 0
5.808136 7.227902 33.743707 206 206 206 0
5.955562 7.250249 33.848035 206 206 206 0
6.088219 7.254048 33.865772 206 206 206 0
6.219290 7.255839 33.874131 206 206 206 0
6.355355 7.263263 33.908789 206 206 206 0
6.492194 7.271257 33.946111 205 205 205 0
6.637294 7.288009 34.024316 206 206 206 0
6.775997 7.297227 34.067353 205 205 205 0
6.903334 7.294089 34.052703 206 206 206 0
7.037653 7.298307 34.072393 206 206 206 0
7.192737 7.323514 34.190074 206 206 206 0
7.332239 7.332239 34.230806 205 205 205 0
7.460518 7.329631 34.218634 206 206 206 0
7.624662 7.361743 34.368547 206 206 206 0
7.747111 7.353190 34.328617 206 206 206 0
7.868993 7.344394 34.287552 206 206 206 0
7.990507 7.335548 34.246254 206 206 206 0
8.140790 7.352972 34.327600 205 205 205 0
8.288817 7.367837 34.396998 206 206 206 0
8.415676 7.363716 34.377761 206 206 206 0
8.542083 7.359333 34.357297 205 205 205 0
8.709305 7.389713 34.499127 206 206 206 0
8.863841 7.408583 34.587223 206 206 206 0
8.971613 7.388387 34.492939 206 206 206 0
9.117159 7.399434 34.544508 205 205 205 0
9.292745 7.434196 34.706797 206 206 206 0
9.426416 7.434920 34.710176 205 205 205 0
9.534919 7.416048 34.622073 206 206 206 0
9.699782 7.440929 34.738229 205 205 205 0
9.857687 7.459871 34.826663 206 206 206 0
9.975817 7.448610 34.774091 205 205 205 0
10.102174 7.443707 34.751199 205 205 205 0
10.283304 7.478766 34.914876 206 206 206 0
10.406053 7.471012 34.878676 205 205 205 0
10.553813 7.481184 34.926163 205 205 205 0
1.628294 7.139444 32.745988 164 164 164 0
1.745884 7.108241 32.602869 205 205 205 0
1.423053 5.407601 24.802666 206 206 206 0
2.003940 7.139036 32.744116 205 205 205 0
2.133290 7.152797 32.807231 206 206 206 0
2.262726 7.165299 32.864575 206 206 206 0
2.398688 7.196064 33.005685 206 206 206 0
2.519806 7.181446 32.938637 207 207 207 0
2.641326 7.169312 32.882983 206 206 206 0
2.783238 7.211116 33.074720 206 206 206 0
2.918403 7.232564 33.173097 206 206 206 0
3.037066 7.213032 33.083508 206 206 206 0
3.164320 7.214649 33.090924 206 206 206 0
3.309785 7.256066 33.280890 206 206 206 0
3.436780 7.255425 33.277948 206 206 206 0
3.553097 7.233091 33.175511 207 207 207 0
3.674342 7.221982 33.124558 206 206 206 0
3.820398 7.258756 33.293228 206 206 206 0
3.962553 7.285984 33.418112 206 206 206 0
4.078956 7.265640 33.324802 205 205 205 0
4.203507 7.260603 33.301699 206 206 206 0
4.348009 7.289309 33.433361 205 205 205 0
4.484814 7.303841 33.500014 206 206 206 0
4.607483 7.295181 33.460294 206 206 206 0
4.732917 7.291251 33.442271 207 207 207 0
4.873833 7.310750 33.531703 206 206 206 0
5.019936 7.336830 33.651325 206 206 206 0
5.141612 7.326797 33.605308 206 206 206 0
5.269381 7.325725 33.600389 205 205 205 0
5.412987 7.346197 33.694289 206 206 206 0
5.554819 7.363365 33.773029 206 206 206 0
5.673851 7.350217 33.712724 205 205 205 0
5.801338 7.348362 33.704216 206 206 206 0
5.950068 7.372910 33.816810 206 206 206 0
6.085001 7.379682 33.847870 206 206 206 0
6.212285 7.377089 33.835977 205 205 205 0
6.351156 7.388079 33.886385 207 207 207 0
6.489781 7.398351 33.933497 206 206 206 0
6.627454 7.407154 33.973877 206 206 206 0
6.765962 7.416536 34.016905 206 206 206 0
6.897096 7.417632 34.021933 206 206 206 0
7.030323 7.420896 34.036904 206 206 206 0
7.181709 7.442862 34.137653 206 206 206 0
7.325159 7.455966 34.197756 205 205 205 0
7.455125 7.455125 34.193901 206 206 206 0
7.762328 7.628495 34.989082 206 206 206 0
7.729338 7.467326 34.249862 206 206 206 0
7.865749 7.472462 34.273417 206 206 206 0
7.981928 7.458523 34.209485 206 206 206 0
8.136039 7.479907 34.307564 205 205 205 0
8.287230 7.497970 34.390413 206 206 206 0
8.411766 7.491729 34.361788 205 205 205 0
8.542753 7.491337 34.359990 206 206 206 0
8.702222 7.515555 34.471070 205 205 205 0
8.853033 7.531684 34.545049 206 206 206 0
8.964095 7.514021 34.464032 206 206 206 0
9.108481 7.524398 34.511628 205 205 205 0
9.286692 7.562020 34.684189 205 205 205 0
9.423589 7.565417 34.699766 205 205 205 0
9.532589 7.546633 34.613615 205 205 205 0
9.688945 7.565340 34.699417 206 206 206 0
9.858346 7.593591 34.828992 204 204 204 0
9.968776 7.576270 34.749545 205 205 205 0
10.094764 7.571073 34.725710 205 205 205 0
10.273728 7.605227 34.882362 205 205 205 0
10.399185 7.599405 34.855657 206 206 206 0
10.555325 7.615868 34.931167 205 205 205 0
1.548774 7.485739 33.742345 75 75 75 0
1.628501 7.265620 32.750148 162 162 162 0
1.743994 7.225116 32.567575 205 205 205 0
1.878270 7.262644 32.736733 206 206 206 0
2.002834 7.260273 32.726046 206 206 206 0
2.131183 7.271094 32.774822 205 205 205 0
2.259492 7.280584 32.817597 206 206 206 0
2.394614 7.309873 32.949619 207 207 207 0
2.516664 7.298326 32.897571 206 206 206 0
2.638650 7.287699 32.849667 205 205 205 0
2.778265 7.324518 33.015631 206 206 206 0
2.915689 7.352608 33.142247 206 206 206 0
3.035837 7.336606 33.070120 205 205 205 0
3.160498 7.332356 33.050964 206 206 206 0
3.305923 7.374751 33.242061 206 206 206 0
3.434559 7.377941 33.256441 206 206 206 0
3.552198 7.358124 33.167112 207 207 207 0
3.671432 7.342864 33.098326 206 206 206 0
3.814819 7.375317 33.244611 206 206 206 0
3.959293 7.407709 33.390621 206 206 206 0
4.076980 7.389526 33.308658 207 207 207 0
4.198976 7.380018 33.265801 206 206 206 0
4.346428 7.414496 33.421211 206 206 206 0
4.483016 7.428998 33.486583 206 206 206 0
4.604104 7.417723 33.435757 207 207 207 0
4.727431 7.410568 33.403506 206 206 206 0
4.872266 7.436617 33.520922 206 206 206 0
5.016278 7.460106 33.626802 206 206 206 0
5.141315 7.454906 33.603363 207 207 207 0
5.266490 7.450156 33.581953 207 207 207 0
5.409082 7.469685 33.669981 206 206 206 0
5.552082 7.488855 33.756388 207 207 207 0
5.669250 7.473102 33.685381 205 205 205 0
5.797605 7.472469 33.682528 207 207 207 0
5.942134 7.492255 33.771716 207 207 207 0
6.080399 7.503471 33.822270 206 206 206 0
6.206202 7.499161 33.802845 206 206 206 0
6.348816 7.514925 33.873899 206 206 206 0
6.483301 7.520629 33.899614 206 206 206 0
6.624507 7.533753 33.958768 206 206 206 0
6.764909 7.545475 34.011607 206 206 206 0
6.891068 7.541169 33.992195 206 206 206 0
7.024404 7.544731 34.008252 206 206 206 0
7.177831 7.569349 34.119219 206 206 206 0
7.314683 7.575922 34.148849 206 206 206 0
7.437964 7.568455 34.115190 207 207 207 0
7.149186 7.149186 32.225314 205 205 205 0
7.728286 7.597298 34.245201 206 206 206 0
7.860190 7.598184 34.249194 205 205 205 0
7.979663 7.587220 34.199775 206 206 206 0
8.132762 7.608068 34.293746 205 205 205 0
8.287072 7.629368 34.389759 205 205 205 0
8.413891 7.625089 34.370471 205 205 205 0
8.541110 7.621298 34.353385 204 204 204 0
8.693790 7.639998 34.437672 206 206 206 0
8.847322 7.658876 34.522766 206 206 206 0
8.957389 7.640126 34.438252 206 206 206 0
9.097410 7.647098 34.469677 205 205 205 0
9.279895 7.689056 34.658805 206 206 206 0
9.419264 7.694610 34.683840 206 206 206 0
9.530200 7.677106 34.604939 205 205 205 0
9.684520 7.694550 34.683570 205 205 205 0
9.853743 7.723204 34.812730 205 205 205 0
9.964168 7.705623 34.733483 205 205 205 0
10.086711 7.697753 34.698007 205 205 205 0
10.259516 7.727947 34.834109 205 205 205 0
10.391160 7.726760 34.828758 206 206 206 0
10.547008 7.743373 34.903640 205 205 205 0
1.626432 7.381498 32.708532 163 163 163 0
1.743934 7.349436 32.566461 205 205 205 0
1.878037 7.386946 32.732673 205 205 205 0
2.001564 7.380768 32.705299 205 205 205 0
2.129566 7.390847 32.749959 206 206 206 0
2.257605 7.399929 32.790202 206 206 206 0
2.391441 7.426055 32.905969 205 205 205 0
2.514008 7.416324 32.862854 206 206 206 0
2.637672 7.410602 32.837495 205 205 205 0
2.774755 7.441388 32.973913 206 206 206 0
2.913720 7.474325 33.119861 206 206 206 0
3.034440 7.459665 33.054902 206 206 206 0
3.159457 7.456319 33.040074 206 206 206 0
3.309171 7.509272 33.274717 206 206 206 0
3.432011 7.499579 33.231768 206 206 206 0
3.548189 7.476541 33.129684 205 205 205 0
3.668400 7.463296 33.070992 205 205 205 0
3.812556 7.498026 33.224887 206 206 206 0
3.956439 7.529997 33.366555 206 206 206 0
4.074000 7.511438 33.284315 205 205 205 0
4.196572 7.502962 33.246759 206 206 206 0
4.339066 7.529556 33.364601 206 206 206 0
4.481664 7.554805 33.476481 207 207 207 0
4.601366 7.541128 33.415876 206 206 206 0
4.724916 7.534325 33.385732 206 206 206 0
4.867422 7.557313 33.487597 206 206 206 0
5.013020 7.583799 33.604960 205 205 205 0
5.135189 7.574404 33.563329 206 206 206 0
5.262754 7.573231 33.558130 206 206 206 0
5.404248 7.591682 33.639889 207 207 207 0
5.548979 7.613716 33.737525 206 206 206 0
5.666457 7.598204 33.668788 206 206 206 0
5.791030 7.592684 33.644328 206 206 206 0
5.936898 7.614718 33.741963 205 205 205 0
6.073864 7.624637 33.785919 206 206 206 0
6.200276 7.621173 33.770566 206 206 206 0
6.343008 7.637499 33.842911 205 205 205 0
6.480542 7.647039 33.885186 205 205 205 0
6.621515 7.660184 33.943431 206 206 206 0
6.757642 7.667324 33.975071 205 205 205 0
6.889219 7.669131 33.983076 206 206 206 0
7.020457 7.670499 33.989140 206 206 206 0
7.173038 7.694713 34.096436 206 206 206 0
7.311064 7.702728 34.131953 206 206 206 0
7.438186 7.699175 34.116207 206 206 206 0
7.544369 7.674444 34.006622 206 206 206 0
7.722729 7.722729 34.220577 205 205 205 0
7.857664 7.726703 34.238188 206 206 206 0
7.978600 7.717007 34.195221 205 205 205 0
8.127736 7.734458 34.272552 205 205 205 0
8.282159 7.756308 34.369371 205 205 205 0
8.409767 7.752754 34.353625 205 205 205 0
8.534455 7.746659 34.326615 206 206 206 0
8.689199 7.767617 34.419484 205 205 205 0
8.841946 7.786191 34.501789 206 206 206 0
8.950687 7.766037 34.412483 205 205 205 0
9.095260 7.777106 34.461532 205 205 205 0
9.278363 7.820334 34.653082 205 205 205 0
9.416918 7.825326 34.675201 205 205 205 0
9.522542 7.803194 34.577131 206 206 206 0
9.672832 7.817768 34.641711 206 206 206 0
9.847142 7.851100 34.789409 205 205 205 0
9.958638 7.834128 34.714206 205 205 205 0
10.076482 7.822532 34.662820 205 205 205 0
10.247386 7.851893 34.792923 205 205 205 0
10.386154 7.856194 34.811980 205 205 205 0
10.543289 7.874102 34.891336 205 205 205 0
1.625855 7.503947 32.696937 162 162 162 0
1.742326 7.467111 32.536429 205 205 205 0
1.421557 5.686227 24.776587 206 206 206 0
1.998570 7.494636 32.656366 206 206 206 0
2.128547 7.512518 32.734285 205 205 205 0
2.256369 7.521230 32.772245 206 206 206 0
2.388804 7.543590 32.869674 205 205 205 0
2.512398 7.537193 32.841797 206 206 206 0
2.636029 7.531512 32.817047 206 206 206 0
2.771040 7.557383 32.929774 206 206 206 0
2.910283 7.592042 33.080795 206 206 206 0
3.033069 7.582672 33.039964 205 205 205 0
3.156906 7.576574 33.013396 206 206 206 0
3.465086 7.996353 34.842495 205 205 205 0
3.427594 7.616875 33.188996 206 206 206 0
3.548416 7.603748 33.131799 205 205 205 0
3.666420 7.585696 33.053141 205 205 205 0
3.810069 7.620138 33.203215 205 205 205 0
3.952900 7.650774 33.336707 205 205 205 0
4.069952 7.631160 33.251241 205 205 205 0
4.192508 7.622742 33.214562 205 205 205 0
4.331969 7.644650 33.310023 205 205 205 0
4.477620 7.675920 33.446275 206 206 206 0
4.599769 7.666282 33.404280 206 206 206 0
4.720996 7.655669 33.358033 206 206 206 0
4.863642 7.679435 33.461591 207 207 207 0
5.009721 7.707264 33.582849 206 206 206 0
5.133976 7.700963 33.555395 205 205 205 0
5.258315 7.695095 33.529824 205 205 205 0
5.401957 7.717082 33.625629 206 206 206 0
5.546332 7.739068 33.721429 205 205 205 0
5.662057 7.720987 33.642645 205 205 205 0
5.785938 7.714584 33.614746 206 206 206 0
5.929431 7.734041 33.699523 206 206 206 0
6.068984 7.747639 33.758777 205 205 205 0
6.194672 7.743340 33.740042 206 206 206 0
6.336292 7.758725 33.807082 206 206 206 0
6.475452 7.770543 33.858574 206 206 206 0
6.616487 7.784103 33.917659 206 206 206 0
6.753466 7.792461 33.954078 206 206 206 0
6.880907 7.789706 33.942074 206 206 206 0
7.012971 7.792190 33.952900 206 206 206 0
7.165903 7.817349 34.062522 205 205 205 0
7.311039 7.833256 34.131833 206 206 206 0
7.429953 7.821004 34.078447 206 206 206 0
7.567238 7.828177 34.109705 205 205 205 0
7.725689 7.856632 34.233692 206 206 206 0
7.851854 7.851854 34.212871 205 205 205 0
7.974350 7.843623 34.177008 205 205 205 0
8.122617 7.860597 34.250968 205 205 205 0
8.277806 7.883624 34.351304 206 206 206 0
8.402121 7.876988 34.322389 205 205 205 0
8.525700 7.869877 34.291401 205 205 205 0
8.691445 7.901314 34.428383 206 206 206 0
8.837355 7.914049 34.483876 205 205 205 0
8.948918 7.896104 34.405681 206 206 206 0
9.082885 7.898161 34.414645 205 205 205 0
9.266541 7.942750 34.608931 205 205 205 0
9.406001 7.948734 34.635005 206 206 206 0
9.519130 7.932609 34.564744 205 205 205 0
9.666329 7.944928 34.618422 205 205 205 0
9.841719 7.979772 34.770250 205 205 205 0
9.952049 7.961639 34.691237 205 205 205 0
10.071768 7.951396 34.646605 206 206 206 0
10.237233 7.977065 34.758451 205 205 205 0
10.381787 7.985990 34.797341 205 205 205 0
10.535669 8.001774 34.866118 205 205 205 0
1.625218 7.626023 32.684124 160 160 160 0
1.320329 5.752862 24.656005 205 205 205 0
1.420464 5.776554 24.757546 206 206 206 0
1.998883 7.620743 32.661494 205 205 205 0
2.126136 7.629077 32.697211 206 206 206 0
2.251821 7.631170 32.706181 206 206 206 0
2.386436 7.661716 32.837099 206 206 206 0
2.510410 7.656751 32.815817 206 206 206 0
2.633792 7.650538 32.789192 206 206 206 0
2.765423 7.667764 32.863019 206 206 206 0
2.904731 7.703851 33.017685 205 205 205 0
3.027458 7.694788 32.978841 205 205 205 0
3.147858 7.680774 32.918777 206 206 206 0
3.076090 7.216981 30.931024 207 207 207 0
3.427874 7.744457 33.191713 206 206 206 0
3.548120 7.729832 33.129035 205 205 205 0
3.663094 7.705129 33.023161 206 206 206 0
3.801339 7.729389 33.127136 205 205 205 0
3.948314 7.769264 33.298034 206 206 206 0
4.066658 7.752067 33.224329 206 206 206 0
4.188509 7.742395 33.182880 206 206 206 0
4.329585 7.767784 33.291692 205 205 205 0
4.472745 7.795356 33.409863 206 206 206 0
4.595195 7.786303 33.371062 206 206 206 0
4.717620 7.777697 33.334179 206 206 206 0
4.857357 7.797336 33.418348 206 206 206 0
5.005699 7.829426 33.555882 205 205 205 0
5.129205 7.822038 33.524218 206 206 206 0
5.254513 7.817691 33.505586 206 206 206 0
5.396510 7.837789 33.591723 206 206 206 0
5.543214 7.863629 33.702470 206 206 206 0
5.658087 7.844166 33.619055 206 206 206 0
5.777260 7.831396 33.564326 205 205 205 0
5.921242 7.852081 33.652979 206 206 206 0
6.064788 7.871320 33.735435 207 207 207 0
6.189039 7.865237 33.709363 206 206 206 0
6.329042 7.879012 33.768399 207 207 207 0
6.465117 7.887443 33.804534 206 206 206 0
6.607625 7.903237 33.872227 205 205 205 0
6.744751 7.912111 33.910259 206 206 206 0
6.874919 7.912642 33.912535 206 206 206 0
7.006833 7.915127 33.923183 205 205 205 0
7.158917 7.939890 34.029315 205 205 205 0
7.303849 7.955978 34.098266 206 206 206 0
7.425424 7.946507 34.057673 205 205 205 0
7.556305 7.947148 34.060424 206 206 206 0
7.720752 7.982473 34.211820 205 205 205 0
7.849747 7.980576 34.203689 205 205 205 0
7.967860 7.967860 34.149191 205 205 205 0
8.109366 7.978570 34.195091 205 205 205 0
8.269730 8.007198 34.317790 205 205 205 0
8.397102 8.003487 34.301886 205 205 205 0
8.516222 7.992147 34.253283 205 205 205 0
8.675365 8.018141 34.364688 206 206 206 0
8.828074 8.037500 34.447660 205 205 205 0
8.947719 8.026631 34.401074 205 205 205 0
9.074546 8.022425 34.383048 205 205 205 0
9.253512 8.063774 34.560268 205 205 205 0
9.397979 8.074320 34.605464 206 206 206 0
9.507718 8.055150 34.523305 204 204 204 0
9.660704 8.072643 34.598278 205 205 205 0
9.837977 8.109684 34.757029 205 205 205 0
9.947972 8.091017 34.677027 205 205 205 0
10.065325 8.078748 34.624442 205 205 205 0
10.230402 8.104604 34.735257 205 205 205 0
10.376647 8.115070 34.780113 205 205 205 0
10.527658 8.128951 34.839606 205 205 205 0
1.624346 7.746883 32.666594 161 161 161 0
1.318414 5.838689 24.620238 205 205 205 0
1.418630 5.863669 24.725569 206 206 206 0
1.996874 7.737888 32.628664 206 206 206 0
2.124067 7.746598 32.665393 206 206 206 0
2.250364 7.751252 32.685019 206 206 206 0
2.383132 7.776538 32.791640 206 206 206 0
2.510705 7.783186 32.819676 206 206 206 0
2.631791 7.770050 32.764284 206 206 206 0
2.762175 7.784311 32.824419 206 206 206 0
2.901686 7.821936 32.983072 205 205 205 0
3.026356 7.818087 32.966843 206 206 206 0
3.146601 7.803572 32.905636 206 206 206 0
3.260840 7.775850 32.788741 206 206 206 0
3.426099 7.867339 33.174528 205 205 205 0
3.544647 7.848861 33.096608 206 206 206 0
3.658889 7.822453 32.985252 206 206 206 0
3.795315 7.843650 33.074637 206 206 206 0
3.942284 7.884567 33.247173 206 206 206 0
4.063193 7.872436 33.196021 205 205 205 0
4.183278 7.859492 33.141438 206 206 206 0
4.324967 7.886705 33.256190 206 206 206 0
4.466330 7.911784 33.361941 206 206 206 0
4.590375 7.905645 33.336054 206 206 206 0
4.712471 7.896573 33.297797 206 206 206 0
4.854825 7.921031 33.400931 205 205 205 0
5.003031 7.953537 33.538000 205 205 205 0
5.127413 7.947490 33.512504 206 206 206 0
5.247785 7.935675 33.462684 206 206 206 0
5.393559 7.961921 33.573353 206 206 206 0
5.538760 7.986120 33.675393 206 206 206 0
5.654706 7.967995 33.598965 206 206 206 0
5.774308 7.955713 33.547175 206 206 206 0
5.916073 7.973837 33.623602 206 206 206 0
6.058845 7.992519 33.702379 206 206 206 0
6.184649 7.988505 33.685451 206 206 206 0
6.327757 8.006550 33.761541 206 206 206 0
6.462980 8.014095 33.793358 205 205 205 0
6.596660 8.019470 33.816022 206 206 206 0
6.734736 8.029878 33.859910 206 206 206 0
6.872723 8.039789 33.901704 206 206 206 0
7.000522 8.037636 33.892626 205 205 205 0
7.153144 8.063544 34.001873 205 205 205 0
7.297013 8.078836 34.066354 205 205 205 0
7.422588 8.073692 34.044666 206 206 206 0
7.551456 8.072246 34.038567 206 206 206 0
7.715294 8.107597 34.187634 206 206 206 0
7.845144 8.106649 34.183634 205 205 205 0
7.963810 8.094365 34.131835 205 205 205 0
8.100258 8.100258 34.156685 206 206 206 0
8.265345 8.134149 34.299597 206 206 206 0
8.387894 8.125772 34.264273 205 205 205 0
8.511266 8.118438 34.233347 206 206 206 0
8.660104 8.135249 34.304233 205 205 205 0
8.817796 8.159752 34.407556 205 205 205 0
8.943326 8.154209 34.384183 205 205 205 0
9.070040 8.149891 34.365974 205 205 205 0
9.241233 8.185092 34.514408 205 205 205 0
9.392265 8.201697 34.584426 205 205 205 0
9.504034 8.184029 34.509927 205 205 205 0
9.655592 8.200640 34.579970 205 205 205 0
9.832689 8.238199 34.738347 206 206 206 0
9.943104 8.219633 34.660059 204 204 204 0
10.056669 8.204124 34.594663 205 205 205 0
10.222096 8.230778 34.707056 206 206 206 0
10.373149 8.245323 34.768388 205 205 205 0
10.517975 8.254613 34.807562 205 205 205 0
1.624911 7.874569 32.677951 159 159 159 0
1.320198 5.940889 24.653551 205 205 205 0
1.417836 5.954910 24.711732 205 205 205 0
1.512314 5.954737 24.711015 205 205 205 0
2.122709 7.866512 32.644514 206 206 206 0
2.248507 7.869775 32.658056 206 206 206 0
2.379906 7.891266 32.747239 205 205 205 0
2.506234 7.894636 32.761225 205 205 205 0
2.630032 7.890097 32.742387 206 206 206 0
2.758328 7.898849 32.778709 206 206 206 0
2.900556 7.945001 32.970230 207 207 207 0
3.025455 7.941820 32.957027 205 205 205 0
3.145485 7.926621 32.893957 206 206 206 0
3.279345 7.946106 32.974814 206 206 206 0
3.426636 7.995483 33.179720 206 206 206 0
3.544159 7.974359 33.092058 205 205 205 0
3.655734 7.941768 32.956811 205 205 205 0
3.786473 7.951594 32.997588 206 206 206 0
3.939092 8.005252 33.220258 206 206 206 0
4.060813 7.994725 33.176573 206 206 206 0
4.182781 7.985310 33.137504 206 206 206 0
4.316567 7.998344 33.191594 206 206 206 0
4.461765 8.031176 33.327840 206 206 206 0
4.586978 8.027212 33.311389 205 205 205 0
4.705519 8.012099 33.248675 206 206 206 0
4.851205 8.042787 33.376023 206 206 206 0
4.999970 8.076875 33.517481 206 206 206 0
5.125262 8.072288 33.498445 206 206 206 0
5.246932 8.062359 33.457243 206 206 206 0
5.387743 8.081615 33.537151 206 206 206 0
5.534807 8.109136 33.651357 206 206 206 0
5.650143 8.089977 33.571852 206 206 206 0
5.770448 8.078627 33.524751 205 205 205 0
5.910547 8.094879 33.592196 205 205 205 0
6.056306 8.118027 33.688254 206 206 206 0
6.183352 8.115649 33.678387 206 206 206 0
6.328340 8.136437 33.764652 206 206 206 0
6.461113 8.141002 33.783596 205 205 205 0
6.587676 8.137718 33.769967 205 205 205 0
6.724097 8.146502 33.806420 206 206 206 0
6.861083 8.155627 33.844285 206 206 206 0
6.997549 8.163807 33.878232 207 207 207 0
7.146752 8.186279 33.971488 206 206 206 0
7.291429 8.202858 34.040285 205 205 205 0
7.417514 8.198305 34.021392 206 206 206 0
7.546746 8.197328 34.017336 205 205 205 0
7.709388 8.232059 34.161463 205 205 205 0
7.838789 8.230728 34.155942 206 206 206 0
7.956003 8.216855 34.098372 205 205 205 0
8.092005 8.222521 34.121883 205 205 205 0
8.251471 8.251471 34.242023 206 206 206 0
8.382359 8.251385 34.241663 206 206 206 0
8.502734 8.241111 34.199029 205 205 205 0
8.652756 8.259449 34.275129 205 205 205 0
8.808794 8.282896 34.372429 206 206 206 0
8.935597 8.278568 34.354469 205 205 205 0
9.059384 8.271612 34.325601 205 205 205 0
9.229810 8.306829 34.471745 205 205 205 0
9.381464 8.324398 34.544653 204 204 204 0
9.498988 8.311615 34.491605 205 205 205 0
9.643250 8.322257 34.535770 205 205 205 0
9.829721 8.368546 34.727860 205 205 205 0
9.938084 8.347990 34.642558 205 205 205 0
10.046485 8.328007 34.559632 205 205 205 0
10.210893 8.354367 34.669020 205 205 205 0
10.373191 8.378347 34.768530 205 205 205 0
10.513630 8.384287 34.793184 205 205 205 0
1.624683 7.998441 32.673370 155 155 155 0
1.318717 6.028421 24.625903 204 204 204 0
1.417427 6.047688 24.704609 206 206 206 0
1.510917 6.043668 24.688187 205 205 205 0
2.121972 7.988601 32.633174 205 205 205 0
2.245072 7.982480 32.608169 205 205 205 0
2.380608 8.018890 32.756904 205 205 205 0
2.506650 8.021282 32.766673 206 206 206 0
2.626718 8.005237 32.701132 205 205 205 0
2.753367 8.009796 32.719753 206 206 206 0
2.897557 8.062766 32.936137 206 206 206 0
3.022675 8.060467 32.926744 206 206 206 0
3.142410 8.044571 32.861808 206 206 206 0
3.274674 8.060737 32.927847 207 207 207 0
3.423767 8.115596 33.151943 206 206 206 0
3.540467 8.092496 33.057583 205 205 205 0
3.652690 8.061108 32.929363 205 205 205 0
3.783220 8.070870 32.969242 206 206 206 0
3.935211 8.124307 33.187530 207 207 207 0
4.060624 8.121249 33.175036 205 205 205 0
4.179321 8.105350 33.110090 205 205 205 0
4.315832 8.123918 33.185941 206 206 206 0
4.459762 8.154994 33.312883 206 206 206 0
4.585370 8.151769 33.299710 206 206 206 0
4.703339 8.135505 33.233272 206 206 206 0
4.846697 8.162858 33.345007 206 206 206 0
4.998087 8.201988 33.504854 206 206 206 0
5.121880 8.195008 33.476339 205 205 205 0
5.238553 8.177253 33.403812 206 206 206 0
5.383400 8.203275 33.510112 205 205 205 0
5.531729 8.233271 33.632643 206 206 206 0
5.647955 8.215207 33.558852 205 205 205 0
5.765124 8.199287 33.493821 206 206 206 0
5.905199 8.215929 33.561801 206 206 206 0
6.050271 8.238667 33.654684 206 206 206 0
6.179401 8.239201 33.656866 205 205 205 0
6.318971 8.253350 33.714663 206 206 206 0
6.450990 8.257267 33.730667 206 206 206 0
6.582956 8.260964 33.745767 206 206 206 0
6.716863 8.266908 33.770048 205 205 205 0
6.853020 8.275345 33.804514 205 205 205 0
6.993183 8.288217 33.857095 205 205 205 0
7.144057 8.313084 33.958678 205 205 205 0
7.291036 8.332612 34.038448 205 205 205 0
7.412225 8.322498 33.997132 205 205 205 0
7.543875 8.324276 34.004397 206 206 206 0
7.702334 8.355075 34.130207 206 206 206 0
7.838826 8.361415 34.156107 205 205 205 0
7.949725 8.340695 34.071466 205 205 205 0
8.082903 8.343642 34.083504 205 205 205 0
8.243661 8.374513 34.209610 205 205 205 0
8.375517 8.375517 34.213713 206 206 206 0
8.499177 8.368420 34.184723 205 205 205 0
8.637911 8.376156 34.216323 205 205 205 0
8.805575 8.411295 34.359867 205 205 205 0
8.935804 8.410168 34.355262 205 205 205 0
9.058311 8.401912 34.321536 205 205 205 0
9.215345 8.425458 34.417722 205 205 205 0
9.376312 8.451887 34.525683 205 205 205 0
9.491987 8.437321 34.466182 206 206 206 0
9.635335 8.447417 34.507422 205 205 205 0
9.825731 8.497929 34.713763 204 204 204 0
9.932720 8.475921 34.623859 205 205 205 0
10.042219 8.456605 34.544957 205 205 205 0
10.203032 8.480442 34.642329 205 205 205 0
10.371725 8.510133 34.763615 205 205 205 0
10.505285 8.510610 34.765565 206 206 206 0
1.226256 6.131282 24.660764 156 156 156 0
1.317630 6.117566 24.605595 204 204 204 0
1.416833 6.139611 24.694263 206 206 206 0
1.509688 6.133106 24.668098 206 206 206 0
2.118575 8.100433 32.580927 205 205 205 0
2.243900 8.102971 32.591137 206 206 206 0
2.375025 8.125085 32.680082 206 206 206 0
2.503868 8.137573 32.730307 206 206 206 0
2.625965 8.127987 32.691752 206 206 206 0
2.749646 8.123955 32.675535 205 205 205 0
2.893379 8.176941 32.888652 206 206 206 0
3.023025 8.187360 32.930558 205 205 205 0
3.141486 8.167863 32.852140 206 206 206 0
3.271764 8.179411 32.898585 206 206 206 0
3.422531 8.239428 33.139981 206 206 206 0
3.537304 8.211599 33.028050 206 206 206 0
3.649623 8.180189 32.901714 206 206 206 0
3.777361 8.184282 32.918177 206 206 206 0
3.930766 8.241928 33.150039 207 207 207 0
4.059790 8.246449 33.168220 206 206 206 0
4.177764 8.228929 33.097756 205 205 205 0
4.312854 8.245162 33.163045 206 206 206 0
4.456328 8.276037 33.287229 205 205 205 0
4.581436 8.272037 33.271137 206 206 206 0
4.698086 8.253395 33.196157 206 206 206 0
4.841143 8.280902 33.306796 206 206 206 0
4.993447 8.322412 33.473756 206 206 206 0
5.119578 8.319315 33.461296 206 206 206 0
5.238680 8.305225 33.404625 207 207 207 0
5.378078 8.323216 33.476987 206 206 206 0
5.529026 8.357831 33.616212 206 206 206 0
5.640726 8.332891 33.515900 206 206 206 0
5.759217 8.318868 33.459501 206 206 206 0
5.899960 8.336900 33.532025 206 206 206 0
6.043133 8.357525 33.614982 205 205 205 0
6.175089 8.362099 33.633381 205 205 205 0
6.310962 8.371684 33.671932 205 205 205 0
6.447955 8.382341 33.714796 206 206 206 0
6.578637 8.384537 33.723627 206 206 206 0
6.712686 8.390858 33.749050 206 206 206 0
6.849251 8.400025 33.785923 206 206 206 0
6.988220 8.411747 33.833068 206 206 206 0
7.136687 8.434266 33.923644 205 205 205 0
7.287672 8.458905 34.022745 205 205 205 0
7.408806 8.448638 33.981450 206 206 206 0
7.538644 8.448481 33.980817 205 205 205 0
7.696876 8.479609 34.106021 205 205 205 0
7.828710 8.481103 34.112026 205 205 205 0
7.944809 8.465780 34.050396 206 206 206 0
8.072545 8.463152 34.039828 205 205 205 0
8.240626 8.502233 34.197015 205 205 205 0
8.373639 8.504477 34.206041 206 206 206 0
8.493940 8.493940 34.163658 205 205 205 0
8.628891 8.498150 34.180593 205 205 205 0
8.796225 8.533651 34.323383 206 206 206 0
8.928108 8.534220 34.325673 205 205 205 0
9.049558 8.524946 34.288369 205 205 205 0
9.207456 8.549781 34.388259 205 205 205 0
9.365158 8.573736 34.484608 205 205 205 0
9.487661 8.565250 34.450477 205 205 205 0
9.628342 8.573181 34.482377 205 205 205 0
9.816412 8.622524 34.680841 205 205 205 0
9.928637 8.604819 34.609627 205 205 205 0
10.037590 8.584781 34.529033 205 205 205 0
10.192374 8.603952 34.606141 205 205 205 0
10.363611 8.636342 34.736420 204 204 204 0
10.505187 8.643508 34.765243 205 205 205 0
1.226090 6.224765 24.657416 155 155 155 0
1.318008 6.213468 24.612666 204 204 204 0
1.415015 6.226065 24.662567 205 205 205 0
1.507947 6.220280 24.639653 206 206 206 0
2.115707 8.213923 32.536830 205 205 205 0
2.242428 8.222235 32.569755 205 205 205 0
2.371832 8.238997 32.636154 205 205 205 0
2.501773 8.255849 32.702909 206 206 206 0
2.624155 8.247343 32.669213 206 206 206 0
2.748004 8.244011 32.656013 206 206 206 0
2.891597 8.297626 32.868394 205 205 205 0
3.020446 8.306227 32.902464 206 206 206 0
3.140251 8.290262 32.839223 206 206 206 0
3.270929 8.303127 32.890184 206 206 206 0
3.421318 8.363222 33.128233 206 206 206 0
3.535564 8.333830 33.011805 205 205 205 0
3.648367 8.303179 32.890391 205 205 205 0
3.773943 8.302674 32.888388 205 205 205 0
3.928460 8.363818 33.130593 206 206 206 0
4.055922 8.365340 33.136622 206 206 206 0
4.177038 8.354076 33.092001 206 206 206 0
4.307972 8.362533 33.125503 206 206 206 0
4.454288 8.399514 33.271990 206 206 206 0
4.581556 8.399520 33.272013 206 206 206 0
4.695696 8.376107 33.179269 206 206 206 0
4.835992 8.399355 33.271359 206 206 206 0
4.990813 8.445991 33.456096 206 206 206 0
5.114606 8.439099 33.428795 206 206 206 0
5.231176 8.420918 33.356776 206 206 206 0
5.373809 8.444557 33.450415 206 206 206 0
5.524439 8.479372 33.588323 205 205 205 0
5.635809 8.453713 33.486682 205 205 205 0
5.755373 8.441214 33.437172 205 205 205 0
5.895321 8.458504 33.505661 206 206 206 0
6.039634 8.481188 33.595515 206 206 206 0
6.168237 8.481325 33.596060 205 205 205 0
6.298098 8.483152 33.603295 206 206 206 0
6.441208 8.502395 33.679520 206 206 206 0
6.573722 8.507170 33.698435 206 206 206 0
6.719113 8.528105 33.781364 206 206 206 0
6.843647 8.522278 33.758280 206 206 206 0
6.982844 8.534588 33.807041 205 205 205 0
7.131756 8.558108 33.900209 206 206 206 0
7.279384 8.579274 33.984053 205 205 205 0
7.401653 8.570335 33.948645 206 206 206 0
7.534048 8.573227 33.960100 206 206 206 0
7.689809 8.602159 34.074706 205 205 205 0
7.821426 8.603569 34.080289 206 206 206 0
7.937764 8.588400 34.020203 205 205 205 0
8.066563 8.586986 34.014601 205 205 205 0
8.228058 8.619870 34.144861 206 206 206 0
8.368009 8.629509 34.183043 205 205 205 0
8.493486 8.624155 34.161833 206 206 206 0
8.624393 8.624393 34.162777 206 206 206 0
8.787763 8.656603 34.290365 205 205 205 0
8.923493 8.661037 34.307932 205 205 205 0
9.040250 8.647196 34.253102 205 205 205 0
9.197547 8.671973 34.351248 205 205 205 0
9.357982 8.698969 34.458187 205 205 205 0
9.483360 8.693080 34.434859 205 205 205 0
9.617283 8.695078 34.442774 205 205 205 0
9.809493 8.749007 34.656397 206 206 206 0
9.925456 8.734401 34.598539 205 205 205 0
10.031884 8.711899 34.509404 205 205 205 0
10.182349 8.727727 34.572103 205 205 205 0
10.356984 8.763602 34.714208 205 205 205 0
10.500293 8.772397 34.749046 205 205 205 0
1.225489 6.315981 24.645327 154 154 154 0
1.316923 6.302416 24.592396 203 203 203 0
1.415739 6.323635 24.675191 205 205 205 0
1.507593 6.313045 24.633870 205 205 205 0
1.610920 6.348919 24.773852 206 206 206 0
1.714737 6.382633 24.905406 206 206 206 0
1.813520 6.395044 24.953836 205 205 205 0
2.501157 8.378874 32.694856 206 206 206 0
2.622026 8.365512 32.642716 206 206 206 0
2.745453 8.361152 32.625702 205 205 205 0
2.888580 8.414560 32.834104 206 206 206 0
3.017610 8.424160 32.871563 206 206 206 0
3.137408 8.408254 32.809498 205 205 205 0
3.269484 8.425209 32.875658 206 206 206 0
3.419536 8.485515 33.110975 206 206 206 0
3.535250 8.459347 33.008867 206 206 206 0
3.647810 8.427698 32.885370 206 206 206 0
3.771384 8.422757 32.866090 206 206 206 0
3.926622 8.486570 33.115093 206 206 206 0
4.054904 8.489955 33.128298 205 205 205 0
4.173213 8.472888 33.061703 206 206 206 0
4.302652 8.478756 33.084600 206 206 206 0
4.448896 8.516458 33.231715 205 205 205 0
4.577711 8.519630 33.244092 206 206 206 0
4.692372 8.496998 33.155782 206 206 206 0
4.833367 8.521989 33.253299 206 206 206 0
4.985895 8.565512 33.423126 205 205 205 0
5.111281 8.561396 33.407065 206 206 206 0
5.232035 8.549911 33.362252 205 205 205 0
5.372824 8.570933 33.444281 205 205 205 0
5.520822 8.602211 33.566328 207 207 207 0
5.636565 8.582952 33.491178 205 205 205 0
5.753303 8.566029 33.425146 205 205 205 0
5.890576 8.579753 33.478695 206 206 206 0
6.036565 8.605316 33.578445 206 206 206 0
6.162166 8.601357 33.562996 206 206 206 0
6.293769 8.605766 33.580200 205 205 205 0
6.432546 8.619612 33.634227 205 205 205 0
6.568765 8.629554 33.673022 205 205 205 0
6.707118 8.641863 33.721054 206 206 206 0
6.840163 8.646998 33.741091 205 205 205 0
6.976953 8.656590 33.778518 205 205 205 0
7.125188 8.679775 33.868988 206 206 206 0
7.280024 8.710028 33.987039 206 206 206 0
7.398112 8.696026 33.932401 206 206 206 0
7.527745 8.695844 33.931689 206 206 206 0
7.688447 8.730949 34.068671 205 205 205 0
7.817775 8.729849 34.064380 205 205 205 0
7.933572 8.713923 34.002236 206 206 206 0
8.061964 8.712123 33.995211 205 205 205 0
8.226991 8.749339 34.140433 206 206 206 0
8.366546 8.758728 34.177066 205 205 205 0
8.489826 8.751051 34.147112 206 206 206 0
8.613880 8.744393 34.121133 205 205 205 0
8.786038 8.786038 34.283631 206 206 206 0
8.915062 8.783958 34.275518 205 205 205 0
9.040210 8.778175 34.252952 205 205 205 0
9.186072 8.792383 34.308392 205 205 205 0
9.354590 8.827571 34.445698 206 206 206 0
9.474286 8.816349 34.401908 205 205 205 0
9.611497 8.821511 34.422051 205 205 205 0
9.826297 8.896782 34.715763 205 205 205 0
9.915278 8.857648 34.563060 205 205 205 0
10.026549 8.839194 34.491052 205 205 205 0
10.181074 8.858857 34.567776 205 205 205 0
10.355265 8.894907 34.708446 204 204 204 0
10.488617 8.895409 34.710405 205 205 205 0
1.224377 6.404435 24.622972 154 154 154 0
1.316670 6.395252 24.587667 205 205 205 0
1.413917 6.409758 24.643436 206 206 206 0
1.506129 6.401049 24.609955 205 205 205 0
1.608512 6.434049 24.736828 205 205 205 0
1.713097 6.471700 24.881585 205 205 205 0
1.811611 6.483659 24.927564 205 205 205 0
1.912306 6.501839 24.997459 206 206 206 0
2.014307 6.522519 25.076965 206 206 206 0
2.118897 6.549320 25.180006 206 206 206 0
2.888036 8.538541 32.827917 206 206 206 0
3.017262 8.548908 32.867773 206 206 206 0
3.137483 8.533954 32.810281 206 206 206 0
3.265964 8.541752 32.840263 205 205 205 0
3.417901 8.608047 33.095143 206 206 206 0
3.534887 8.584725 33.005478 205 205 205 0
3.644298 8.545250 32.853710 206 206 206 0
3.769249 8.543631 32.847487 206 206 206 0
3.922667 8.604561 33.081740 205 205 205 0
4.052663 8.611910 33.109994 205 205 205 0
4.170095 8.592923 33.036998 206 206 206 0
4.299877 8.599754 33.063261 205 205 205 0
4.447643 8.641135 33.222357 206 206 206 0
4.573578 8.638982 33.214077 205 205 205 0
4.691667 8.622524 33.150803 206 206 206 0
4.831683 8.646169 33.241713 205 205 205 0
4.983297 8.688825 33.405709 206 206 206 0
5.109137 8.685533 33.393054 206 206 206 0
5.227216 8.669529 33.331522 205 205 205 0
5.367913 8.690907 33.413713 205 205 205 0
5.518813 8.727425 33.554113 206 206 206 0
5.633667 8.706576 33.473957 206 206 206 0
5.748554 8.686705 33.397557 205 205 205 0
5.886802 8.702229 33.457243 205 205 205 0
6.031886 8.726984 33.552418 206 206 206 0
6.162946 8.730840 33.567243 205 205 205 0
6.287766 8.725880 33.548173 206 206 206 0
6.428249 8.742419 33.611759 205 205 205 0
6.564937 8.753249 33.653399 205 205 205 0
6.703340 8.765907 33.702063 205 205 205 0
6.836216 8.770995 33.721625 205 205 205 0
6.972237 8.779854 33.755687 206 206 206 0
7.117647 8.800000 33.833142 206 206 206 0
7.268278 8.825766 33.932202 206 206 206 0
7.391306 8.817698 33.901184 206 206 206 0
7.519737 8.816243 33.895591 205 205 205 0
7.683005 8.854989 34.044556 206 206 206 0
7.812164 8.853786 34.039932 204 204 204 0
7.928971 8.838853 33.982520 205 205 205 0
8.053559 8.832936 33.959768 206 206 206 0
8.214193 8.866113 34.087322 205 205 205 0
8.357247 8.879575 34.139081 206 206 206 0
8.484371 8.875957 34.125171 206 206 206 0
8.610148 8.871062 34.106352 205 205 205 0
8.781832 8.912904 34.267220 205 205 205 0
8.911517 8.911517 34.261890 205 205 205 0
9.026234 8.895419 34.199997 205 205 205 0
