ply
    format ascii 1.0
    element vertex 15053
    property float x
    property float y
    property float z
    property uchar red
    property uchar green
    property uchar blue
    property uchar alpha
    end_header
8.194314 -1.452157 27.117776 214 214 214 0
-5.494113 -1.487989 29.924364 74 74 74 0
-5.358446 -1.482123 29.806403 109 109 109 0
-5.162519 -1.458973 29.340828 133 133 133 0
-5.024003 -1.451379 29.188106 144 144 144 0
-4.876678 -1.440837 28.976104 152 152 152 0
-5.316061 -1.607181 32.321393 160 160 160 0
-4.611698 -1.427430 28.706492 162 162 162 0
-4.468067 -1.416704 28.490785 170 170 170 0
-4.306476 -1.399605 28.146904 173 173 173 0
-4.163528 -1.387843 27.910359 173 173 173 0
-4.037275 -1.381173 27.776232 177 177 177 0
-3.916820 -1.376180 27.675815 182 182 182 0
-3.814331 -1.377397 27.700296 183 183 183 0
-3.701531 -1.374854 27.649155 184 184 184 0
-3.569885 -1.364956 27.450094 185 185 185 0
-3.456471 -1.361640 27.383412 187 187 187 0
-3.355521 -1.363180 27.414388 190 190 190 0
-3.247048 -1.361665 27.383915 191 191 191 0
-3.139281 -1.360355 27.357566 192 192 192 0
-3.033965 -1.360053 27.351496 192 192 192 0
-2.928302 -1.359569 27.341755 193 193 193 0
-2.819573 -1.357572 27.301605 196 196 196 0
-2.708677 -1.354338 27.236567 197 197 197 0
-2.604161 -1.354164 27.233057 199 199 199 0
-2.493147 -1.350455 27.158463 195 195 195 0
-2.366565 -1.337624 26.900429 187 187 187 0
-2.229180 -1.317242 26.490547 143 143 143 0
-2.089692 -1.293619 26.015467 141 141 141 0
-1.973635 -1.282862 25.799145 143 143 143 0
-1.864374 -1.275624 25.653583 150 150 150 0
-1.747250 -1.261903 25.377632 154 154 154 0
-1.635921 -1.250998 25.158339 157 157 157 0
-1.529677 -1.242862 24.994716 166 166 166 0
-1.421408 -1.231887 24.773989 168 168 168 0
-1.337306 -1.241784 24.973029 169 169 169 0
-1.227401 -1.227401 24.683785 171 171 171 0
-1.130035 -1.224205 24.619505 176 176 176 0
-1.026999 -1.213726 24.408765 179 179 179 0
-0.927409 -1.205632 24.245988 181 181 181 0
-0.829476 -1.198132 24.095154 181 181 181 0
-0.733929 -1.192634 23.984598 182 182 182 0
-0.641199 -1.190798 23.947668 186 186 186 0
-0.550783 -1.193364 23.999269 188 188 188 0
-0.458086 -1.191023 23.952206 190 190 190 0
-0.364560 -1.184819 23.827434 191 191 191 0
-0.271796 -1.177784 23.685952 190 190 190 0
-0.180563 -1.173658 23.602969 190 190 190 0
-0.090174 -1.172260 23.574860 191 191 191 0
0.000000 -1.172614 23.581972 195 195 195 0
0.090145 -1.171889 23.567400 197 197 197 0
0.179953 -1.169692 23.523224 197 197 197 0
0.268489 -1.163453 23.397746 197 197 197 0
0.356896 -1.159913 23.326558 198 198 198 0
0.445263 -1.157683 23.281701 198 198 198 0
0.535825 -1.160954 23.347485 200 200 200 0
0.625872 -1.162334 23.375244 199 199 199 0
0.714969 -1.161825 23.365003 200 200 200 0
0.801182 -1.157262 23.273253 201 201 201 0
0.886013 -1.151817 23.163750 202 202 202 0
0.971767 -1.148452 23.096075 203 203 203 0
1.060729 -1.149124 23.109573 204 204 204 0
1.155196 -1.155196 23.231699 205 205 205 0
1.241909 -1.153201 23.191576 205 205 205 0
1.325231 -1.148534 23.097716 206 206 206 0
1.408025 -1.144021 23.006951 206 206 206 0
1.493791 -1.142311 22.972566 207 207 207 0
1.581472 -1.142175 22.969824 207 207 207 0
1.675845 -1.146631 23.059445 208 208 208 0
1.762987 -1.145941 23.045577 207 207 207 0
1.844444 -1.141798 22.962262 208 208 208 0
1.929402 -1.140101 22.928123 210 210 210 0
2.017048 -1.140070 22.927509 210 210 210 0
2.106785 -1.141175 22.949726 211 211 211 0
2.195745 -1.141787 22.962035 211 211 211 0
2.282573 -1.141287 22.951968 213 213 213 0
2.369438 -1.140841 22.943000 213 213 213 0
2.461199 -1.142700 22.980383 215 215 215 0
2.550035 -1.143119 22.988818 213 213 213 0
2.642043 -1.144885 23.024340 215 215 215 0
2.734234 -1.146614 23.059111 214 214 214 0
2.821005 -1.146033 23.047429 215 215 215 0
2.905383 -1.144545 23.017490 215 215 215 0
2.993658 -1.144634 23.019282 215 215 215 0
3.085212 -1.145936 23.045471 215 215 215 0
3.186129 -1.150547 23.138191 215 215 215 0
3.270633 -1.149141 23.109929 216 216 216 0
3.355022 -1.147771 23.082368 216 216 216 0
3.446306 -1.148769 23.102434 216 216 216 0
3.535984 -1.149195 23.111006 216 216 216 0
3.633095 -1.151957 23.166557 216 216 216 0
3.731346 -1.154941 23.226557 215 215 215 0
3.815296 -1.153462 23.196813 216 216 216 0
3.914369 -1.156518 23.258282 216 216 216 0
4.006091 -1.157315 23.274313 215 215 215 0
4.098004 -1.158131 23.290728 215 215 215 0
4.200016 -1.161707 23.362625 215 215 215 0
4.297862 -1.164004 23.408836 215 215 215 0
4.395177 -1.166067 23.450323 215 215 215 0
4.501990 -1.170517 23.539817 216 216 216 0
4.611140 -1.175389 23.637780 215 215 215 0
4.702562 -1.175640 23.642845 215 215 215 0
4.795080 -1.176152 23.653127 214 214 214 0
4.893389 -1.178038 23.691062 215 215 215 0
5.021316 -1.186857 23.868408 215 215 215 0
5.113092 -1.186968 23.870643 214 214 214 0
5.202609 -1.186560 23.862442 214 214 214 0
5.307576 -1.189629 23.924166 214 214 214 0
5.439537 -1.198542 24.103408 213 213 213 0
5.549626 -1.202419 24.181377 213 213 213 0
5.652478 -1.204626 24.225770 212 212 212 0
5.776024 -1.211102 24.355994 212 212 212 0
5.902019 -1.217877 24.492247 211 211 211 0
6.017497 -1.222304 24.581279 212 212 212 0
6.154933 -1.230987 24.755891 211 211 211 0
6.301572 -1.241219 24.961663 211 211 211 0
6.421500 -1.245963 25.057069 209 209 209 0
6.563106 -1.254711 25.233011 209 209 209 0
6.725297 -1.267085 25.481849 209 209 209 0
6.872712 -1.276361 25.668391 208 208 208 0
7.062572 -1.293147 26.005973 208 208 208 0
7.263521 -1.311469 26.374440 207 207 207 0
7.430547 -1.323248 26.611325 212 212 212 0
7.591183 -1.333586 26.819229 216 216 216 0
7.727674 -1.339463 26.937426 215 215 215 0
7.847479 -1.342332 26.995111 214 214 214 0
7.972730 -1.346045 27.069790 215 215 215 0
8.114094 -1.352349 27.196562 215 215 215 0
8.186830 -1.347200 27.093009 215 215 215 0
-5.539115 -1.384779 30.169470 94 94 94 0
-5.309519 -1.355622 29.534248 122 122 122 0
-5.119502 -1.335522 29.096343 139 139 139 0
-4.966728 -1.324461 28.855357 148 148 148 0
-4.821552 -1.314969 28.648558 158 158 158 0
-4.655489 -1.299206 28.305146 160 160 160 0
-4.576929 -1.307694 28.490068 167 167 167 0
-4.447979 -1.301847 28.362689 171 171 171 0
-4.295035 -1.288511 28.072126 172 172 172 0
-4.148769 -1.276544 27.811422 176 176 176 0
-4.018097 -1.268873 27.644287 181 181 181 0
-3.905695 -1.266712 27.597211 181 181 181 0
-3.799266 -1.266422 27.590891 182 182 182 0
-3.688968 -1.264789 27.555319 184 184 184 0
-3.562795 -1.257457 27.395575 189 189 189 0
-3.443518 -1.252188 27.280789 190 190 190 0
-3.343070 -1.253651 27.312660 189 189 189 0
-3.237706 -1.253306 27.305131 191 191 191 0
-3.129213 -1.251685 27.269827 191 191 191 0
-3.027454 -1.252740 27.292800 193 193 193 0
-2.923307 -1.252846 27.295113 196 196 196 0
-2.812061 -1.249805 27.228862 197 197 197 0
-2.697537 -1.245017 27.124555 197 197 197 0
-2.586574 -1.241555 27.049135 198 198 198 0
-2.490180 -1.245090 27.126138 198 198 198 0
-2.383497 -1.243564 27.092894 204 204 204 0
-2.262399 -1.234036 26.885316 180 180 180 0
-2.114891 -1.208509 26.329179 149 149 149 0
-1.977074 -1.186244 25.844099 139 139 139 0
-1.864921 -1.177845 25.661106 143 143 143 0
-1.753299 -1.168866 25.465487 154 154 154 0
-1.645929 -1.161832 25.312253 156 156 156 0
-1.537581 -1.153185 25.123867 160 160 160 0
-1.258678 -1.006943 21.937751 166 166 166 0
-1.344293 -1.152251 25.103506 167 167 167 0
-1.236228 -1.141133 24.861288 168 168 168 0
-1.133037 -1.133037 24.684904 171 171 171 0
-1.029641 -1.123244 24.471558 180 180 180 0
-0.929186 -1.115023 24.292432 181 181 181 0
-0.831323 -1.108430 24.148802 181 181 181 0
-0.735765 -1.103648 24.044623 181 181 181 0
-0.644344 -1.104590 24.065137 181 181 181 0
-0.553440 -1.106880 24.115027 187 187 187 0
-0.459481 -1.102754 24.025132 190 190 190 0
-0.365641 -1.096924 23.898131 190 190 190 0
-0.272603 -1.090411 23.756222 190 190 190 0
-0.181063 -1.086378 23.668357 191 191 191 0
-0.090355 -1.084256 23.622134 192 192 192 0
0.000000 -1.085060 23.639656 193 193 193 0
0.090466 -1.085596 23.651329 195 195 195 0
0.180470 -1.082822 23.590902 197 197 197 0
0.269235 -1.076941 23.462759 198 198 198 0
0.357818 -1.073453 23.386766 198 198 198 0
0.446546 -1.071712 23.348834 200 200 200 0
0.537196 -1.074392 23.407232 200 200 200 0
0.627883 -1.076371 23.450354 199 199 199 0
0.716177 -1.074265 23.404467 201 201 201 0
0.803336 -1.071114 23.335821 202 202 202 0
0.887714 -1.065256 23.208202 203 203 203 0
0.974513 -1.063105 23.161323 203 203 203 0
1.064664 -1.064664 23.195298 204 204 204 0
1.156978 -1.067980 23.267541 207 207 207 0
1.242973 -1.065405 23.211443 207 207 207 0
1.326896 -1.061517 23.126736 208 208 208 0
1.409958 -1.057469 23.038531 208 208 208 0
1.494945 -1.055255 22.990306 210 210 210 0
1.584300 -1.056200 23.010889 210 210 210 0
1.677336 -1.059370 23.079960 210 210 210 0
1.764809 -1.058886 23.069402 211 211 211 0
1.846428 -1.055102 22.986965 211 211 211 0
1.930936 -1.053238 22.946360 213 213 213 0
2.020679 -1.054267 22.968786 213 213 213 0
2.111011 -1.055506 22.995765 213 213 213 0
2.197055 -1.054587 22.975742 213 213 213 0
2.283653 -1.053994 22.962830 214 214 214 0
2.369288 -1.053017 22.941544 214 214 214 0
2.460097 -1.054327 22.970095 214 214 214 0
2.550998 -1.055585 22.997503 214 214 214 0
2.642973 -1.057189 23.032447 214 214 214 0
2.732992 -1.057932 23.048635 215 215 215 0
2.821313 -1.057992 23.049945 214 214 214 0
2.905717 -1.056624 23.020136 215 215 215 0
2.992210 -1.056074 23.008153 215 215 215 0
3.082819 -1.056966 23.027590 215 215 215 0
3.181037 -1.060346 23.101213 215 215 215 0
3.266802 -1.059503 23.082859 215 215 215 0
3.354556 -1.059334 23.079162 215 215 215 0
3.442648 -1.059276 23.077915 215 215 215 0
3.532921 -1.059876 23.090986 216 216 216 0
3.629348 -1.062248 23.142665 216 216 216 0
3.728209 -1.065203 23.207029 215 215 215 0
3.819192 -1.065821 23.220501 215 215 215 0
3.906793 -1.065489 23.213268 215 215 215 0
4.000480 -1.066795 23.241714 216 216 216 0
4.096145 -1.068560 23.280164 216 216 216 0
4.199554 -1.072226 23.360054 215 215 215 0
4.294927 -1.073732 23.392849 216 216 216 0
4.393995 -1.076080 23.444015 216 216 216 0
4.496541 -1.079170 23.511325 215 215 215 0
4.606546 -1.083893 23.614230 215 215 215 0
4.698941 -1.084371 23.624640 215 215 215 0
4.792052 -1.084993 23.638188 215 215 215 0
4.892504 -1.087223 23.686779 214 214 214 0
5.013073 -1.093761 23.829224 214 214 214 0
5.106596 -1.094271 23.840317 214 214 214 0
5.196330 -1.093964 23.833644 213 213 213 0
5.298175 -1.096174 23.881788 213 213 213 0
5.434510 -1.105324 24.081134 213 213 213 0
5.543667 -1.108733 24.155410 213 213 213 0
5.650154 -1.111506 24.215811 212 212 212 0
5.770897 -1.116948 24.334373 212 212 212 0
5.896825 -1.123205 24.470692 212 212 212 0
6.011272 -1.127113 24.555848 212 212 212 0
6.149429 -1.135279 24.733753 211 211 211 0
6.295951 -1.144718 24.939397 211 211 211 0
6.417473 -1.149398 25.041353 211 211 211 0
6.552638 -1.156348 25.192765 209 209 209 0
6.711991 -1.167303 25.431434 208 208 208 0
6.857817 -1.175626 25.612761 208 208 208 0
7.031792 -1.188472 25.892633 207 207 207 0
7.203463 -1.200577 26.156364 207 207 207 0
7.395383 -1.215679 26.485391 209 209 209 0
7.567673 -1.227190 26.736171 216 216 216 0
7.714103 -1.234256 26.890120 215 215 215 0
7.835480 -1.237181 26.953835 215 215 215 0
7.960790 -1.240643 27.029251 216 216 216 0
8.108245 -1.247422 27.176956 214 214 214 0
8.179120 -1.242398 27.067496 214 214 214 0
-5.692299 -1.277863 30.371074 81 81 81 0
-5.500254 -1.260475 29.957812 112 112 112 0
-5.275289 -1.234642 29.343839 134 134 134 0
-5.083606 -1.215645 28.892332 143 143 143 0
-4.925877 -1.204103 28.618022 155 155 155 0
-4.784101 -1.196025 28.426032 159 159 159 0
-4.675329 -1.196014 28.425774 165 165 165 0
-4.572135 -1.197464 28.460226 171 171 171 0
-4.435698 -1.190065 28.284379 171 171 171 0
-4.276873 -1.176140 27.953419 174 174 174 0
-4.132722 -1.165640 27.703851 180 180 180 0
-4.002249 -1.158546 27.535254 182 182 182 0
-3.887566 -1.155763 27.469113 182 182 182 0
-3.783610 -1.156103 27.477199 184 184 184 0
-3.675410 -1.155129 27.454044 188 188 188 0
-3.553943 -1.149805 27.327510 189 189 189 0
-3.433803 -1.144601 27.203827 190 190 190 0
-3.333363 -1.145844 27.233360 190 190 190 0
-3.230242 -1.146215 27.242188 192 192 192 0
-3.123443 -1.145263 27.219551 194 194 194 0
-3.016933 -1.144354 27.197956 194 194 194 0
-2.915775 -1.145483 27.224788 196 196 196 0
-2.804045 -1.142389 27.151247 197 197 197 0
-2.691273 -1.138615 27.061565 198 198 198 0
-2.581214 -1.135734 26.993086 198 198 198 0
-2.482441 -1.137786 27.041843 200 200 200 0
-2.387389 -1.141795 27.137133 205 205 205 0
-2.276050 -1.138025 27.047530 202 202 202 0
-2.142385 -1.122202 26.671461 170 170 170 0
-1.986505 -1.092578 25.967381 139 139 139 0
-1.867965 -1.081453 25.702995 143 143 143 0
-1.756657 -1.073513 25.514263 150 150 150 0
-1.655154 -1.070982 25.454123 156 156 156 0
-1.541872 -1.060037 25.193988 157 157 157 0
-1.470483 -1.078354 25.629326 161 161 161 0
-1.348438 -1.059487 25.180913 166 166 166 0
-1.242048 -1.050963 24.978335 169 169 169 0
-1.135871 -1.041215 24.746653 171 171 171 0
-1.033399 -1.033399 24.560875 175 175 175 0
-0.931500 -1.024650 24.352940 180 180 180 0
-0.834140 -1.019505 24.230651 181 181 181 0
-0.738038 -1.014802 24.118890 183 183 183 0
-0.647419 -1.017372 24.179974 182 182 182 0
-0.555062 -1.017614 24.185713 185 185 185 0
-0.460369 -1.012812 24.071591 188 188 188 0
-0.366301 -1.007327 23.941225 192 192 192 0
-0.273252 -1.001922 23.812772 193 193 193 0
-0.181616 -0.998886 23.740604 194 194 194 0
-0.090624 -0.996862 23.692511 194 194 194 0
0.000000 -0.996942 23.694392 197 197 197 0
0.090533 -0.995865 23.668804 197 197 197 0
0.180735 -0.994044 23.625526 199 199 199 0
0.269962 -0.989859 23.526069 199 199 199 0
0.358571 -0.986070 23.436008 200 200 200 0
0.447738 -0.985024 23.411139 203 203 203 0
0.538471 -0.987197 23.462794 203 203 203 0
0.629099 -0.988585 23.495779 205 205 205 0
0.717083 -0.985989 23.434073 205 205 205 0
0.803084 -0.981547 23.328498 206 206 206 0
0.888887 -0.977775 23.238869 208 208 208 0
0.976006 -0.976006 23.196816 208 208 208 0
1.066028 -0.977192 23.225007 208 208 208 0
1.158970 -0.980667 23.307597 208 208 208 0
1.242850 -0.976525 23.209158 208 208 208 0
1.326453 -0.972732 23.119003 210 210 210 0
1.410591 -0.969782 23.048878 211 211 211 0
1.495543 -0.967704 22.999503 211 211 211 0
1.584899 -0.968550 23.019597 212 212 212 0
1.677392 -0.971122 23.080735 211 211 211 0
1.764441 -0.970442 23.064582 211 211 211 0
1.844997 -0.966427 22.969148 211 211 211 0
1.932407 -0.966204 22.963839 212 212 212 0
2.020444 -0.966299 22.966111 213 213 213 0
2.111238 -0.967651 22.998233 213 213 213 0
2.196792 -0.966589 22.972991 214 214 214 0
2.282218 -0.965554 22.948399 213 213 213 0
2.368384 -0.964897 22.932790 213 213 213 0
2.460528 -0.966636 22.974121 214 214 214 0
2.550445 -0.967410 22.992516 214 214 214 0
2.642078 -0.968762 23.024647 214 214 214 0
2.734073 -0.970155 23.057755 214 214 214 0
2.821567 -0.969914 23.052016 214 214 214 0
2.905282 -0.968427 23.016694 215 215 215 0
2.989865 -0.967309 22.990117 215 215 215 0
3.080720 -0.968226 23.011914 215 215 215 0
3.179018 -0.971367 23.086551 215 215 215 0
3.265432 -0.970804 23.073179 215 215 215 0
3.352526 -0.970468 23.065194 215 215 215 0
3.439696 -0.970171 23.058129 215 215 215 0
3.530316 -0.970837 23.073962 216 216 216 0
3.627018 -0.973102 23.127802 215 215 215 0
3.720277 -0.974358 23.157655 216 216 216 0
3.811555 -0.975049 23.174067 215 215 215 0
3.900935 -0.975234 23.178460 215 215 215 0
3.999182 -0.977578 23.234175 216 216 216 0
4.094028 -0.979007 23.268136 216 216 216 0
4.197396 -0.982369 23.348053 215 215 215 0
4.291456 -0.983459 23.373944 215 215 215 0
4.387825 -0.985022 23.411098 214 214 214 0
4.492510 -0.988352 23.490251 215 215 215 0
4.603314 -0.992872 23.597662 215 215 215 0
4.695755 -0.993333 23.608623 215 215 215 0
4.787902 -0.993715 23.617717 215 215 215 0
4.888030 -0.995710 23.665116 215 215 215 0
5.013424 -1.002685 23.830892 214 214 214 0
5.105193 -1.002806 23.833768 214 214 214 0
5.190967 -1.001766 23.809045 213 213 213 0
5.292186 -1.003690 23.854793 213 213 213 0
5.426120 -1.011649 24.043956 213 213 213 0
5.538338 -1.015362 24.132191 214 214 214 0
5.643853 -1.017744 24.188806 213 213 213 0
5.757708 -1.021529 24.278759 212 212 212 0
5.890066 -1.028424 24.442642 212 212 212 0
6.007525 -1.032543 24.540544 211 211 211 0
6.138437 -1.038812 24.689540 211 211 211 0
6.285412 -1.047569 24.897652 210 210 210 0
6.410756 -1.052512 25.015145 210 210 210 0
6.544794 -1.058717 25.162608 208 208 208 0
6.701505 -1.068356 25.391702 209 209 209 0
6.848410 -1.076179 25.577630 208 208 208 0
7.018216 -1.087329 25.842643 208 208 208 0
7.194956 -1.099229 26.125474 207 207 207 0
7.364390 -1.109703 26.374392 211 211 211 0
7.537124 -1.120383 26.628241 216 216 216 0
7.705797 -1.130184 26.861167 216 216 216 0
7.825423 -1.132627 26.919241 215 215 215 0
7.950449 -1.135778 26.994141 214 214 214 0
8.097073 -1.141895 27.139509 214 214 214 0
8.176719 -1.138530 27.059548 214 214 214 0
-5.635453 -1.150093 30.067778 99 99 99 0
-5.456973 -1.136869 29.722077 126 126 126 0
-5.244770 -1.115909 29.174081 140 140 140 0
-5.063064 -1.100666 28.775582 151 151 151 0
-4.902129 -1.089362 28.480052 156 156 156 0
-4.754946 -1.080670 28.252799 161 161 161 0
-4.631674 -1.077134 28.160355 169 169 169 0
-4.568328 -1.087697 28.436525 171 171 171 0
-4.418121 -1.077591 28.172303 173 173 173 0
-4.264481 -1.066120 27.872422 179 179 179 0
-4.118950 -1.056141 27.611531 181 181 181 0
-3.986717 -1.049136 27.428394 181 181 181 0
-3.871587 -1.046375 27.356204 183 183 183 0
-3.765216 -1.045893 27.343618 188 188 188 0
-3.661835 -1.046239 27.352646 189 189 189 0
-3.546856 -1.043193 27.273018 189 189 189 0
-3.421706 -1.036881 27.107988 190 190 190 0
-3.319253 -1.037267 27.118084 192 192 192 0
-3.220332 -1.038817 27.158605 193 193 193 0
-3.114736 -1.038245 27.143666 194 194 194 0
-3.008590 -1.037445 27.122743 195 195 195 0
-2.905824 -1.037794 27.131880 196 196 196 0
-2.799059 -1.036689 27.102971 197 197 197 0
-2.687142 -1.033516 27.020033 198 198 198 0
-2.580010 -1.032004 26.980501 198 198 198 0
-2.480361 -1.033484 27.019179 200 200 200 0
-2.383826 -1.036446 27.096630 203 203 203 0
-2.276080 -1.034582 27.047889 203 203 203 0
-2.157909 -1.027576 26.864722 188 188 188 0
-1.997954 -0.998977 26.117042 137 137 137 0
-1.871230 -0.984858 25.747923 139 139 139 0
-1.759121 -0.977289 25.550048 153 153 153 0
-1.659734 -0.976314 25.524554 153 153 153 0
-1.509556 -0.943473 24.665953 163 163 163 0
-1.463865 -0.975910 25.513990 165 165 165 0
-1.351128 -0.965091 25.231143 168 168 168 0
-1.242439 -0.955723 24.986210 175 175 175 0
-1.137658 -0.948049 24.785587 177 177 177 0
-1.035239 -0.941127 24.604621 177 177 177 0
-0.932557 -0.932557 24.380566 184 184 184 0
-0.835002 -0.927780 24.255698 186 186 186 0
-0.739126 -0.923908 24.154461 187 187 187 0
-0.647726 -0.925323 24.191458 187 187 187 0
-0.556047 -0.926745 24.228618 191 191 191 0
-0.460938 -0.921877 24.101357 194 194 194 0
-0.366587 -0.916468 23.959939 193 193 193 0
-0.273651 -0.912170 23.847571 195 195 195 0
-0.181761 -0.908804 23.759574 196 196 196 0
-0.090737 -0.907370 23.722097 200 200 200 0
0.000000 -0.907332 23.721109 199 199 199 0
0.090640 -0.906396 23.696630 201 201 201 0
0.180738 -0.903688 23.625835 201 201 201 0
0.270103 -0.900343 23.538391 201 201 201 0
0.359009 -0.897522 23.464617 204 204 204 0
0.448436 -0.896872 23.447629 204 204 204 0
0.539035 -0.898391 23.487353 205 205 205 0
0.629303 -0.899004 23.503371 205 205 205 0
0.717989 -0.897487 23.463701 205 205 205 0
0.803181 -0.892424 23.331337 206 206 206 0
0.889245 -0.889245 23.248224 208 208 208 0
0.976136 -0.887396 23.199903 208 208 208 0
1.066552 -0.888793 23.236426 209 209 209 0
1.158251 -0.890962 23.293126 208 208 208 0
1.242917 -0.887798 23.210401 208 208 208 0
1.326500 -0.884333 23.119824 210 210 210 0
1.410379 -0.881487 23.045404 210 210 210 0
1.496355 -0.880209 23.011991 211 211 211 0
1.584876 -0.880487 23.019264 211 211 211 0
1.676507 -0.882372 23.068551 210 210 210 0
1.762953 -0.881477 23.045141 211 211 211 0
1.844483 -0.878325 22.962748 212 212 212 0
1.931717 -0.878053 22.955643 213 213 213 0
2.019070 -0.877856 22.950495 213 213 213 0
2.109836 -0.879098 22.982959 213 213 213 0
2.196875 -0.878750 22.973859 213 213 213 0
2.284111 -0.878504 22.967436 213 213 213 0
2.368335 -0.877161 22.932314 214 214 214 0
2.458056 -0.877877 22.951033 214 214 214 0
2.548325 -0.878733 22.973405 214 214 214 0
2.642242 -0.880747 23.026073 214 214 214 0
2.732656 -0.881502 23.045800 215 215 215 0
2.820961 -0.881550 23.047070 215 215 215 0
2.903802 -0.879940 23.004966 214 214 214 0
2.987685 -0.878731 22.973356 214 214 214 0
3.077001 -0.879143 22.984137 214 214 214 0
3.176698 -0.882416 23.069703 215 215 215 0
3.264442 -0.882282 23.066187 216 216 216 0
3.352573 -0.882256 23.065518 215 215 215 0
3.439130 -0.881828 23.054332 215 215 215 0
3.528230 -0.882058 23.060329 215 215 215 0
3.622688 -0.883582 23.100194 215 215 215 0
3.718960 -0.885467 23.149454 215 215 215 0
3.806741 -0.885289 23.144801 215 215 215 0
3.896849 -0.885647 23.154182 216 216 216 0
3.995213 -0.887825 23.211116 216 216 216 0
4.090911 -0.889329 23.250421 216 216 216 0
4.193141 -0.892158 23.324383 215 215 215 0
4.289869 -0.893723 23.365299 215 215 215 0
4.389714 -0.895860 23.421177 216 216 216 0
4.487035 -0.897407 23.461622 215 215 215 0
4.599442 -0.901851 23.577814 215 215 215 0
4.693239 -0.902546 23.595971 214 214 214 0
4.784136 -0.902667 23.599142 214 214 214 0
4.884771 -0.904587 23.649337 215 215 215 0
5.006226 -0.910223 23.796676 214 214 214 0
5.099713 -0.910663 23.808182 214 214 214 0
5.188360 -0.910239 23.797088 214 214 214 0
5.292500 -0.912500 23.856210 214 214 214 0
5.421919 -0.918969 24.025343 214 214 214 0
5.536008 -0.922668 24.122040 212 212 212 0
5.638450 -0.924336 24.165648 213 213 213 0
5.755126 -0.928246 24.267874 212 212 212 0
5.887013 -0.934447 24.429976 212 212 212 0
6.004556 -0.938212 24.528417 211 211 211 0
6.136654 -0.944101 24.682369 211 211 211 0
6.280689 -0.951619 24.878941 211 211 211 0
6.405489 -0.956043 24.994593 210 210 210 0
6.535816 -0.961149 25.128088 209 209 209 0
6.689649 -0.969514 25.346781 209 209 209 0
6.838690 -0.976956 25.541327 208 208 208 0
7.005206 -0.986649 25.794740 209 209 209 0
7.157655 -0.994119 25.990032 207 207 207 0
7.342349 -1.005801 26.295456 209 209 209 0
7.519008 -1.016082 26.564239 215 215 215 0
7.688468 -1.025129 26.800761 216 216 216 0
7.816302 -1.028461 26.887864 216 216 216 0
7.943616 -1.031638 26.970939 214 214 214 0
8.086394 -1.036717 27.103719 214 214 214 0
8.167315 -1.033837 27.028428 214 214 214 0
-5.883631 -1.059054 30.764082 76 76 76 0
-5.558741 -1.020993 29.658481 112 112 112 0
-5.402577 -1.012983 29.425798 135 135 135 0
-5.217147 -0.999028 29.020427 144 144 144 0
-5.040102 -0.986107 28.645083 156 156 156 0
-4.873230 -0.974646 28.312159 158 158 158 0
-4.709667 -0.963341 27.983763 165 165 165 0
-4.581976 -0.959018 27.858191 170 170 170 0
-5.621200 -1.204543 34.990352 171 171 171 0
-4.395549 -0.964877 28.028372 177 177 177 0
-4.256615 -0.957738 27.821011 180 180 180 0
-4.106984 -0.947766 27.531317 180 180 180 0
-3.974340 -0.941291 27.343242 182 182 182 0
-3.865973 -0.940372 27.316535 186 186 186 0
-3.749249 -0.937312 27.227662 188 188 188 0
-3.654196 -0.939650 27.295579 189 189 189 0
-3.538778 -0.936735 27.210905 189 189 189 0
-3.412454 -0.930669 27.034689 191 191 191 0
-3.314631 -0.932240 27.080320 194 194 194 0
-3.212780 -0.932743 27.094918 195 195 195 0
-3.107733 -0.932320 27.082638 194 194 194 0
-3.001472 -0.931491 27.058573 196 196 196 0
-2.901553 -0.932642 27.092000 197 197 197 0
-2.787510 -0.929170 26.991142 197 197 197 0
-2.679764 -0.927611 26.945844 198 198 198 0
-2.573534 -0.926472 26.912774 201 201 201 0
-2.477629 -0.929111 26.989423 201 201 201 0
-2.382796 -0.932399 27.084927 203 203 203 0
-2.277304 -0.931624 27.062436 202 202 202 0
-2.160413 -0.925891 26.895899 189 189 189 0
-1.997003 -0.898651 26.104614 145 145 145 0
-1.871467 -0.886484 25.751180 140 140 140 0
-1.757902 -0.878951 25.532341 152 152 152 0
-1.663807 -0.880839 25.587196 154 154 154 0
-1.424963 -0.801542 23.283708 167 167 167 0
-1.463226 -0.877936 25.502856 167 167 167 0
-1.354103 -0.870494 25.286696 170 170 170 0
-1.245582 -0.862326 25.049415 178 178 178 0
-1.140200 -0.855150 24.840969 178 178 178 0
-1.035458 -0.847193 24.609824 180 180 180 0
-0.934136 -0.840723 24.421863 184 184 184 0
-0.835584 -0.835584 24.272580 186 186 186 0
-0.739108 -0.831497 24.153864 189 189 189 0
-0.647878 -0.832986 24.197138 188 188 188 0
-0.555868 -0.833801 24.220809 192 192 192 0
-0.460720 -0.829296 24.089932 194 194 194 0
-0.366628 -0.824913 23.962611 194 194 194 0
-0.273693 -0.821078 23.851218 194 194 194 0
-0.181932 -0.818692 23.781896 196 196 196 0
-0.090738 -0.816638 23.722224 199 199 199 0
0.000000 -0.817057 23.734419 200 200 200 0
0.090686 -0.816175 23.708791 200 200 200 0
0.180911 -0.814099 23.648482 200 200 200 0
0.270129 -0.810386 23.540610 201 201 201 0
0.359183 -0.808162 23.476023 204 204 204 0
0.448694 -0.807649 23.461115 204 204 204 0
0.539434 -0.809151 23.504760 204 204 204 0
0.629512 -0.809372 23.511172 204 204 204 0
0.718155 -0.807924 23.469108 205 205 205 0
0.803056 -0.803056 23.327689 206 206 206 0
0.888972 -0.800075 23.241105 207 207 207 0
0.975638 -0.798249 23.188063 208 208 208 0
1.065416 -0.799062 23.211669 208 208 208 0
1.157567 -0.801393 23.279383 208 208 208 0
1.241788 -0.798292 23.189310 208 208 208 0
1.326161 -0.795696 23.113914 210 210 210 0
1.410005 -0.793128 23.039298 211 211 211 0
1.495706 -0.791845 23.002019 210 210 210 0
1.583886 -0.791943 23.004882 211 211 211 0
1.675505 -0.793660 23.054759 210 210 210 0
1.762758 -0.793241 23.042590 210 210 210 0
1.844278 -0.790405 22.960201 212 212 212 0
1.931498 -0.790158 22.953040 213 213 213 0
2.018582 -0.789880 22.944946 212 212 212 0
2.108465 -0.790674 22.968024 212 212 212 0
2.197095 -0.790954 22.976157 212 212 212 0
2.283661 -0.790498 22.962903 213 213 213 0
2.367151 -0.789050 22.920855 213 213 213 0
2.457487 -0.789907 22.945726 213 213 213 0
2.546236 -0.790211 22.954572 213 213 213 0
2.642243 -0.792673 23.026081 214 214 214 0
2.731713 -0.793078 23.037846 214 214 214 0
2.819523 -0.792991 23.035319 214 214 214 0
2.902948 -0.791713 22.998203 215 215 215 0
2.986881 -0.790645 22.967173 214 214 214 0
3.075719 -0.790899 22.974558 215 215 215 0
3.176274 -0.794069 23.066625 215 215 215 0
3.261490 -0.793335 23.045326 215 215 215 0
3.349550 -0.793315 23.044721 214 214 214 0
3.437345 -0.793234 23.042368 216 216 216 0
3.524519 -0.793017 23.036069 216 216 216 0
3.621287 -0.794917 23.091258 215 215 215 0
3.715752 -0.796233 23.129488 215 215 215 0
3.805981 -0.796601 23.140177 215 215 215 0
3.896204 -0.796951 23.150352 215 215 215 0
3.993913 -0.798783 23.203560 214 214 214 0
4.089442 -0.800108 23.242071 216 216 216 0
4.189533 -0.802251 23.304311 215 215 215 0
4.287861 -0.803974 23.354362 215 215 215 0
4.380431 -0.804569 23.371648 215 215 215 0
4.482539 -0.806857 23.438111 215 215 215 0
4.596675 -0.811178 23.563631 215 215 215 0
4.690397 -0.811800 23.581686 215 215 215 0
4.782922 -0.812194 23.593153 215 215 215 0
4.880181 -0.813363 23.627116 215 215 215 0
5.003594 -0.818770 23.784164 214 214 214 0
5.097566 -0.819252 23.798159 215 215 215 0
5.188415 -0.819223 23.797339 214 214 214 0
5.289162 -0.820732 23.841163 214 214 214 0
5.420942 -0.826923 24.021013 213 213 213 0
5.533429 -0.830014 24.110803 213 213 213 0
5.635671 -0.831492 24.153738 212 212 212 0
5.750235 -0.834711 24.247247 212 212 212 0
5.877873 -0.839696 24.392043 212 212 212 0
6.001002 -0.843891 24.513897 212 212 212 0
6.127340 -0.848401 24.644908 210 210 210 0
6.274098 -0.855559 24.852833 210 210 210 0
6.402577 -0.860048 24.983228 210 210 210 0
6.528568 -0.864075 25.100222 209 209 209 0
6.690760 -0.872708 25.350991 209 209 209 0
6.835635 -0.878867 25.529916 209 209 209 0
6.995768 -0.886787 25.759984 208 208 208 0
7.162215 -0.895277 26.006592 207 207 207 0
7.329255 -0.903607 26.248563 207 207 207 0
7.508966 -0.913253 26.528762 215 215 215 0
7.675916 -0.921110 26.757006 215 215 215 0
7.811528 -0.925049 26.871440 215 215 215 0
7.936599 -0.927654 26.947115 214 214 214 0
8.074413 -0.931663 27.063559 215 215 215 0
8.158305 -0.929427 26.998611 215 215 215 0
-5.810323 -0.929652 30.380772 95 95 95 0
-5.537142 -0.904023 29.543241 124 124 124 0
-5.355073 -0.892512 29.167064 138 138 138 0
-5.200840 -0.885249 28.929716 150 150 150 0
-5.022798 -0.873530 28.546737 158 158 158 0
-4.847712 -0.861816 28.163906 162 162 162 0
-4.683049 -0.851463 27.825602 169 169 169 0
-4.545134 -0.845606 27.634195 169 169 169 0
-4.389556 -0.836106 27.323722 173 173 173 0
-4.378728 -0.854386 27.921107 179 179 179 0
-4.245054 -0.849011 27.745454 180 180 180 0
-4.092462 -0.839479 27.433969 181 181 181 0
-3.964713 -0.834676 27.277009 184 184 184 0
-3.848830 -0.832179 27.195406 187 187 187 0
-3.741393 -0.831421 27.170609 188 188 188 0
-3.643220 -0.832736 27.213593 189 189 189 0
-3.528402 -0.830212 27.131116 191 191 191 0
-3.405048 -0.825466 26.976020 193 193 193 0
-3.302928 -0.825732 26.984708 194 194 194 0
-3.200978 -0.826059 26.995388 195 195 195 0
-3.096025 -0.825607 26.980607 195 195 195 0
-2.992366 -0.825480 26.976481 195 195 195 0
-2.890568 -0.825876 26.989428 197 197 197 0
-2.779987 -0.823700 26.918297 199 199 199 0
-2.671803 -0.822093 26.865796 200 200 200 0
-2.569442 -0.822222 26.869985 200 200 200 0
-2.475601 -0.825200 26.967331 201 201 201 0
-2.381283 -0.828272 27.067726 202 202 202 0
-2.274307 -0.827021 27.026817 202 202 202 0
-2.157190 -0.821787 26.855773 190 190 190 0
-1.997341 -0.798936 26.109035 142 142 142 0
-1.869358 -0.787098 25.722159 144 144 144 0
-1.757913 -0.781295 25.532507 152 152 152 0
-1.663551 -0.782848 25.583255 154 154 154 0
-1.399356 -0.699678 22.865289 164 164 164 0
-1.463008 -0.780271 25.499058 166 166 166 0
-1.356280 -0.775017 25.327361 169 169 169 0
-1.247153 -0.767479 25.081000 177 177 177 0
-1.140202 -0.760135 24.841003 178 178 178 0
-1.035527 -0.753111 24.611466 179 179 179 0
-0.934312 -0.747450 24.426467 184 184 184 0
-0.836562 -0.743610 24.300990 187 187 187 0
-0.740042 -0.740042 24.184387 188 188 188 0
-0.648241 -0.740847 24.210693 187 187 187 0
-0.555768 -0.741023 24.216452 192 192 192 0
-0.460648 -0.737036 24.086147 194 194 194 0
-0.366645 -0.733290 23.963709 194 194 194 0
-0.273756 -0.730016 23.856724 193 193 193 0
-0.181964 -0.727856 23.786143 196 196 196 0
-0.090819 -0.726549 23.743428 199 199 199 0
0.000000 -0.726835 23.752782 200 200 200 0
0.090724 -0.725788 23.718568 200 200 200 0
0.181035 -0.724140 23.664714 199 199 199 0
0.270385 -0.721027 23.562973 201 201 201 0
0.358984 -0.717967 23.462981 203 203 203 0
0.448644 -0.717830 23.458509 203 203 203 0
0.539209 -0.718946 23.494954 204 204 204 0
0.629444 -0.719364 23.508629 204 204 204 0
0.717639 -0.717639 23.452260 205 205 205 0
0.803571 -0.714285 23.342662 207 207 207 0
0.889081 -0.711265 23.243939 208 208 208 0
0.975040 -0.709120 23.173866 208 208 208 0
1.065165 -0.710110 23.206207 208 208 208 0
1.156593 -0.711749 23.259780 209 209 209 0
1.241625 -0.709500 23.186265 209 209 209 0
1.325903 -0.707148 23.109424 210 210 210 0
1.409575 -0.704788 23.032277 210 210 210 0
1.494298 -0.703199 22.980360 210 210 210 0
1.582510 -0.703338 22.984893 210 210 210 0
1.675680 -0.705549 23.057170 211 211 211 0
1.762798 -0.705119 23.043108 211 211 211 0
1.845233 -0.702946 22.972092 212 212 212 0
1.930198 -0.701890 22.937588 212 212 212 0
2.016480 -0.701384 22.921056 212 212 212 0
2.106136 -0.702045 22.942662 212 212 212 0
2.194481 -0.702234 22.948824 213 213 213 0
2.281845 -0.702106 22.944649 212 212 212 0
2.365969 -0.701028 22.909406 213 213 213 0
2.454838 -0.701382 22.920987 213 213 213 0
2.544459 -0.701920 22.938554 214 214 214 0
2.639781 -0.703942 23.004628 214 214 214 0
2.729489 -0.704384 23.019093 214 214 214 0
2.819945 -0.704986 23.038766 214 214 214 0
2.902060 -0.703530 22.991167 215 215 215 0
2.987338 -0.702903 22.970686 214 214 214 0
3.077318 -0.703387 22.986501 214 214 214 0
3.176062 -0.705791 23.065081 215 215 215 0
3.259198 -0.704691 23.029130 215 215 215 0
3.349480 -0.705154 23.044238 215 215 215 0
3.434550 -0.704523 23.023627 215 215 215 0
3.522959 -0.704592 23.025874 215 215 215 0
3.619287 -0.706202 23.078509 215 215 215 0
3.714460 -0.707516 23.121446 215 215 215 0
3.805706 -0.708038 23.138506 215 215 215 0
3.896908 -0.708529 23.154532 216 216 216 0
3.992321 -0.709746 23.194315 215 215 215 0
4.087398 -0.710852 23.230454 216 216 216 0
4.185391 -0.712407 23.281276 216 216 216 0
4.282625 -0.713771 23.325847 215 215 215 0
4.381543 -0.715354 23.377580 215 215 215 0
4.481475 -0.717036 23.432550 215 215 215 0
4.595717 -0.720897 23.558720 215 215 215 0
4.689808 -0.721509 23.578721 214 214 214 0
4.780709 -0.721617 23.582239 215 215 215 0
4.879246 -0.722851 23.622590 214 214 214 0
5.000138 -0.727293 23.767740 215 215 215 0
5.095576 -0.727939 23.788871 215 215 215 0
5.186457 -0.727924 23.788361 213 213 213 0
5.289051 -0.729524 23.840663 214 214 214 0
5.416340 -0.734419 24.000619 214 214 214 0
5.528888 -0.737185 24.091014 213 213 213 0
5.632247 -0.738655 24.139064 212 212 212 0
5.743838 -0.741140 24.220275 212 212 212 0
5.874315 -0.745945 24.377279 212 212 212 0
5.994868 -0.749359 24.488840 212 212 212 0
6.115397 -0.752664 24.596869 211 211 211 0
6.267569 -0.759705 24.826972 210 210 210 0
6.403601 -0.764609 24.987224 210 210 210 0
6.522308 -0.767330 25.076155 209 209 209 0
6.723310 -0.779514 25.474319 208 208 208 0
6.829569 -0.780522 25.507259 208 208 208 0
6.991945 -0.787825 25.745909 207 207 207 0
7.154115 -0.794902 25.977178 207 207 207 0
7.316718 -0.801832 26.203665 207 207 207 0
7.501356 -0.810957 26.501876 216 216 216 0
7.663108 -0.817398 26.712358 215 215 215 0
7.796736 -0.820709 26.820556 215 215 215 0
7.924883 -0.823364 26.907335 216 216 216 0
8.061822 -0.826854 27.021359 215 215 215 0
8.150660 -0.825383 26.973309 214 214 214 0
-5.895756 -0.809221 30.223023 75 75 75 0
-5.711613 -0.799626 29.864642 109 109 109 0
-5.499742 -0.785677 29.343696 133 133 133 0
-5.324336 -0.776466 28.999653 142 142 142 0
-5.177803 -0.771162 28.801573 154 154 154 0
-5.006540 -0.761865 28.454335 157 157 157 0
-4.831384 -0.751549 28.069045 167 167 167 0
-4.665259 -0.742200 27.719898 170 170 170 0
-4.531392 -0.737669 27.550644 170 170 170 0
-4.448167 -0.741361 27.688557 177 177 177 0
-4.370001 -0.746098 27.865464 179 179 179 0
-4.230740 -0.740379 27.651894 179 179 179 0
-4.087205 -0.733601 27.398729 184 184 184 0
-3.956863 -0.728896 27.223001 187 187 187 0
-3.841094 -0.726693 27.140744 187 187 187 0
-3.733146 -0.725889 27.110717 187 187 187 0
-3.631683 -0.726337 27.127417 189 189 189 0
-3.525475 -0.725833 27.108612 193 193 193 0
-3.397385 -0.720657 26.915307 194 194 194 0
-3.293533 -0.720460 26.907946 194 194 194 0
-3.192209 -0.720821 26.921436 195 195 195 0
-3.086395 -0.720159 26.896686 196 196 196 0
-2.980712 -0.719482 26.871416 196 196 196 0
-2.882739 -0.720685 26.916333 199 199 199 0
-2.772492 -0.718794 26.845725 199 199 199 0
-2.669696 -0.718764 26.844606 199 199 199 0
-2.564535 -0.718070 26.818669 200 200 200 0
-2.467976 -0.719826 26.884266 201 201 201 0
-2.373681 -0.722425 26.981316 202 202 202 0
-2.264402 -0.720492 26.909116 201 201 201 0
-2.151971 -0.717324 26.790798 193 193 193 0
-1.999998 -0.699999 26.143762 148 148 148 0
-1.868581 -0.688425 25.711468 144 144 144 0
-1.754826 -0.682432 25.487673 152 152 152 0
-1.661077 -0.683973 25.545204 155 155 155 0
-1.411234 -0.617415 23.059375 166 166 166 0
-1.462616 -0.682554 25.492222 167 167 167 0
-1.360068 -0.680034 25.398098 171 171 171 0
-1.248595 -0.672320 25.110003 177 177 177 0
-1.141392 -0.665812 24.866931 178 178 178 0
-1.037097 -0.659971 24.648761 178 178 178 0
-0.934664 -0.654265 24.435671 184 184 184 0
-0.836779 -0.650828 24.307312 186 186 186 0
-0.740696 -0.648109 24.205740 186 186 186 0
-0.648023 -0.648023 24.202521 188 188 188 0
-0.555352 -0.647910 24.198334 191 191 191 0
-0.460267 -0.644373 24.066234 193 193 193 0
-0.366492 -0.641361 23.953724 193 193 193 0
-0.273569 -0.638327 23.840408 194 194 194 0
-0.181888 -0.636607 23.776182 196 196 196 0
-0.090825 -0.635772 23.745000 198 198 198 0
0.000000 -0.635625 23.739501 199 199 199 0
0.090705 -0.634933 23.713633 200 200 200 0
0.181050 -0.633673 23.666604 200 200 200 0
0.270231 -0.630538 23.549510 202 202 202 0
0.359112 -0.628446 23.471363 203 203 203 0
0.448357 -0.627699 23.443478 204 204 204 0
0.539106 -0.628957 23.490466 203 203 203 0
0.629369 -0.629369 23.505853 204 204 204 0
0.717499 -0.627811 23.447665 205 205 205 0
0.803138 -0.624663 23.330077 207 207 207 0
0.888114 -0.621680 23.218664 207 207 207 0
0.974758 -0.620300 23.167148 208 208 208 0
1.064589 -0.621010 23.193656 207 207 207 0
1.156223 -0.622582 23.252350 207 207 207 0
1.241161 -0.620581 23.177616 209 209 209 0
1.325399 -0.618519 23.100628 210 210 210 0
1.408938 -0.616410 23.021858 210 210 210 0
1.494504 -0.615384 22.983529 210 210 210 0
1.581566 -0.615054 22.971190 209 209 209 0
1.675409 -0.617256 23.053450 210 210 210 0
1.761682 -0.616589 23.028526 212 212 212 0
1.843346 -0.614449 22.948602 211 211 211 0
1.929075 -0.613797 22.924244 212 212 212 0
2.013621 -0.612841 22.888558 212 212 212 0
2.106356 -0.614354 22.945058 212 212 212 0
2.193655 -0.614223 22.940181 213 213 213 0
2.281664 -0.614294 22.942824 213 213 213 0
2.364962 -0.613138 22.899658 212 212 212 0
2.455204 -0.613801 22.924407 213 213 213 0
2.544531 -0.614197 22.939206 214 214 214 0
2.639557 -0.615897 23.002679 214 214 214 0
2.728756 -0.616171 23.012916 214 214 214 0
2.819967 -0.616868 23.038945 214 214 214 0
2.902805 -0.615747 22.997070 214 214 214 0
2.987387 -0.615050 22.971068 214 214 214 0
3.077723 -0.615545 22.989526 214 214 214 0
3.173922 -0.617152 23.049543 214 214 214 0
3.258849 -0.616539 23.026668 215 215 215 0
3.347488 -0.616643 23.030536 215 215 215 0
3.434379 -0.616427 23.022484 214 214 214 0
3.522343 -0.616410 23.021847 215 215 215 0
3.619017 -0.617881 23.076783 215 215 215 0
3.714607 -0.619101 23.122359 215 215 215 0
3.803331 -0.619147 23.124066 215 215 215 0
3.896229 -0.619855 23.150499 215 215 215 0
3.991115 -0.620840 23.187307 215 215 215 0
4.084332 -0.621529 23.213024 215 215 215 0
4.187244 -0.623632 23.291584 215 215 215 0
4.284331 -0.624798 23.335139 216 216 216 0
4.379089 -0.625584 23.364487 215 215 215 0
4.478783 -0.627030 23.418473 215 215 215 0
4.592721 -0.630374 23.543362 215 215 215 0
4.688164 -0.631099 23.570459 215 215 215 0
4.779726 -0.631285 23.577388 214 214 214 0
4.877257 -0.632237 23.612963 214 214 214 0
5.000504 -0.636428 23.769479 214 214 214 0
5.093195 -0.636649 23.777757 214 214 214 0
5.185278 -0.636788 23.782950 214 214 214 0
5.286575 -0.638035 23.829503 213 213 213 0
5.412792 -0.642196 23.984900 213 213 213 0
5.525875 -0.644685 24.077886 213 213 213 0
5.624618 -0.645448 24.106367 213 213 213 0
5.742479 -0.648344 24.214542 212 212 212 0
5.877499 -0.653055 24.390494 211 211 211 0
5.993802 -0.655572 24.484485 211 211 211 0
6.110899 -0.658097 24.578780 212 212 212 0
6.264303 -0.664396 24.814034 211 211 211 0
6.404916 -0.669170 24.992357 211 211 211 0
6.527598 -0.671959 25.096493 211 211 211 0
6.818327 -0.691714 25.834334 209 209 209 0
6.827860 -0.682786 25.500878 208 208 208 0
6.990945 -0.689248 25.742226 208 208 208 0
7.154090 -0.695537 25.977088 209 209 209 0
7.321207 -0.702034 26.219741 208 208 208 0
7.496248 -0.709105 26.483829 216 216 216 0
7.645866 -0.713614 26.652255 216 216 216 0
7.790571 -0.717553 26.799348 215 215 215 0
7.914483 -0.719498 26.872025 215 215 215 0
8.050368 -0.722469 26.982968 214 214 214 0
8.140772 -0.721334 26.940587 215 215 215 0
-5.707741 -0.671499 29.259213 89 89 89 0
-5.653779 -0.678454 29.562245 121 121 121 0
-5.449535 -0.667290 29.075818 137 137 137 0
-5.301153 -0.662644 28.873383 150 150 150 0
-5.158360 -0.658514 28.693420 155 155 155 0
-4.993443 -0.651319 28.379899 161 161 161 0
-4.821684 -0.642891 28.012686 168 168 168 0
-4.656959 -0.635040 27.670585 169 169 169 0
-4.521160 -0.630859 27.488430 175 175 175 0
-4.432224 -0.633175 27.589318 179 179 179 0
-4.351232 -0.636766 27.745782 179 179 179 0
-4.218889 -0.632833 27.574440 181 181 181 0
-4.078682 -0.627489 27.341589 184 184 184 0
-3.948635 -0.623469 27.166391 186 186 186 0
-3.835195 -0.621924 27.099065 187 187 187 0
-3.723266 -0.620544 27.038972 188 188 188 0
-3.624635 -0.621366 27.074768 192 192 192 0
-3.515483 -0.620379 27.031779 193 193 193 0
-3.392197 -0.616763 26.874208 195 195 195 0
-3.287849 -0.616472 26.861512 194 194 194 0
-3.179408 -0.615369 26.813478 194 194 194 0
-3.075862 -0.615172 26.804896 197 197 197 0
-2.969882 -0.614458 26.773788 198 198 198 0
-2.873665 -0.615785 26.831610 199 199 199 0
-2.768622 -0.615249 26.808250 200 200 200 0
-2.666697 -0.615392 26.814448 201 201 201 0
-2.559270 -0.614225 26.763611 201 201 201 0
-2.463270 -0.615817 26.833003 202 202 202 0
-2.365474 -0.617080 26.888021 202 202 202 0
-2.259987 -0.616360 26.856650 203 203 203 0
-2.148650 -0.613900 26.749458 196 196 196 0
-2.001520 -0.600456 26.163665 145 145 145 0
-1.865933 -0.589242 25.675035 145 145 145 0
-1.754467 -0.584822 25.482462 153 153 153 0
-1.655841 -0.584414 25.464682 155 155 155 0
-1.460902 -0.547838 23.870953 165 165 165 0
-1.461252 -0.584501 25.468437 166 166 166 0
-1.360784 -0.583193 25.411471 170 170 170 0
-1.249777 -0.576820 25.133769 177 177 177 0
-1.141694 -0.570847 24.873512 177 177 177 0
-1.036511 -0.565370 24.634853 178 178 178 0
-0.934579 -0.560748 24.433448 184 184 184 0
-0.837070 -0.558047 24.315763 186 186 186 0
-0.740450 -0.555337 24.197711 187 187 187 0
-0.648219 -0.555616 24.209848 188 188 188 0
-0.555826 -0.555826 24.219004 192 192 192 0
-0.460373 -0.552448 24.071815 193 193 193 0
-0.366337 -0.549506 23.943603 193 193 193 0
-0.273237 -0.546474 23.811506 194 194 194 0
-0.181796 -0.545389 23.764212 196 196 196 0
-0.090822 -0.544933 23.744374 198 198 198 0
0.000000 -0.544798 23.738492 199 199 199 0
0.090751 -0.544506 23.725732 199 199 199 0
0.180973 -0.542918 23.656549 199 199 199 0
0.270018 -0.540037 23.531007 201 201 201 0
0.359037 -0.538556 23.466492 203 203 203 0
0.448465 -0.538158 23.449168 203 203 203 0
0.538909 -0.538909 23.481874 204 204 204 0
0.629173 -0.539291 23.498510 203 203 203 0
0.717574 -0.538181 23.450136 205 205 205 0
0.802811 -0.535208 23.320588 206 206 206 0
0.887677 -0.532606 23.207249 207 207 207 0
0.974727 -0.531669 23.166416 207 207 207 0
1.063814 -0.531907 23.176785 207 207 207 0
1.155435 -0.533278 23.236508 207 207 207 0
1.240766 -0.531757 23.170237 209 209 209 0
1.325038 -0.530015 23.094338 209 209 209 0
1.407646 -0.527867 23.000756 210 210 210 0
1.493228 -0.527022 22.963912 210 210 210 0
1.581675 -0.527225 22.972762 210 210 210 0
1.675212 -0.529014 23.050738 210 210 210 0
1.760922 -0.528276 23.018582 211 211 211 0
1.842907 -0.526545 22.943128 212 212 212 0
1.927851 -0.525778 22.909696 212 212 212 0
2.012561 -0.525016 22.876508 212 212 212 0
2.104470 -0.526118 22.924515 212 212 212 0
2.193595 -0.526463 22.939552 211 211 211 0
2.281385 -0.526474 22.940024 213 213 213 0
2.365368 -0.525637 22.903590 213 213 213 0
2.455679 -0.526217 22.928844 213 213 213 0
2.545220 -0.526597 22.945411 214 214 214 0
2.638002 -0.527600 22.989121 213 213 213 0
2.729182 -0.528229 23.016507 214 214 214 0
2.819394 -0.528636 23.034266 214 214 214 0
2.901375 -0.527523 22.985740 214 214 214 0
2.988127 -0.527317 22.976758 214 214 214 0
3.077879 -0.527636 22.990695 214 214 214 0
3.173385 -0.528897 23.045641 214 214 214 0
3.258759 -0.528447 23.026034 215 215 215 0
3.347380 -0.528534 23.029789 215 215 215 0
3.433957 -0.528301 23.019656 215 215 215 0
3.522386 -0.528358 23.022132 215 215 215 0
3.618498 -0.529536 23.073474 215 215 215 0
3.713593 -0.530513 23.116046 214 214 214 0
3.802444 -0.530574 23.118675 215 215 215 0
3.894097 -0.531013 23.137831 215 215 215 0
3.989194 -0.531893 23.176145 215 215 215 0
4.084409 -0.532749 23.213464 215 215 215 0
4.184453 -0.534186 23.276057 215 215 215 0
4.282819 -0.535352 23.326901 215 215 215 0
4.377087 -0.535970 23.353804 215 215 215 0
4.477501 -0.537300 23.411768 215 215 215 0
4.592788 -0.540328 23.543706 215 215 215 0
4.687182 -0.540829 23.565518 214 214 214 0
4.777624 -0.540863 23.567021 214 214 214 0
4.877351 -0.541928 23.613415 214 214 214 0
4.996647 -0.545089 23.751144 214 214 214 0
5.091197 -0.545485 23.768427 214 214 214 0
5.182751 -0.545553 23.771361 214 214 214 0
5.285436 -0.546769 23.824366 213 213 213 0
5.407727 -0.549938 23.962454 213 213 213 0
5.523769 -0.552377 24.068712 213 213 213 0
5.622814 -0.553064 24.098633 213 213 213 0
5.740010 -0.555485 24.204133 212 212 212 0
5.874498 -0.559476 24.378040 212 212 212 0
5.993742 -0.561913 24.484240 212 212 212 0
6.106206 -0.563650 24.559904 212 212 212 0
6.258750 -0.568977 24.792040 211 211 211 0
6.404408 -0.573529 24.990372 210 210 210 0
6.526736 -0.575888 25.093180 209 209 209 0
6.954409 -0.604731 26.349945 209 209 209 0
6.824803 -0.584983 25.489459 209 209 209 0
6.992656 -0.590929 25.748525 207 207 207 0
7.155178 -0.596265 25.981039 208 208 208 0
7.300904 -0.600074 26.147030 207 207 207 0
7.488664 -0.607189 26.457037 216 216 216 0
7.638522 -0.611082 26.626656 216 216 216 0
7.781591 -0.614336 26.768458 216 216 216 0
7.902459 -0.615776 26.831200 215 215 215 0
8.033976 -0.617998 26.928023 214 214 214 0
8.129032 -0.617395 26.901735 214 214 214 0
-5.645920 -0.553522 28.942302 102 102 102 0
-5.570919 -0.557092 29.128988 129 129 129 0
-5.437304 -0.554827 29.010557 141 141 141 0
-5.276815 -0.549668 28.740821 154 154 154 0
-5.126579 -0.545381 28.516642 156 156 156 0
-4.980566 -0.541366 28.306713 166 166 166 0
-4.805883 -0.533987 27.920890 168 168 168 0
-4.647319 -0.528104 27.613303 170 170 170 0
-4.510102 -0.524430 27.421199 178 178 178 0
-4.416165 -0.525734 27.489357 179 179 179 0
-4.338982 -0.529144 27.667667 179 179 179 0
-4.208884 -0.526111 27.509048 184 184 184 0
-4.073372 -0.522227 27.305994 187 187 187 0
-3.944510 -0.519014 27.138011 186 186 186 0
-3.826045 -0.517033 27.034410 188 188 188 0
-3.721461 -0.516870 27.025861 189 189 189 0
-3.619338 -0.517048 27.035207 193 193 193 0
-3.511523 -0.516400 27.001330 193 193 193 0
-3.388485 -0.513407 26.844800 194 194 194 0
-3.282829 -0.512942 26.820498 194 194 194 0
-3.170966 -0.511446 26.742282 196 196 196 0
-3.069695 -0.511616 26.751153 198 198 198 0
-2.965683 -0.511325 26.735932 198 198 198 0
-2.868096 -0.512160 26.779607 199 199 199 0
-2.763190 -0.511702 26.755656 199 199 199 0
-2.659304 -0.511405 26.740106 201 201 201 0
-2.555555 -0.511111 26.724759 200 200 200 0
-2.456677 -0.511808 26.761193 203 203 203 0
-2.359733 -0.512985 26.822770 204 204 204 0
-2.255730 -0.512666 26.806061 204 204 204 0
-2.148076 -0.511447 26.742312 198 198 198 0
-2.002566 -0.500642 26.177336 148 148 148 0
-1.868355 -0.491672 25.708362 146 146 146 0
-1.754106 -0.487252 25.477215 154 154 154 0
-1.651947 -0.485867 25.404792 156 156 156 0
-1.474281 -0.460713 24.089554 165 165 165 0
-1.461966 -0.487322 25.480896 166 166 166 0
-1.362639 -0.486657 25.446098 170 170 170 0
-1.249654 -0.480636 25.131296 176 176 176 0
-1.141834 -0.475764 24.876548 177 177 177 0
-1.036507 -0.471140 24.634755 178 178 178 0
-0.934876 -0.467438 24.441197 184 184 184 0
-0.836966 -0.464981 24.312730 186 186 186 0
-0.740293 -0.462683 24.192594 186 186 186 0
-0.648518 -0.463227 24.221015 187 187 187 0
-0.555682 -0.463068 24.212716 192 192 192 0
-0.460646 -0.460646 24.086080 193 193 193 0
-0.366345 -0.457931 23.944111 193 193 193 0
-0.273290 -0.455484 23.816151 193 193 193 0
-0.181686 -0.454215 23.749811 196 196 196 0
-0.090772 -0.453858 23.731122 199 199 199 0
0.000000 -0.453894 23.733039 199 199 199 0
0.090769 -0.453844 23.730413 199 199 199 0
0.181047 -0.452618 23.666320 199 199 199 0
0.270157 -0.450261 23.543067 202 202 202 0
0.358878 -0.448598 23.456090 204 204 204 0
0.448344 -0.448344 23.442811 203 203 203 0
0.538635 -0.448863 23.469941 203 203 203 0
0.628725 -0.449089 23.481797 204 204 204 0
0.717468 -0.448417 23.446652 204 204 204 0
0.802409 -0.445783 23.308900 207 207 207 0
0.887879 -0.443940 23.212525 206 206 206 0
0.974655 -0.443025 23.164697 207 207 207 0
1.064218 -0.443424 23.185580 207 207 207 0
