ply
    format ascii 1.0
    element vertex 21108
    property float x
    property float y
    property float z
    property uchar red
    property uchar green
    property uchar blue
    property uchar alpha
    end_header
-4.482924 -5.683707 20.928681 192 192 192 0
-4.392006 -5.669680 20.877033 193 193 193 0
-4.457209 -5.860405 21.579323 193 193 193 0
-4.348070 -5.824773 21.448119 194 194 194 0
-4.255685 -5.810647 21.396103 195 195 195 0
-4.126986 -5.745412 21.155894 194 194 194 0
-4.022501 -5.711952 21.032686 194 194 194 0
-3.936572 -5.704013 21.003452 194 194 194 0
-3.904895 -5.775991 21.268494 195 195 195 0
-3.859851 -5.830839 21.470455 196 196 196 0
-3.766073 -5.812852 21.404223 196 196 196 0
-3.665356 -5.783117 21.294733 196 196 196 0
-3.587825 -5.789444 21.318032 197 197 197 0
-3.532105 -5.832080 21.475025 197 197 197 0
-3.478892 -5.880983 21.655098 198 198 198 0
-3.407195 -5.900264 21.726096 197 197 197 0
-3.321433 -5.895544 21.708713 198 198 198 0
-3.232711 -5.885192 21.670597 198 198 198 0
-3.162287 -5.908483 21.756359 198 198 198 0
-3.112837 -5.973283 21.994965 197 197 197 0
-3.041238 -5.997996 22.085967 199 199 199 0
-2.953906 -5.992209 22.064657 199 199 199 0
-2.863081 -5.978786 22.015231 200 200 200 0
-2.787807 -5.998008 22.086011 198 198 198 0
-2.723089 -6.041853 22.247457 198 198 198 0
-2.659810 -6.091823 22.431458 197 197 197 0
-2.566980 -6.075185 22.370192 197 197 197 0
-2.473405 -6.055577 22.297992 196 196 196 0
-2.393489 -6.069205 22.348172 197 197 197 0
-2.317614 -6.094466 22.441191 197 197 197 0
-2.248487 -6.140100 22.609222 197 197 197 0
-2.166817 -6.153759 22.659521 197 197 197 0
-2.083308 -6.163118 22.693982 197 197 197 0
-2.003907 -6.185973 22.778139 197 197 197 0
-1.929042 -6.225545 22.923853 196 196 196 0
-1.850502 -6.256461 23.037691 194 194 194 0
-1.772619 -6.292797 23.171489 194 194 194 0
-1.688632 -6.310151 23.235391 194 194 194 0
-1.607959 -6.342505 23.354526 194 194 194 0
-1.527816 -6.380880 23.495829 194 194 194 0
-1.452158 -6.443950 23.728069 193 193 193 0
-1.368655 -6.478298 23.854545 192 192 192 0
-1.280499 -6.493962 23.912222 190 190 190 0
-1.140979 -6.231502 22.945787 189 189 189 0
-1.121357 -6.634698 24.430446 188 188 188 0
-1.034801 -6.679172 24.594209 187 187 187 0
-0.941888 -6.687405 24.624525 185 185 185 0
-0.854886 -6.744098 24.833279 182 182 182 0
-0.778641 -6.910436 25.445774 182 182 182 0
-0.699011 -7.089971 26.106861 182 182 182 0
-0.670406 -7.933132 29.211571 192 192 192 0
-0.561275 -7.970105 29.347713 199 199 199 0
-0.459750 -8.160568 30.049040 199 199 199 0
-0.343060 -8.119089 29.896305 199 199 199 0
-0.227140 -8.063480 29.691540 199 199 199 0
-0.113541 -8.061417 29.683943 199 199 199 0
0.000000 -8.122948 29.910514 200 200 200 0
0.114741 -8.146599 29.997603 200 200 200 0
0.228804 -8.122529 29.908974 199 199 199 0
0.343269 -8.124037 29.914526 199 199 199 0
0.459388 -8.154133 30.025344 200 200 200 0
0.575805 -8.176429 30.107445 199 199 199 0
0.691215 -8.179374 30.118288 199 199 199 0
0.805082 -8.165827 30.068405 200 200 200 0
0.923958 -8.200131 30.194719 199 199 199 0
1.043020 -8.228269 30.298332 199 199 199 0
1.161173 -8.244327 30.357458 199 199 199 0
1.276406 -8.238620 30.336444 199 199 199 0
1.394110 -8.248486 30.372774 200 200 200 0
1.511415 -8.254654 30.395484 199 199 199 0
1.633612 -8.284744 30.506285 199 199 199 0
1.750915 -8.287663 30.517033 199 199 199 0
1.864038 -8.271670 30.458142 199 199 199 0
1.981066 -8.273863 30.466219 199 199 199 0
2.102213 -8.292061 30.533228 199 199 199 0
2.224907 -8.314124 30.614469 199 199 199 0
2.344619 -8.323398 30.648615 200 200 200 0
2.461556 -8.322403 30.644954 199 199 199 0
2.580081 -8.326625 30.660499 200 200 200 0
2.705814 -8.352729 30.756619 199 199 199 0
2.831649 -8.376963 30.845853 199 199 199 0
2.945844 -8.366197 30.806211 199 199 199 0
3.063237 -8.364993 30.801780 200 200 200 0
3.199259 -8.412866 30.978059 198 198 198 0
3.324747 -8.430609 31.043390 199 199 199 0
3.432716 -8.404237 30.946282 199 199 199 0
3.549547 -8.400594 30.932870 200 200 200 0
3.703072 -8.481230 31.229789 199 199 199 0
3.817115 -8.469224 31.185582 199 199 199 0
3.923850 -8.442223 31.086156 200 200 200 0
4.033506 -8.422910 31.015043 200 200 200 0
4.176422 -8.472170 31.196429 199 199 199 0
4.306357 -8.493093 31.273470 199 199 199 0
4.419417 -8.480503 31.227110 199 199 199 0
4.536746 -8.476552 31.212564 199 199 199 0
4.678777 -8.517773 31.364350 199 199 199 0
4.809465 -8.536801 31.434412 199 199 199 0
4.922014 -8.523487 31.385389 199 199 199 0
5.035357 -8.512151 31.343647 200 200 200 0
5.175507 -8.545605 31.466831 199 199 199 0
5.310115 -8.568594 31.551483 199 199 199 0
5.424936 -8.559344 31.517421 199 199 199 0
5.535935 -8.544595 31.463113 199 199 199 0
5.679442 -8.579583 31.591948 200 200 200 0
5.841355 -8.640338 31.815659 188 188 188 0
5.926508 -8.587389 31.620692 87 87 87 0
-10.713563 -9.374368 35.011644 173 173 173 0
-6.357648 -5.633359 21.039623 175 175 175 0
-6.223520 -5.585210 20.859794 176 176 176 0
-6.122927 -5.566297 20.789157 177 177 177 0
-6.009655 -5.535208 20.673046 181 181 181 0
-5.888056 -5.495518 20.524812 184 184 184 0
-5.765855 -5.454187 20.370446 185 185 185 0
-5.681015 -5.447548 20.345652 186 186 186 0
-5.665760 -5.508378 20.572840 185 185 185 0
-5.626112 -5.546871 20.716606 186 186 186 0
-5.536391 -5.536391 20.677463 187 187 187 0
-5.434236 -5.512993 20.590078 188 188 188 0
-5.368609 -5.526509 20.640558 188 188 188 0
-5.282899 -5.519447 20.614182 188 188 188 0
-5.227577 -5.544400 20.707377 188 188 188 0
-5.195705 -5.595375 20.897758 189 189 189 0
-5.139047 -5.620833 20.992839 190 190 190 0
-5.031570 -5.590634 20.880051 191 191 191 0
-4.922068 -5.557173 20.755083 192 192 192 0
-4.858592 -5.575433 20.823281 192 192 192 0
-4.796722 -5.596175 20.900748 193 193 193 0
-4.783817 -5.675715 21.197815 195 195 195 0
-4.697513 -5.669412 21.174273 195 195 195 0
-4.578840 -5.623137 21.001446 195 195 195 0
-4.455959 -5.569949 20.802797 197 197 197 0
-4.370823 -5.562866 20.776343 196 196 196 0
-4.295206 -5.567860 20.794996 197 197 197 0
-4.316652 -5.701238 21.293141 198 198 198 0
-4.230695 -5.695167 21.270464 197 197 197 0
-4.113099 -5.645430 21.084706 198 198 198 0
-3.999014 -5.598620 20.909878 198 198 198 0
-3.917496 -5.596423 20.901674 198 198 198 0
-3.865465 -5.637136 21.053729 198 198 198 0
-3.837695 -5.715716 21.347212 197 197 197 0
-3.752859 -5.710873 21.329124 198 198 198 0
-3.647224 -5.673460 21.189393 198 198 198 0
-3.565540 -5.672450 21.185622 197 197 197 0
-3.510321 -5.714476 21.342582 198 198 198 0
-3.456560 -5.760933 21.516089 197 197 197 0
-3.393991 -5.794619 21.641900 198 198 198 0
-3.308447 -5.789781 21.623833 198 198 198 0
-3.218056 -5.775998 21.572355 198 198 198 0
-3.139345 -5.783004 21.598522 199 199 199 0
-3.089250 -5.844528 21.828302 198 198 198 0
-3.026657 -5.885166 21.980079 199 199 199 0
-2.940832 -5.881664 21.966997 199 199 199 0
-2.850687 -5.869062 21.919932 200 200 200 0
-2.771183 -5.878267 21.954310 200 200 200 0
-2.699544 -5.905252 22.055096 200 200 200 0
-2.643165 -5.968438 22.291083 200 200 200 0
-2.550682 -5.951592 22.228169 199 199 199 0
-2.460919 -5.940150 22.185433 199 199 199 0
-2.377500 -5.943749 22.198876 198 198 198 0
-2.300445 -5.964117 22.274947 198 198 198 0
-2.233852 -6.014216 22.462058 197 197 197 0
-2.155608 -6.035703 22.542307 197 197 197 0
-2.071502 -6.041880 22.565380 197 197 197 0
-1.993342 -6.066693 22.658051 197 197 197 0
-1.914388 -6.091235 22.749710 198 198 198 0
-1.835354 -6.117848 22.849105 198 198 198 0
-1.757072 -6.149754 22.968268 198 198 198 0
-1.676913 -6.178099 23.074134 195 195 195 0
-1.596689 -6.209346 23.190835 194 194 194 0
-1.514181 -6.234865 23.286142 194 194 194 0
-1.434984 -6.278054 23.447447 195 195 195 0
-1.355784 -6.326993 23.630225 194 194 194 0
-1.270948 -6.354739 23.733854 192 192 192 0
-1.184456 -6.377838 23.820122 191 191 191 0
-1.104223 -6.441304 24.057156 190 190 190 0
-1.022910 -6.509426 24.311583 190 190 190 0
-0.932711 -6.528974 24.384592 190 190 190 0
-0.841150 -6.542276 24.434272 188 188 188 0
-0.756485 -6.619241 24.721722 185 185 185 0
-0.668575 -6.685754 24.970137 184 184 184 0
-0.581364 -6.782575 25.331745 181 181 181 0
-0.536347 -7.508860 28.044296 187 187 187 0
-0.463115 -8.104510 30.268945 196 196 196 0
-0.342373 -7.988706 29.836438 199 199 199 0
-0.226330 -7.921534 29.585560 200 200 200 0
-0.113181 -7.922693 29.589889 199 199 199 0
0.000000 -7.972927 29.777505 200 200 200 0
0.114377 -8.006417 29.902583 200 200 200 0
0.228284 -7.989943 29.841059 200 200 200 0
0.341864 -7.976831 29.792085 200 200 200 0
0.457498 -8.006210 29.901810 200 200 200 0
0.574111 -8.037560 30.018897 199 199 199 0
0.689659 -8.046023 30.050507 200 200 200 0
0.804303 -8.043031 30.039331 200 200 200 0
0.920729 -8.056381 30.089190 200 200 200 0
1.039949 -8.088489 30.209110 200 200 200 0
1.158259 -8.107812 30.281278 199 199 199 0
1.273444 -8.103732 30.266040 200 200 200 0
1.390609 -8.111884 30.296485 200 200 200 0
1.507987 -8.119929 30.326533 200 200 200 0
1.628139 -8.140694 30.404086 200 200 200 0
1.744964 -8.143166 30.413320 200 200 200 0
1.857953 -8.128543 30.358703 200 200 200 0
1.975671 -8.135115 30.383249 199 199 199 0
2.095088 -8.147565 30.429748 200 200 200 0
2.217598 -8.170099 30.513908 200 200 200 0
2.337677 -8.181870 30.557870 200 200 200 0
2.454036 -8.180120 30.551337 200 200 200 0
2.571349 -8.181566 30.556735 199 199 199 0
2.694374 -8.200270 30.626592 199 199 199 0
2.821532 -8.229469 30.735646 199 199 199 0
2.934510 -8.216627 30.687683 199 199 199 0
3.053428 -8.220769 30.703152 201 201 201 0
3.186662 -8.261716 30.856084 199 199 199 0
3.315615 -8.289038 30.958126 199 199 199 0
3.424380 -8.265745 30.871130 199 199 199 0
3.537974 -8.255273 30.832020 199 199 199 0
3.824520 -8.636014 32.254019 200 200 200 0
3.804737 -8.322862 31.084453 200 200 200 0
3.914477 -8.303437 31.011902 200 200 200 0
4.023188 -8.283034 30.935703 198 198 198 0
4.157256 -8.314513 31.053269 199 199 199 0
4.294245 -8.349921 31.185512 199 199 199 0
4.408189 -8.339816 31.147774 200 200 200 0
4.522975 -8.331797 31.117821 199 199 199 0
4.655359 -8.355773 31.207368 199 199 199 0
4.787767 -8.378592 31.292596 199 199 199 0
4.908613 -8.380559 31.299938 200 200 200 0
5.023118 -8.371863 31.267463 199 199 199 0
5.150437 -8.384433 31.314407 199 199 199 0
5.293804 -8.421961 31.454569 200 200 200 0
5.409296 -8.414460 31.426554 199 199 199 0
5.513483 -8.390083 31.335512 199 199 199 0
5.627161 -8.380879 31.301135 199 199 199 0
6.112556 -8.914144 33.292788 194 194 194 0
5.918078 -8.454397 31.575714 102 102 102 0
-10.713481 -9.240377 35.011375 175 175 175 0
-7.990029 -6.978633 26.441727 178 178 178 0
-6.187295 -5.473376 20.738378 180 180 180 0
-6.102683 -5.468638 20.720424 182 182 182 0
-5.959957 -5.411013 20.502087 184 184 184 0
-5.835669 -5.368815 20.342201 185 185 185 0
-5.724787 -5.337977 20.225355 185 185 185 0
-5.642984 -5.333780 20.209452 186 186 186 0
-5.624822 -5.390454 20.424189 185 185 185 0
-5.594789 -5.437189 20.601266 186 186 186 0
-5.494845 -5.416347 20.522296 187 187 187 0
-5.405530 -5.405530 20.481312 188 188 188 0
-5.331494 -5.409898 20.497862 189 189 189 0
-5.258590 -5.415562 20.519323 190 190 190 0
-5.197037 -5.433266 20.586400 191 191 191 0
-5.153589 -5.470733 20.728362 193 193 193 0
-5.109101 -5.508250 20.870512 195 195 195 0
-5.007077 -5.483941 20.778408 195 195 195 0
-4.901481 -5.454874 20.668271 195 195 195 0
-4.836655 -5.470970 20.729261 195 195 195 0
-4.764008 -5.478609 20.758204 195 195 195 0
-4.744585 -5.548752 21.023974 197 197 197 0
-4.680783 -5.568517 21.098863 198 198 198 0
-4.561658 -5.522007 20.922637 197 197 197 0
-4.441937 -5.473101 20.737336 198 198 198 0
-4.351097 -5.458649 20.682577 197 197 197 0
-4.305156 -5.501033 20.843167 199 199 199 0
-4.292330 -5.588128 21.173168 199 199 199 0
-4.201971 -5.575692 21.126048 198 198 198 0
-4.095904 -5.541518 20.996562 199 199 199 0
-3.983544 -5.497291 20.828990 199 199 199 0
-3.900046 -5.491901 20.808566 199 199 199 0
-3.836965 -5.515638 20.898504 199 199 199 0
-3.812931 -5.597708 21.209464 200 200 200 0
-3.738836 -5.608255 21.249426 200 200 200 0
-3.637498 -5.577498 21.132889 200 200 200 0
-3.553624 -5.572729 21.114819 199 199 199 0
-3.495622 -5.609253 21.253209 200 200 200 0
-3.436693 -5.645995 21.392424 200 200 200 0
-3.373437 -5.677248 21.510837 199 199 199 0
-3.292682 -5.679876 21.520797 199 199 199 0
-3.200649 -5.662686 21.455664 199 199 199 0
-3.118297 -5.662171 21.453711 198 198 198 0
-3.065611 -5.716950 21.661266 199 199 199 0
-3.004237 -5.758122 21.817265 200 200 200 0
-2.927405 -5.771169 21.866701 200 200 200 0
-2.833502 -5.750342 21.787788 200 200 200 0
-2.744306 -5.738094 21.741382 200 200 200 0
-2.674146 -5.766127 21.847595 200 200 200 0
-3.218009 -7.162665 27.139015 200 200 200 0
-2.544850 -5.853155 22.177341 200 200 200 0
-2.452386 -5.834988 22.108510 201 201 201 0
-2.366587 -5.831947 22.096986 201 201 201 0
-2.287358 -5.845470 22.148223 199 199 199 0
-2.215180 -5.878747 22.274309 199 199 199 0
-2.141218 -5.909763 22.391826 197 197 197 0
-2.057100 -5.914162 22.408495 198 198 198 0
-1.976913 -5.930738 22.471302 198 198 198 0
-1.899654 -5.958007 22.574622 199 199 199 0
-1.821870 -5.986145 22.681235 199 199 199 0
-1.744365 -6.018059 22.802155 199 199 199 0
-1.666951 -6.053664 22.937061 198 198 198 0
-1.586148 -6.080232 23.037728 197 197 197 0
-1.499383 -6.085730 23.058557 195 195 195 0
-1.423380 -6.138327 23.257845 195 195 195 0
-1.345472 -6.189173 23.450497 195 195 195 0
-1.259253 -6.206319 23.515466 195 195 195 0
-1.171964 -6.220425 23.568913 195 195 195 0
-1.348659 -7.754789 29.382548 194 194 194 0
-1.011390 -6.344177 24.037801 192 192 192 0
-0.925313 -6.384662 24.191199 191 191 191 0
-0.836112 -6.410191 24.287926 190 190 190 0
-0.748425 -6.455162 24.458318 189 189 189 0
-0.661214 -6.517676 24.695184 186 186 186 0
-0.567055 -6.521136 24.708291 185 185 185 0
-0.482775 -6.662293 25.243130 182 182 182 0
-0.406941 -7.019728 26.597434 182 182 182 0
-0.342937 -7.887554 29.885588 196 196 196 0
-0.226314 -7.807839 29.583553 199 199 199 0
-0.112639 -7.772062 29.447995 201 201 201 0
0.000000 -7.823900 29.644406 200 200 200 0
0.113879 -7.857620 29.772170 201 201 201 0
0.227905 -7.862707 29.791444 199 199 199 0
0.340501 -7.831521 29.673282 200 200 200 0
0.455303 -7.853982 29.758387 199 199 199 0
0.571586 -7.887889 29.886860 200 200 200 0
0.686889 -7.899221 29.929795 199 199 199 0
0.801492 -7.900426 29.934359 200 200 200 0
0.917410 -7.912664 29.980730 198 198 198 0
1.035174 -7.936332 30.070406 198 198 198 0
1.153946 -7.962225 30.168513 199 199 199 0
1.267990 -7.953755 30.136423 200 200 200 0
1.386031 -7.969676 30.196744 200 200 200 0
1.501791 -7.971047 30.201939 200 200 200 0
1.629620 -8.031699 30.431747 200 200 200 0
1.741441 -8.010629 30.351915 200 200 200 0
1.854439 -7.997267 30.301288 199 199 199 0
1.969649 -7.994457 30.290640 200 200 200 0
2.087136 -8.000688 30.314248 199 199 199 0
2.208602 -8.020712 30.390117 200 200 200 0
2.327339 -8.029321 30.422736 199 199 199 0
2.446823 -8.039562 30.461541 200 200 200 0
2.562986 -8.038455 30.457344 200 200 200 0
2.686190 -8.058571 30.533566 200 200 200 0
2.811851 -8.084071 30.630184 200 200 200 0
2.924846 -8.072574 30.586620 200 200 200 0
3.041729 -8.072280 30.585507 200 200 200 0
3.171376 -8.104628 30.708071 199 199 199 0
3.303504 -8.140778 30.845045 200 200 200 0
3.417090 -8.130318 30.805409 200 200 200 0
3.529210 -8.117183 30.755644 199 199 199 0
3.658438 -8.142974 30.853364 200 200 200 0
3.793832 -8.180451 30.995363 199 199 199 0
3.906849 -8.168867 30.951471 199 199 199 0
4.011342 -8.140665 30.844614 199 199 199 0
4.137428 -8.156644 30.905157 200 200 200 0
4.283016 -8.209114 31.103963 200 200 200 0
4.397880 -8.201452 31.074934 199 199 199 0
4.506900 -8.183582 31.007225 200 200 200 0
4.635389 -8.201072 31.073495 199 199 199 0
4.775910 -8.238444 31.215095 200 200 200 0
4.895366 -8.238542 31.215467 200 200 200 0
5.006267 -8.224581 31.162571 200 200 200 0
5.128986 -8.230234 31.183986 200 200 200 0
5.275517 -8.272970 31.345914 200 200 200 0
5.393941 -8.270710 31.337350 200 200 200 0
5.505612 -8.258418 31.290774 200 200 200 0
5.622982 -8.255016 31.277884 200 200 200 0
5.635002 -8.100315 30.691732 197 197 197 0
5.904794 -8.314914 31.504838 126 126 126 0
-10.713415 -9.106403 35.011159 181 181 181 0
-10.578843 -9.105839 35.008994 182 182 182 0
-6.138393 -5.351420 20.574470 183 183 183 0
-6.061885 -5.353353 20.581903 184 184 184 0
-5.932289 -5.307837 20.406911 184 184 184 0
-5.796245 -5.255262 20.204775 185 185 185 0
-5.697822 -5.235836 20.130090 185 185 185 0
-5.609519 -5.225305 20.089602 186 186 186 0
-5.586128 -5.275788 20.283689 186 186 186 0
-5.550228 -5.315712 20.437184 188 188 188 0
-5.478117 -5.321600 20.459822 191 191 191 0
-5.385379 -5.307330 20.404960 192 192 192 0
-5.295860 -5.295860 20.360862 193 193 193 0
-5.231455 -5.309536 20.413442 193 193 193 0
-5.172654 -5.329401 20.489815 193 193 193 0
-5.109488 -5.345311 20.550984 194 194 194 0
-5.069191 -5.386016 20.707480 196 196 196 0
-4.985834 -5.381536 20.690256 195 195 195 0
-4.879873 -5.352119 20.577159 196 196 196 0
-4.803190 -5.354376 20.585836 196 196 196 0
-4.739777 -5.371747 20.652622 196 196 196 0
-4.710750 -5.429339 20.874045 197 197 197 0
-4.653318 -5.455614 20.975063 197 197 197 0
-4.546353 -5.423719 20.852438 198 198 198 0
-4.431675 -5.381320 20.689427 197 197 197 0
-4.332801 -5.356918 20.595609 197 197 197 0
-4.271689 -5.379164 20.681137 199 199 199 0
-4.268541 -5.476619 21.055820 199 199 199 0
-4.189452 -5.478515 21.063109 199 199 199 0
-4.085787 -5.447716 20.944698 199 199 199 0
-3.975113 -5.406153 20.784902 199 199 199 0
-3.883478 -5.389317 20.720173 200 200 200 0
-3.820084 -5.411785 20.806556 199 199 199 0
-3.795994 -5.492077 21.115252 200 200 200 0
-3.726397 -5.508586 21.178725 201 201 201 0
-3.622722 -5.474336 21.047042 200 200 200 0
-3.539505 -5.470145 21.030929 201 201 201 0
-3.470589 -5.488374 21.101014 202 202 202 0
-3.420263 -5.537568 21.290151 202 202 202 0
-3.351673 -5.558872 21.372056 202 202 202 0
-3.278427 -5.573326 21.427629 201 201 201 0
-3.185039 -5.553402 21.351027 201 201 201 0
-3.107353 -5.560527 21.378421 200 200 200 0
-3.045532 -5.597193 21.519389 200 200 200 0
-2.989064 -5.646010 21.707073 201 201 201 0
-2.912723 -5.659005 21.757034 199 199 199 0
-2.821094 -5.642187 21.692376 199 199 199 0
-2.733051 -5.631741 21.652215 200 200 200 0
-2.660811 -5.654224 21.738656 200 200 200 0
-2.600634 -5.704617 21.932399 201 201 201 0
-2.526954 -5.727762 22.021386 201 201 201 0
-2.444393 -5.731680 22.036446 201 201 201 0
-2.355331 -5.720090 21.991887 201 201 201 0
-2.273350 -5.725475 22.012592 201 201 201 0
-2.197058 -5.746153 22.092090 201 201 201 0
-2.127780 -5.787563 22.251298 199 199 199 0
-2.047257 -5.800561 22.301274 199 199 199 0
-1.963913 -5.806351 22.323532 199 199 199 0
-1.887677 -5.834638 22.432287 198 198 198 0
-1.810235 -5.861713 22.536381 199 199 199 0
-1.730403 -5.883369 22.619643 199 199 199 0
-1.654127 -5.920035 22.760611 199 199 199 0
-1.573049 -5.942630 22.847483 199 199 199 0
-1.488714 -5.954854 22.894480 198 198 198 0
-1.409865 -5.991927 23.037014 196 196 196 0
-1.333238 -6.044014 23.237271 196 196 196 0
-1.251350 -6.077986 23.367881 196 196 196 0
-1.166086 -6.099525 23.450691 196 196 196 0
-1.080782 -6.124433 23.546455 196 196 196 0
-1.002729 -6.198690 23.831950 196 196 196 0
-0.918525 -6.245970 24.013726 193 193 193 0
-0.828327 -6.258468 24.061775 191 191 191 0
-0.739858 -6.288793 24.178364 191 191 191 0
-0.656475 -6.377185 24.518206 190 190 190 0
-0.566074 -6.415508 24.665546 187 187 187 0
-0.473822 -6.443981 24.775015 185 185 185 0
-0.386884 -6.577028 25.286537 183 183 183 0
-0.303787 -6.885845 26.473837 182 182 182 0
-0.230780 -7.846516 30.167305 193 193 193 0
-0.112808 -7.670944 29.492289 200 200 200 0
0.000000 -7.667404 29.478678 200 200 200 0
0.113522 -7.719525 29.679066 197 197 197 0
0.227097 -7.721302 29.685899 195 195 195 0
0.339023 -7.684522 29.544491 192 192 192 0
0.452044 -7.684745 29.545346 189 189 189 0
0.568256 -7.728278 29.712718 188 188 188 0
0.682823 -7.738659 29.752630 188 188 188 0
0.797652 -7.748620 29.790928 186 186 186 0
0.909152 -7.727794 29.710857 186 186 186 0
1.024458 -7.740352 29.759139 186 186 186 0
1.144813 -7.784729 29.929755 189 189 189 0
1.262212 -7.802767 29.999103 189 189 189 0
1.377942 -7.808336 30.020516 191 191 191 0
1.495917 -7.824796 30.083799 194 194 194 0
1.593778 -7.741205 29.762419 197 197 197 0
1.735409 -7.867186 30.246775 198 198 198 0
1.851355 -7.868259 30.250899 199 199 199 0
1.960999 -7.843995 30.157612 200 200 200 0
2.077506 -7.848358 30.174385 201 201 201 0
2.201364 -7.878565 30.290524 200 200 200 0
2.322414 -7.896208 30.358356 200 200 200 0
2.438768 -7.896962 30.361255 201 201 201 0
2.554310 -7.895139 30.354246 200 200 200 0
2.677094 -7.914886 30.430166 201 201 201 0
2.804783 -7.946884 30.553188 200 200 200 0
2.920752 -7.944444 30.543807 200 200 200 0
3.034426 -7.936192 30.512078 199 199 199 0
3.158463 -7.954647 30.583034 199 199 199 0
3.291753 -7.994258 30.735326 201 201 201 0
3.409226 -7.994047 30.734514 199 199 199 0
3.518658 -7.975624 30.663683 199 199 199 0
3.640326 -7.985232 30.700622 200 200 200 0
3.780849 -8.034303 30.889286 200 200 200 0
3.895426 -8.026939 30.860973 200 200 200 0
4.000411 -8.000822 30.760562 200 200 200 0
4.121718 -8.007910 30.787813 200 200 200 0
4.264008 -8.054237 30.965924 200 200 200 0
4.384603 -8.058189 30.981117 200 200 200 0
4.495264 -8.044156 30.927165 200 200 200 0
4.614261 -8.045377 30.931862 199 199 199 0
4.754911 -8.083349 31.077851 199 199 199 0
4.879342 -8.092567 31.113293 199 199 199 0
4.993650 -8.084956 31.084031 199 199 199 0
5.107702 -8.077297 31.054582 199 199 199 0
5.250413 -8.114274 31.196747 199 199 199 0
5.374957 -8.122157 31.227056 200 200 200 0
5.493233 -8.120431 31.220419 200 200 200 0
5.607566 -8.113075 31.192136 199 199 199 0
5.749279 -8.144812 31.314156 198 198 198 0
6.256666 -8.682720 33.382238 144 144 144 0
-10.713394 -8.972468 35.011092 182 182 182 0
-10.579366 -8.972374 35.010725 183 183 183 0
-6.110239 -5.248539 20.480105 183 183 183 0
-6.034469 -5.250772 20.488818 184 184 184 0
-5.899254 -5.200658 20.293272 184 184 184 0
-5.779702 -5.163201 20.147110 186 186 186 0
-5.671527 -5.135031 20.037192 187 187 187 0
-5.575232 -5.116994 19.966810 189 189 189 0
-5.521888 -5.138423 20.050428 191 191 191 0
-5.499299 -5.189479 20.249650 192 192 192 0
-5.445631 -5.212247 20.338490 193 193 193 0
-5.357678 -5.202383 20.300003 193 193 193 0
-5.273337 -5.195788 20.274267 194 194 194 0
-5.210222 -5.210222 20.330590 194 194 194 0
-5.137820 -5.215665 20.351830 194 194 194 0
-5.080142 -5.236454 20.432949 195 195 195 0
-5.043395 -5.279804 20.602102 195 195 195 0
-4.965882 -5.281176 20.607456 196 196 196 0
-4.852135 -5.243436 20.460195 195 195 195 0
-4.780010 -5.250175 20.486490 196 196 196 0
-4.713936 -5.263895 20.540024 197 197 197 0
-4.681657 -5.316458 20.745128 197 197 197 0
-4.631061 -5.349674 20.874739 198 198 198 0
-4.525821 -5.319825 20.758268 197 197 197 0
-4.416892 -5.284496 20.620413 197 197 197 0
-4.318172 -5.260319 20.526070 198 198 198 0
-4.248204 -5.270920 20.567438 198 198 198 0
-4.245708 -5.367216 20.943189 199 199 199 0
-4.173297 -5.377133 20.981888 199 199 199 0
-4.075514 -5.354106 20.892036 199 199 199 0
-3.966434 -5.315021 20.739522 200 200 200 0
-3.870380 -5.292152 20.650286 200 200 200 0
-3.801499 -5.306259 20.705333 200 200 200 0
-3.779029 -5.387127 21.020882 200 200 200 0
-3.714504 -5.410256 21.111134 201 201 201 0
-3.611727 -5.377460 20.983164 200 200 200 0
-3.526869 -5.370459 20.955845 202 202 202 0
-3.445718 -5.368910 20.949800 202 202 202 0
-3.396052 -5.417511 21.139443 202 202 202 0
-3.332974 -5.446567 21.252824 202 202 202 0
-3.264096 -5.467361 21.333960 202 202 202 0
-3.175277 -5.454962 21.285581 202 202 202 0
-3.093611 -5.454526 21.283877 203 203 203 0
-3.030715 -5.488052 21.414699 203 203 203 0
-2.971074 -5.529498 21.576425 202 202 202 0
-2.899748 -5.550947 21.660117 201 201 201 0
-2.811564 -5.540436 21.619104 201 201 201 0
-2.721333 -5.525131 21.559385 200 200 200 0
-2.645469 -5.538950 21.613307 201 201 201 0
-2.583241 -5.583134 21.785715 202 202 202 0
-2.521958 -5.632374 21.977851 202 202 202 0
-2.431811 -5.618322 21.923020 201 201 201 0
-2.343700 -5.608140 21.883289 201 201 201 0
-2.262539 -5.614449 21.907909 201 201 201 0
-2.184028 -5.628072 21.961065 201 201 201 0
-2.115252 -5.668875 22.120283 202 202 202 0
-2.037497 -5.688013 22.194960 203 203 203 0
-1.952293 -5.687115 22.191455 202 202 202 0
-1.877786 -5.718712 22.314748 200 200 200 0
-1.801378 -5.747253 22.426115 199 199 199 0
-1.721173 -5.765928 22.498989 199 199 199 0
-1.644150 -5.797792 22.623323 200 200 200 0
-1.567327 -5.833938 22.764365 200 200 200 0
-1.482816 -5.844038 22.803776 199 199 199 0
-1.402065 -5.871147 22.909558 200 200 200 0
-1.324193 -5.914727 23.079608 199 199 199 0
-1.245459 -5.960412 23.257874 196 196 196 0
-1.159508 -5.975926 23.318410 197 197 197 0
-1.072611 -5.988742 23.368422 197 197 197 0
-0.997384 -6.074977 23.704915 196 196 196 0
-0.912189 -6.111669 23.848088 196 196 196 0
-0.821361 -6.114579 23.859446 194 194 194 0
-0.732355 -6.133470 23.933158 192 192 192 0
-0.648635 -6.208366 24.225405 191 191 191 0
-0.560989 -6.264373 24.443949 191 191 191 0
-0.468843 -6.282501 24.514685 189 189 189 0
-0.379772 -6.361185 24.821713 185 185 185 0
-0.294624 -6.579927 25.675260 185 185 185 0
-0.199641 -6.687978 26.096882 183 183 183 0
-0.129176 -8.654794 33.771511 186 186 186 0
0.000000 -7.534130 29.398617 188 188 188 0
0.112347 -7.527244 29.371747 187 187 187 0
0.226119 -7.575000 29.558092 186 186 186 0
0.337477 -7.536996 29.409799 186 186 186 0
0.449069 -7.521914 29.350947 186 186 186 0
0.563550 -7.551569 29.466663 187 187 187 0
0.678821 -7.580170 29.578265 187 187 187 0
0.792986 -7.590012 29.616668 187 187 187 0
0.903321 -7.565310 29.520280 187 187 187 0
1.017413 -7.574076 29.554485 186 186 186 0
1.133909 -7.597193 29.644689 187 187 187 0
1.249597 -7.611181 29.699273 186 186 186 0
1.366705 -7.630767 29.775699 187 187 187 0
1.484879 -7.652837 29.861817 185 185 185 0
1.603047 -7.671723 29.935509 187 187 187 0
1.728028 -7.718526 30.118138 187 187 187 0
1.841138 -7.709764 30.083951 192 192 192 0
1.954344 -7.702413 30.055263 196 196 196 0
2.069125 -7.701744 30.052656 199 199 199 0
2.192325 -7.730829 30.166147 199 199 199 0
2.314371 -7.753141 30.253210 201 201 201 0
2.431841 -7.758732 30.275023 200 200 200 0
2.546748 -7.756005 30.264383 200 200 200 0
2.666657 -7.768087 30.311528 200 200 200 0
2.793781 -7.799305 30.433341 200 200 200 0
2.913485 -7.808140 30.467817 201 201 201 0
3.027324 -7.801181 30.440662 200 200 200 0
3.145382 -7.805208 30.456377 200 200 200 0
3.280289 -7.849263 30.628282 200 200 200 0
3.399989 -7.855148 30.651245 200 200 200 0
3.509917 -7.838814 30.587510 200 200 200 0
3.625382 -7.835504 30.574592 200 200 200 0
3.768366 -7.890016 30.787302 200 200 200 0
3.886808 -7.891398 30.792694 201 201 201 0
3.992640 -7.867849 30.700806 200 200 200 0
4.104018 -7.856262 30.655594 200 200 200 0
4.245890 -7.902072 30.834347 200 200 200 0
4.372421 -7.917627 30.895043 200 200 200 0
4.483889 -7.905804 30.848909 200 200 200 0
4.598002 -7.899132 30.822875 200 200 200 0
4.731658 -7.925527 30.925868 200 200 200 0
4.866477 -7.952536 31.031259 200 200 200 0
4.979493 -7.943477 30.995909 200 200 200 0
5.090774 -7.932136 30.951657 200 200 200 0
5.230411 -7.964490 31.077904 200 200 200 0
5.359087 -7.979086 31.134858 200 200 200 0
5.478811 -7.980007 31.138455 200 200 200 0
5.590125 -7.968901 31.095118 200 200 200 0
5.730132 -7.998309 31.209869 200 200 200 0
5.420683 -7.411955 28.921880 159 159 159 0
-10.713347 -8.838511 35.010937 183 183 183 0
-10.579343 -8.838439 35.010651 183 183 183 0
-6.074138 -5.139655 20.359100 184 184 184 0
-5.994488 -5.138132 20.353069 184 184 184 0
-5.859432 -5.088454 20.156284 187 187 187 0
-5.745695 -5.056211 20.028566 190 190 190 0
-5.640294 -5.030532 19.926847 191 191 191 0
-5.539276 -5.008113 19.838039 192 192 192 0
-5.484342 -5.027313 19.914096 192 192 192 0
-5.470451 -5.085208 20.143426 192 192 192 0
-5.417968 -5.108370 20.235176 193 193 193 0
-5.312645 -5.081660 20.129372 193 193 193 0
-5.247642 -5.093300 20.175479 194 194 194 0
-5.178226 -5.100939 20.205740 194 194 194 0
-5.099574 -5.099574 20.200333 194 194 194 0
-5.037322 -5.114819 20.260722 195 195 195 0
-5.001009 -5.157291 20.428959 195 195 195 0
-4.931250 -5.166071 20.463741 196 196 196 0
-4.831043 -5.142723 20.371253 196 196 196 0
-4.749682 -5.139000 20.356506 196 196 196 0
-4.691241 -5.160365 20.441135 197 197 197 0
-4.650075 -5.201779 20.605186 197 197 197 0
-4.609164 -5.244911 20.776039 197 197 197 0
-4.516947 -5.230150 20.717567 198 198 198 0
-4.404471 -5.190983 20.562422 198 198 198 0
-4.304922 -5.165906 20.463086 198 198 198 0
-4.233518 -5.174300 20.496337 199 199 199 0
-4.211288 -5.244245 20.773401 199 199 199 0
-4.151896 -5.269715 20.874290 198 198 198 0
-4.066271 -5.262233 20.844653 199 199 199 0
-3.957001 -5.223242 20.690203 200 200 200 0
-3.858241 -5.196814 20.585518 200 200 200 0
-3.781335 -5.199336 20.595508 201 201 201 0
-3.759608 -5.279449 20.912851 201 201 201 0
-3.696705 -5.303968 21.009976 200 200 200 0
-3.599393 -5.279110 20.911507 201 201 201 0
-3.510960 -5.266440 20.861321 202 202 202 0
-3.426339 -5.259031 20.831972 203 203 203 0
-3.373601 -5.301373 20.999694 203 203 203 0
-3.315735 -5.337525 21.142899 202 202 202 0
-3.244543 -5.353497 21.206166 202 202 202 0
-3.161747 -5.350648 21.194883 203 203 203 0
-3.080493 -5.350329 21.193620 204 204 204 0
-3.009782 -5.368801 21.266790 203 203 203 0
-2.957591 -5.422250 21.478511 203 203 203 0
-2.887200 -5.444434 21.566385 203 203 203 0
-2.803418 -5.441929 21.556463 203 203 203 0
-2.712499 -5.424997 21.489393 203 203 203 0
-2.632248 -5.429011 21.505293 203 203 203 0
-2.565537 -5.462110 21.636404 202 202 202 0
-2.516448 -5.536185 21.929829 202 202 202 0
-2.421678 -5.511405 21.831671 201 201 201 0
-2.332948 -5.499092 21.782895 202 202 202 0
-2.250798 -5.501950 21.794215 202 202 202 0
-2.170679 -5.510185 21.826838 202 202 202 0
-2.104750 -5.556539 22.010455 202 202 202 0
-2.025417 -5.569898 22.063370 202 202 202 0
-1.944536 -5.579973 22.103278 203 203 203 0
-1.868604 -5.605811 22.205628 203 203 203 0
-1.790172 -5.626256 22.286615 201 201 201 0
-1.712644 -5.651725 22.387504 200 200 200 0
-1.635059 -5.679679 22.498232 200 200 200 0
-1.558555 -5.714702 22.636964 200 200 200 0
-1.474171 -5.723253 22.670836 200 200 200 0
-1.392524 -5.744161 22.753657 201 201 201 0
-1.316333 -5.791867 22.942630 200 200 200 0
-1.237160 -5.832324 23.102887 200 200 200 0
-1.152274 -5.850005 23.172927 198 198 198 0
-1.065053 -5.857789 23.203761 196 196 196 0
-0.870829 -5.224975 20.697067 197 197 197 0
-0.907565 -5.989930 23.727192 196 196 196 0
-0.816971 -5.991121 23.731913 196 196 196 0
-0.726997 -5.997722 23.758059 195 195 195 0
-0.640959 -6.043331 23.938725 192 192 192 0
-0.556453 -6.120982 24.246314 192 192 192 0
-0.466080 -6.152250 24.370171 192 192 192 0
-0.375047 -6.188275 24.512874 191 191 191 0
-0.288185 -6.340078 25.114192 188 188 188 0
-0.195731 -6.459122 25.585749 187 187 187 0
-0.098465 -6.498692 25.742492 183 183 183 0
0.000000 -6.681870 26.468091 180 180 180 0
0.110213 -7.274034 28.813759 185 185 185 0
0.224313 -7.402337 29.321991 186 186 186 0
0.336282 -7.398197 29.305593 186 186 186 0
0.445723 -7.354426 29.132209 187 187 187 0
0.558053 -7.366300 29.179245 187 187 187 0
0.672450 -7.396951 29.300659 188 188 188 0
0.786597 -7.416487 29.378043 189 189 189 0
0.897566 -7.404917 29.332211 188 188 188 0
1.006428 -7.380475 29.235394 188 188 188 0
1.120766 -7.397052 29.301059 188 188 188 0
1.238649 -7.431894 29.439072 188 188 188 0
1.355167 -7.453421 29.524346 189 189 189 0
1.470873 -7.467511 29.580159 189 189 189 0
1.587505 -7.483952 29.645283 188 188 188 0
1.622182 -7.137599 28.273316 188 188 188 0
1.827948 -7.540283 29.868423 188 188 188 0
1.942049 -7.539721 29.866194 188 188 188 0
2.060611 -7.555573 29.928990 189 189 189 0
2.182470 -7.581210 30.030542 194 194 194 0
2.304817 -7.605896 30.128324 199 199 199 0
2.424546 -7.620001 30.184199 201 201 201 0
2.540080 -7.620241 30.185150 201 201 201 0
2.655959 -7.621447 30.189926 200 200 200 0
2.779119 -7.642578 30.273629 200 200 200 0
2.904775 -7.668606 30.376733 201 201 201 0
3.018902 -7.663366 30.355976 201 201 201 0
3.132165 -7.656403 30.328395 200 200 200 0
3.268271 -7.703783 30.516074 200 200 200 0
3.394659 -7.725775 30.603191 201 201 201 0
3.502645 -7.705818 30.524135 200 200 200 0
3.613593 -7.693455 30.475165 200 200 200 0
3.768651 -7.772842 30.789630 201 201 201 0
3.880422 -7.760845 30.742107 200 200 200 0
3.984867 -7.735330 30.641038 200 200 200 0
4.090307 -7.713151 30.553184 200 200 200 0
4.224703 -7.745290 30.680490 201 201 201 0
4.358723 -7.775019 30.798253 200 200 200 0
4.472558 -7.768126 30.770950 200 200 200 0
4.586750 -7.762192 30.747442 200 200 200 0
4.715749 -7.780986 30.821890 200 200 200 0
4.850105 -7.807487 30.926863 201 201 201 0
4.965870 -7.803509 30.911108 201 201 201 0
5.078067 -7.794243 30.874401 201 201 201 0
5.205283 -7.807925 30.928600 201 201 201 0
5.344601 -7.838748 31.050696 200 200 200 0
5.461378 -7.835890 31.039375 200 200 200 0
5.573743 -7.826958 31.003992 200 200 200 0
5.711287 -7.853020 31.107227 200 200 200 0
5.709719 -7.690642 30.464022 173 173 173 0
-10.713335 -8.704585 35.010900 183 183 183 0
-10.579312 -8.704497 35.010545 185 185 185 0
-6.012231 -5.010192 20.151603 187 187 187 0
-5.945708 -5.019104 20.187447 189 189 189 0
-5.827265 -4.983845 20.045631 190 190 190 0
-5.705020 -4.944351 19.886779 191 191 191 0
-5.601529 -4.920262 19.789894 192 192 192 0
-5.518588 -4.913811 19.763947 192 192 192 0
-5.452007 -4.921951 19.796686 192 192 192 0
-5.439821 -4.980118 20.030641 192 192 192 0
-5.387898 -5.003048 20.122867 193 193 193 0
-5.297505 -4.990404 20.072010 193 193 193 0
-5.213387 -4.983385 20.043779 194 194 194 0
-5.152914 -4.999095 20.106970 194 194 194 0
-5.079931 -5.002963 20.122525 194 194 194 0
-5.003799 -5.003799 20.125889 196 196 196 0
-4.973313 -5.051021 20.315822 195 195 195 0
-4.919332 -5.075501 20.414283 196 196 196 0
-4.818124 -5.051259 20.316778 196 196 196 0
-4.729447 -5.039575 20.269784 197 197 197 0
-4.664752 -5.053482 20.325719 198 198 198 0
-4.628551 -5.099251 20.509808 199 199 199 0
-4.589122 -5.142981 20.685697 199 199 199 0
-4.503311 -5.135354 20.655020 199 199 199 0
-4.389027 -5.094406 20.490323 199 199 199 0
-4.289924 -5.069910 20.391796 200 200 200 0
-4.200724 -5.056427 20.337566 201 201 201 0
-4.256718 -5.220503 20.997499 200 200 200 0
-4.143562 -5.179452 20.832387 200 200 200 0
-4.050449 -5.162337 20.763548 201 201 201 0
-3.945238 -5.128809 20.628693 202 202 202 0
-3.846212 -5.102118 20.521338 201 201 201 0
-3.770100 -5.105344 20.534314 201 201 201 0
-3.735710 -5.166408 20.779920 201 201 201 0
-3.679565 -5.199386 20.912562 201 201 201 0
-3.589237 -5.184454 20.852505 202 202 202 0
-3.498641 -5.168446 20.788120 202 202 202 0
-3.410640 -5.155618 20.736524 202 202 202 0
-3.351994 -5.187610 20.865199 202 202 202 0
-3.296641 -5.226382 21.021143 202 202 202 0
-3.229009 -5.247140 21.104635 203 203 203 0
-3.150467 -5.250779 21.119272 203 203 203 0
-3.056690 -5.228549 21.029862 203 203 203 0
-2.992253 -5.256660 21.142927 203 203 203 0
-2.941733 -5.311462 21.363347 203 203 203 0
-2.873689 -5.336850 21.465462 203 203 203 0
-2.793466 -5.340449 21.479936 203 203 203 0
-2.702309 -5.322729 21.408664 205 205 205 0
-2.627562 -5.337235 21.467009 204 204 204 0
-2.555695 -5.358715 21.553405 204 204 204 0
-2.505057 -5.427624 21.830565 202 202 202 0
-2.415910 -5.414971 21.779673 202 202 202 0
-2.324507 -5.396177 21.704082 203 203 203 0
-2.239521 -5.391439 21.685025 202 202 202 0
-2.160040 -5.400100 21.719858 203 203 203 0
-2.092941 -5.441646 21.886960 203 203 203 0
-2.017686 -5.464566 21.979151 203 203 203 0
-1.936278 -5.472089 22.009408 203 203 203 0
-1.859662 -5.494457 22.099373 203 203 203 0
-1.780082 -5.509777 22.160993 202 202 202 0
-1.702636 -5.533565 22.256673 202 202 202 0
-1.625452 -5.560757 22.366040 200 200 200 0
-1.548031 -5.590113 22.484115 201 201 201 0
-1.467559 -5.611254 22.569148 201 201 201 0
-1.385105 -5.626989 22.632433 201 201 201 0
-1.307420 -5.665487 22.787279 200 200 200 0
-1.230261 -5.711926 22.974063 200 200 200 0
-1.146069 -5.730344 23.048141 200 200 200 0
-1.060845 -5.746246 23.112100 198 198 198 0
-0.976904 -5.772613 23.218152 197 197 197 0
-0.898229 -5.838491 23.483120 197 197 197 0
-0.812906 -5.870986 23.613822 196 196 196 0
-0.722385 -5.869376 23.607344 197 197 197 0
-0.634917 -5.895655 23.713042 197 197 197 0
-0.551666 -5.976377 24.037717 194 194 194 0
-0.463085 -6.020105 24.213595 194 194 194 0
-0.372509 -6.053268 24.346982 192 192 192 0
-0.283637 -6.145476 24.717853 192 192 192 0
-0.191909 -6.237052 25.086181 188 188 188 0
-0.096958 -6.302299 25.348613 186 186 186 0
0.000000 -6.376395 25.646638 185 185 185 0
0.100323 -6.520991 26.228221 181 181 181 0
0.217374 -7.064641 28.414847 186 186 186 0
0.333740 -7.231024 29.084060 190 190 190 0
0.443781 -7.211443 29.005302 190 190 190 0
0.553373 -7.193846 28.934524 192 192 192 0
0.667845 -7.234993 29.100021 192 192 192 0
0.780575 -7.248199 29.153136 191 191 191 0
0.893027 -7.255841 29.183876 193 193 193 0
1.001506 -7.233096 29.092392 192 192 192 0
1.114182 -7.242183 29.128943 191 191 191 0
1.227496 -7.253384 29.173992 190 190 190 0
1.342175 -7.270117 29.241295 191 191 191 0
1.459581 -7.297903 29.353053 191 191 191 0
1.574095 -7.308299 29.394869 190 190 190 0
1.692961 -7.336164 29.506944 190 190 190 0
1.812497 -7.363267 29.615956 191 191 191 0
1.931130 -7.383731 29.698265 190 190 190 0
2.048813 -7.398492 29.757635 189 189 189 0
2.166653 -7.412235 29.812911 189 189 189 0
2.291317 -7.446779 29.951853 190 190 190 0
2.414502 -7.473459 30.059161 196 196 196 0
2.531758 -7.480193 30.086247 200 200 200 0
2.646364 -7.478855 30.080865 201 201 201 0
2.767845 -7.496246 30.150812 201 201 201 0
2.895358 -7.527931 30.278253 201 201 201 0
3.006168 -7.515421 30.227936 201 201 201 0
3.120375 -7.512013 30.214231 201 201 201 0
3.251973 -7.549224 30.363897 200 200 200 0
3.381195 -7.578541 30.481812 200 200 200 0
3.491075 -7.563996 30.423313 200 200 200 0
3.602448 -7.553520 30.381177 201 201 201 0
3.726042 -7.568524 30.441524 200 200 200 0
3.868260 -7.619300 30.645752 200 200 200 0
3.977375 -7.603805 30.583428 200 200 200 0
4.078871 -7.575047 30.467760 200 200 200 0
4.204764 -7.591935 30.535685 201 201 201 0
4.344573 -7.632358 30.698271 200 200 200 0
4.461031 -7.630711 30.691647 200 200 200 0
4.574107 -7.623512 30.662691 200 200 200 0
4.698728 -7.635432 30.710637 200 200 200 0
4.834095 -7.663809 30.824774 200 200 200 0
4.951742 -7.663411 30.823170 201 201 201 0
5.061857 -7.651644 30.775844 200 200 200 0
5.179177 -7.651057 30.773483 201 201 201 0
5.324769 -7.691333 30.935478 200 200 200 0
5.446175 -7.695682 30.952970 201 201 201 0
5.562727 -7.693133 30.942717 201 201 201 0
5.694352 -7.711102 31.014990 201 201 201 0
5.807202 -7.703432 30.984140 183 183 183 0
6.039845 -7.851799 31.580889 83 83 83 0
-10.713321 -8.570657 35.010853 187 187 187 0
-10.579278 -8.570554 35.010435 189 189 189 0
-5.958428 -4.888967 19.971269 190 190 190 0
-5.914039 -4.915565 20.079920 190 190 190 0
-5.804149 -4.887704 19.966112 190 190 190 0
-5.693151 -4.858155 19.845406 191 191 191 0
-5.584298 -4.829663 19.729015 192 192 192 0
-5.487419 -4.810888 19.652320 192 192 192 0
-5.413059 -4.811608 19.655261 192 192 192 0
-5.409573 -4.876234 19.919258 192 192 192 0
-5.362782 -4.903115 20.029063 193 193 193 0
-5.265944 -4.884354 19.952426 194 194 194 0
-5.200615 -4.894696 19.994674 195 195 195 0
-5.117200 -4.888071 19.967612 195 195 195 0
-5.054640 -4.901469 20.022339 196 196 196 0
-4.986092 -4.909382 20.054667 197 197 197 0
-4.947423 -4.947423 20.210062 198 198 198 0
-4.890577 -4.968206 20.294957 199 199 199 0
-4.805195 -4.960201 20.262258 199 199 199 0
-4.708910 -4.940495 20.181762 200 200 200 0
-4.646246 -4.955996 20.245082 200 200 200 0
-4.610211 -5.000907 20.428540 201 201 201 0
-4.575124 -5.048413 20.622602 201 201 201 0
-4.492344 -5.044035 20.604719 201 201 201 0
-4.380762 -5.006586 20.451738 201 201 201 0
-4.275490 -4.975116 20.323186 201 201 201 0
-4.182693 -4.957265 20.250267 203 203 203 0
-4.099356 -4.950166 20.221265 202 202 202 0
-4.120281 -5.071115 20.715338 203 203 203 0
-4.040549 -5.070492 20.712795 203 203 203 0
-3.932600 -5.033728 20.562616 204 204 204 0
-3.829015 -5.001163 20.429587 204 204 204 0
-3.745015 -4.993354 20.397686 203 203 203 0
-3.708567 -5.049964 20.628939 203 203 203 0
-3.662180 -5.095208 20.813757 203 203 203 0
-3.578286 -5.089118 20.788881 203 203 203 0
-3.484729 -5.068696 20.705458 203 203 203 0
-3.403494 -5.065666 20.693081 203 203 203 0
-3.337057 -5.085039 20.772216 202 202 202 0
-3.281650 -5.122575 20.925552 202 202 202 0
-3.215681 -5.145090 21.017523 203 203 203 0
-3.137445 -5.148628 21.031976 203 203 203 0
-3.051157 -5.138791 20.991792 204 204 204 0
-2.977372 -5.150049 21.037783 203 203 203 0
-2.926549 -5.202754 21.253078 203 203 203 0
-2.860928 -5.231411 21.370143 203 203 203 0
-2.784555 -5.241514 21.411415 204 204 204 0
-2.693593 -5.223938 21.339618 204 204 204 0
-2.613524 -5.227048 21.352320 205 205 205 0
-2.546164 -5.256597 21.473027 205 205 205 0
-2.472871 -5.275458 21.550075 205 205 205 0
-2.405316 -5.308283 21.684165 204 204 204 0
-2.316262 -5.294313 21.627096 203 203 203 0
-2.226339 -5.277247 21.557383 202 202 202 0
-2.149918 -5.292106 21.618080 203 203 203 0
-2.078851 -5.321859 21.739622 203 203 203 0
-2.005915 -5.349108 21.850931 203 203 203 0
-1.929450 -5.368905 21.931802 203 203 203 0
-1.847818 -5.375469 21.958617 203 203 203 0
-1.772308 -5.401319 22.064212 203 203 203 0
-1.695103 -5.424329 22.158205 203 203 203 0
-1.616388 -5.444676 22.241324 204 204 204 0
-1.539049 -5.472176 22.353660 202 202 202 0
-1.458361 -5.490301 22.427701 201 201 201 0
-1.377971 -5.511883 22.515860 201 201 201 0
-1.299423 -5.544204 22.647891 201 201 201 0
-1.223327 -5.592350 22.844567 201 201 201 0
-1.143430 -5.629192 22.995066 201 201 201 0
-1.056411 -5.634191 23.015488 200 200 200 0
-0.971041 -5.649690 23.078800 199 199 199 0
-0.894549 -5.725115 23.386908 197 197 197 0
-0.808425 -5.748797 23.483648 198 198 198 0
-0.718760 -5.750079 23.488886 198 198 198 0
-0.630948 -5.768663 23.564799 198 198 198 0
-0.546887 -5.833466 23.829516 197 197 197 0
-0.460101 -5.889291 24.057562 195 195 195 0
-0.370194 -5.923100 24.195671 193 193 193 0
-0.279797 -5.968993 24.383140 193 193 193 0
-0.188907 -6.045014 24.693683 192 192 192 0
-0.095328 -6.100979 24.922300 189 189 189 0
0.000000 -6.134589 25.059596 187 187 187 0
0.098299 -6.291121 25.699023 184 184 184 0
0.199488 -6.383608 26.076831 180 180 180 0
0.323473 -6.900758 28.189372 186 186 186 0
0.441659 -7.066545 28.866604 192 192 192 0
0.550658 -7.048420 28.792565 193 193 193 0
0.661830 -7.059521 28.837915 193 193 193 0
0.776650 -7.100801 29.006539 193 193 193 0
0.888765 -7.110121 29.044613 193 193 193 0
0.997732 -7.094984 28.982779 195 195 195 0
1.106287 -7.080237 28.922538 194 194 194 0
1.218542 -7.089697 28.961182 195 195 195 0
1.334282 -7.116173 29.069333 195 195 195 0
1.448015 -7.128691 29.120471 194 194 194 0
1.561862 -7.139942 29.166430 193 193 193 0
1.677287 -7.156425 29.233761 193 193 193 0
1.734354 -6.937418 28.339124 192 192 192 0
1.920189 -7.228946 29.530008 191 191 191 0
2.034187 -7.232666 29.545203 191 191 191 0
2.147372 -7.233252 29.547596 192 192 192 0
2.271647 -7.269269 29.694728 192 192 192 0
2.395033 -7.299148 29.816782 189 189 189 0
2.521104 -7.334119 29.959638 192 192 192 0
2.634511 -7.330812 29.946128 198 198 198 0
2.757606 -7.353616 30.039280 200 200 200 0
2.885860 -7.387803 30.178932 201 201 201 0
2.999546 -7.383497 30.161344 201 201 201 0
3.111040 -7.374318 30.123847 200 200 200 0
3.233572 -7.391022 30.192084 200 200 200 0
3.367262 -7.431200 30.356208 201 201 201 0
3.483805 -7.432117 30.359955 202 202 202 0
3.594761 -7.421442 30.316348 201 201 201 0
3.713461 -7.426922 30.338732 201 201 201 0
3.856750 -7.479757 30.554565 201 201 201 0
3.964134 -7.461899 30.481614 202 202 202 0
4.068628 -7.439777 30.391245 201 201 201 0
4.185558 -7.440992 30.396210 200 200 200 0
4.328816 -7.487682 30.586937 200 200 200 0
4.448918 -7.492915 30.608314 200 200 200 0
4.557682 -7.479274 30.552589 200 200 200 0
4.679899 -7.487839 30.587578 201 201 201 0
4.818587 -7.521697 30.725887 201 201 201 0
4.940908 -7.529002 30.755727 201 201 201 0
5.045966 -7.510274 30.679226 200 200 200 0
5.162800 -7.509527 30.676173 200 200 200 0
5.304405 -7.544043 30.817169 201 201 201 0
5.431623 -7.557041 30.870266 200 200 200 0
5.549523 -7.556797 30.869268 201 201 201 0
5.683326 -7.577767 30.954932 200 200 200 0
5.815932 -7.596319 31.030715 190 190 190 0
6.208581 -7.946984 32.463169 94 94 94 0
-10.713293 -8.436718 35.010762 190 190 190 0
-10.579259 -8.436624 35.010371 190 190 190 0
-5.961901 -4.815382 19.982910 190 190 190 0
-5.873411 -4.805518 19.941977 190 190 190 0
-5.776991 -4.788822 19.872690 190 190 190 0
-5.673598 -4.765822 19.777246 191 191 191 0
-5.559522 -4.733107 19.641484 192 192 192 0
-5.467307 -4.718361 19.580292 192 192 192 0
-5.387671 -4.714212 19.563076 192 192 192 0
-5.385664 -4.778829 19.831223 193 193 193 0
-5.348577 -4.813720 19.976013 194 194 194 0
-5.255193 -4.798219 19.911690 196 196 196 0
-5.194123 -4.812202 19.969716 197 197 197 0
-5.105598 -4.800786 19.922340 198 198 198 0
-5.032319 -4.803578 19.933925 199 199 199 0
-4.955442 -4.802967 19.931392 199 199 199 0
-4.923216 -4.846291 20.111178 200 200 200 0
-4.875010 -4.875010 20.230356 200 200 200 0
-4.784674 -4.861846 20.175727 200 200 200 0
-4.700510 -4.854625 20.145763 200 200 200 0
-4.633743 -4.865431 20.190603 201 201 201 0
-4.584722 -4.895550 20.315594 201 201 201 0
-4.543683 -4.935379 20.480877 202 202 202 0
-4.476389 -4.947588 20.531540 201 201 201 0
-4.364921 -4.910537 20.377784 201 201 201 0
-4.263827 -4.884020 20.267748 202 202 202 0
-4.168343 -4.863067 20.180796 202 202 202 0
-4.138981 -4.919921 20.416728 203 203 203 0
-4.119247 -4.990626 20.710140 202 202 202 0
-4.023470 -4.970169 20.625247 203 203 203 0
-3.918916 -4.937834 20.491063 204 204 204 0
-3.817293 -4.907948 20.367043 204 204 204 0
-3.729641 -4.895154 20.313950 204 204 204 0
-3.686383 -4.941321 20.505536 204 204 204 0
-3.647204 -4.995083 20.728636 204 204 204 0
-3.568250 -4.995551 20.730577 205 205 205 0
-3.477994 -4.979855 20.665441 205 205 205 0
-3.392080 -4.969791 20.623680 204 204 204 0
-3.325760 -4.988640 20.701900 205 205 205 0
-3.268393 -5.022165 20.841019 204 204 204 0
-3.202424 -5.043818 20.930878 204 204 204 0
-3.127033 -5.051361 20.962178 204 204 204 0
-3.042170 -5.043597 20.929960 204 204 204 0
-2.971172 -5.059022 20.993969 204 204 204 0
-2.904982 -5.083718 21.096453 204 204 204 0
-2.848484 -5.127271 21.277191 204 204 204 0
-2.772221 -5.136763 21.316579 204 204 204 0
-2.687988 -5.131613 21.295208 204 204 204 0
-2.604071 -5.126765 21.275092 204 204 204 0
-2.532637 -5.146973 21.358948 205 205 205 0
-2.465774 -5.178125 21.488226 205 205 205 0
-2.400994 -5.215953 21.645203 204 204 204 0
-2.306537 -5.189708 21.536292 205 205 205 0
-2.218000 -5.175333 21.476640 205 205 205 0
-2.140419 -5.186399 21.522562 204 204 204 0
-2.065485 -5.205023 21.599848 203 203 203 0
-1.997716 -5.244004 21.761612 203 203 203 0
-1.920300 -5.259954 21.827797 203 203 203 0
-1.841347 -5.272948 21.881724 204 204 204 0
-1.765491 -5.296473 21.979347 204 204 204 0
-1.687909 -5.316913 22.064169 204 204 204 0
-1.609769 -5.337656 22.150247 204 204 204 0
-1.532842 -5.364946 22.263497 204 204 204 0
-1.451431 -5.378832 22.321121 203 203 203 0
-1.371533 -5.400413 22.410677 201 201 201 0
-1.292343 -5.427840 22.524495 202 202 202 0
-1.217497 -5.478735 22.735697 201 201 201 0
-1.137193 -5.511013 22.869646 201 201 201 0
-1.052981 -5.528151 22.940766 201 201 201 0
-0.965083 -5.527292 22.937202 201 201 201 0
-0.890398 -5.609507 23.278376 201 201 201 0
-0.804752 -5.633265 23.376968 199 199 199 0
-0.715295 -5.632945 23.375640 198 198 198 0
-0.627090 -5.643811 23.420730 198 198 198 0
-0.541671 -5.687543 23.602210 198 198 198 0
-0.456596 -5.753116 23.874326 197 197 197 0
