ply
    format ascii 1.0
    element vertex 16242
    property float x
    property float y
    property float z
    property uchar red
    property uchar green
    property uchar blue
    property uchar alpha
    end_header
2.226795 -5.301892 27.722310 209 209 209 0
2.328676 -5.292444 27.672912 209 209 209 0
2.434214 -5.291769 27.669382 210 210 210 0
2.540868 -5.293475 27.678299 209 209 209 0
2.653746 -5.307491 27.751589 209 209 209 0
2.765433 -5.318141 27.807271 209 209 209 0
2.878662 -5.330856 27.873759 209 209 209 0
2.989494 -5.338382 27.913106 209 209 209 0
3.101432 -5.347297 27.959722 209 209 209 0
3.215832 -5.359721 28.024683 209 209 209 0
3.333838 -5.377159 28.115863 209 209 209 0
3.443592 -5.380613 28.133924 209 209 209 0
3.555804 -5.387582 28.170362 208 208 208 0
3.694606 -5.433244 28.409121 208 208 208 0
3.813916 -5.448452 28.488636 208 208 208 0
3.916345 -5.439368 28.441141 209 209 209 0
4.033393 -5.450532 28.499512 207 207 207 0
4.175516 -5.494100 28.727318 207 207 207 0
4.283170 -5.491243 28.712383 207 207 207 0
4.393401 -5.491751 28.715036 208 208 208 0
4.530575 -5.525091 28.889364 206 206 206 0
4.672454 -5.562445 29.084682 205 205 205 0
4.788581 -5.568117 29.114338 205 205 205 0
4.925017 -5.596610 29.263321 205 205 205 0
5.078618 -5.642909 29.505405 205 205 205 0
5.205954 -5.658646 29.587691 203 203 203 0
5.347561 -5.688894 29.745853 203 203 203 0
5.513860 -5.743604 30.031919 202 202 202 0
5.653349 -5.768724 30.163261 200 200 200 0
5.816181 -5.816181 30.411404 200 200 200 0
5.980830 -5.863559 30.659133 198 198 198 0
6.144481 -5.908155 30.892312 195 195 195 0
6.334230 -5.975689 31.245431 194 194 194 0
6.539230 -6.054842 31.659306 190 190 190 0
6.755451 -6.141319 32.111473 184 184 184 0
6.985172 -6.236761 32.610515 136 136 136 0
-6.870037 -4.207898 22.451101 192 192 192 0
-6.763630 -4.195163 22.383154 193 193 193 0
-6.609627 -4.152201 22.153936 194 194 194 0
-6.474436 -4.120096 21.982638 194 194 194 0
-6.387935 -4.118537 21.974320 194 194 194 0
-6.316360 -4.126688 22.017811 194 194 194 0
-6.293992 -4.167643 22.236325 194 194 194 0
-6.220615 -4.175481 22.278143 194 194 194 0
-6.140736 -4.179112 22.297518 194 194 194 0
-6.034617 -4.164736 22.220812 195 195 195 0
-5.944444 -4.161111 22.201472 194 194 194 0
-5.860728 -4.161966 22.206036 196 196 196 0
-5.796051 -4.176566 22.283932 195 195 195 0
-5.776291 -4.224452 22.539424 196 196 196 0
-5.703449 -4.234379 22.592389 195 195 195 0
-5.572192 -4.200576 22.412035 196 196 196 0
-5.458258 -4.178978 22.296804 196 196 196 0
-5.391084 -4.193066 22.371965 195 195 195 0
-5.347560 -4.226298 22.549274 196 196 196 0
-5.312199 -4.267176 22.767379 196 196 196 0
-5.186129 -4.235339 22.597512 196 196 196 0
-5.057959 -4.200677 22.412578 196 196 196 0
-4.932267 -4.166915 22.232442 197 197 197 0
-4.857726 -4.175940 22.280593 196 196 196 0
-4.852203 -4.245677 22.652674 197 197 197 0
-4.777294 -4.256134 22.708467 197 197 197 0
-4.653054 -4.222216 22.527495 197 197 197 0
-4.518893 -4.177845 22.290755 197 197 197 0
-4.397705 -4.143991 22.110129 197 197 197 0
-4.305378 -4.136540 22.070375 198 198 198 0
-4.257962 -4.172803 22.263854 198 198 198 0
-4.203322 -4.203322 22.426686 198 198 198 0
-4.101148 -4.186589 22.337408 198 198 198 0
-3.984783 -4.154348 22.165389 197 197 197 0
-3.887214 -4.140728 22.092721 199 199 199 0
-3.808265 -4.146777 22.124995 198 198 198 0
-3.742259 -4.167516 22.235647 198 198 198 0
-3.659457 -4.170079 22.249320 199 199 199 0
-3.576971 -4.173133 22.265616 199 199 199 0
-3.474349 -4.152271 22.154307 199 199 199 0
-3.373836 -4.132949 22.051215 200 200 200 0
-3.293371 -4.137825 22.077233 200 200 200 0
-3.229737 -4.164661 22.220412 199 199 199 0
-3.151199 -4.173209 22.266021 199 199 199 0
-3.060620 -4.165844 22.226726 199 199 199 0
-2.962568 -4.147595 22.129361 200 200 200 0
-2.861017 -4.123231 21.999364 200 200 200 0
-2.772849 -4.117261 21.967513 200 200 200 0
-2.685969 -4.112891 21.944195 200 200 200 0
-2.642316 -4.176565 22.283926 200 200 200 0
-2.535798 -4.141803 22.098457 200 200 200 0
-2.442749 -4.127403 22.021625 201 201 201 0
-2.344010 -4.102018 21.886184 200 200 200 0
-2.253248 -4.089228 21.817942 200 200 200 0
-2.164086 -4.078470 21.760546 201 201 201 0
-2.085457 -4.087497 21.808705 202 202 202 0
-2.004084 -4.091672 21.830981 201 201 201 0
-1.918746 -4.087763 21.810128 201 201 201 0
-1.831207 -4.078598 21.761229 201 201 201 0
-1.740505 -4.061179 21.668287 202 202 202 0
-1.664267 -4.077455 21.755130 201 201 201 0
-1.580524 -4.076089 21.747839 202 202 202 0
-1.476057 -4.018155 21.438737 202 202 202 0
-1.363703 -3.930675 20.971987 203 203 203 0
-1.808375 -5.538149 29.548616 203 203 203 0
-1.654712 -5.405392 28.840295 199 199 199 0
-1.522626 -5.329190 28.433719 201 201 201 0
-1.401129 -5.281178 28.177554 200 200 200 0
-1.284838 -5.246420 27.992106 203 203 203 0
-1.171784 -5.219766 27.849890 203 203 203 0
-1.067228 -5.229419 27.901396 203 203 203 0
-0.957887 -5.215163 27.825334 203 203 203 0
-0.845272 -5.177289 27.623258 202 202 202 0
-0.735840 -5.150883 27.482369 204 204 204 0
-0.629123 -5.137839 27.412771 205 205 205 0
-0.526105 -5.155825 27.508738 204 204 204 0
-0.422893 -5.180439 27.640065 205 205 205 0
-0.316518 -5.169793 27.583262 207 207 207 0
-0.209976 -5.144400 27.447779 205 205 205 0
-0.104591 -5.124950 27.344006 206 206 206 0
0.000000 -5.135227 27.398837 208 208 208 0
0.105325 -5.160942 27.536041 208 208 208 0
0.210009 -5.145213 27.452118 207 207 207 0
0.313557 -5.121435 27.325252 207 207 207 0
0.416727 -5.104912 27.237090 207 207 207 0
0.520936 -5.105175 27.238497 208 208 208 0
0.629107 -5.137709 27.412081 208 208 208 0
0.733889 -5.137221 27.409474 208 208 208 0
0.836075 -5.120957 27.322699 209 209 209 0
0.939863 -5.117030 27.301745 208 208 208 0
1.046841 -5.129522 27.368398 209 209 209 0
1.154909 -5.144595 27.448818 209 209 209 0
1.258855 -5.140324 27.426033 208 208 208 0
1.361487 -5.131759 27.380336 209 209 209 0
1.468496 -5.139738 27.422903 209 209 209 0
1.574289 -5.142678 27.438590 210 210 210 0
1.687040 -5.166561 27.566019 209 209 209 0
1.794349 -5.171946 27.594751 208 208 208 0
1.899893 -5.171932 27.594676 210 210 210 0
2.005176 -5.171244 27.591004 209 209 209 0
2.112251 -5.175014 27.611120 209 209 209 0
2.225671 -5.193232 27.708321 210 210 210 0
2.327956 -5.184992 27.664357 210 210 210 0
2.432956 -5.183254 27.655081 210 210 210 0
2.540388 -5.186626 27.673076 210 210 210 0
2.653217 -5.200305 27.746060 210 210 210 0
2.766800 -5.214354 27.821014 209 209 209 0
2.877592 -5.222296 27.863392 209 209 209 0
2.987850 -5.228737 27.897755 209 209 209 0
3.098075 -5.234679 27.929460 209 209 209 0
3.214281 -5.249992 28.011163 209 209 209 0
3.331611 -5.266095 28.097080 209 209 209 0
3.439459 -5.266671 28.100154 209 209 209 0
3.555088 -5.278766 28.164687 208 208 208 0
3.693011 -5.322280 28.396852 208 208 208 0
3.811895 -5.336654 28.473542 209 209 209 0
3.914223 -5.327693 28.425730 208 208 208 0
4.029988 -5.337011 28.475451 207 207 207 0
4.170500 -5.377750 28.692808 207 207 207 0
4.281238 -5.378991 28.699433 208 208 208 0
4.391601 -5.379711 28.703272 207 207 207 0
4.522562 -5.405013 28.838272 206 206 206 0
4.668389 -5.446454 29.059379 205 205 205 0
4.783347 -5.450790 29.082516 206 206 206 0
4.917158 -5.475926 29.216625 205 205 205 0
5.071672 -5.522487 29.465049 205 205 205 0
5.200935 -5.540126 29.559163 203 203 203 0
5.341635 -5.568938 29.712889 203 203 203 0
5.504060 -5.618728 29.978539 203 203 203 0
5.646399 -5.646399 30.126180 200 200 200 0
5.802766 -5.686711 30.341261 200 200 200 0
5.973342 -5.739093 30.620744 198 198 198 0
6.136095 -5.782090 30.850152 195 195 195 0
6.317906 -5.841083 31.164909 195 195 195 0
6.517779 -5.914281 31.555454 190 190 190 0
6.718063 -5.985183 31.933752 186 186 186 0
6.964827 -6.094224 32.515533 158 158 158 0
7.125565 -6.125486 32.682330 78 78 78 0
-6.854834 -4.112900 22.401418 193 193 193 0
-6.745425 -4.098486 22.322907 194 194 194 0
-6.589835 -4.055283 22.087600 193 193 193 0
-6.467244 -4.031528 21.958216 194 194 194 0
-6.379638 -4.029245 21.945779 193 193 193 0
-6.302707 -4.033732 21.970220 194 194 194 0
-6.265355 -4.064014 22.135154 194 194 194 0
-6.202720 -4.078501 22.214056 195 195 195 0
-6.125239 -4.083492 22.241244 194 194 194 0
-6.012949 -4.065092 22.141025 194 194 194 0
-5.932372 -4.067912 22.156383 195 195 195 0
-5.844508 -4.065745 22.144579 195 195 195 0
-5.773437 -4.075367 22.196991 195 195 195 0
-5.743129 -4.114481 22.410025 196 196 196 0
-5.680606 -4.131350 22.501906 195 195 195 0
-5.557788 -4.104213 22.354100 196 196 196 0
-5.443296 -4.082472 22.235688 196 196 196 0
-5.373189 -4.093858 22.297704 196 196 196 0
-5.336764 -4.131688 22.503748 196 196 196 0
-5.299974 -4.170471 22.714985 196 196 196 0
-5.179658 -4.143726 22.569316 196 196 196 0
-5.046762 -4.105840 22.362965 197 197 197 0
-4.928593 -4.078835 22.215878 196 196 196 0
-4.847207 -4.081858 22.232343 197 197 197 0
-4.838297 -4.147111 22.587752 197 197 197 0
-4.750844 -4.146192 22.582743 197 197 197 0
-4.644767 -4.128682 22.487375 197 197 197 0
-4.517263 -4.091107 22.282715 197 197 197 0
-4.392479 -4.054596 22.083855 198 198 198 0
-4.294823 -4.042186 22.016266 198 198 198 0
-4.233308 -4.063975 22.134942 197 197 197 0
-4.190669 -4.105145 22.359177 198 198 198 0
-4.094019 -4.094019 22.298579 198 198 198 0
-3.975670 -4.060258 22.114697 198 198 198 0
-3.879377 -4.048046 22.048180 198 198 198 0
-3.796518 -4.049620 22.056752 199 199 199 0
-3.722507 -4.060917 22.118283 199 199 199 0
-3.655492 -4.080549 22.225214 198 198 198 0
-3.571839 -4.082102 22.233669 199 199 199 0
-3.466900 -4.058810 22.106809 199 199 199 0
-3.366497 -4.039796 22.003246 199 199 199 0
-3.286343 -4.044730 22.030118 199 199 199 0
-3.221641 -4.069441 22.164711 199 199 199 0
-3.142504 -4.076761 22.204583 199 199 199 0
-3.055654 -4.074205 22.190662 200 200 200 0
-2.956531 -4.054672 22.084268 200 200 200 0
-2.855792 -4.031706 21.959182 200 200 200 0
-2.763287 -4.019327 21.891761 200 200 200 0
-2.679027 -4.018541 21.887479 200 200 200 0
-2.475612 -3.833205 20.878023 200 200 200 0
-2.533211 -4.053138 22.075913 201 201 201 0
-2.437540 -4.034549 21.974667 200 200 200 0
-2.339875 -4.011214 21.847571 200 200 200 0
-2.247181 -3.994989 21.759200 201 201 201 0
-2.159935 -3.987573 21.718805 202 202 202 0
-2.076637 -3.987143 21.716467 201 201 201 0
-1.999224 -3.998448 21.778040 201 201 201 0
-1.916113 -3.998845 21.780202 201 201 201 0
-1.826451 -3.984983 21.704700 202 202 202 0
-1.736442 -3.969009 21.617697 202 202 202 0
-1.661050 -3.986519 21.713065 202 202 202 0
-1.577305 -3.984772 21.703549 202 202 202 0
-1.474752 -3.932671 21.419776 202 202 202 0
-1.365186 -3.854644 20.994794 202 202 202 0
-1.800263 -5.400790 29.416069 202 202 202 0
-1.646156 -5.267700 28.691179 200 200 200 0
-1.519505 -5.209731 28.375440 201 201 201 0
-1.397882 -5.161411 28.112258 202 202 202 0
-1.282698 -5.130792 27.945492 202 202 202 0
-1.170451 -5.107421 27.818199 202 202 202 0
-1.065670 -5.115215 27.860649 203 203 203 0
-0.957610 -5.107251 27.817272 203 203 203 0
-0.846555 -5.079327 27.665182 204 204 204 0
-0.735579 -5.043972 27.472612 205 205 205 0
-0.628938 -5.031504 27.404707 205 205 205 0
-0.526402 -5.053460 27.524293 206 206 206 0
-0.422668 -5.072022 27.625392 206 206 206 0
-0.316593 -5.065492 27.589826 206 206 206 0
-0.209900 -5.037610 27.437963 206 206 206 0
-0.104580 -5.019859 27.341278 208 208 208 0
0.000000 -5.026598 27.377984 207 207 207 0
0.105230 -5.051022 27.511013 207 207 207 0
0.210036 -5.040872 27.455729 208 208 208 0
0.313628 -5.018051 27.331431 207 207 207 0
0.416898 -5.002772 27.248215 206 206 206 0
0.520512 -4.996919 27.216335 207 207 207 0
0.628730 -5.029844 27.395663 209 209 209 0
0.732773 -5.024730 27.367808 209 209 209 0
0.835948 -5.015690 27.318575 208 208 208 0
0.939619 -5.011303 27.294678 209 209 209 0
1.046078 -5.021176 27.348453 209 209 209 0
1.154032 -5.035777 27.427977 209 209 209 0
1.257911 -5.031643 27.405461 209 209 209 0
1.361408 -5.026737 27.378744 208 208 208 0
1.466376 -5.027573 27.383297 209 209 209 0
1.573155 -5.034096 27.418821 209 209 209 0
1.686006 -5.058019 27.549124 209 209 209 0
1.794238 -5.066083 27.593044 209 209 209 0
1.898529 -5.062743 27.574854 210 210 210 0
2.005115 -5.065553 27.590156 210 210 210 0
2.111545 -5.067708 27.601893 210 210 210 0
2.224421 -5.084391 27.692759 209 209 209 0
2.327975 -5.079218 27.664587 210 210 210 0
2.431927 -5.075326 27.643389 209 209 209 0
2.539527 -5.079055 27.663698 209 209 209 0
2.652313 -5.092441 27.736607 209 209 209 0
2.764368 -5.103449 27.796564 209 209 209 0
2.875922 -5.112751 27.847226 209 209 209 0
2.986756 -5.120153 27.887545 209 209 209 0
3.095355 -5.123347 27.904938 209 209 209 0
3.210004 -5.136007 27.973892 209 209 209 0
3.330538 -5.156963 28.088032 210 210 210 0
3.437347 -5.156021 28.082901 209 209 209 0
3.552312 -5.167000 28.142700 208 208 208 0
3.688360 -5.207096 28.361089 209 209 209 0
3.810239 -5.225471 28.461171 208 208 208 0
3.912018 -5.216024 28.409714 208 208 208 0
4.029675 -5.227686 28.473237 208 208 208 0
4.167554 -5.264279 28.672544 208 208 208 0
4.280169 -5.267901 28.692270 207 207 207 0
4.389299 -5.267159 28.688230 207 207 207 0
4.516591 -5.287716 28.800197 207 207 207 0
4.662838 -5.328958 29.024826 206 206 206 0
4.778405 -5.334033 29.052470 206 206 206 0
4.910059 -5.356428 29.174444 205 205 205 0
5.067482 -5.405314 29.440707 205 205 205 0
5.197621 -5.423604 29.540328 204 204 204 0
5.335782 -5.449310 29.680335 203 203 203 0
5.497291 -5.497291 29.941670 202 202 202 0
5.642445 -5.527293 30.105084 201 201 201 0
5.792218 -5.560529 30.286106 200 200 200 0
5.967708 -5.616666 30.591865 199 199 199 0
6.125054 -5.653896 30.794640 197 197 197 0
6.302607 -5.708022 31.089443 195 195 195 0
6.485600 -5.764978 31.399661 191 191 191 0
6.687445 -5.836316 31.788214 188 188 188 0
6.941410 -5.949780 32.406210 172 172 172 0
7.150281 -6.021289 32.795693 89 89 89 0
-6.840030 -4.018518 22.353039 193 193 193 0
-6.704017 -3.988466 22.185876 193 193 193 0
-6.581510 -3.965782 22.059696 194 194 194 0
-6.466629 -3.947163 21.956130 194 194 194 0
-6.359405 -3.932790 21.876179 195 195 195 0
-6.278778 -3.934701 21.886807 194 194 194 0
-6.258292 -3.974861 22.110201 194 194 194 0
-6.186613 -3.983162 22.156371 195 195 195 0
-6.114761 -3.991580 22.203199 194 194 194 0
-5.998790 -3.971030 22.088889 195 195 195 0
-5.908180 -3.966921 22.066033 195 195 195 0
-5.824722 -3.967564 22.069612 196 196 196 0
-5.753668 -3.976800 22.120983 195 195 195 0
-5.737780 -4.025010 22.389154 195 195 195 0
-5.662922 -4.032687 22.431856 195 195 195 0
-5.551810 -4.014386 22.330056 196 196 196 0
-5.439698 -3.994778 22.220989 195 195 195 0
-5.353084 -3.993571 22.214272 196 196 196 0
-5.315709 -4.029650 22.414966 196 196 196 0
-5.273487 -4.063178 22.601466 196 196 196 0
-5.171211 -4.050782 22.532509 197 197 197 0
-5.041305 -4.015955 22.338785 196 196 196 0
-4.911916 -3.980346 22.140709 196 196 196 0
-4.829881 -3.982533 22.152877 196 196 196 0
-4.813253 -4.039695 22.470836 197 197 197 0
-4.742609 -4.052775 22.543594 198 198 198 0
-4.636097 -4.035121 22.445398 198 198 198 0
-4.505994 -3.995882 22.227127 198 198 198 0
-4.378567 -3.957551 22.013910 198 198 198 0
-4.280205 -3.944503 21.941331 197 197 197 0
-4.210435 -3.957809 22.015346 198 198 198 0
-4.175678 -4.005242 22.279193 198 198 198 0
-4.089312 -4.004118 22.272940 198 198 198 0
-3.966487 -3.966487 22.063617 198 198 198 0
-3.868440 -3.952536 21.986017 199 199 199 0
-3.782724 -3.950845 21.976612 198 198 198 0
-3.714332 -3.967582 22.069711 199 199 199 0
-3.646819 -3.986057 22.172479 199 199 199 0
-3.560542 -3.984416 22.163346 198 198 198 0
-3.465433 -3.972569 22.097451 200 200 200 0
-3.360805 -3.948946 21.966045 199 199 199 0
-3.278664 -3.951210 21.978643 200 200 200 0
-3.213571 -3.974680 22.109191 200 200 200 0
-3.135530 -3.982971 22.155309 200 200 200 0
-3.049380 -3.981135 22.145100 199 199 199 0
-2.953683 -3.966374 22.062992 199 199 199 0
-2.850331 -3.940163 21.917192 200 200 200 0
-2.757049 -3.926706 21.842338 201 201 201 0
-2.677510 -3.932593 21.875083 200 200 200 0
-2.608181 -3.954339 21.996046 200 200 200 0
-2.527863 -3.960319 22.029306 201 201 201 0
-2.430478 -3.939051 21.911006 201 201 201 0
-2.334233 -3.918177 21.794894 201 201 201 0
-2.244777 -3.907575 21.735917 201 201 201 0
-2.155183 -3.895907 21.671017 201 201 201 0
-2.073150 -3.897522 21.680002 202 202 202 0
-1.995186 -3.907240 21.734056 202 202 202 0
-1.911560 -3.906230 21.728441 201 201 201 0
-1.820892 -3.890088 21.638651 202 202 202 0
-1.734249 -3.881415 21.590403 201 201 201 0
-1.657849 -3.895944 21.671224 201 201 201 0
-1.572479 -3.889818 21.637144 202 202 202 0
-1.472823 -3.845704 21.391764 202 202 202 0
-1.369717 -3.786864 21.064462 203 203 203 0
-1.803331 -5.297286 29.466198 202 202 202 0
-1.636695 -5.128312 28.526280 199 199 199 0
-1.516263 -5.090310 28.314896 199 199 199 0
-1.394260 -5.040787 28.039420 204 204 204 0
-1.280486 -5.015238 27.897306 204 204 204 0
-1.170178 -4.999853 27.811725 202 202 202 0
-1.065768 -5.009110 27.863217 202 202 202 0
-0.957326 -4.999368 27.809026 203 203 203 0
-0.846200 -4.971426 27.653601 205 205 205 0
-0.736760 -4.946819 27.516722 204 204 204 0
-0.628724 -4.925003 27.395373 204 204 204 0
-0.525164 -4.936538 27.459537 205 205 205 0
-0.422104 -4.959717 27.588466 206 206 206 0
-0.316182 -4.953517 27.553979 205 205 205 0
-0.209848 -4.931417 27.431050 205 205 205 0
-0.104508 -4.911877 27.322361 206 206 206 0
0.000000 -4.921858 27.377880 207 207 207 0
0.105184 -4.943655 27.499125 208 208 208 0
0.210071 -4.936667 27.460253 207 207 207 0
0.313582 -4.912792 27.327448 208 208 208 0
0.416598 -4.895022 27.228600 209 209 209 0
0.520482 -4.892528 27.214728 209 209 209 0
0.628253 -4.921312 27.374839 208 208 208 0
0.733109 -4.922303 27.380351 209 209 209 0
0.836127 -4.912246 27.324412 209 209 209 0
0.940289 -4.910396 27.314123 209 209 209 0
1.045941 -4.915922 27.344857 209 209 209 0
1.153510 -4.928636 27.415579 208 208 208 0
1.258853 -4.930507 27.425989 209 209 209 0
1.360802 -4.919823 27.366559 209 209 209 0
1.466984 -4.924875 27.394658 209 209 209 0
1.571869 -4.925189 27.396409 209 209 209 0
1.685129 -4.950065 27.534780 210 210 210 0
1.793856 -4.959485 27.587177 209 209 209 0
1.897204 -4.953811 27.555619 211 211 211 0
2.003622 -4.956329 27.569622 210 210 210 0
2.111233 -4.961399 27.597823 209 209 209 0
2.223874 -4.977241 27.685948 210 210 210 0
2.327886 -4.973210 27.663525 209 209 209 0
2.431237 -4.968180 27.635547 211 211 211 0
2.537914 -4.970082 27.646124 209 209 209 0
2.649820 -4.981662 27.710538 210 210 210 0
2.764206 -4.996834 27.794934 210 210 210 0
2.873871 -5.002664 27.827360 210 210 210 0
2.986198 -5.012547 27.882334 209 209 209 0
3.093806 -5.014100 27.890975 209 209 209 0
3.207796 -5.025547 27.954647 209 209 209 0
3.328845 -5.046959 28.073754 210 210 210 0
3.435867 -5.046430 28.070808 209 209 209 0
3.551324 -5.057947 28.134873 209 209 209 0
3.687436 -5.097338 28.353988 209 209 209 0
3.807658 -5.113141 28.441890 209 209 209 0
3.911292 -5.106409 28.404445 209 209 209 0
4.027100 -5.115506 28.455044 208 208 208 0
4.165014 -5.151465 28.655068 208 208 208 0
4.277814 -5.155315 28.676484 208 208 208 0
4.385916 -5.153452 28.666120 208 208 208 0
4.512769 -5.173174 28.775824 207 207 207 0
4.660205 -5.214992 29.008437 206 206 206 0
4.773803 -5.217878 29.024490 205 205 205 0
4.906875 -5.241435 29.155526 205 205 205 0
5.062290 -5.287280 29.410543 205 205 205 0
5.194657 -5.307584 29.523483 204 204 204 0
5.332537 -5.332537 29.662281 204 204 204 0
5.488544 -5.374199 29.894029 203 203 203 0
5.639380 -5.409201 30.088726 201 201 201 0
5.784983 -5.437884 30.248276 200 200 200 0
5.960342 -5.492864 30.554103 200 200 200 0
6.118025 -5.529753 30.759301 197 197 197 0
6.291803 -5.579523 31.036145 196 196 196 0
6.474698 -5.635385 31.346880 193 193 193 0
6.666972 -5.697231 31.690896 190 190 190 0
6.907708 -5.797540 32.248869 180 180 180 0
7.143693 -5.890413 32.765475 112 112 112 0
-6.833985 -3.929541 22.333284 193 193 193 0
-6.705388 -3.904403 22.190413 194 194 194 0
-6.560256 -3.868869 21.988457 194 194 194 0
-6.456092 -3.856886 21.920353 194 194 194 0
-6.349090 -3.842871 21.840696 194 194 194 0
-6.271397 -3.846457 21.861077 195 195 195 0
-6.232454 -3.874228 22.018914 195 195 195 0
-6.168847 -3.887219 22.092747 195 195 195 0
-6.094319 -3.893593 22.128972 195 195 195 0
-5.986061 -3.878293 22.042018 195 195 195 0
-5.893489 -3.872864 22.011164 195 195 195 0
-5.813926 -3.875951 22.028704 195 195 195 0
-5.740756 -3.883453 22.071343 195 195 195 0
-5.715266 -3.923914 22.301301 196 196 196 0
-5.647908 -3.936421 22.372384 196 196 196 0
-5.528574 -3.912529 22.236596 196 196 196 0
-5.415301 -3.892247 22.121326 196 196 196 0
-5.347040 -3.904188 22.189191 196 196 196 0
-5.308216 -3.938354 22.383370 196 196 196 0
-5.274359 -3.977386 22.605204 196 196 196 0
-5.168576 -3.962575 22.521026 196 196 196 0
-5.028454 -3.920489 22.281838 197 197 197 0
-4.908553 -3.892990 22.125548 197 197 197 0
-4.809104 -3.881031 22.057579 197 197 197 0
-4.863653 -3.995143 22.706128 198 198 198 0
-4.732460 -3.958058 22.495355 198 198 198 0
-4.627628 -3.942053 22.404394 197 197 197 0
-4.497217 -3.903245 22.183832 198 198 198 0
-4.366940 -3.863063 21.955457 197 197 197 0
-4.264975 -3.846840 21.863256 198 198 198 0
-4.191891 -3.856540 21.918385 198 198 198 0
-4.163114 -3.908230 22.212160 198 198 198 0
-4.081647 -3.911578 22.231191 198 198 198 0
-3.958842 -3.874612 22.021094 198 198 198 0
-3.865897 -3.865897 21.971563 199 199 199 0
-3.769102 -3.852860 21.897473 199 199 199 0
-3.701757 -3.870019 21.994994 199 199 199 0
-3.637553 -3.891336 22.116147 199 199 199 0
-3.553204 -3.891604 22.117670 199 199 199 0
-3.455471 -3.876870 22.033930 199 199 199 0
-3.357385 -3.860992 21.943691 199 199 199 0
-3.269676 -3.856542 21.918394 199 199 199 0
-3.206626 -3.881705 22.061408 200 200 200 0
-3.130155 -3.891544 22.117329 200 200 200 0
-3.044935 -3.890750 22.112815 200 200 200 0
-2.947763 -3.874203 22.018771 200 200 200 0
-2.845101 -3.849254 21.876976 200 200 200 0
-2.751067 -3.834820 21.794944 200 200 200 0
-2.670671 -3.839090 21.819209 200 200 200 0
-2.596898 -3.853461 21.900888 200 200 200 0
-2.522763 -3.868236 21.984861 200 200 200 0
-2.427440 -3.850422 21.883613 200 200 200 0
-2.328889 -3.826032 21.744996 201 201 201 0
-2.238054 -3.812982 21.670825 201 201 201 0
-2.151654 -3.806772 21.635532 201 201 201 0
-2.066981 -3.803245 21.615486 201 201 201 0
-1.990547 -3.815215 21.683515 201 201 201 0
-1.906785 -3.813570 21.674168 201 201 201 0
-1.816297 -3.797712 21.584040 201 201 201 0
-1.730824 -3.791329 21.547763 202 202 202 0
-1.653464 -3.802967 21.613905 202 202 202 0
-1.569910 -3.800834 21.601782 202 202 202 0
-1.474347 -3.767775 21.413895 202 202 202 0
-1.366724 -3.698195 21.018443 202 202 202 0
-1.785090 -5.132134 29.168141 203 203 203 0
-1.623176 -4.977739 28.290643 201 201 201 0
-1.510190 -4.962054 28.201502 201 201 201 0
-1.392251 -4.926427 27.999015 203 203 203 0
-1.277789 -4.898192 27.838546 202 202 202 0
-1.168508 -4.886490 27.772036 204 204 204 0
-1.065183 -4.899841 27.847916 203 203 203 0
-0.957138 -4.892038 27.803568 204 204 204 0
-0.845710 -4.862834 27.637588 203 203 203 0
-0.737760 -4.848139 27.554073 205 205 205 0
-0.629281 -4.824488 27.419655 205 205 205 0
-0.524805 -4.828207 27.440793 205 205 205 0
-0.422317 -4.856649 27.602437 205 205 205 0
-0.316395 -4.851395 27.572576 204 204 204 0
-0.209703 -4.823158 27.412093 206 206 206 0
-0.104480 -4.806092 27.315100 208 208 208 0
0.000000 -4.814624 27.363590 207 207 207 0
0.105198 -4.839110 27.502756 208 208 208 0
0.209965 -4.829190 27.446376 206 206 206 0
0.313398 -4.805434 27.311359 208 208 208 0
0.416600 -4.790905 27.228786 208 208 208 0
0.520758 -4.790975 27.229184 208 208 208 0
0.627940 -4.814205 27.361211 208 208 208 0
0.732841 -4.815809 27.370328 209 209 209 0
0.834989 -4.801185 27.287212 209 209 209 0
0.939637 -4.802588 27.295186 208 208 208 0
1.046146 -4.812272 27.350226 209 209 209 0
1.152511 -4.819592 27.391828 209 209 209 0
1.258728 -4.825123 27.423263 209 209 209 0
1.361856 -4.818876 27.387759 209 209 209 0
1.466575 -4.818745 27.387014 210 210 210 0
1.570998 -4.817726 27.381224 208 208 208 0
1.684293 -4.842341 27.521122 209 209 209 0
1.792265 -4.849658 27.562707 209 209 209 0
1.896504 -4.846622 27.545451 210 210 210 0
2.003158 -4.849750 27.563229 210 210 210 0
2.111291 -4.855970 27.598577 209 209 209 0
2.224411 -4.872520 27.692637 210 210 210 0
2.327625 -4.866852 27.660424 209 209 209 0
2.430699 -4.861398 27.629431 210 210 210 0
2.536984 -4.862553 27.635995 210 210 210 0
2.647974 -4.872272 27.691232 210 210 210 0
2.761131 -4.885079 27.764017 210 210 210 0
2.874124 -4.896656 27.829812 210 210 210 0
2.983620 -4.901662 27.858264 210 210 210 0
3.091923 -4.904430 27.873999 210 210 210 0
3.208421 -4.919579 27.960097 209 209 209 0
3.328149 -4.938543 28.067878 210 210 210 0
3.436676 -4.940222 28.077420 209 209 209 0
3.550222 -4.948795 28.126143 209 209 209 0
3.685858 -4.986750 28.341857 208 208 208 0
3.806191 -5.002423 28.430933 208 208 208 0
3.909945 -4.996041 28.394662 209 209 209 0
4.025621 -5.004827 28.444595 209 209 209 0
4.165773 -5.042778 28.660290 208 208 208 0
4.277591 -5.045364 28.674988 207 207 207 0
4.385169 -5.042945 28.661236 207 207 207 0
4.508842 -5.058701 28.750785 207 207 207 0
4.657879 -5.101486 28.993955 206 206 206 0
4.772344 -5.105299 29.015622 206 206 206 0
4.903219 -5.126093 29.133803 206 206 206 0
5.060369 -5.172822 29.399383 205 205 205 0
5.187806 -5.187806 29.484547 204 204 204 0
5.324475 -5.211188 29.617438 203 203 203 0
5.481580 -5.253180 29.856098 203 203 203 0
5.636260 -5.291182 30.072080 202 202 202 0
5.777857 -5.315628 30.211016 201 201 201 0
5.955393 -5.371531 30.528733 200 200 200 0
6.109799 -5.404822 30.717943 198 198 198 0
6.283553 -5.453650 30.995450 196 196 196 0
6.459137 -5.502228 31.271541 193 193 193 0
6.661509 -5.571444 31.664929 190 190 190 0
6.896710 -5.665155 32.197526 183 183 183 0
7.144759 -5.765946 32.770366 133 133 133 0
-6.812727 -3.832159 22.263814 193 193 193 0
-6.681089 -3.805684 22.110001 193 193 193 0
-6.544313 -3.775565 21.935018 194 194 194 0
-6.425949 -3.755425 21.818009 194 194 194 0
-6.331918 -3.749162 21.781623 195 195 195 0
-6.241354 -3.744813 21.756355 194 194 194 0
-6.211226 -3.777097 21.943917 194 194 194 0
-6.162076 -3.798540 22.068498 195 195 195 0
-6.084697 -3.802935 22.094032 194 194 194 0
-5.971612 -3.784825 21.988815 195 195 195 0
-5.881878 -3.781207 21.967798 195 195 195 0
-5.803030 -3.784585 21.987421 195 195 195 0
-5.729788 -3.791771 22.029173 195 195 195 0
-5.700148 -3.828457 22.242308 195 195 195 0
-5.637077 -3.843462 22.329479 196 196 196 0
-5.527084 -3.826443 22.230604 196 196 196 0
-5.405947 -3.801056 22.083116 196 196 196 0
-5.335580 -3.811129 22.141634 197 197 197 0
-5.279804 -3.832116 22.263563 196 196 196 0
-5.250182 -3.873085 22.501585 197 197 197 0
-5.152188 -3.864141 22.449622 197 197 197 0
-5.023060 -3.831147 22.257938 197 197 197 0
-4.899361 -3.801228 22.084116 197 197 197 0
-4.787101 -3.779290 21.956662 197 197 197 0
-6.593597 -5.298426 30.782434 197 197 197 0
-4.704138 -3.848841 22.360729 197 197 197 0
-4.623334 -3.852778 22.383607 198 198 198 0
-4.488711 -3.811170 22.141872 198 198 198 0
-4.358821 -3.772057 21.914637 198 198 198 0
-4.258309 -3.757331 21.829085 198 198 198 0
-4.180542 -3.762488 21.859045 198 198 198 0
-4.151875 -3.812946 22.152193 198 198 198 0
-4.072714 -3.818169 22.182537 198 198 198 0
-3.955588 -3.787265 22.002993 198 198 198 0
-3.855237 -3.771427 21.910978 199 199 199 0
-3.757799 -3.757799 21.831801 198 198 198 0
-3.692528 -3.776449 21.940152 199 199 199 0
-3.624783 -3.793378 22.038505 199 199 199 0
-3.547966 -3.801393 22.085070 199 199 199 0
-3.451402 -3.788124 22.007984 199 199 199 0
-3.352043 -3.771049 21.908779 200 200 200 0
-3.266653 -3.769216 21.898130 200 200 200 0
-3.197747 -3.786806 22.000325 200 200 200 0
-3.123166 -3.798445 22.067948 200 200 200 0
-3.035040 -3.793800 22.040960 199 199 199 0
-2.940710 -3.780912 21.966085 200 200 200 0
-2.840233 -3.759132 21.839544 201 201 201 0
-2.744033 -3.741863 21.739221 201 201 201 0
-2.660114 -3.740786 21.732960 200 200 200 0
-2.586351 -3.754380 21.811941 200 200 200 0
-2.518812 -3.778219 21.950435 201 201 201 0
-2.421641 -3.757719 21.831340 201 201 201 0
-2.326780 -3.739467 21.725300 201 201 201 0
-2.234773 -3.724621 21.639049 201 201 201 0
-2.146252 -3.714667 21.581218 201 201 201 0
-2.062303 -3.712146 21.566569 201 201 201 0
-1.985885 -3.723534 21.632735 201 201 201 0
-1.902827 -3.722923 21.629181 201 201 201 0
-1.813629 -3.709696 21.552339 202 202 202 0
-1.727749 -3.702320 21.509482 202 202 202 0
-1.647914 -3.707807 21.541361 202 202 202 0
-1.567580 -3.712688 21.569722 202 202 202 0
-1.473768 -3.684421 21.405493 202 202 202 0
-1.374091 -3.637301 21.131739 202 202 202 0
-1.798388 -5.057967 29.385430 202 202 202 0
-1.626664 -4.879991 28.351437 199 199 199 0
-1.509139 -4.850805 28.181874 201 201 201 0
-1.389298 -4.809109 27.939633 203 203 203 0
-1.277124 -4.789216 27.824057 203 203 203 0
-1.168351 -4.779617 27.768288 202 202 202 0
-1.064499 -4.790247 27.830048 202 202 202 0
-0.957542 -4.787711 27.815313 202 202 202 0
-0.847638 -4.767962 27.700577 204 204 204 0
-0.735982 -4.731310 27.487642 205 205 205 0
-0.628698 -4.715236 27.394252 205 205 205 0
-0.524651 -4.721856 27.432717 205 205 205 0
-0.422002 -4.747520 27.581813 205 205 205 0
-0.316364 -4.745453 27.569807 204 204 204 0
-0.209798 -4.720455 27.424577 208 208 208 0
-0.104481 -4.701624 27.315172 207 207 207 0
0.000000 -4.708581 27.355592 208 208 208 0
0.105229 -4.735296 27.510796 207 207 207 0
0.209955 -4.723991 27.445119 208 208 208 0
0.313450 -4.701744 27.315869 206 206 206 0
0.416478 -4.685376 27.220775 208 208 208 0
0.520633 -4.685693 27.222619 209 209 209 0
0.628415 -4.713110 27.381900 209 209 209 0
0.733823 -4.717433 27.407021 208 208 208 0
0.836601 -4.705879 27.339895 208 208 208 0
0.939688 -4.698441 27.296677 209 209 209 0
1.046664 -4.709988 27.363766 209 209 209 0
1.152987 -4.716764 27.403131 209 209 209 0
1.257305 -4.714895 27.392276 209 209 209 0
1.359954 -4.707532 27.349496 209 209 209 0
1.466154 -4.712637 27.379152 210 210 210 0
1.571071 -4.713213 27.382498 209 209 209 0
1.683579 -4.735066 27.509460 210 210 210 0
1.791299 -4.741674 27.547852 209 209 209 0
1.897610 -4.744026 27.561517 210 210 210 0
2.002864 -4.743625 27.559185 209 209 209 0
2.109116 -4.745511 27.570146 210 210 210 0
2.222985 -4.763540 27.674885 210 210 210 0
2.326652 -4.759061 27.648863 211 211 211 0
2.430096 -4.754535 27.622572 210 210 210 0
2.536866 -4.756624 27.634707 210 210 210 0
2.646011 -4.762821 27.670708 210 210 210 0
2.760865 -4.778420 27.761337 210 210 210 0
2.872930 -4.788216 27.818248 210 210 210 0
2.984568 -4.796627 27.867112 209 209 209 0
3.090605 -4.795766 27.862111 209 209 209 0
3.206803 -4.810205 27.945996 210 210 210 0
3.325824 -4.827810 28.048277 210 210 210 0
3.434704 -4.830053 28.061310 209 209 209 0
3.548477 -4.838832 28.112313 209 209 209 0
3.683320 -4.874983 28.322339 209 209 209 0
3.806433 -4.893985 28.432739 209 209 209 0
3.907540 -4.884425 28.377199 209 209 209 0
4.024426 -4.894572 28.436147 208 208 208 0
4.164110 -4.931183 28.648848 208 208 208 0
4.275971 -4.933813 28.664125 207 207 207 0
4.384564 -4.932634 28.657278 207 207 207 0
4.508719 -4.948594 28.750002 207 207 207 0
4.656292 -4.988884 28.984075 207 207 207 0
4.771510 -4.993441 29.010548 206 206 206 0
4.898567 -5.009898 29.106159 206 206 206 0
5.056637 -5.056637 29.377703 206 206 206 0
5.187537 -5.074764 29.483018 204 204 204 0
5.317529 -5.091251 29.578802 203 203 203 0
5.478278 -5.135886 29.838118 203 203 203 0
5.631885 -5.172140 30.048741 202 202 202 0
5.772672 -5.195405 30.183905 200 200 200 0
5.957865 -5.256939 30.541405 200 200 200 0
6.102847 -5.281309 30.682989 199 199 199 0
6.274606 -5.327495 30.951317 195 195 195 0
6.451444 -5.376204 31.234298 194 194 194 0
6.656920 -5.446571 31.643114 191 191 191 0
6.891419 -5.537748 32.172826 185 185 185 0
7.137463 -5.634839 32.736900 147 147 147 0
-6.715191 -3.693355 21.945069 194 194 194 0
-6.655602 -3.706918 22.025654 193 193 193 0
-6.534244 -3.685984 21.901271 194 194 194 0
-6.410206 -3.662975 21.764557 194 194 194 0
-6.320259 -3.659097 21.741516 194 194 194 0
-6.224685 -3.651815 21.698248 195 195 195 0
-6.192617 -3.682097 21.878173 195 195 195 0
-6.140303 -3.701004 21.990520 194 194 194 0
-6.059610 -3.703095 22.002942 195 195 195 0
-5.968248 -3.698633 21.976428 195 195 195 0
-5.864392 -3.686189 21.902490 195 195 195 0
-5.787316 -3.690462 21.927880 195 195 195 0
-5.715101 -3.698007 21.972707 195 195 195 0
-5.678583 -3.729219 22.158164 195 195 195 0
-5.625691 -3.750461 22.284378 196 196 196 0
-5.513118 -3.731957 22.174431 195 195 195 0
-5.404988 -3.715930 22.079201 196 196 196 0
-5.335374 -3.726293 22.140779 196 196 196 0
-5.275059 -3.743590 22.243556 197 197 197 0
-5.231991 -3.773895 22.423620 197 197 197 0
-5.147561 -3.774878 22.429459 197 197 197 0
-5.003365 -3.731323 22.170665 197 197 197 0
-4.888396 -3.708438 22.034690 197 197 197 0
-4.783936 -3.692863 21.942143 197 197 197 0
-4.569573 -3.590379 21.333207 198 198 198 0
-4.714155 -3.771324 22.408342 197 197 197 0
-4.612282 -3.758156 22.330098 197 197 197 0
-4.479595 -3.718909 22.096906 198 198 198 0
-4.354697 -3.684744 21.893903 198 198 198 0
-4.246705 -3.663824 21.769603 198 198 198 0
-4.171418 -3.670848 21.811335 199 199 199 0
-4.138019 -3.715772 22.078266 199 199 199 0
-4.064348 -3.725652 22.136969 198 198 198 0
-3.952618 -3.700323 21.986472 199 199 199 0
-3.845955 -3.678740 21.858226 198 198 198 0
-3.752334 -3.668949 21.800052 198 198 198 0
-3.681212 -3.681212 21.872916 199 199 199 0
-3.615785 -3.699873 21.983800 199 199 199 0
-3.536937 -3.705363 22.016416 199 199 199 0
-3.445162 -3.697247 21.968191 200 200 200 0
-3.349041 -3.683945 21.889158 200 200 200 0
-3.257689 -3.675342 21.838039 200 200 200 0
-3.190178 -3.693890 21.948246 200 200 200 0
-3.114870 -3.704170 22.009328 200 200 200 0
-3.030902 -3.704435 22.010906 200 200 200 0
-2.935802 -3.690722 21.929425 200 200 200 0
-2.835170 -3.669043 21.800615 201 201 201 0
-2.740050 -3.653401 21.707669 200 200 200 0
-2.651401 -3.645677 21.661774 201 201 201 0
-2.579866 -3.661745 21.757251 201 201 201 0
-2.509447 -3.680523 21.868823 201 201 201 0
-2.416692 -3.666705 21.786722 201 201 201 0
-2.321720 -3.648418 21.678060 201 201 201 0
-2.231638 -3.636744 21.608699 201 201 201 0
-2.140866 -3.623005 21.527064 202 202 202 0
-2.057413 -3.621047 21.515429 201 201 201 0
-1.978850 -3.627892 21.556101 202 202 202 0
-1.898566 -3.632039 21.580741 201 201 201 0
-1.811620 -3.623240 21.528464 202 202 202 0
-1.724354 -3.612931 21.467209 202 202 202 0
-1.644803 -3.618567 21.500695 202 202 202 0
-1.564708 -3.623535 21.530214 202 202 202 0
-1.476216 -3.608529 21.441052 202 202 202 0
-1.380818 -3.573882 21.235188 202 202 202 0
-1.807757 -4.971332 29.538514 201 201 201 0
-1.622842 -4.760336 28.284825 200 200 200 0
-1.511251 -4.749646 28.221306 200 200 200 0
-1.388359 -4.699061 27.920741 203 203 203 0
-1.275819 -4.678004 27.795628 203 203 203 0
-1.168959 -4.675835 27.782739 202 202 202 0
-1.064445 -4.683559 27.828636 202 202 202 0
-0.958597 -4.686476 27.845965 204 204 204 0
-0.846488 -4.655686 27.663019 204 204 204 0
-0.736019 -4.626402 27.489021 205 205 205 0
-0.628410 -4.608342 27.381711 205 205 205 0
-0.524728 -4.617610 27.436778 206 206 206 0
-0.421802 -4.639818 27.568731 206 206 206 0
-0.316013 -4.634854 27.539241 206 206 206 0
-0.209775 -4.615043 27.421527 206 206 206 0
-0.104550 -4.600185 27.333246 208 208 208 0
0.000000 -4.607082 27.374225 208 208 208 0
0.105175 -4.627696 27.496707 208 208 208 0
0.209966 -4.619248 27.446509 207 207 207 0
0.313595 -4.599400 27.328582 207 207 207 0
0.416659 -4.583254 27.232643 208 208 208 0
0.520681 -4.581990 27.225133 209 209 209 0
0.628999 -4.612656 27.407346 207 207 207 0
0.733568 -4.611001 27.397511 209 209 209 0
0.835806 -4.596931 27.313912 208 208 208 0
0.939562 -4.593413 27.293005 209 209 209 0
1.046871 -4.606232 27.369172 209 209 209 0
1.152529 -4.610118 27.392261 209 209 209 0
1.257690 -4.611528 27.400644 210 210 210 0
1.361551 -4.608327 27.381624 210 210 210 0
1.465752 -4.606650 27.371656 210 210 210 0
1.571414 -4.609481 27.388481 210 210 210 0
1.683250 -4.628939 27.504092 209 209 209 0
1.791219 -4.636097 27.546623 210 210 210 0
1.896672 -4.636310 27.547890 209 209 209 0
2.002853 -4.638186 27.559035 209 209 209 0
2.109877 -4.641730 27.580098 210 210 210 0
2.222941 -4.657590 27.674334 210 210 210 0
2.324853 -4.649706 27.627486 210 210 210 0
2.428888 -4.646568 27.608842 211 211 211 0
2.536419 -4.650102 27.629837 211 211 211 0
2.645958 -4.656885 27.670146 210 210 210 0
2.760230 -4.671158 27.754950 210 210 210 0
2.874166 -4.683827 27.830223 210 210 210 0
2.985082 -4.690843 27.871916 209 209 209 0
3.090677 -4.689303 27.862761 210 210 210 0
3.205521 -4.701430 27.934822 210 210 210 0
3.328224 -4.723931 28.068515 209 209 209 0
3.434432 -4.722344 28.059086 210 210 210 0
3.549721 -4.732961 28.122170 209 209 209 0
3.685386 -4.769323 28.338226 209 209 209 0
3.805995 -4.784679 28.429464 209 209 209 0
3.907730 -4.776115 28.378580 209 209 209 0
4.023750 -4.785000 28.431370 209 209 209 0
4.164353 -4.821883 28.650521 209 209 209 0
4.275316 -4.823434 28.659736 208 208 208 0
4.384931 -4.823424 28.659681 208 208 208 0
4.505141 -4.834786 28.727189 207 207 207 0
4.654881 -4.876542 28.975296 207 207 207 0
4.767285 -4.878152 28.984862 206 206 206 0
4.895843 -4.895843 29.089979 206 206 206 0
5.052458 -4.940182 29.353426 206 206 206 0
5.184464 -4.959052 29.465550 205 205 205 0
5.316585 -4.977228 29.573548 203 203 203 0
5.474218 -5.018033 29.816004 203 203 203 0
5.631348 -5.056721 30.045876 203 203 203 0
5.770355 -5.077913 30.171792 201 201 201 0
5.991115 -5.168805 30.711856 200 200 200 0
6.098210 -5.160024 30.659676 199 199 199 0
6.271040 -5.206146 30.933726 196 196 196 0
6.446386 -5.252611 31.209811 195 195 195 0
6.648047 -5.318438 31.600937 192 192 192 0
6.870933 -5.398590 32.077186 186 186 186 0
7.139259 -5.511007 32.745138 159 159 159 0
7.200495 -5.462444 32.456592 75 75 75 0
-6.652225 -3.575571 21.739296 194 194 194 0
-6.619575 -3.603060 21.906430 193 193 193 0
-6.511513 -3.589680 21.825082 194 194 194 0
-6.393683 -3.570498 21.708456 195 195 195 0
-6.303958 -3.566713 21.685441 194 194 194 0
-6.210926 -3.560931 21.650285 195 195 195 0
-6.169879 -3.585200 21.797843 195 195 195 0
-6.121425 -3.605771 21.922912 195 195 195 0
-6.047861 -3.611917 21.960281 195 195 195 0
-5.947188 -3.601818 21.898878 196 196 196 0
-5.848314 -3.592536 21.842443 195 195 195 0
-5.785953 -3.605739 21.922718 195 195 195 0
-5.691071 -3.598766 21.880320 196 196 196 0
-5.667381 -3.637274 22.114452 196 196 196 0
-5.613638 -3.657370 22.236632 196 196 196 0
-5.499399 -3.638064 22.119252 196 196 196 0
-5.390470 -3.621722 22.019895 197 197 197 0
-5.327195 -3.636022 22.106836 196 196 196 0
-5.254907 -3.644532 22.158577 197 197 197 0
-5.217698 -3.678049 22.362362 196 196 196 0
-5.133744 -3.679183 22.369256 196 196 196 0
-4.998946 -3.643300 22.151084 196 196 196 0
-4.880806 -3.618528 22.000477 197 197 197 0
-4.774549 -3.601852 21.899088 197 197 197 0
-4.718741 -3.623319 22.029603 197 197 197 0
-4.708925 -3.681523 22.383480 197 197 197 0
-4.606128 -3.667843 22.300305 198 198 198 0
-4.470959 -3.627382 22.054305 197 197 197 0
-4.345473 -3.593372 21.847524 198 198 198 0
-4.243281 -3.577668 21.752048 198 198 198 0
-4.160558 -3.578080 21.754552 198 198 198 0
-4.127603 -3.622182 22.022692 199 199 199 0
-4.051840 -3.629773 22.068843 198 198 198 0
-3.945829 -3.610014 21.948709 199 199 199 0
-3.839340 -3.588948 21.820632 199 199 199 0
-3.743633 -3.577249 21.749501 198 198 198 0
-3.669533 -3.586134 21.803523 199 199 199 0
-3.606781 -3.606781 21.929050 199 199 199 0
-3.528615 -3.612629 21.964610 199 199 199 0
-3.438631 -3.606369 21.926548 200 200 200 0
-3.342980 -3.593703 21.849542 200 200 200 0
-3.251169 -3.584622 21.794326 199 199 199 0
-3.180651 -3.599158 21.882704 200 200 200 0
-3.104223 -3.607611 21.934097 200 200 200 0
-3.020416 -3.607719 21.934753 200 200 200 0
-2.930638 -3.600498 21.890851 201 201 201 0
-2.830348 -3.579558 21.763536 201 201 201 0
-2.734389 -3.562991 21.662815 200 200 200 0
-2.645692 -3.555149 21.615132 201 201 201 0
-2.569781 -3.564535 21.672198 201 201 201 0
-2.503854 -3.588857 21.820075 201 201 201 0
-2.411629 -3.575864 21.741077 202 202 202 0
-2.316903 -3.558100 21.633077 201 201 201 0
-2.224000 -3.541926 21.534740 201 201 201 0
-2.135646 -3.532030 21.474572 201 201 201 0
-2.051767 -3.529039 21.456384 201 201 201 0
-1.973740 -3.536284 21.500436 202 202 202 0
-1.893596 -3.540201 21.524250 202 202 202 0
-1.808034 -3.533885 21.485851 202 202 202 0
-1.721060 -3.524075 21.426206 202 202 202 0
-1.640201 -3.526433 21.440540 202 202 202 0
-1.561835 -3.534679 21.490679 203 203 203 0
-1.478574 -3.532148 21.475291 202 202 202 0
-1.387441 -3.509410 21.337043 202 202 202 0
-1.265340 -3.400601 20.675489 202 202 202 0
-1.642601 -4.708790 28.629216 200 200 200 0
-1.512994 -4.647053 28.253855 200 200 200 0
-1.387990 -4.591042 27.913313 202 202 202 0
-1.275528 -4.570641 27.789277 203 203 203 0
-1.167580 -4.564175 27.749963 203 203 203 0
-1.063201 -4.571766 27.796114 203 203 203 0
-0.957132 -4.572963 27.803395 203 203 203 0
-0.845601 -4.545103 27.634004 204 204 204 0
-0.735638 -4.518917 27.474798 205 205 205 0
-0.628470 -4.504032 27.384294 206 206 206 0
-0.524887 -4.514028 27.445071 205 205 205 0
-0.421791 -4.534252 27.568034 205 205 205 0
-0.316210 -4.532341 27.556415 206 206 206 0
-0.209604 -4.506483 27.399197 206 206 206 0
-0.104546 -4.495483 27.332317 207 207 207 0
0.000000 -4.498286 27.349359 207 207 207 0
0.105250 -4.525753 27.516359 207 207 207 0
0.209953 -4.513990 27.444840 207 207 207 0
0.313464 -4.492982 27.317110 206 206 206 0
0.416511 -4.477492 27.222932 207 207 207 0
0.520835 -4.479184 27.233220 208 208 208 0
0.629376 -4.510527 27.423783 208 208 208 0
0.734581 -4.512423 27.435313 208 208 208 0
0.835998 -4.493488 27.320189 208 208 208 0
0.940288 -4.492486 27.314096 210 210 210 0
1.046551 -4.500169 27.360811 209 209 209 0
1.153375 -4.508648 27.412358 210 210 210 0
1.258965 -4.511292 27.428434 210 210 210 0
1.361953 -4.504922 27.389708 210 210 210 0
1.468137 -4.509277 27.416187 210 210 210 0
1.572686 -4.508368 27.410657 210 210 210 0
1.682909 -4.522819 27.498517 210 210 210 0
1.791334 -4.531021 27.548389 210 210 210 0
1.896647 -4.530879 27.547521 209 209 209 0
2.002448 -4.531855 27.553459 209 209 209 0
2.110456 -4.537480 27.587658 211 211 211 0
2.221825 -4.549452 27.660446 210 210 210 0
2.325250 -4.544807 27.632205 209 209 209 0
2.429198 -4.541544 27.612367 211 211 211 0
2.535737 -4.543195 27.622407 210 210 210 0
2.646253 -4.551555 27.673230 209 209 209 0
2.760147 -4.564859 27.754118 210 210 210 0
2.870547 -4.571613 27.795182 210 210 210 0
2.983491 -4.581790 27.857062 209 209 209 0
3.092138 -4.584895 27.875937 210 210 210 0
3.203378 -4.591508 27.916148 210 210 210 0
3.325882 -4.613321 28.048767 209 209 209 0
3.433038 -4.613145 28.047699 210 210 210 0
3.548403 -4.623677 28.111731 209 209 209 0
3.683930 -4.659088 28.327027 209 209 209 0
3.805841 -4.675748 28.428319 210 210 210 0
3.906848 -4.666512 28.372169 209 209 209 0
4.023697 -4.676188 28.430997 209 209 209 0
4.164081 -4.711987 28.648650 208 208 208 0
4.276703 -4.715339 28.669034 207 207 207 0
4.382312 -4.710986 28.642563 208 208 208 0
4.503472 -4.723154 28.716544 208 208 208 0
4.650528 -4.761255 28.948196 208 208 208 0
4.768631 -4.768631 28.993043 206 206 206 0
4.895637 -4.784372 29.088752 205 205 205 0
5.051087 -4.826594 29.345459 206 206 206 0
5.181286 -4.843376 29.447490 205 205 205 0
5.312622 -4.860484 29.551507 203 203 203 0
5.472465 -4.902417 29.806457 203 203 203 0
5.629064 -4.939791 30.033686 203 203 203 0
5.774634 -4.966185 30.194164 201 201 201 0
6.125283 -5.164454 31.399631 200 200 200 0
6.093624 -5.038958 30.636620 199 199 199 0
6.264921 -5.082861 30.903547 197 197 197 0
6.442498 -5.130138 31.190987 196 196 196 0
6.636181 -5.188287 31.544531 191 191 191 0
6.861527 -5.268673 32.033273 188 188 188 0
7.142001 -5.387825 32.757716 167 167 167 0
7.279522 -5.396887 32.812812 82 82 82 0
-6.660965 -3.497007 21.767859 194 194 194 0
-6.585376 -3.501086 21.793251 194 194 194 0
-6.503275 -3.501763 21.797470 194 194 194 0
-6.392475 -3.486804 21.704353 194 194 194 0
-6.291234 -3.476734 21.641671 195 195 195 0
-6.189458 -3.466097 21.575453 194 194 194 0
-6.142421 -3.486239 21.700832 195 195 195 0
-6.100261 -3.509739 21.847117 195 195 195 0
-6.037115 -3.521651 21.921262 195 195 195 0
-5.929681 -3.507699 21.834416 195 195 195 0
-5.839742 -3.503845 21.810429 195 195 195 0
-5.765709 -3.509562 21.846013 196 196 196 0
-5.692911 -3.516210 21.887393 196 196 196 0
-5.643572 -3.537761 22.021546 196 196 196 0
-5.593058 -3.559219 22.155112 196 196 196 0
-5.488499 -3.546414 22.075409 196 196 196 0
-5.380217 -3.530767 21.978011 196 196 196 0
-5.303458 -3.535638 22.008332 196 196 196 0
-5.242422 -3.551318 22.105931 197 197 197 0
-5.207523 -3.585508 22.318752 197 197 197 0
-5.118421 -3.582895 22.302488 197 197 197 0
-4.996884 -3.557104 22.141947 197 197 197 0
-4.873424 -3.529031 21.967203 197 197 197 0
-4.764199 -3.510462 21.851617 197 197 197 0
-4.706165 -3.529624 21.970891 197 197 197 0
-4.695452 -3.585618 22.319441 198 198 198 0
-4.593995 -3.573107 22.241563 198 198 198 0
-4.472195 -3.544004 22.060402 198 198 198 0
-4.342845 -3.507683 21.834314 199 199 199 0
-4.235558 -3.488106 21.712458 198 198 198 0
-4.149924 -3.485936 21.698949 198 198 198 0
-4.119922 -3.531361 21.981708 199 199 199 0
-4.043900 -3.538413 22.025601 198 198 198 0
-3.936291 -3.517536 21.895652 199 199 199 0
-3.827483 -3.494658 21.753242 199 199 199 0
-3.729500 -3.480867 21.667395 199 199 199 0
-3.658790 -3.492482 21.739694 199 199 199 0
-3.597630 -3.513964 21.873415 199 199 199 0
-3.514946 -3.514946 21.879528 200 200 200 0
-3.431943 -3.515649 21.883902 200 200 200 0
-3.333949 -3.500646 21.790515 200 200 200 0
-3.239855 -3.489075 21.718488 200 200 200 0
-3.169344 -3.502959 21.804912 200 200 200 0
-3.094617 -3.512808 21.866221 200 200 200 0
-3.015055 -3.517565 21.895827 200 200 200 0
-2.928114 -3.513737 21.872002 200 200 200 0
-2.825864 -3.490773 21.729054 200 200 200 0
-2.729450 -3.473846 21.623689 201 201 201 0
-2.639733 -3.464649 21.566443 201 201 201 0
-2.565821 -3.476274 21.638803 201 201 201 0
-2.503889 -3.505444 21.820383 201 201 201 0
-2.407500 -3.486724 21.703855 201 201 201 0
-2.313714 -3.470571 21.603308 201 201 201 0
-2.219927 -3.453219 21.495297 201 201 201 0
-2.129908 -3.440621 21.416876 202 202 202 0
-2.046047 -3.437360 21.396574 202 202 202 0
-1.966863 -3.442009 21.425518 201 201 201 0
-1.888524 -3.448609 21.466597 202 202 202 0
-1.803720 -3.443466 21.434586 202 202 202 0
-1.717149 -3.434299 21.377520 202 202 202 0
-1.635723 -3.435019 21.382006 202 202 202 0
-1.559194 -3.446639 21.454335 202 202 202 0
-1.479524 -3.452222 21.489091 202 202 202 0
-1.391584 -3.438031 21.400754 203 203 203 0
-1.278836 -3.356946 20.896020 203 203 203 0
-1.652444 -4.626843 28.800768 201 201 201 0
-1.515547 -4.546642 28.301535 200 200 200 0
-1.389675 -4.489719 27.947209 203 203 203 0
-1.274725 -4.461539 27.771796 201 201 201 0
-1.166666 -4.454543 27.728251 203 203 203 0
-1.063384 -4.466213 27.800891 202 202 202 0
-0.956277 -4.462628 27.778573 201 201 201 0
-0.846094 -4.441991 27.650115 204 204 204 0
-0.736327 -4.417964 27.500555 204 204 204 0
-0.628807 -4.401647 27.398988 206 206 206 0
-0.524972 -4.409762 27.449496 206 206 206 0
-0.422068 -4.431713 27.586138 207 207 207 0
-0.316333 -4.428660 27.567135 205 205 205 0
-0.209740 -4.404538 27.416982 207 207 207 0
-0.104544 -4.390866 27.331878 207 207 207 0
0.000000 -4.400672 27.392916 207 207 207 0
0.105219 -4.419202 27.508263 207 207 207 0
0.210054 -4.411139 27.458068 207 207 207 0
0.313435 -4.388085 27.314568 209 209 209 0
0.416557 -4.373844 27.225920 208 208 208 0
0.521040 -4.376738 27.243935 208 208 208 0
0.629391 -4.405739 27.424459 209 209 209 0
0.734336 -4.406017 27.426188 209 209 209 0
0.836788 -4.393139 27.346027 208 208 208 0
0.940489 -4.388948 27.319938 209 209 209 0
1.047174 -4.398129 27.377088 209 209 209 0
1.154376 -4.407618 27.436154 209 209 209 0
