ply
    format ascii 1.0
    element vertex 15191
    property float x
    property float y
    property float z
    property uchar red
    property uchar green
    property uchar blue
    property uchar alpha
    end_header
0.171722 2.060664 22.447317 214 214 214 0
0.258353 2.066827 22.514451 214 214 214 0
0.345294 2.071761 22.568208 214 214 214 0
0.432531 2.076150 22.616017 214 214 214 0
0.519495 2.077980 22.635943 213 213 213 0
0.606868 2.080691 22.665478 214 214 214 0
0.697807 2.093421 22.804149 214 214 214 0
0.789067 2.104178 22.921334 214 214 214 0
0.876683 2.104039 22.919818 214 214 214 0
0.963095 2.101297 22.889951 214 214 214 0
1.051224 2.102449 22.902490 213 213 213 0
1.144593 2.113094 23.018456 214 214 214 0
1.237419 2.121290 23.107730 214 214 214 0
1.321343 2.114150 23.029951 214 214 214 0
1.406368 2.109552 22.979867 213 213 213 0
1.495871 2.111818 23.004554 214 214 214 0
1.591917 2.122556 23.121528 214 214 214 0
1.686411 2.130204 23.204833 214 214 214 0
1.776555 2.131866 23.222945 214 214 214 0
1.866972 2.133682 23.242723 214 214 214 0
1.960440 2.138662 23.296970 214 214 214 0
2.055381 2.144746 23.363243 214 214 214 0
2.145272 2.145272 23.368976 214 214 214 0
2.236123 2.146678 23.384293 213 213 213 0
2.331239 2.151913 23.441319 214 214 214 0
2.426403 2.156803 23.494585 214 214 214 0
2.528539 2.167319 23.609140 213 213 213 0
2.625982 2.173226 23.673489 214 214 214 0
2.715673 2.172539 23.665997 214 214 214 0
2.809138 2.174816 23.690808 213 213 213 0
2.904298 2.178223 23.727923 213 213 213 0
3.006019 2.186195 23.814766 214 214 214 0
3.093531 2.183669 23.787247 213 213 213 0
3.187651 2.185818 23.810652 213 213 213 0
3.281253 2.187502 23.828997 214 214 214 0
3.377379 2.190732 23.864186 214 214 214 0
3.477617 2.196389 23.925811 214 214 214 0
3.576969 2.201212 23.978343 214 214 214 0
3.676691 2.206015 24.030660 214 214 214 0
3.769202 2.206362 24.034444 214 214 214 0
3.868634 2.210648 24.081130 214 214 214 0
3.966597 2.213914 24.116715 213 213 213 0
4.070086 2.220047 24.183515 214 214 214 0
4.166457 2.222110 24.205993 214 214 214 0
4.263474 2.224421 24.231170 214 214 214 0
4.381184 2.237200 24.370375 214 214 214 0
4.490151 2.245075 24.456158 213 213 213 0
4.579231 2.242889 24.432337 214 214 214 0
4.669231 2.241231 24.414282 214 214 214 0
4.772545 2.245904 24.465182 214 214 214 0
4.890666 2.257230 24.588567 213 213 213 0
4.980895 2.255500 24.569713 213 213 213 0
5.065954 2.251535 24.526524 214 214 214 0
5.162614 2.252777 24.540053 213 213 213 0
5.282196 2.263798 24.660111 214 214 214 0
5.395327 2.271717 24.746370 214 214 214 0
5.492147 2.272613 24.756128 214 214 214 0
5.588652 2.273350 24.764159 214 214 214 0
5.702092 2.280837 24.845718 213 213 213 0
5.803907 2.283505 24.874777 213 213 213 0
5.905292 2.285919 24.901083 214 214 214 0
6.000086 2.285747 24.899207 213 213 213 0
6.114834 2.293063 24.978899 214 214 214 0
6.239328 2.303752 25.095338 213 213 213 0
6.349301 2.308837 25.150726 213 213 213 0
6.441454 2.307386 25.134928 214 214 214 0
6.546672 2.310590 25.169827 213 213 213 0
7.087661 2.465273 26.854831 213 213 213 0
6.765502 2.319601 25.267980 213 213 213 0
6.860753 2.319128 25.262829 213 213 213 0
6.958956 2.319652 25.268540 213 213 213 0
7.071717 2.324948 25.326232 213 213 213 0
7.189871 2.331850 25.401416 213 213 213 0
7.289894 2.332766 25.411394 214 214 214 0
7.401211 2.337225 25.459963 213 213 213 0
7.508159 2.340205 25.492432 213 213 213 0
7.620069 2.344637 25.540705 213 213 213 0
7.737264 2.350561 25.605243 213 213 213 0
-1.850422 2.102753 21.989569 130 130 130 0
-1.761964 2.097577 21.935442 209 209 209 0
-1.668727 2.085909 21.813429 213 213 213 0
-1.581158 2.080471 21.756555 214 214 214 0
-1.499150 2.082153 21.774146 213 213 213 0
-1.414414 2.080021 21.751849 214 214 214 0
-1.333770 2.084016 21.793631 213 213 213 0
-1.253003 2.088338 21.838828 213 213 213 0
-1.172329 2.093444 21.892224 214 214 214 0
-1.091309 2.098671 21.946887 213 213 213 0
-1.012853 2.110110 22.066509 213 213 213 0
-0.930366 2.114468 22.112081 214 214 214 0
-0.844862 2.112156 22.087908 213 213 213 0
-0.759486 2.109684 22.062057 214 214 214 0
-0.675933 2.112291 22.089319 214 214 214 0
-0.594811 2.124324 22.215153 214 214 214 0
-0.510340 2.126415 22.237020 214 214 214 0
-0.424917 2.124587 22.217899 214 214 214 0
-0.339707 2.123167 22.203054 214 214 214 0
-0.254646 2.122049 22.191365 214 214 214 0
-0.170615 2.132685 22.302589 214 214 214 0
-0.085806 2.145149 22.432931 214 214 214 0
0.000000 2.144747 22.428724 214 214 214 0
0.085732 2.143291 22.413501 214 214 214 0
0.171695 2.146190 22.443812 214 214 214 0
0.258304 2.152531 22.510133 213 213 213 0
0.345013 2.156332 22.549872 213 213 213 0
0.432837 2.164184 22.631988 214 214 214 0
0.519492 2.164548 22.635801 213 213 213 0
0.606879 2.167426 22.665895 214 214 214 0
0.697665 2.180202 22.799502 214 214 214 0
0.788788 2.191078 22.913230 214 214 214 0
0.876294 2.190735 22.909648 214 214 214 0
0.963226 2.189150 22.893073 214 214 214 0
1.050772 2.189109 22.892641 214 214 214 0
1.143385 2.198818 22.994171 214 214 214 0
1.236955 2.208848 23.099067 214 214 214 0
1.321018 2.201696 23.024272 213 213 213 0
1.405618 2.196278 22.967609 214 214 214 0
1.494800 2.198236 22.988085 214 214 214 0
1.589691 2.207904 23.089192 214 214 214 0
1.685502 2.217766 23.192321 214 214 214 0
1.774875 2.218594 23.200978 214 214 214 0
1.864816 2.220019 23.215886 214 214 214 0
1.958957 2.226088 23.279351 214 214 214 0
2.052321 2.230784 23.328462 214 214 214 0
2.144845 2.234214 23.364326 214 214 214 0
2.236802 2.236802 23.391393 214 214 214 0
2.328560 2.239000 23.414381 214 214 214 0
2.424723 2.245114 23.478315 214 214 214 0
2.527176 2.256407 23.596416 213 213 213 0
2.625683 2.263520 23.670799 214 214 214 0
2.714883 2.262402 23.659111 214 214 214 0
2.810358 2.266418 23.701100 214 214 214 0
2.904800 2.269375 23.732028 214 214 214 0
3.004687 2.276278 23.804215 214 214 214 0
3.094823 2.275605 23.797179 214 214 214 0
3.186844 2.276317 23.804626 213 213 213 0
3.278822 2.276960 23.811341 214 214 214 0
3.374332 2.279954 23.842655 214 214 214 0
3.475089 2.286243 23.908424 214 214 214 0
3.576997 2.292947 23.978529 214 214 214 0
3.675349 2.297093 24.021890 214 214 214 0
3.768689 2.297981 24.031172 214 214 214 0
3.868073 2.302425 24.077643 213 213 213 0
3.964340 2.304849 24.102996 214 214 214 0
4.066201 2.310342 24.160436 213 213 213 0
4.163190 2.312883 24.187013 214 214 214 0
4.260486 2.315481 24.214184 214 214 214 0
4.379235 2.329380 24.359530 214 214 214 0
4.486914 2.336934 24.438530 214 214 214 0
4.576656 2.335029 24.418599 214 214 214 0
4.668580 2.334290 24.410878 214 214 214 0
4.768681 2.337589 24.445373 213 213 213 0
4.888484 2.350233 24.577596 213 213 213 0
4.976979 2.347632 24.550395 214 214 214 0
5.065516 2.345146 24.524406 213 213 213 0
5.160157 2.345526 24.528375 214 214 214 0
5.279952 2.357122 24.649637 213 213 213 0
5.392682 2.365211 24.734237 214 214 214 0
5.490703 2.366682 24.749617 214 214 214 0
5.585867 2.366893 24.751818 213 213 213 0
5.699535 2.374806 24.834576 214 214 214 0
5.801803 2.377788 24.865758 213 213 213 0
5.899938 2.379007 24.878506 213 213 213 0
5.997717 2.380046 24.889373 214 214 214 0
6.113837 2.388218 24.974825 213 213 213 0
6.238456 2.399406 25.091829 213 213 213 0
6.347392 2.404315 25.143163 213 213 213 0
6.435085 2.401151 25.110076 213 213 213 0
6.535061 2.402596 25.125188 213 213 213 0
6.476806 2.346669 24.540327 213 213 213 0
6.766184 2.416494 25.270528 213 213 213 0
6.857324 2.414551 25.250203 213 213 213 0
6.954206 2.414655 25.251292 213 213 213 0
7.067745 2.420461 25.312006 213 213 213 0
7.189812 2.428991 25.401209 214 214 214 0
7.287123 2.429041 25.401736 214 214 214 0
7.398907 2.433851 25.452038 213 213 213 0
7.502519 2.435883 25.473285 213 213 213 0
7.615299 2.440801 25.524715 213 213 213 0
7.731343 2.446628 25.585648 213 213 213 0
-1.849400 2.185654 21.977421 133 133 133 0
-1.759627 2.178585 21.906338 210 210 210 0
-1.666794 2.166832 21.788151 214 214 214 0
-1.580138 2.162294 21.742520 214 214 214 0
-1.499112 2.165384 21.773592 213 213 213 0
-1.414484 2.163329 21.752930 213 213 213 0
-1.332928 2.166008 21.779873 214 214 214 0
-1.252447 2.170908 21.829143 214 214 214 0
-1.173172 2.178748 21.907978 214 214 214 0
-1.091285 2.182570 21.946405 214 214 214 0
-1.012108 2.192901 22.050282 213 213 213 0
-0.929845 2.197816 22.099710 214 214 214 0
-0.844238 2.195018 22.071576 214 214 214 0
-0.759290 2.193504 22.056349 214 214 214 0
-0.675187 2.194359 22.064944 213 213 213 0
-0.594311 2.207439 22.196473 213 213 213 0
-0.510071 2.210310 22.225336 213 213 213 0
-0.424927 2.209623 22.218428 214 214 214 0
-0.339724 2.208205 22.204176 214 214 214 0
-0.254541 2.206019 22.182188 214 214 214 0
-0.170661 2.218595 22.308650 214 214 214 0
-0.085724 2.228831 22.411578 213 213 213 0
0.000000 2.229660 22.419911 213 213 213 0
0.085674 2.227528 22.398475 214 214 214 0
0.171632 2.231221 22.435601 214 214 214 0
0.258088 2.236766 22.491367 214 214 214 0
0.345160 2.243540 22.559482 213 213 213 0
0.432616 2.249605 22.620460 213 213 213 0
0.518998 2.248992 22.614299 213 213 213 0
0.607188 2.255270 22.677426 214 214 214 0
0.697328 2.266317 22.788510 214 214 214 0
0.788586 2.278138 22.907372 213 213 213 0
0.876392 2.278619 22.912208 214 214 214 0
0.962790 2.275685 22.882701 214 214 214 0
1.050441 2.275956 22.885435 214 214 214 0
1.142796 2.285593 22.982331 214 214 214 0
1.236213 2.295824 23.085211 213 213 213 0
1.321220 2.290114 23.027795 214 214 214 0
1.405324 2.283652 22.962815 214 214 214 0
1.494236 2.285303 22.979413 214 214 214 0
1.589408 2.295811 23.085080 214 214 214 0
1.685050 2.305858 23.186107 214 214 214 0
1.774202 2.306462 23.192177 214 214 214 0
1.864172 2.308023 23.207869 214 214 214 0
1.956706 2.312471 23.252602 214 214 214 0
2.052129 2.319798 23.326273 213 213 213 0
2.143878 2.322534 23.353791 213 213 213 0
2.235838 2.325271 23.381312 214 214 214 0
2.326398 2.326398 23.392636 214 214 214 0
2.426060 2.336206 23.491266 214 214 214 0
2.526717 2.346237 23.592127 214 214 214 0
2.624945 2.353399 23.664147 214 214 214 0
2.715402 2.353348 23.663632 215 215 215 0
2.809752 2.356566 23.695986 214 214 214 0
2.903264 2.358902 23.719481 214 214 214 0
3.004257 2.366990 23.800806 214 214 214 0
3.092418 2.364791 23.778689 213 213 213 0
3.183529 2.364908 23.779864 215 215 215 0
3.278093 2.367511 23.806046 214 214 214 0
3.373349 2.370461 23.835709 214 214 214 0
3.474386 2.377212 23.903587 213 213 213 0
3.576726 2.384484 23.976714 214 214 214 0
3.675050 2.388783 24.019936 213 213 213 0
3.768170 2.389571 24.027866 214 214 214 0
3.867298 2.394041 24.072814 214 214 214 0
3.964083 2.396887 24.101431 214 214 214 0
4.064256 2.401606 24.148875 214 214 214 0
4.161320 2.404318 24.176150 214 214 214 0
4.260800 2.408278 24.215969 213 213 213 0
4.377130 2.421391 24.347823 213 213 213 0
4.486587 2.430234 24.436746 214 214 214 0
4.576363 2.428274 24.417035 214 214 214 0
4.666600 2.426632 24.400522 214 214 214 0
4.765480 2.429460 24.428963 214 214 214 0
4.883844 2.441922 24.554268 213 213 213 0
4.973778 2.439967 24.534606 214 214 214 0
5.062993 2.437737 24.512192 214 214 214 0
5.158807 2.438709 24.521957 214 214 214 0
5.276885 2.449982 24.635316 213 213 213 0
5.389660 2.458441 24.720374 213 213 213 0
5.488581 2.460398 24.740054 213 213 213 0
5.583366 2.460466 24.740737 213 213 213 0
5.696604 2.468528 24.821804 214 214 214 0
5.796748 2.470745 24.844093 214 214 214 0
5.898099 2.473396 24.870754 214 214 214 0
5.994591 2.473958 24.876401 213 213 213 0
6.109879 2.482139 24.958658 213 213 213 0
6.238694 2.495477 25.092785 213 213 213 0
6.346699 2.500215 25.140418 213 213 213 0
6.436038 2.497567 25.113794 214 214 214 0
6.537983 2.499817 25.136420 213 213 213 0
6.647836 2.504982 25.188353 213 213 213 0
6.761766 2.511513 25.254029 213 213 213 0
6.853956 2.509899 25.237800 213 213 213 0
6.950584 2.509933 25.238143 214 214 214 0
7.063480 2.515760 25.296733 213 213 213 0
7.184841 2.524404 25.383648 213 213 213 0
7.282884 2.524733 25.386958 213 213 213 0
7.395546 2.530055 25.440474 213 213 213 0
7.498234 2.531871 25.458734 213 213 213 0
7.613701 2.537900 25.519359 213 213 213 0
7.729225 2.543796 25.578638 213 213 213 0
-1.848352 2.268432 21.964969 133 133 133 0
-1.759128 2.261736 21.900129 209 209 209 0
-1.667296 2.250849 21.794717 214 214 214 0
-1.581925 2.247999 21.767115 213 213 213 0
-1.499715 2.249572 21.782348 214 214 214 0
-1.413650 2.245209 21.740104 214 214 214 0
-1.332674 2.248887 21.775711 214 214 214 0
-1.252363 2.254254 21.827682 214 214 214 0
-1.171708 2.259723 21.880642 213 213 213 0
-1.090776 2.265458 21.936175 214 214 214 0
-1.011785 2.276517 22.043257 214 214 214 0
-0.929280 2.280961 22.086286 214 214 214 0
-0.844394 2.279864 22.075663 214 214 214 0
-0.759074 2.277222 22.050076 214 214 214 0
-0.675111 2.278500 22.062457 214 214 214 0
-0.593920 2.290833 22.181871 214 214 214 0
-0.510073 2.295328 22.225402 213 213 213 0
-0.424665 2.293193 22.204725 213 213 213 0
-0.339456 2.291325 22.186638 213 213 213 0
-0.254423 2.289808 22.171947 213 213 213 0
-0.170406 2.300487 22.275356 214 214 214 0
-0.085741 2.315019 22.416059 214 214 214 0
0.000000 2.315242 22.418222 214 214 214 0
0.085725 2.314584 22.411852 214 214 214 0
0.171590 2.316466 22.430073 214 214 214 0
0.257965 2.321681 22.480574 214 214 214 0
0.345198 2.330086 22.561955 214 214 214 0
0.432805 2.337148 22.630332 214 214 214 0
0.519004 2.335517 22.614543 214 214 214 0
0.606827 2.340618 22.663933 214 214 214 0
0.696664 2.351240 22.766787 213 213 213 0
0.788221 2.364662 22.896748 214 214 214 0
0.875856 2.364811 22.898193 214 214 214 0
0.962158 2.361661 22.867696 214 214 214 0
1.049546 2.361478 22.865919 214 214 214 0
1.142120 2.372095 22.968726 213 213 213 0
1.235246 2.382260 23.067154 214 214 214 0
1.320849 2.377528 23.021329 213 213 213 0
1.405347 2.371523 22.963182 213 213 213 0
1.494094 2.372972 22.977218 214 214 214 0
1.589024 2.383536 23.079503 214 214 214 0
1.684438 2.393675 23.177683 214 214 214 0
1.773136 2.393734 23.178250 214 214 214 0
1.863237 2.395591 23.196233 213 213 213 0
1.956503 2.401163 23.250185 214 214 214 0
2.051421 2.408190 23.318232 214 214 214 0
2.142614 2.410441 23.340023 214 214 214 0
2.233646 2.412338 23.358394 214 214 214 0
2.326122 2.415588 23.389864 214 214 214 0
2.425097 2.425097 23.481939 214 214 214 0
2.524190 2.434040 23.568534 214 214 214 0
2.622990 2.442094 23.646516 213 213 213 0
2.714200 2.442780 23.653155 215 215 215 0
2.808891 2.446453 23.688725 214 214 214 0
2.903010 2.449415 23.717402 214 214 214 0
3.002223 2.456364 23.784692 214 214 214 0
3.091522 2.455032 23.771795 214 214 214 0
3.183715 2.456008 23.781249 214 214 214 0
3.277974 2.458480 23.805184 214 214 214 0
3.371213 2.460074 23.820619 214 214 214 0
3.471553 2.466630 23.884092 214 214 214 0
3.576323 2.475916 23.974012 214 214 214 0
3.673019 2.479288 24.006659 214 214 214 0
3.766114 2.480124 24.014756 214 214 214 0
3.865608 2.485034 24.062295 214 214 214 0
3.960786 2.487005 24.081384 213 213 213 0
4.063985 2.493809 24.147264 214 214 214 0
4.158110 2.494866 24.157501 213 213 213 0
4.258695 2.499669 24.204006 214 214 214 0
4.374915 2.513249 24.335501 214 214 214 0
4.484712 2.522651 24.426537 214 214 214 0
4.573696 2.520200 24.402809 214 214 214 0
4.664325 2.518735 24.388627 213 213 213 0
4.763789 2.522006 24.420294 214 214 214 0
4.882191 2.534984 24.545958 214 214 214 0
4.972281 2.533049 24.527221 214 214 214 0
5.063032 2.531516 24.512377 214 214 214 0
5.158460 2.532335 24.520309 213 213 213 0
5.272623 2.542158 24.615422 213 213 213 0
5.387698 2.552067 24.711375 214 214 214 0
5.485539 2.553613 24.726341 213 213 213 0
5.583350 2.555092 24.740667 213 213 213 0
5.692603 2.561671 24.804369 213 213 213 0
5.793272 2.564235 24.829195 213 213 213 0
5.894371 2.566904 24.855034 214 214 214 0
5.991728 2.567883 24.864519 213 213 213 0
6.108818 2.577158 24.954322 214 214 214 0
6.235944 2.590315 25.081727 213 213 213 0
6.343474 2.595058 25.127647 214 214 214 0
6.434982 2.593202 25.109675 214 214 214 0
6.535634 2.595031 25.127389 213 213 213 0
6.649667 2.602044 25.195290 214 214 214 0
6.763564 2.608803 25.260742 213 213 213 0
6.852730 2.605968 25.233286 214 214 214 0
6.945706 2.604640 25.220427 213 213 213 0
7.057096 2.610159 25.273867 213 213 213 0
7.177516 2.618823 25.357767 213 213 213 0
7.276917 2.619690 25.366159 213 213 213 0
7.386678 2.624215 25.409970 214 214 214 0
7.494786 2.628042 25.447030 213 213 213 0
7.610706 2.634475 25.509320 213 213 213 0
7.726178 2.640592 25.568554 213 213 213 0
-1.845588 2.348930 21.932116 133 133 133 0
-1.757775 2.343700 21.883288 209 209 209 0
-1.665255 2.331357 21.768038 214 214 214 0
-1.580758 2.329539 21.751062 214 214 214 0
-1.498292 2.330676 21.761680 213 213 213 0
-1.413259 2.327721 21.734087 214 214 214 0
-1.332801 2.332402 21.777794 214 214 214 0
-1.252426 2.337862 21.828781 213 213 213 0
-1.171485 2.342970 21.876467 214 214 214 0
-1.089747 2.347147 21.915474 214 214 214 0
-1.010668 2.358224 22.018903 213 213 213 0
-0.929412 2.365775 22.089403 214 214 214 0
-0.843679 2.362301 22.056965 213 213 213 0
-0.758743 2.360533 22.040454 213 213 213 0
-0.675145 2.363008 22.063565 214 214 214 0
-0.593689 2.374757 22.173270 214 214 214 0
-0.509484 2.377594 22.199757 214 214 214 0
-0.424588 2.377692 22.200673 213 213 213 0
-0.339458 2.376204 22.186778 214 214 214 0
-0.254367 2.374097 22.167101 214 214 214 0
-0.170459 2.386421 22.282177 213 213 213 0
-0.085636 2.397815 22.388565 213 213 213 0
0.000000 2.400127 22.410150 214 214 214 0
0.085724 2.400281 22.411590 214 214 214 0
0.171582 2.402141 22.428957 213 213 213 0
0.257998 2.407986 22.483528 214 214 214 0
0.344999 2.414994 22.548964 214 214 214 0
0.432434 2.421628 22.610907 214 214 214 0
0.519014 2.422063 22.614969 214 214 214 0
0.606701 2.426805 22.659247 214 214 214 0
0.696331 2.437160 22.755926 214 214 214 0
0.787746 2.450766 22.882969 214 214 214 0
0.875918 2.452569 22.899808 214 214 214 0
0.962424 2.449806 22.874010 214 214 214 0
1.048853 2.447325 22.850839 213 213 213 0
1.142045 2.459790 22.967225 214 214 214 0
1.234857 2.469714 23.059892 214 214 214 0
1.319880 2.463775 23.004439 214 214 214 0
1.404932 2.458631 22.956408 213 213 213 0
1.493579 2.460012 22.969300 213 213 213 0
1.587244 2.469046 23.053649 214 214 214 0
1.682714 2.479789 23.153960 214 214 214 0
1.773073 2.482302 23.177424 215 215 215 0
1.862412 2.483216 23.185954 214 214 214 0
1.956778 2.490445 23.253452 214 214 214 0
2.051091 2.496980 23.314471 214 214 214 0
2.142257 2.499299 23.336129 214 214 214 0
2.233600 2.501633 23.357914 214 214 214 0
2.326670 2.505645 23.395377 214 214 214 0
2.424602 2.514402 23.477141 214 214 214 0
2.522968 2.522968 23.557121 213 213 213 0
2.620768 2.530396 23.626484 214 214 214 0
2.713342 2.532453 23.645684 214 214 214 0
2.805818 2.534287 23.662809 214 214 214 0
2.901462 2.538779 23.704754 214 214 214 0
3.001828 2.547005 23.781562 214 214 214 0
3.090840 2.545398 23.766553 214 214 214 0
3.180926 2.544741 23.760421 213 213 213 0
3.275094 2.547295 23.784269 214 214 214 0
3.369097 2.549587 23.805667 214 214 214 0
3.470923 2.557522 23.879756 213 213 213 0
3.575249 2.566845 23.966810 214 214 214 0
3.671878 2.570315 23.999206 214 214 214 0
3.764554 2.570915 24.004807 213 213 213 0
3.863550 2.575700 24.049488 214 214 214 0
3.959678 2.578395 24.074647 213 213 213 0
4.062133 2.584994 24.136261 214 214 214 0
4.159156 2.587919 24.163580 214 214 214 0
4.255092 2.590056 24.183532 214 214 214 0
4.373363 2.605408 24.326872 214 214 214 0
4.484175 2.615769 24.423611 214 214 214 0
4.574501 2.614000 24.407100 213 213 213 0
4.662237 2.610853 24.377708 214 214 214 0
4.760134 2.613407 24.401558 214 214 214 0
4.877750 2.626481 24.523628 213 213 213 0
4.970671 2.626015 24.519279 214 214 214 0
5.060638 2.624035 24.500790 213 213 213 0
5.155841 2.624792 24.507859 213 213 213 0
5.269771 2.634885 24.602103 214 214 214 0
5.386953 2.646223 24.707960 214 214 214 0
5.483392 2.647155 24.716663 214 214 214 0
5.579409 2.647855 24.723206 213 213 213 0
5.691814 2.656180 24.800933 213 213 213 0
5.787757 2.656675 24.805560 213 213 213 0
5.893465 2.661565 24.851210 213 213 213 0
5.987298 2.661022 24.846139 213 213 213 0
6.105339 2.671086 24.940109 214 214 214 0
6.233637 2.685259 25.072445 213 213 213 0
6.336485 2.688206 25.099961 213 213 213 0
6.433084 2.688453 25.102270 213 213 213 0
6.532884 2.690011 25.116817 213 213 213 0
6.645959 2.696911 25.181239 213 213 213 0
6.759103 2.703641 25.244084 213 213 213 0
6.850593 2.701642 25.225419 213 213 213 0
6.941281 2.699387 25.204361 213 213 213 0
7.052873 2.705211 25.258744 213 213 213 0
7.175568 2.715080 25.350884 213 213 213 0
7.276008 2.716376 25.362989 214 214 214 0
7.386680 2.721408 25.409977 213 213 213 0
7.493221 2.724808 25.441714 213 213 213 0
7.606489 2.730534 25.495186 213 213 213 0
7.720130 2.736248 25.548538 213 213 213 0
-1.847716 2.435625 21.957405 134 134 134 0
-1.758063 2.427802 21.886877 210 210 210 0
-1.664845 2.414025 21.762678 214 214 214 0
-1.581378 2.413682 21.759583 214 214 214 0
-1.498875 2.414854 21.770153 214 214 214 0
-1.414019 2.412150 21.745774 214 214 214 0
-1.332240 2.414684 21.768620 214 214 214 0
-1.250944 2.418491 21.802937 213 213 213 0
-1.171382 2.426433 21.874538 214 214 214 0
-1.089908 2.431333 21.918712 213 213 213 0
-1.011271 2.443905 22.032052 214 214 214 0
-0.928857 2.448805 22.076221 213 213 213 0
-0.843436 2.445966 22.050625 214 214 214 0
-0.758658 2.444563 22.037984 214 214 214 0
-0.675049 2.447054 22.060441 214 214 214 0
-0.593235 2.457687 22.156295 214 214 214 0
-0.509116 2.460726 22.183693 214 214 214 0
-0.424519 2.462209 22.197063 213 213 213 0
-0.339410 2.460724 22.183673 213 213 213 0
-0.254274 2.457987 22.158995 213 213 213 0
-0.170452 2.471554 22.281308 214 214 214 0
-0.085641 2.483597 22.389874 214 214 214 0
0.000000 2.486007 22.411599 214 214 214 0
0.085674 2.484532 22.398308 214 214 214 0
0.171532 2.487219 22.422525 213 213 213 0
0.257867 2.492714 22.472063 214 214 214 0
0.344750 2.499437 22.532671 214 214 214 0
0.432283 2.507241 22.603030 214 214 214 0
0.518946 2.508237 22.612007 213 213 213 0
0.605997 2.510557 22.632925 214 214 214 0
0.695911 2.522676 22.742181 214 214 214 0
0.787342 2.536990 22.871222 214 214 214 0
0.875870 2.540022 22.898550 214 214 214 0
0.961626 2.535195 22.855037 214 214 214 0
1.048659 2.534259 22.846597 214 214 214 0
1.141325 2.546032 22.952732 214 214 214 0
1.234848 2.557900 23.059729 214 214 214 0
1.319391 2.550823 22.995923 214 214 214 0
1.404494 2.545645 22.949247 214 214 214 0
1.492962 2.546818 22.959819 214 214 214 0
1.586266 2.555650 23.039443 214 214 214 0
1.682137 2.567473 23.146025 214 214 214 0
1.771645 2.568886 23.158764 214 214 214 0
1.861028 2.569991 23.168726 214 214 214 0
1.954799 2.576781 23.229939 214 214 214 0
2.049737 2.584451 23.299085 213 213 213 0
2.140490 2.586426 23.316888 214 214 214 0
2.232521 2.589725 23.346627 214 214 214 0
2.326159 2.594562 23.390237 214 214 214 0
2.423875 2.603421 23.470103 214 214 214 0
2.522029 2.612102 23.548361 213 213 213 0
2.620090 2.620090 23.620376 214 214 214 0
2.711685 2.621296 23.631242 214 214 214 0
2.805257 2.624273 23.658081 213 213 213 0
2.897284 2.625663 23.670620 213 213 213 0
3.001025 2.637264 23.775203 214 214 214 0
3.089406 2.635082 23.755527 214 214 214 0
3.180693 2.635432 23.758680 214 214 214 0
3.272425 2.636121 23.764891 214 214 214 0
3.367015 2.639012 23.790954 213 213 213 0
3.468061 2.646678 23.860068 214 214 214 0
3.572110 2.656184 23.945768 213 213 213 0
3.670132 2.660846 23.987791 214 214 214 0
3.762256 2.661108 23.990157 214 214 214 0
3.862201 2.666758 24.041090 213 213 213 0
3.958567 2.669731 24.067896 214 214 214 0
4.060565 2.676282 24.126949 214 214 214 0
4.156395 2.678566 24.147539 214 214 214 0
4.254748 2.682341 24.181574 214 214 214 0
4.371049 2.697030 24.313999 214 214 214 0
4.481694 2.707690 24.410099 214 214 214 0
4.569435 2.704360 24.380073 214 214 214 0
4.660049 2.702829 24.366270 214 214 214 0
4.755993 2.704388 24.380329 213 213 213 0
4.875170 2.718845 24.510659 214 214 214 0
4.969415 2.719114 24.513084 213 213 213 0
5.060042 2.717430 24.497905 214 214 214 0
5.154261 2.717701 24.500348 214 214 214 0
5.268345 2.728250 24.595446 214 214 214 0
5.381691 2.738053 24.683826 214 214 214 0
5.480279 2.740139 24.702631 214 214 214 0
5.577165 2.741319 24.713262 213 213 213 0
5.684249 2.747387 24.767972 213 213 213 0
5.785294 2.750386 24.795004 213 213 213 0
5.888856 2.754465 24.831777 214 214 214 0
5.985949 2.755437 24.840539 214 214 214 0
6.100988 2.764510 24.922339 213 213 213 0
6.229985 2.779532 25.057757 214 214 214 0
6.337058 2.784465 25.102230 213 213 213 0
6.428975 2.782691 25.086237 213 213 213 0
6.530002 2.784854 25.105735 214 214 214 0
6.642756 2.791883 25.169105 214 214 214 0
6.759040 2.800174 25.243848 213 213 213 0
6.844849 2.795784 25.204269 213 213 213 0
6.939595 2.795115 25.198238 213 213 213 0
7.051187 2.801156 25.252705 214 214 214 0
7.171569 2.810480 25.336756 213 213 213 0
7.274909 2.812965 25.359159 213 213 213 0
7.382261 2.816915 25.394775 213 213 213 0
7.490531 2.821109 25.432581 214 214 214 0
7.601237 2.826101 25.477584 213 213 213 0
7.718674 2.833437 25.543721 213 213 213 0
-1.844597 2.515360 21.920345 137 137 137 0
-1.756431 2.509188 21.866561 211 211 211 0
-1.665078 2.497616 21.765720 214 214 214 0
-1.581949 2.497814 21.767442 214 214 214 0
-1.498180 2.496967 21.760062 214 214 214 0
-1.412583 2.492794 21.723695 214 214 214 0
-1.330753 2.495162 21.744333 214 214 214 0
-1.251521 2.503041 21.812996 214 214 214 0
-1.171641 2.510659 21.879381 213 213 213 0
-1.089534 2.514309 21.911192 213 213 213 0
-1.010599 2.526498 22.017414 213 213 213 0
-0.928851 2.533229 22.076072 214 214 214 0
-0.843165 2.529494 22.043522 213 213 213 0
-0.758520 2.528399 22.033981 214 214 214 0
-0.674907 2.530899 22.055769 213 213 213 0
-0.593129 2.541983 22.152355 213 213 213 0
-0.508987 2.544933 22.178062 214 214 214 0
-0.424326 2.545956 22.186982 213 213 213 0
-0.339024 2.542681 22.158438 213 213 213 0
-0.254176 2.541759 22.150405 214 214 214 0
-0.170277 2.554153 22.258417 214 214 214 0
-0.085579 2.567362 22.373524 214 214 214 0
0.000000 2.568455 22.383053 214 214 214 0
0.085600 2.568001 22.379095 214 214 214 0
0.171423 2.571350 22.408277 214 214 214 0
0.257786 2.577855 22.464971 214 214 214 0
0.344643 2.584822 22.525686 213 213 213 0
0.432236 2.593417 22.600581 214 214 214 0
0.518511 2.592554 22.593064 214 214 214 0
0.605929 2.596837 22.630388 214 214 214 0
0.695938 2.609767 22.743064 214 214 214 0
0.786644 2.622147 22.850955 214 214 214 0
0.875246 2.625737 22.882240 214 214 214 0
0.960942 2.620752 22.838794 214 214 214 0
1.047697 2.619242 22.825634 214 214 214 0
1.139919 2.630582 22.924464 214 214 214 0
1.235177 2.646807 23.065856 215 215 215 0
1.318858 2.637716 22.986631 214 214 214 0
1.403943 2.632394 22.940249 213 213 213 0
1.492400 2.633646 22.951167 213 213 213 0
1.585379 2.642298 23.026564 214 214 214 0
1.680903 2.654057 23.129037 214 214 214 0
1.770955 2.656432 23.149736 214 214 214 0
1.858967 2.655667 23.143069 214 214 214 0
1.953047 2.663245 23.209110 214 214 214 0
2.048318 2.671719 23.282956 214 214 214 0
2.140177 2.675221 23.313474 214 214 214 0
2.232242 2.678691 23.343712 214 214 214 0
2.324580 2.682208 23.374358 213 213 213 0
2.421815 2.690905 23.450155 213 213 213 0
2.520695 2.700745 23.535905 214 214 214 0
2.617485 2.707743 23.596885 214 214 214 0
2.710406 2.710406 23.620098 214 214 214 0
2.802702 2.712292 23.636534 214 214 214 0
2.894720 2.713800 23.649670 214 214 214 0
3.003332 2.730301 23.793476 214 214 214 0
3.088725 2.725346 23.750292 214 214 214 0
3.180127 2.725823 23.754448 214 214 214 0
3.269744 2.724787 23.745417 213 213 213 0
3.363604 2.727247 23.766855 214 214 214 0
3.465571 2.735977 23.842940 214 214 214 0
3.570335 2.746411 23.933869 214 214 214 0
3.667976 2.750982 23.973696 213 213 213 0
3.761855 2.752577 23.987598 215 215 215 0
3.858778 2.756270 24.019779 214 214 214 0
3.954779 2.759148 24.044862 214 214 214 0
4.058292 2.767018 24.113442 214 214 214 0
4.151572 2.767714 24.119516 214 214 214 0
4.253703 2.774154 24.175633 214 214 214 0
4.365504 2.786492 24.283153 214 214 214 0
4.477874 2.798671 24.389293 214 214 214 0
4.569132 2.797428 24.378456 214 214 214 0
4.656961 2.794176 24.350122 213 213 213 0
4.755992 2.797642 24.380326 213 213 213 0
4.875252 2.812645 24.511071 213 213 213 0
4.968421 2.812314 24.508180 214 214 214 0
5.058694 2.810386 24.491378 213 213 213 0
5.151616 2.809973 24.487779 214 214 214 0
5.262524 2.819209 24.568272 213 213 213 0
5.380028 2.831594 24.676196 213 213 213 0
5.479142 2.834039 24.697507 214 214 214 0
5.574984 2.834737 24.703594 213 213 213 0
5.680972 2.840486 24.753692 213 213 213 0
5.782022 2.843617 24.780980 214 214 214 0
5.888803 2.849421 24.831554 213 213 213 0
5.984190 2.849614 24.833241 214 214 214 0
6.098121 2.858494 24.910627 214 214 214 0
6.224043 2.872635 25.033858 213 213 213 0
6.333295 2.878771 25.087325 214 214 214 0
6.426776 2.877661 25.077654 213 213 213 0
6.527619 2.879832 25.096574 213 213 213 0
6.639890 2.886909 25.158247 213 213 213 0
6.756722 2.895738 25.235191 213 213 213 0
6.844653 2.892107 25.203544 213 213 213 0
6.939215 2.891340 25.196860 214 214 214 0
7.045494 2.895408 25.232317 213 213 213 0
7.166713 2.905424 25.319602 214 214 214 0
7.272947 2.909179 25.352320 214 214 214 0
7.379524 2.912970 25.385360 214 214 214 0
7.487258 2.917113 25.421467 213 213 213 0
7.601213 2.923543 25.477503 214 214 214 0
7.713678 2.929245 25.527188 213 213 213 0
-1.847044 2.602653 21.949421 139 139 139 0
-1.758026 2.595181 21.886406 210 210 210 0
-1.665578 2.581646 21.772260 214 214 214 0
-1.580071 2.578011 21.741604 213 213 213 0
-1.497619 2.579234 21.751917 214 214 214 0
-1.411956 2.574743 21.714049 214 214 214 0
-1.330896 2.578610 21.746662 214 214 214 0
-1.250123 2.583587 21.788631 214 214 214 0
-1.171171 2.593308 21.870612 214 214 214 0
-1.089855 2.598885 21.917644 214 214 214 0
-1.009999 2.609164 22.004334 214 214 214 0
-0.928224 2.615903 22.061167 214 214 214 0
-0.842668 2.612271 22.030536 213 213 213 0
-0.758268 2.611813 22.026679 214 214 214 0
-0.674963 2.615482 22.057621 213 213 213 0
-0.592775 2.625145 22.139106 214 214 214 0
-0.508904 2.629336 22.174458 213 213 213 0
-0.424306 2.630696 22.185927 214 214 214 0
-0.339108 2.628083 22.163891 214 214 214 0
-0.254196 2.626693 22.152162 214 214 214 0
-0.170171 2.637644 22.244524 214 214 214 0
-0.085510 2.650821 22.355650 214 214 214 0
0.000000 2.652515 22.369937 214 214 214 0
0.085596 2.653475 22.378031 214 214 214 0
0.171295 2.655076 22.391529 214 214 214 0
0.257605 2.661913 22.449196 214 214 214 0
0.344606 2.670694 22.523248 214 214 214 0
0.431992 2.678350 22.587814 214 214 214 0
0.518368 2.678233 22.586825 214 214 214 0
0.605470 2.681368 22.613268 214 214 214 0
0.695241 2.694058 22.720289 213 213 213 0
0.786114 2.707728 22.835569 214 214 214 0
0.874871 2.712100 22.872447 214 214 214 0
0.960819 2.707764 22.835875 213 213 213 0
1.047175 2.705203 22.814274 214 214 214 0
1.139323 2.716848 22.912482 213 213 213 0
1.234036 2.732509 23.044563 214 214 214 0
1.318219 2.724320 22.975503 214 214 214 0
1.403374 2.719038 22.930952 214 214 214 0
1.492683 2.721951 22.955523 215 215 215 0
1.584903 2.729555 23.019648 214 214 214 0
1.680257 2.741473 23.120157 214 214 214 0
1.770818 2.744767 23.147943 214 214 214 0
1.858161 2.742999 23.133030 213 213 213 0
1.951873 2.750366 23.195160 214 214 214 0
2.047296 2.759399 23.271339 214 214 214 0
2.139038 2.762924 23.301063 214 214 214 0
2.231136 2.766609 23.332145 214 214 214 0
2.323752 2.770628 23.366036 214 214 214 0
2.420284 2.778844 23.435328 214 214 214 0
2.519763 2.789737 23.527196 214 214 214 0
2.616510 2.796959 23.588103 214 214 214 0
2.710001 2.800335 23.616568 214 214 214 0
2.801630 2.801630 23.627493 214 214 214 0
2.892389 2.802001 23.630625 214 214 214 0
3.072287 2.886088 24.339764 214 214 214 0
3.086128 2.813823 23.730319 214 214 214 0
3.177485 2.814344 23.734716 214 214 214 0
3.267614 2.813779 23.729948 214 214 214 0
3.362938 2.817597 23.762149 214 214 214 0
3.464380 2.826205 23.834744 213 213 213 0
3.570449 2.838049 23.934636 214 214 214 0
3.666767 2.841745 23.965798 214 214 214 0
3.760469 2.843281 23.978759 214 214 214 0
3.857882 2.847485 24.014207 214 214 214 0
3.953093 2.849904 24.034615 214 214 214 0
4.055758 2.857466 24.098381 214 214 214 0
4.148786 2.858053 24.103333 214 214 214 0
4.250681 2.864589 24.158458 214 214 214 0
4.361349 2.876634 24.260041 214 214 214 0
4.475441 2.890389 24.376042 214 214 214 0
4.566474 2.888994 24.364274 214 214 214 0
4.656119 2.886794 24.345722 214 214 214 0
4.753124 2.889154 24.365624 214 214 214 0
4.873551 2.905386 24.502518 214 214 214 0
4.966210 2.904764 24.497276 214 214 214 0
5.055622 2.902301 24.476503 213 213 213 0
5.148216 2.901721 24.471613 214 214 214 0
5.261218 2.912460 24.562173 213 213 213 0
5.377975 2.924863 24.666780 213 213 213 0
5.478524 2.928176 24.694720 213 213 213 0
5.570747 2.927002 24.684819 213 213 213 0
5.677292 2.933267 24.737655 214 214 214 0
5.779175 2.936958 24.768779 214 214 214 0
5.884565 2.942283 24.813685 213 213 213 0
5.982088 2.943567 24.824515 214 214 214 0
6.094457 2.952003 24.895659 214 214 214 0
6.219393 2.966172 25.015157 213 213 213 0
6.329445 2.972921 25.072075 213 213 213 0
6.424077 2.972334 25.067122 214 214 214 0
6.523056 2.973746 25.079033 214 214 214 0
6.637078 2.981876 25.147592 214 214 214 0
6.752485 2.990386 25.219366 213 213 213 0
6.843169 2.987862 25.198080 213 213 213 0
6.936033 2.986348 25.185307 213 213 213 0
7.046659 2.992417 25.236492 214 214 214 0
7.164555 3.001368 25.311976 213 213 213 0
7.272084 3.005795 25.349314 213 213 213 0
7.380526 3.010478 25.388805 213 213 213 0
7.484481 3.013232 25.412039 213 213 213 0
7.599266 3.020221 25.470978 214 214 214 0
7.712439 3.026400 25.523087 213 213 213 0
-1.848787 2.689144 21.970134 140 140 140 0
-1.758608 2.679784 21.893660 210 210 210 0
-1.664484 2.663174 21.757957 213 213 213 0
-1.579821 2.660750 21.738157 214 214 214 0
-1.498099 2.663288 21.758885 214 214 214 0
-1.411705 2.657327 21.710187 214 214 214 0
-1.331014 2.662028 21.748597 214 214 214 0
-1.249479 2.665556 21.777417 214 214 214 0
-1.170182 2.674702 21.852140 214 214 214 0
-1.089451 2.681726 21.909526 214 214 214 0
-1.009680 2.692481 21.997395 214 214 214 0
-0.928395 2.700785 22.065240 214 214 214 0
-0.842888 2.697243 22.036299 214 214 214 0
-0.758156 2.695667 22.023423 214 214 214 0
-0.674465 2.697860 22.041337 213 213 213 0
-0.592675 2.709371 22.135388 214 214 214 0
-0.508565 2.712348 22.159704 214 214 214 0
-0.423756 2.712037 22.157162 214 214 214 0
-0.338817 2.710532 22.144870 214 214 214 0
-0.253902 2.708289 22.126544 214 214 214 0
-0.170074 2.721183 22.231889 214 214 214 0
-0.085459 2.734674 22.342109 214 214 214 0
0.000000 2.737401 22.364388 214 214 214 0
0.085523 2.736725 22.358862 214 214 214 0
0.171177 2.738828 22.376042 214 214 214 0
0.257646 2.748226 22.452825 213 213 213 0
0.344265 2.754123 22.501005 214 214 214 0
0.431663 2.762643 22.570612 214 214 214 0
0.518417 2.764891 22.588975 214 214 214 0
0.605557 2.768261 22.616515 213 213 213 0
0.694727 2.778906 22.703480 214 214 214 0
0.786037 2.794798 22.833316 213 213 213 0
0.874739 2.799165 22.868996 214 214 214 0
0.960163 2.793201 22.820271 214 214 214 0
1.047087 2.792233 22.812360 214 214 214 0
1.138826 2.803265 22.902493 214 214 214 0
1.233646 2.819762 23.037275 214 214 214 0
1.317489 2.810643 22.962771 213 213 213 0
1.402983 2.805967 22.924565 214 214 214 0
1.490997 2.806583 22.929596 214 214 214 0
1.585009 2.817793 23.021187 214 214 214 0
1.679829 2.829186 23.114267 214 214 214 0
1.770448 2.832717 23.143111 214 214 214 0
1.857663 2.830724 23.126831 214 214 214 0
1.949942 2.836279 23.172216 213 213 213 0
2.046177 2.846856 23.258624 213 213 213 0
2.136815 2.849087 23.276854 215 215 215 0
2.229663 2.853969 23.316741 214 214 214 0
2.323915 2.860204 23.367676 214 214 214 0
2.420657 2.868927 23.438948 214 214 214 0
2.518582 2.878379 23.516170 214 214 214 0
2.615903 2.886514 23.582627 214 214 214 0
2.708881 2.889473 23.606805 214 214 214 0
2.797441 2.887681 23.592161 214 214 214 0
2.887413 2.887413 23.589973 213 213 213 0
2.688501 2.607031 21.299275 214 214 214 0
3.088174 2.906516 23.746049 214 214 214 0
3.176761 2.904467 23.729308 214 214 214 0
3.265791 2.902925 23.716708 214 214 214 0
3.361771 2.907477 23.753900 213 213 213 0
3.463075 2.916274 23.825766 214 214 214 0
3.567846 2.927463 23.917182 214 214 214 0
3.665314 2.932251 23.956298 214 214 214 0
3.759116 2.933944 23.970134 214 214 214 0
3.855936 2.937856 24.002089 214 214 214 0
3.949302 2.939015 24.011562 214 214 214 0
4.050023 2.945471 24.064306 213 213 213 0
4.148799 2.950257 24.103405 214 214 214 0
4.247593 2.954847 24.140908 214 214 214 0
4.356283 2.965980 24.231861 214 214 214 0
4.472991 2.981994 24.362696 214 214 214 0
4.564994 2.981220 24.356376 214 214 214 0
4.654008 2.978565 24.334681 214 214 214 0
4.752264 2.981813 24.361216 214 214 214 0
4.871982 2.998143 24.494630 214 214 214 0
4.964741 2.997579 24.490028 214 214 214 0
5.056819 2.996633 24.482299 214 214 214 0
5.147475 2.994895 24.468093 214 214 214 0
5.259395 3.005369 24.553665 213 213 213 0
5.374542 3.017287 24.651036 214 214 214 0
5.475126 3.020759 24.679405 214 214 214 0
5.569001 3.020475 24.677086 213 213 213 0
5.672786 3.025486 24.718021 213 213 213 0
5.777838 3.030997 24.763046 214 214 214 0
5.882286 3.036019 24.804074 213 213 213 0
5.978759 3.036830 24.810704 213 213 213 0
6.091459 3.045729 24.883409 214 214 214 0
6.217983 3.061161 25.009486 214 214 214 0
6.325557 3.066936 25.056671 213 213 213 0
6.418760 3.065676 25.046375 213 213 213 0
6.519636 3.068064 25.065883 213 213 213 0
6.631286 3.075379 25.125645 213 213 213 0
6.751495 3.086398 25.215669 213 213 213 0
6.837431 3.081659 25.176954 213 213 213 0
6.933696 3.081643 25.176819 213 213 213 0
7.043443 3.087537 25.224974 213 213 213 0
7.163976 3.097936 25.309931 214 214 214 0
7.270516 3.102087 25.343846 214 214 214 0
7.380298 3.107494 25.388021 213 213 213 0
7.483765 3.110136 25.409607 213 213 213 0
7.597782 3.117039 25.466004 213 213 213 0
7.712227 3.123940 25.522385 213 213 213 0
-1.850736 2.776104 21.993298 139 139 139 0
-1.760415 2.766366 21.916154 211 211 211 0
-1.666257 2.749324 21.781137 213 213 213 0
-1.578441 2.741503 21.719176 214 214 214 0
-1.497942 2.746227 21.756600 213 213 213 0
-1.410655 2.738331 21.694046 213 213 213 0
-1.329379 2.741845 21.721883 213 213 213 0
-1.248859 2.747489 21.766598 214 214 214 0
-1.169600 2.756914 21.841267 213 213 213 0
-1.088814 2.763912 21.896711 213 213 213 0
-1.009105 2.775038 21.984850 214 214 214 0
-0.927451 2.782352 22.042800 213 213 213 0
-0.842987 2.781857 22.038871 214 214 214 0
-0.757972 2.779230 22.018066 214 214 214 0
-0.674162 2.780920 22.031453 214 214 214 0
-0.592220 2.791895 22.118398 214 214 214 0
-0.508387 2.796129 22.151940 214 214 214 0
-0.423608 2.795811 22.149420 213 213 213 0
-0.338709 2.794353 22.137869 214 214 214 0
-0.254042 2.794465 22.138758 214 214 214 0
-0.169960 2.804333 22.216939 214 214 214 0
-0.085467 2.820410 22.344305 214 214 214 0
0.000000 2.820975 22.348783 214 214 214 0
0.085493 2.821255 22.351003 214 214 214 0
0.171073 2.822709 22.362519 214 214 214 0
0.257504 2.832544 22.440434 213 213 213 0
0.344212 2.839747 22.497500 213 213 213 0
0.431381 2.847117 22.555892 214 214 214 0
0.518275 2.850513 22.582795 213 213 213 0
0.605060 2.852427 22.597960 214 214 214 0
0.694527 2.864926 22.696976 214 214 214 0
0.785365 2.879670 22.813784 213 213 213 0
0.874100 2.884531 22.852295 214 214 214 0
0.959809 2.879426 22.811848 214 214 214 0
1.046432 2.877687 22.798076 214 214 214 0
1.137562 2.887658 22.877071 214 214 214 0
1.232757 2.905783 23.020665 214 214 214 0
1.317061 2.897535 22.955315 213 213 213 0
1.402427 2.892506 22.915476 214 214 214 0
1.491228 2.894737 22.933153 214 214 214 0
1.583765 2.903569 23.003119 214 214 214 0
1.679296 2.916672 23.106930 214 214 214 0
1.768797 2.918515 23.121526 214 214 214 0
1.856140 2.916791 23.107874 214 214 214 0
1.949031 2.923546 23.161388 213 213 213 0
2.044623 2.933589 23.240953 214 214 214 0
2.135597 2.936446 23.263586 214 214 214 0
2.227140 2.939825 23.290354 214 214 214 0
2.321321 2.946292 23.341590 214 214 214 0
2.418726 2.956221 23.420251 214 214 214 0
2.517012 2.966478 23.501511 214 214 214 0
2.615156 2.975867 23.575890 213 213 213 0
2.707465 2.978212 23.594471 214 214 214 0
2.798528 2.979078 23.601332 213 213 213 0
2.890042 2.980356 23.611457 214 214 214 0
2.947284 2.947284 23.349446 214 214 214 0
3.089537 2.998668 23.756532 214 214 214 0
3.177671 2.996090 23.736104 214 214 214 0
3.264011 2.992010 23.703786 214 214 214 0
3.359359 2.996185 23.736857 213 213 213 0
3.463123 3.007449 23.826093 214 214 214 0
3.566080 3.017453 23.905348 214 214 214 0
3.662773 3.021788 23.939695 214 214 214 0
3.756921 3.023863 23.956135 214 214 214 0
3.853456 3.027716 23.986656 214 214 214 0
3.947035 3.029120 23.997783 214 214 214 0
4.047159 3.035369 24.047292 214 214 214 0
4.144962 3.039639 24.081117 214 214 214 0
4.247440 3.047076 24.140038 213 213 213 0
4.350186 3.054386 24.197948 214 214 214 0
4.465835 3.070261 24.323719 213 213 213 0
4.562607 3.072776 24.343644 214 214 214 0
4.652097 3.070384 24.324691 213 213 213 0
4.750946 3.074142 24.354459 213 213 213 0
4.872415 3.092109 24.496806 214 214 214 0
4.964135 3.090877 24.487041 213 213 213 0
5.055194 3.089285 24.474430 214 214 214 0
5.147005 3.088203 24.465859 214 214 214 0
5.257274 3.098036 24.543761 214 214 214 0
5.372948 3.110654 24.643726 213 213 213 0
5.471962 3.113358 24.665145 214 214 214 0
5.564005 3.112071 24.654948 213 213 213 0
5.668983 3.117941 24.701450 214 214 214 0
5.775043 3.124204 24.751068 214 214 214 0
5.879677 3.129505 24.793070 214 214 214 0
5.977557 3.131101 24.805714 214 214 214 0
6.089248 3.139768 24.874378 214 214 214 0
6.208017 3.151762 24.969399 213 213 213 0
6.324177 3.162089 25.051208 214 214 214 0
6.416681 3.160455 25.038263 213 213 213 0
6.515402 3.161886 25.049605 213 213 213 0
6.625656 3.168792 25.104314 214 214 214 0
6.747074 3.180763 25.199155 213 213 213 0
6.836590 3.177570 25.173855 214 214 214 0
6.930235 3.176358 25.164251 213 213 213 0
7.042596 3.183639 25.221941 213 213 213 0
7.160544 3.193216 25.297806 213 213 213 0
7.267527 3.197712 25.333428 213 213 213 0
7.372886 3.201385 25.362523 213 213 213 0
7.481401 3.206315 25.401582 214 214 214 0
7.593519 3.212643 25.451715 213 213 213 0
7.708815 3.220138 25.511094 213 213 213 0
-1.851372 2.861212 22.000858 142 142 142 0
-1.762790 2.854041 21.945724 210 210 210 0
-1.666973 2.833854 21.790493 213 213 213 0
-1.577579 2.823035 21.707308 214 214 214 0
-1.497325 2.828280 21.747637 214 214 214 0
-1.409697 2.819395 21.679313 214 214 214 0
-1.328874 2.823856 21.713621 213 213 213 0
-1.248894 2.830826 21.767209 214 214 214 0
-1.168978 2.838946 21.829650 213 213 213 0
-1.087089 2.843156 21.862022 214 214 214 0
-1.008285 2.856809 21.967003 214 214 214 0
-0.927429 2.866597 22.042271 214 214 214 0
-0.842718 2.865241 22.031842 213 213 213 0
-0.757643 2.862208 22.008522 214 214 214 0
-0.673612 2.862849 22.013450 213 213 213 0
-0.592192 2.876359 22.117330 214 214 214 0
-0.508399 2.880929 22.152473 214 214 214 0
-0.423478 2.879649 22.142633 214 214 214 0
-0.338816 2.879939 22.144861 214 214 214 0
-0.253972 2.878354 22.132672 214 214 214 0
-0.169974 2.889558 22.218827 214 214 214 0
-0.085408 2.903865 22.328833 214 214 214 0
0.000000 2.907004 22.352969 213 213 213 0
0.085465 2.905815 22.343827 213 213 213 0
0.170893 2.905188 22.339010 214 214 214 0
0.257326 2.916363 22.424935 214 214 214 0
0.343974 2.923783 22.481988 213 213 213 0
0.431226 2.932339 22.547783 214 214 214 0
0.518167 2.936279 22.578079 213 213 213 0
0.604888 2.938030 22.591538 214 214 214 0
0.694184 2.950281 22.685746 214 214 214 0
0.785336 2.966825 22.812957 214 214 214 0
0.874116 2.971996 22.852717 215 215 215 0
0.959608 2.966061 22.807082 214 214 214 0
1.045455 2.962124 22.776806 214 214 214 0
1.137244 2.974330 22.870664 214 214 214 0
1.232417 2.993014 23.014332 213 213 213 0
1.316626 2.984352 22.947725 214 214 214 0
1.402825 2.981004 22.921982 214 214 214 0
1.490035 2.980070 22.914801 214 214 214 0
1.583609 2.991261 23.000854 214 214 214 0
1.677670 3.002146 23.084556 214 214 214 0
1.768769 3.006906 23.121157 214 214 214 0
1.853244 3.000490 23.071821 214 214 214 0
1.946646 3.008454 23.133053 213 213 213 0
2.043283 3.020505 23.225723 214 214 214 0
2.136066 3.026093 23.268689 214 214 214 0
2.226853 3.028520 23.287353 214 214 214 0
2.319718 3.033477 23.325469 214 214 214 0
2.418723 3.045799 23.420215 214 214 214 0
2.514876 3.053778 23.481568 213 213 213 0
2.613664 3.064296 23.562441 214 214 214 0
2.705878 3.066661 23.580632 214 214 214 0
2.797791 3.068545 23.595119 214 214 214 0
2.890240 3.070880 23.613070 214 214 214 0
2.984693 3.075138 23.645816 214 214 214 0
3.088464 3.088464 23.748285 214 214 214 0
3.177127 3.086352 23.732038 214 214 214 0
3.262405 3.081160 23.692122 214 214 214 0
3.358755 3.086423 23.732590 214 214 214 0
3.460860 3.096559 23.810529 214 214 214 0
3.564277 3.107318 23.893256 214 214 214 0
3.661421 3.112208 23.930856 214 214 214 0
3.754996 3.113899 23.943863 214 214 214 0
3.850321 3.116926 23.967139 214 214 214 0
3.946300 3.120330 23.993309 213 213 213 0
4.046267 3.126661 24.041988 213 213 213 0
4.143950 3.130985 24.075238 214 214 214 0
4.245482 3.137965 24.128914 214 214 214 0
4.346449 3.144240 24.177160 214 214 214 0
4.462169 3.160703 24.303753 213 213 213 0
4.559785 3.163933 24.328586 214 214 214 0
4.649843 3.161893 24.312902 213 213 213 0
4.749963 3.166642 24.349417 214 214 214 0
4.870361 3.184467 24.486481 214 214 214 0
4.961936 3.183129 24.476194 214 214 214 0
5.055484 3.183082 24.475835 213 213 213 0
5.146781 3.181646 24.464794 214 214 214 0
5.257799 3.192235 24.546212 213 213 213 0
5.371103 3.203816 24.635262 214 214 214 0
5.467404 3.205030 24.644600 214 214 214 0
5.562782 3.205671 24.649526 214 214 214 0
5.667019 3.211311 24.692895 214 214 214 0
5.773393 3.217957 24.743999 214 214 214 0
5.876765 3.222742 24.780792 214 214 214 0
5.974092 3.224113 24.791335 214 214 214 0
6.085268 3.232799 24.858120 213 213 213 0
6.202976 3.244633 24.949123 213 213 213 0
6.318616 3.255045 25.029178 214 214 214 0
6.411533 3.253614 25.018176 213 213 213 0
6.511920 3.255960 25.036215 213 213 213 0
6.624067 3.264033 25.098292 213 213 213 0
6.742091 3.274730 25.180544 213 213 213 0
6.833924 3.272583 25.164039 213 213 213 0
6.932025 3.273456 25.170752 214 214 214 0
7.041161 3.279445 25.216802 214 214 214 0
7.159683 3.289584 25.294763 214 214 214 0
7.267221 3.294473 25.332359 213 213 213 0
7.373099 3.298492 25.363258 213 213 213 0
7.478571 3.302226 25.391973 213 213 213 0
7.591437 3.309088 25.444735 213 213 213 0
7.706663 3.316792 25.503972 213 213 213 0
-1.856813 2.954021 22.065520 143 143 143 0
-1.765036 2.941726 21.973680 211 211 211 0
-1.667706 2.918485 21.800078 214 214 214 0
-1.578929 2.908553 21.725887 214 214 214 0
-1.497685 2.912165 21.752863 214 214 214 0
-1.410434 2.903834 21.690639 213 213 213 0
-1.328977 2.907137 21.715309 214 214 214 0
-1.247574 2.911006 21.744209 214 214 214 0
-1.168344 2.920860 21.817812 214 214 214 0
-1.087214 2.927116 21.864543 214 214 214 0
-1.007351 2.938108 21.946655 213 213 213 0
-0.927044 2.949684 22.033120 213 213 213 0
-0.842346 2.948212 22.022128 214 214 214 0
-0.757167 2.944539 21.994688 214 214 214 0
-0.673407 2.946156 22.006768 213 213 213 0
-0.592370 2.961850 22.123999 213 213 213 0
-0.508092 2.963870 22.139084 214 214 214 0
-0.423429 2.964000 22.140054 214 214 214 0
-0.338577 2.962547 22.129204 214 214 214 0
-0.253926 2.962469 22.128624 214 214 214 0
-0.169865 2.972631 22.204527 214 214 214 0
-0.085338 2.986825 22.310549 214 214 214 0
0.000000 2.990219 22.335904 213 213 213 0
0.085422 2.989777 22.332602 214 214 214 0
0.170883 2.990445 22.337590 214 214 214 0
0.257059 2.999020 22.401641 214 214 214 0
0.343651 3.006949 22.460871 214 214 214 0
0.431065 3.017456 22.539355 214 214 214 0
0.517953 3.021391 22.568747 213 213 213 0
0.604849 3.024247 22.590080 213 213 213 0
0.693639 3.034670 22.667938 214 214 214 0
0.784665 3.051476 22.793470 214 214 214 0
0.873519 3.057316 22.837093 214 214 214 0
