ply
    format ascii 1.0
    element vertex 7000
    property float x
    property float y
    property float z
    property uchar red
    property uchar green
    property uchar blue
    property uchar alpha
    end_header
-1.346628 0.489683 32.005412 178 178 178 0
-1.215214 0.486085 31.770290 179 179 179 0
-1.085644 0.482508 31.536488 179 179 179 0
-0.857094 0.428547 28.009596 183 183 183 0
-0.850176 0.485815 31.752623 185 185 185 0
-0.724317 0.482878 31.560665 186 186 186 0
-0.597333 0.477866 31.233084 186 186 186 0
-0.474785 0.474785 31.031706 188 188 188 0
-0.355443 0.473925 30.975463 192 192 192 0
-0.237437 0.474873 31.037461 192 192 192 0
-0.118529 0.474114 30.987867 192 192 192 0
0.000000 0.472041 30.852324 192 192 192 0
0.117451 0.469803 30.706090 194 194 194 0
0.234431 0.468863 30.644638 196 196 196 0
0.351675 0.468900 30.647068 197 197 197 0
0.468065 0.468065 30.592508 197 197 197 0
0.583534 0.466827 30.511560 197 197 197 0
0.698760 0.465840 30.447051 198 198 198 0
0.812779 0.464445 30.355894 200 200 200 0
0.928330 0.464165 30.337580 200 200 200 0
1.045266 0.464563 30.363567 200 200 200 0
1.159384 0.463754 30.310689 201 201 201 0
1.272676 0.462791 30.247795 200 200 200 0
1.386024 0.462008 30.196597 202 202 202 0
1.497760 0.460849 30.120857 203 203 203 0
1.613042 0.460869 30.122158 202 202 202 0
1.730831 0.461555 30.166992 204 204 204 0
1.840728 0.460182 30.077254 203 203 203 0
1.951711 0.459226 30.014784 205 205 205 0
2.063019 0.458449 29.963965 205 205 205 0
2.178874 0.458710 29.981069 206 206 206 0
2.297325 0.459465 30.030389 205 205 205 0
2.411288 0.459293 30.019143 205 205 205 0
2.524049 0.458918 29.994645 205 205 205 0
2.636268 0.458481 29.966103 206 206 206 0
2.748682 0.458114 29.942072 207 207 207 0
2.866672 0.458667 29.978266 207 207 207 0
2.984174 0.459104 30.006773 208 208 208 0
3.091539 0.458006 29.935022 207 207 207 0
3.202250 0.457464 29.899627 207 207 207 0
3.331690 0.459543 30.035521 208 208 208 0
3.455987 0.460798 30.117538 207 207 207 0
3.563667 0.459828 30.054114 208 208 208 0
3.669568 0.458696 29.980134 208 208 208 0
3.789343 0.459314 30.020541 208 208 208 0
3.924606 0.461718 30.177674 208 208 208 0
4.033847 0.461011 30.131441 208 208 208 0
4.135211 0.459468 30.030578 209 209 209 0
4.249555 0.459411 30.026888 209 209 209 0
4.390695 0.462178 30.207742 208 208 208 0
4.512483 0.462819 30.249596 208 208 208 0
4.620487 0.462049 30.199260 209 209 209 0
4.736076 0.462056 30.199750 208 208 208 0
4.869532 0.463765 30.311437 209 209 209 0
4.995163 0.464666 30.370347 208 208 208 0
5.112379 0.464762 30.376582 208 208 208 0
5.238643 0.465657 30.435110 208 208 208 0
5.384829 0.468246 30.604312 208 208 208 0
5.509386 0.468884 30.646009 208 208 208 0
5.619925 0.468327 30.609615 208 208 208 0
5.759672 0.470177 30.730542 207 207 207 0
5.911540 0.472923 30.910012 207 207 207 0
6.023734 0.472450 30.879067 207 207 207 0
6.150842 0.473142 30.924293 208 208 208 0
6.288765 0.474624 31.021162 206 206 206 0
6.432811 0.476505 31.144086 206 206 206 0
6.564484 0.477417 31.203728 206 206 206 0
6.712138 0.479438 31.335846 206 206 206 0
6.866699 0.481874 31.495005 204 204 204 0
7.022341 0.484299 31.653552 204 204 204 0
7.181044 0.486850 31.820290 203 203 203 0
7.331630 0.488775 31.946100 203 203 203 0
7.504967 0.492129 32.165295 202 202 202 0
7.663987 0.494451 32.317046 202 202 202 0
7.846592 0.498196 32.561852 200 200 200 0
8.032994 0.502062 32.814517 198 198 198 0
8.206571 0.505020 33.007825 197 197 197 0
8.420843 0.510354 33.356477 195 195 195 0
8.607638 0.513889 33.587507 194 194 194 0
8.880881 0.522405 34.144102 190 190 190 0
9.166051 0.531365 34.729756 183 183 183 0
9.370627 0.535464 34.997675 130 130 130 0
-3.078565 0.669253 34.993639 74 74 74 0
-2.944998 0.669318 34.997000 99 99 99 0
-2.805819 0.668052 34.930828 119 119 119 0
-2.638685 0.659671 34.492613 135 135 135 0
-2.462872 0.648124 33.888852 142 142 142 0
-2.298675 0.638521 33.386709 150 150 150 0
-2.145648 0.631073 32.997283 157 157 157 0
-2.004054 0.626267 32.745976 159 159 159 0
-1.871418 0.623806 32.617311 166 166 166 0
-1.746201 0.623643 32.608786 170 170 170 0
-1.620224 0.623163 32.583695 170 170 170 0
-1.483298 0.618041 32.315852 174 174 174 0
-1.347118 0.612326 32.017068 179 179 179 0
-1.215374 0.607687 31.774485 179 179 179 0
-1.085434 0.603019 31.530408 179 179 179 0
-0.867916 0.542447 28.363262 183 183 183 0
-0.850311 0.607365 31.757639 186 186 186 0
-0.724417 0.603680 31.564989 186 186 186 0
-0.597015 0.597015 31.216469 186 186 186 0
-0.474862 0.593578 31.036739 189 189 189 0
-0.355474 0.592457 30.978123 192 192 192 0
-0.237378 0.593446 31.029843 192 192 192 0
-0.118565 0.592826 30.997424 192 192 192 0
0.000000 0.589987 30.848996 193 193 193 0
0.117352 0.586760 30.680284 195 195 195 0
0.234475 0.586187 30.650319 196 196 196 0
0.351745 0.586242 30.653183 196 196 196 0
0.467824 0.584780 30.576744 197 197 197 0
0.583930 0.583930 30.532282 197 197 197 0
0.698511 0.582093 30.436211 199 199 199 0
0.813147 0.580820 30.369651 201 201 201 0
0.927498 0.579687 30.310408 201 201 201 0
1.045149 0.580639 30.360185 200 200 200 0
1.158481 0.579241 30.287088 200 200 200 0
1.272689 0.578495 30.248104 202 202 202 0
1.386092 0.577538 30.198083 203 203 203 0
1.497994 0.576152 30.125579 203 203 203 0
1.611737 0.575620 30.097789 202 202 202 0
1.730889 0.576963 30.168000 203 203 203 0
1.841110 0.575347 30.083491 203 203 203 0
1.951151 0.573868 30.006161 204 204 204 0
2.062369 0.572880 29.954530 205 205 205 0
2.177788 0.573102 29.966129 205 205 205 0
2.295911 0.573978 30.011902 205 205 205 0
2.411184 0.574091 30.017847 206 206 206 0
2.523130 0.573439 29.983723 206 206 206 0
2.635541 0.572944 29.957836 207 207 207 0
2.748183 0.572538 29.936638 207 207 207 0
2.865454 0.573091 29.965528 206 206 206 0
2.982716 0.573599 29.992117 207 207 207 0
3.091412 0.572484 29.933789 207 207 207 0
3.201927 0.571773 29.896613 208 208 208 0
3.330471 0.574219 30.024527 207 207 207 0
3.452514 0.575419 30.087266 207 207 207 0
3.563296 0.574725 30.050985 208 208 208 0
3.669523 0.573363 29.979765 208 208 208 0
3.785668 0.573586 29.991426 208 208 208 0
3.922998 0.576911 30.165306 208 208 208 0
4.029835 0.575691 30.101474 208 208 208 0
4.134492 0.574235 30.025356 209 209 209 0
4.248923 0.574179 30.022418 208 208 208 0
4.390731 0.577728 30.207990 208 208 208 0
4.511229 0.578363 30.241184 209 209 209 0
4.619446 0.577431 30.192456 209 209 209 0
4.735251 0.577470 30.194488 209 209 209 0
4.870352 0.579804 30.316541 209 209 209 0
4.994554 0.580762 30.366644 208 208 208 0
5.110495 0.580738 30.365388 208 208 208 0
5.236594 0.581844 30.423206 208 208 208 0
5.381451 0.584940 30.585117 208 208 208 0
5.506711 0.585820 30.631131 207 207 207 0
5.616617 0.585064 30.591598 208 208 208 0
5.760274 0.587783 30.733753 208 208 208 0
5.911496 0.591150 30.909781 207 207 207 0
6.026604 0.590844 30.893781 207 207 207 0
6.148627 0.591214 30.913160 207 207 207 0
6.282886 0.592725 30.992161 207 207 207 0
6.432358 0.595589 31.141894 206 206 206 0
6.563957 0.596723 31.201220 206 206 206 0
6.713051 0.599380 31.340107 205 205 205 0
6.867827 0.602441 31.500181 205 205 205 0
7.018808 0.605070 31.637629 204 204 204 0
7.172183 0.607812 31.781024 203 203 203 0
7.328033 0.610669 31.930427 204 204 204 0
7.504763 0.615144 32.164418 202 202 202 0
7.660222 0.617760 32.301168 201 201 201 0
7.847819 0.622843 32.566941 201 201 201 0
8.029216 0.627282 32.799084 199 199 199 0
8.203781 0.631060 32.996607 198 198 198 0
8.416068 0.637581 33.337564 195 195 195 0
8.597246 0.641586 33.546955 193 193 193 0
8.864391 0.651793 34.080702 189 189 189 0
9.138340 0.662199 34.624759 183 183 183 0
9.370780 0.669341 34.998243 136 136 136 0
-3.078470 0.803079 34.992557 75 75 75 0
-2.944977 0.803176 34.996760 101 101 101 0
-2.808321 0.802377 34.961980 119 119 119 0
-2.638796 0.791639 34.494069 136 136 136 0
-2.466672 0.778949 33.941135 143 143 143 0
-2.309855 0.769952 33.549093 151 151 151 0
-2.150356 0.758949 33.069685 158 158 158 0
-2.006152 0.752307 32.780258 159 159 159 0
-1.871397 0.748559 32.616934 167 167 167 0
-1.746316 0.748421 32.610935 169 169 169 0
-1.619871 0.747633 32.576591 170 170 170 0
-1.482808 0.741404 32.305182 175 175 175 0
-1.346590 0.734504 32.004511 179 179 179 0
-1.212848 0.727709 31.708455 179 179 179 0
-1.083819 0.722546 31.483490 180 180 180 0
-0.885645 0.664234 28.942653 184 184 184 0
-0.851615 0.729955 31.806338 186 186 186 0
-0.724235 0.724235 31.557064 186 186 186 0
-0.597127 0.716553 31.222333 186 186 186 0
-0.474648 0.711971 31.022713 188 188 188 0
-0.355047 0.710095 30.940938 192 192 192 0
-0.237471 0.712412 31.041923 192 192 192 0
-0.118502 0.711011 30.980890 192 192 192 0
0.000000 0.707790 30.840536 192 192 192 0
0.117329 0.703977 30.674373 195 195 195 0
0.234302 0.702906 30.627716 196 196 196 0
0.351572 0.703145 30.638125 196 196 196 0
0.467838 0.701757 30.577635 196 196 196 0
0.583337 0.700004 30.501271 197 197 197 0
0.698428 0.698428 30.432603 199 199 199 0
0.812640 0.696548 30.350697 200 200 200 0
0.927765 0.695824 30.319109 200 200 200 0
1.044973 0.696649 30.355069 200 200 200 0
1.158803 0.695282 30.295506 200 200 200 0
1.272026 0.693832 30.232337 201 201 201 0
1.386235 0.693117 30.201192 202 202 202 0
1.497777 0.691282 30.121209 203 203 203 0
1.611054 0.690452 30.085040 203 203 203 0
1.729585 0.691834 30.145265 204 204 204 0
1.840837 0.690314 30.079032 203 203 203 0
1.950017 0.688241 29.988733 205 205 205 0
2.062706 0.687569 29.959417 205 205 205 0
2.177124 0.687513 29.956980 205 205 205 0
2.295120 0.688536 30.001567 206 206 206 0
2.410295 0.688656 30.006791 205 205 205 0
2.523477 0.688221 29.987849 206 206 206 0
2.634755 0.687327 29.948907 207 207 207 0
2.748480 0.687120 29.939874 207 207 207 0
2.865202 0.687649 29.962899 207 207 207 0
2.982960 0.688375 29.994569 207 207 207 0
3.090408 0.686757 29.924065 207 207 207 0
3.200274 0.685773 29.881180 207 207 207 0
3.328967 0.688752 30.010969 208 208 208 0
3.454913 0.690983 30.108176 208 208 208 0
3.562704 0.689556 30.045997 208 208 208 0
3.666795 0.687524 29.957473 208 208 208 0
3.786654 0.688483 29.999239 208 208 208 0
3.922721 0.692245 30.163172 209 209 209 0
4.028314 0.690568 30.090110 208 208 208 0
4.132883 0.688814 30.013674 208 208 208 0
4.247021 0.688706 30.008984 208 208 208 0
4.387517 0.692766 30.185873 209 209 209 0
4.510315 0.693895 30.235061 209 209 209 0
4.617559 0.692634 30.180121 208 208 208 0
4.733417 0.692695 30.182799 209 209 209 0
4.871794 0.695971 30.325515 209 209 209 0
4.993099 0.696712 30.357801 208 208 208 0
5.109650 0.696770 30.360369 208 208 208 0
5.236779 0.698237 30.424279 208 208 208 0
5.382413 0.702054 30.590585 208 208 208 0
5.506909 0.703010 30.632227 208 208 208 0
5.621138 0.702642 30.616220 208 208 208 0
5.759957 0.705301 30.732065 208 208 208 0
5.910855 0.709303 30.906430 207 207 207 0
6.023284 0.708622 30.876760 207 207 207 0
6.149664 0.709577 30.918370 207 207 207 0
6.283342 0.711322 30.994413 207 207 207 0
6.430427 0.714492 31.132545 206 206 206 0
6.562885 0.715951 31.196127 206 206 206 0
6.711228 0.719060 31.331597 206 206 206 0
6.867351 0.722879 31.497996 205 205 205 0
7.020749 0.726284 31.646376 204 204 204 0
7.171431 0.729298 31.777695 204 204 204 0
7.324339 0.732434 31.914331 203 203 203 0
7.499665 0.737672 32.142569 203 203 203 0
7.661982 0.741482 32.308590 202 202 202 0
7.846655 0.747300 32.562111 201 201 201 0
8.029712 0.752786 32.801113 198 198 198 0
8.201001 0.757015 32.985422 197 197 197 0
8.414285 0.764935 33.330501 195 195 195 0
8.595738 0.769768 33.541070 193 193 193 0
8.865362 0.782238 34.084436 190 190 190 0
9.127007 0.793653 34.581822 184 184 184 0
9.370719 0.803205 34.998018 139 139 139 0
-3.078297 0.936873 34.990583 74 74 74 0
-2.944870 0.937004 34.995481 100 100 100 0
-2.811098 0.937033 34.996551 120 120 120 0
-2.638132 0.923346 34.485382 137 137 137 0
-2.465459 0.908327 33.924443 142 142 142 0
-2.307768 0.897465 33.518786 151 151 151 0
-2.152835 0.886461 33.107803 158 158 158 0
-2.008878 0.878884 32.824801 159 159 159 0
-1.871604 0.873415 32.620541 167 167 167 0
-1.744752 0.872376 32.581732 170 170 170 0
-1.619454 0.872013 32.568196 171 171 171 0
-1.483958 0.865642 32.330236 175 175 175 0
-1.346876 0.857103 32.011306 179 179 179 0
-1.211939 0.848357 31.684684 179 179 179 0
-1.083149 0.842450 31.464034 180 180 180 0
-0.900530 0.787964 29.429096 184 184 184 0
-0.850815 0.850815 31.776486 185 185 185 0
-0.724095 0.844778 31.550989 186 186 186 0
-0.597018 0.835825 31.216602 186 186 186 0
-0.474213 0.829873 30.994309 189 189 189 0
-0.355547 0.829609 30.984446 192 192 192 0
-0.237243 0.830350 31.012123 192 192 192 0
-0.118548 0.829837 30.992968 192 192 192 0
0.000000 0.825629 30.835824 192 192 192 0
0.117356 0.821491 30.681255 195 195 195 0
0.234447 0.820564 30.646631 196 196 196 0
0.351759 0.820772 30.654405 196 196 196 0
0.467871 0.818774 30.579789 197 197 197 0
0.583517 0.816923 30.510681 197 197 197 0
0.698213 0.814582 30.423219 199 199 199 0
0.812577 0.812577 30.348343 200 200 200 0
0.927257 0.811350 30.302508 200 200 200 0
1.044828 0.812644 30.350851 200 200 200 0
1.158728 0.811110 30.293539 200 200 200 0
1.272531 0.809792 30.244347 201 201 201 0
1.385286 0.808084 30.180533 202 202 202 0
1.497031 0.806094 30.106206 203 203 203 0
1.610633 0.805317 30.077182 203 203 203 0
1.729759 0.807221 30.148309 203 203 203 0
1.840605 0.805264 30.075238 203 203 203 0
1.950143 0.803000 29.990662 205 205 205 0
2.061632 0.801746 29.943813 206 206 206 0
2.175634 0.801550 29.936490 205 205 205 0
2.293814 0.802835 29.984497 205 205 205 0
2.409885 0.803295 30.001676 206 206 206 0
2.524131 0.803133 29.995613 206 206 206 0
2.634975 0.801949 29.951405 207 207 207 0
2.748642 0.801687 29.941637 207 207 207 0
2.864108 0.801950 29.951453 207 207 207 0
2.983969 0.803376 30.004715 207 207 207 0
3.090936 0.801354 29.929182 207 207 207 0
3.200093 0.800023 29.879490 208 208 208 0
3.328816 0.803507 30.009612 207 207 207 0
3.453393 0.805792 30.094926 208 208 208 0
3.562278 0.804385 30.042405 208 208 208 0
3.666720 0.802095 29.956860 208 208 208 0
3.784864 0.802850 29.985061 208 208 208 0
3.920325 0.807126 30.144748 209 209 209 0
4.028375 0.805675 30.090571 209 209 209 0
4.132665 0.803574 30.012095 208 208 208 0
4.247080 0.803502 30.009396 209 209 209 0
4.386663 0.808070 30.180003 209 209 209 0
4.509959 0.809480 30.232676 209 209 209 0
4.616940 0.807964 30.176075 209 209 209 0
4.732475 0.807983 30.176787 208 208 208 0
4.867421 0.811237 30.298292 208 208 208 0
4.992437 0.812722 30.353774 209 209 209 0
5.108349 0.812692 30.352639 209 209 209 0
5.236740 0.814604 30.424050 208 208 208 0
5.380450 0.818764 30.579426 208 208 208 0
5.506493 0.820116 30.629918 208 208 208 0
5.618520 0.819368 30.601962 208 208 208 0
5.761232 0.823033 30.738868 207 207 207 0
5.911601 0.827624 30.910330 207 207 207 0
6.023354 0.826735 30.877120 208 208 208 0
6.147971 0.827611 30.909859 207 207 207 0
6.283786 0.829934 30.996603 207 207 207 0
6.431070 0.833657 31.135659 206 206 206 0
6.560869 0.835020 31.186545 206 206 206 0
6.712136 0.839017 31.335836 206 206 206 0
6.867212 0.843342 31.497359 205 205 205 0
7.015969 0.846755 31.624831 204 204 204 0
7.175492 0.851330 31.795688 204 204 204 0
7.321135 0.854132 31.900369 204 204 204 0
7.500144 0.860672 32.144622 202 202 202 0
7.661478 0.865006 32.306463 201 201 201 0
7.847314 0.871924 32.564847 200 200 200 0
8.029207 0.878194 32.799047 198 198 198 0
8.201092 0.883195 32.985789 197 197 197 0
8.415274 0.892529 33.334420 196 196 196 0
8.592660 0.897741 33.529061 193 193 193 0
8.864263 0.912498 34.080211 190 190 190 0
9.127206 0.925948 34.582575 184 184 184 0
9.370692 0.937069 34.997918 139 139 139 0
-3.078149 1.070661 34.988909 74 74 74 0
-2.944799 1.070836 34.994640 99 99 99 0
-2.811333 1.070984 34.999475 119 119 119 0
-2.642247 1.056899 34.539173 136 136 136 0
-2.466255 1.038423 33.935404 142 142 142 0
-2.305771 1.024787 33.489774 150 150 150 0
-2.152143 1.012773 33.097161 158 158 158 0
-2.007908 1.003954 32.808951 159 159 159 0
-1.873956 0.999443 32.661539 167 167 167 0
-1.745672 0.997527 32.598913 170 170 170 0
-1.618234 0.995836 32.543674 169 169 169 0
-1.483152 0.988768 32.312672 175 175 175 0
-1.346463 0.979246 32.001496 178 178 178 0
-1.212617 0.970094 31.702403 179 179 179 0
-1.082599 0.962310 31.448049 179 179 179 0
-0.905803 0.905803 29.601415 184 184 184 0
-0.851105 0.972691 31.787303 185 185 185 0
-0.723723 0.964964 31.534760 187 187 187 0
-0.597353 0.955765 31.234146 187 187 187 0
-0.474487 0.948974 31.012237 190 190 190 0
-0.355429 0.947811 30.974208 191 191 191 0
-0.237439 0.949756 31.037763 191 191 191 0
-0.118554 0.948436 30.994637 192 192 192 0
0.000000 0.943894 30.846211 192 192 192 0
0.117341 0.938732 30.677516 195 195 195 0
0.234444 0.937778 30.646332 196 196 196 0
0.351611 0.937628 30.641439 196 196 196 0
0.467975 0.935951 30.586628 197 197 197 0
0.583358 0.933373 30.502378 197 197 197 0
0.697875 0.930500 30.408495 199 199 199 0
0.811872 0.927854 30.322022 200 200 200 0
0.927860 0.927860 30.322207 200 200 200 0
1.044783 0.928696 30.349555 200 200 200 0
1.158646 0.926917 30.291403 200 200 200 0
1.272386 0.925372 30.240910 202 202 202 0
1.384639 0.923093 30.166425 202 202 202 0
1.497820 0.921735 30.122062 203 203 203 0
1.611548 0.920884 30.094259 203 203 203 0
1.729071 0.922171 30.136317 203 203 203 0
1.840546 0.920273 30.074279 204 204 204 0
1.951288 0.918253 30.008280 205 205 205 0
2.062066 0.916474 29.950122 205 205 205 0
2.177408 0.916803 29.960893 206 206 206 0
2.295523 0.918209 30.006832 205 205 205 0
2.408390 0.917482 29.983070 206 206 206 0
2.523815 0.917751 29.991858 207 207 207 0
2.633845 0.916120 29.938564 207 207 207 0
2.748661 0.916220 29.941838 207 207 207 0
2.863760 0.916403 29.947817 207 207 207 0
2.981731 0.917456 29.982216 207 207 207 0
3.091644 0.916043 29.936031 207 207 207 0
3.201306 0.914659 29.890814 208 208 208 0
3.327710 0.917989 29.999642 208 208 208 0
3.454197 0.921119 30.101936 208 208 208 0
3.560487 0.918835 30.027298 208 208 208 0
3.666281 0.916570 29.953279 208 208 208 0
3.781997 0.916848 29.962348 208 208 208 0
3.919426 0.922218 30.137837 209 209 209 0
4.028275 0.920749 30.089823 209 209 209 0
4.132692 0.918376 30.012286 209 209 209 0
4.247030 0.918277 30.009044 209 209 209 0
4.386825 0.923542 30.181113 208 208 208 0
4.512976 0.925739 30.252900 209 209 209 0
4.616998 0.923400 30.176458 208 208 208 0
4.733751 0.923659 30.184923 209 209 209 0
4.867625 0.927167 30.299564 209 209 209 0
4.994751 0.929256 30.367845 208 208 208 0
5.109043 0.928917 30.356764 208 208 208 0
5.232245 0.930177 30.397937 208 208 208 0
5.381456 0.935905 30.585145 208 208 208 0
5.507519 0.937450 30.635623 208 208 208 0
5.618982 0.936497 30.604480 208 208 208 0
5.760886 0.940553 30.737022 208 208 208 0
5.909732 0.945557 30.900557 207 207 207 0
6.024641 0.945042 30.883716 206 206 206 0
6.148994 0.945999 30.915004 207 207 207 0
6.283540 0.948459 30.995386 206 206 206 0
6.433074 0.953048 31.145361 206 206 206 0
6.560483 0.954252 31.184706 205 205 205 0
6.711013 0.958716 31.330593 206 206 206 0
6.865579 0.963590 31.489870 205 205 205 0
7.017807 0.967973 31.633118 204 204 204 0
7.167598 0.971878 31.760708 204 204 204 0
7.322114 0.976282 31.904638 204 204 204 0
7.499865 0.983589 32.143426 201 201 201 0
7.662359 0.988692 32.310181 201 201 201 0
7.849548 0.996768 32.574116 201 201 201 0
8.029430 1.003679 32.799961 198 198 198 0
8.202610 1.009552 32.991897 197 197 197 0
8.413512 1.019820 33.327440 195 195 195 0
8.593859 1.026132 33.533739 193 193 193 0
8.865836 1.043039 34.086258 189 189 189 0
9.141065 1.059834 34.635085 184 184 184 0
9.370708 1.070938 34.997977 133 133 133 0
-3.078006 1.204437 34.987275 72 72 72 0
-2.944710 1.204654 34.993581 96 96 96 0
-2.811252 1.204822 34.998469 119 119 119 0
-2.646541 1.190943 34.595301 136 136 136 0
-2.466728 1.168450 33.941905 142 142 142 0
-2.306999 1.153500 33.507615 150 150 150 0
-2.154448 1.140590 33.132614 158 158 158 0
-2.008671 1.129877 32.821414 158 158 158 0
-1.872523 1.123514 32.636571 166 166 166 0
-1.747379 1.123315 32.630785 170 170 170 0
-1.618448 1.120464 32.547982 170 170 170 0
-1.483124 1.112343 32.312074 175 175 175 0
-1.346220 1.101453 31.995726 178 178 178 0
-1.212366 1.091129 31.695845 179 179 179 0
-1.082562 1.082562 31.446975 179 179 179 0
-0.898876 1.011236 29.375048 184 184 184 0
-0.851691 1.095031 31.809188 186 186 186 0
-0.723625 1.085437 31.530492 186 186 186 0
-0.597452 1.075414 31.239333 186 186 186 0
-0.474602 1.067854 31.019717 188 188 188 0
-0.355432 1.066295 30.974436 191 191 191 0
-0.237581 1.069115 31.056361 191 191 191 0
-0.118629 1.067658 31.014019 192 192 192 0
0.000000 1.061529 30.835993 192 192 192 0
0.117342 1.056074 30.677543 195 195 195 0
0.234298 1.054339 30.627125 197 197 197 0
0.351553 1.054659 30.636425 197 197 197 0
0.467806 1.052564 30.575572 196 196 196 0
0.583415 1.050147 30.505349 197 197 197 0
0.697821 1.046731 30.406132 198 198 198 0
0.812636 1.044818 30.350560 200 200 200 0
0.927399 1.043324 30.307164 200 200 200 0
1.045095 1.045095 30.358607 200 200 200 0
1.158472 1.042624 30.286838 200 200 200 0
1.272588 1.041209 30.245714 201 201 201 0
1.386276 1.039707 30.202096 202 202 202 0
1.498925 1.037717 30.144285 203 203 203 0
1.611246 1.035801 30.088620 203 203 203 0
1.730334 1.038200 30.158328 203 203 203 0
1.840196 1.035110 30.068567 203 203 203 0
1.951025 1.032896 30.004235 205 205 205 0
2.061399 1.030699 29.940430 205 205 205 0
2.177599 1.031494 29.963526 205 205 205 0
2.294293 1.032432 29.990757 206 206 206 0
2.410724 1.033167 30.012126 205 205 205 0
2.523570 1.032370 29.988950 206 206 206 0
2.633549 1.030519 29.935203 207 207 207 0
2.747684 1.030382 29.931200 207 207 207 0
2.864674 1.031283 29.957380 207 207 207 0
2.982861 1.032529 29.993575 207 207 207 0
3.091374 1.030458 29.933422 207 207 207 0
3.200606 1.028766 29.884281 208 208 208 0
3.328950 1.033122 30.010817 207 207 207 0
3.454830 1.036449 30.107448 208 208 208 0
3.561957 1.034116 30.039693 208 208 208 0
3.666426 1.031182 29.954458 208 208 208 0
3.785182 1.032322 29.987575 209 209 209 0
3.921550 1.038057 30.154173 208 208 208 0
4.028302 1.035849 30.090027 209 209 209 0
4.132293 1.033073 30.009387 209 209 209 0
4.248594 1.033442 30.020096 208 208 208 0
4.386070 1.038806 30.175918 209 209 209 0
4.512135 1.041262 30.247257 208 208 208 0
4.617636 1.038968 30.180625 209 209 209 0
4.734319 1.039241 30.188548 208 208 208 0
4.868067 1.043157 30.302316 208 208 208 0
4.992942 1.045034 30.356846 209 209 209 0
5.108128 1.044844 30.351324 209 209 209 0
5.233445 1.046689 30.404907 208 208 208 0
5.380389 1.052685 30.579077 208 208 208 0
5.506437 1.054424 30.629602 209 209 209 0
5.621269 1.053988 30.616933 208 208 208 0
5.761126 1.058166 30.738299 208 208 208 0
5.911796 1.064123 30.911351 207 207 207 0
6.023465 1.062964 30.877688 207 207 207 0
6.149898 1.064405 30.919549 207 207 207 0
6.284471 1.067174 30.999981 206 206 206 0
6.430323 1.071720 31.132040 206 206 206 0
6.560478 1.073533 31.184687 206 206 206 0
6.711410 1.078620 31.332448 206 206 206 0
6.865276 1.083991 31.488479 205 205 205 0
7.016929 1.088834 31.629161 204 204 204 0
7.165243 1.093003 31.750273 203 203 203 0
7.323005 1.098451 31.908519 203 203 203 0
7.503563 1.107083 32.159274 202 202 202 0
7.661474 1.112149 32.306448 200 200 200 0
7.849370 1.121339 32.573378 201 201 201 0
8.029708 1.129178 32.801096 198 198 198 0
8.205287 1.136117 33.002661 197 197 197 0
8.417503 1.147841 33.343249 195 195 195 0
8.594171 1.154441 33.534957 193 193 193 0
8.870762 1.174071 34.105199 189 189 189 0
9.160696 1.194873 34.709468 183 183 183 0
9.370713 1.204806 34.997994 126 126 126 0
-3.077819 1.338182 34.985160 71 71 71 0
-2.944574 1.338443 34.991970 95 95 95 0
-2.811199 1.338666 34.997812 119 119 119 0
-2.650051 1.325026 34.641194 134 134 134 0
-2.469987 1.299993 33.986743 141 141 141 0
-2.312836 1.284909 33.592396 149 149 149 0
-2.154223 1.267190 33.129154 158 158 158 0
-2.007788 1.254868 32.807002 158 158 158 0
-1.874454 1.249636 32.670225 166 166 166 0
-1.746973 1.247838 32.623209 170 170 170 0
-1.619324 1.245634 32.565584 170 170 170 0
-1.482396 1.235330 32.296212 174 174 174 0
-1.346590 1.224173 32.004523 179 179 179 0
-1.214281 1.214281 31.745905 179 179 179 0
-1.085868 1.206520 31.542998 179 179 179 0
-0.877992 1.097489 28.692533 183 183 183 0
-0.851491 1.216416 31.801722 186 186 186 0
-0.723947 1.206578 31.544528 186 186 186 0
-0.597288 1.194576 31.230740 186 186 186 0
-0.474691 1.186727 31.025532 189 189 189 0
-0.355584 1.185280 30.987711 191 191 191 0
-0.237668 1.188341 31.067731 191 191 191 0
-0.118602 1.186023 31.007131 192 192 192 0
0.000000 1.179862 30.846073 192 192 192 0
0.117365 1.173654 30.683778 195 195 195 0
0.234400 1.172002 30.640569 195 195 195 0
0.351793 1.172644 30.657347 197 197 197 0
0.467859 1.169646 30.578988 197 197 197 0
0.583446 1.166893 30.507005 197 197 197 0
0.698152 1.163587 30.420581 199 199 199 0
0.812964 1.161377 30.362788 201 201 201 0
0.927791 1.159739 30.319971 200 200 200 0
1.045177 1.161308 30.360991 200 200 200 0
1.159425 1.159425 30.311755 200 200 200 0
1.272861 1.157146 30.252191 201 201 201 0
1.385840 1.154866 30.192587 203 203 203 0
1.498641 1.152801 30.138590 203 203 203 0
1.611673 1.151195 30.096595 203 203 203 0
1.730629 1.153753 30.163476 204 204 204 0
1.841422 1.150889 30.088597 203 203 203 0
1.950914 1.147596 30.002517 205 205 205 0
2.062400 1.145778 29.954969 205 205 205 0
2.177512 1.146059 29.962332 205 205 205 0
2.294748 1.147374 29.996708 205 205 205 0
2.410189 1.147709 30.005470 206 206 206 0
2.523756 1.147162 29.991154 205 205 205 0
2.634298 1.145347 29.943716 207 207 207 0
2.748860 1.145358 29.944013 207 207 207 0
2.868116 1.147246 29.993366 207 207 207 0
2.984060 1.147715 30.005633 207 207 207 0
3.094609 1.146152 29.964746 208 208 208 0
3.203589 1.144139 29.912128 207 207 207 0
3.331060 1.148641 30.029839 207 207 207 0
3.455080 1.151693 30.109630 208 208 208 0
3.562168 1.149086 30.041475 208 208 208 0
3.668030 1.146259 29.967568 208 208 208 0
3.786120 1.147309 29.995007 208 208 208 0
3.921487 1.153379 30.153690 209 209 209 0
4.027257 1.150645 30.082220 209 209 209 0
4.133519 1.148200 30.018290 208 208 208 0
4.249913 1.148625 30.029416 208 208 208 0
4.388351 1.154829 30.191614 209 209 209 0
4.511128 1.156699 30.240508 208 208 208 0
4.614428 1.153607 30.159661 208 208 208 0
4.733279 1.154458 30.181919 208 208 208 0
4.868128 1.159078 30.302693 208 208 208 0
4.992535 1.161055 30.354371 208 208 208 0
5.108001 1.160909 30.350570 208 208 208 0
5.234186 1.163152 30.409216 208 208 208 0
5.381887 1.169975 30.587592 208 208 208 0
5.504776 1.171229 30.620362 208 208 208 0
5.621470 1.171140 30.618031 208 208 208 0
5.760149 1.175541 30.733088 207 207 207 0
5.909935 1.181987 30.901620 208 208 208 0
6.024425 1.181260 30.882611 207 207 207 0
6.149650 1.182625 30.918298 207 207 207 0
6.285303 1.185906 31.004086 207 207 207 0
6.433201 1.191334 31.145975 206 206 206 0
6.562312 1.193148 31.193402 205 205 205 0
6.713200 1.198786 31.340802 205 205 205 0
6.864495 1.204297 31.484897 205 205 205 0
7.016979 1.209824 31.629386 204 204 204 0
7.166718 1.214698 31.756809 203 203 203 0
7.326033 1.221005 31.921711 203 203 203 0
7.506119 1.230511 32.170228 201 201 201 0
7.660289 1.235530 32.301449 200 200 200 0
7.853213 1.246542 32.589327 200 200 200 0
8.032676 1.255106 32.813219 198 198 198 0
8.211756 1.263347 33.028680 197 197 197 0
8.423821 1.276337 33.368276 194 194 194 0
8.599915 1.283569 33.557370 193 193 193 0
8.874282 1.305042 34.118733 189 189 189 0
9.170702 1.329087 34.747380 182 182 182 0
9.370717 1.338674 34.998011 122 122 122 0
-2.944427 1.472214 34.990223 92 92 92 0
-2.811131 1.472497 34.996965 119 119 119 0
-2.650269 1.457648 34.644044 133 133 133 0
-2.470454 1.430263 33.993173 142 142 142 0
-2.308173 1.410550 33.524661 148 148 148 0
-2.150835 1.391717 33.077052 157 157 157 0
-2.007292 1.380013 32.798893 158 158 158 0
-1.873286 1.373743 32.649860 165 165 165 0
-1.747701 1.373194 32.636806 169 169 169 0
-1.619391 1.370254 32.566944 170 170 170 0
-1.483210 1.359609 32.313944 174 174 174 0
-1.346965 1.346965 32.013438 178 178 178 0
-1.215804 1.337385 31.785736 179 179 179 0
-1.086181 1.327555 31.552103 180 180 180 0
-0.855929 1.176902 27.971529 183 183 183 0
-0.850668 1.336765 31.770998 186 186 186 0
-0.724330 1.327939 31.561241 186 186 186 0
-0.597720 1.314983 31.253312 186 186 186 0
-0.474868 1.305888 31.037138 188 188 188 0
-0.355949 1.305145 31.019485 191 191 191 0
-0.237695 1.307323 31.071246 192 192 192 0
-0.118669 1.305356 31.024506 192 192 192 0
0.000000 1.298060 30.851109 192 192 192 0
0.117406 1.291468 30.694429 194 194 194 0
0.234476 1.289617 30.650436 196 196 196 0
0.351894 1.290276 30.666104 196 196 196 0
0.467782 1.286401 30.574007 197 197 197 0
0.583810 1.284383 30.526032 196 196 196 0
0.698547 1.280669 30.437759 199 199 199 0
0.812908 1.277427 30.360715 199 199 199 0
0.928240 1.276330 30.334631 201 201 201 0
1.045734 1.278119 30.377171 200 200 200 0
1.160171 1.276188 30.331267 201 201 201 0
1.273746 1.273746 30.273237 202 202 202 0
1.386065 1.270559 30.197487 203 203 203 0
1.499037 1.268416 30.146540 203 203 203 0
1.612323 1.266825 30.108736 203 203 203 0
1.731534 1.269791 30.179238 202 202 202 0
1.840947 1.265651 30.080828 203 203 203 0
1.951515 1.262745 30.011772 204 204 204 0
2.062214 1.260242 29.952279 205 205 205 0
2.178111 1.261012 29.970568 205 205 205 0
2.295258 1.262392 30.003376 205 205 205 0
2.411382 1.263105 30.020313 205 205 205 0
2.523547 1.261773 29.988670 205 205 205 0
2.635172 1.260300 29.953643 206 206 206 0
2.749114 1.260011 29.946775 206 206 206 0
2.867702 1.261789 29.989038 207 207 207 0
2.983793 1.262374 30.002944 207 207 207 0
3.093524 1.260325 29.954242 207 207 207 0
3.201616 1.257778 29.893707 207 207 207 0
3.332796 1.264164 30.045490 208 208 208 0
3.455135 1.266883 30.110113 208 208 208 0
3.564877 1.264956 30.064323 208 208 208 0
3.668164 1.260931 29.968661 207 207 207 0
3.786837 1.262279 30.000688 208 208 208 0
3.924081 1.269556 30.173631 208 208 208 0
4.029920 1.266546 30.102113 208 208 208 0
4.133798 1.263105 30.020319 208 208 208 0
4.248476 1.263061 30.019264 208 208 208 0
4.389186 1.270554 30.197360 209 209 209 0
4.512342 1.272712 30.248646 209 209 209 0
4.617014 1.269679 30.176563 208 208 208 0
4.733702 1.270018 30.184616 209 209 209 0
4.868719 1.275141 30.306373 208 208 208 0
4.995386 1.277889 30.371705 209 209 209 0
5.111224 1.277806 30.369722 208 208 208 0
5.236377 1.280003 30.421944 208 208 208 0
5.382110 1.287026 30.588861 208 208 208 0
5.510067 1.289590 30.649796 207 207 207 0
5.620447 1.288019 30.612454 207 207 207 0
5.761073 1.293302 30.738018 208 208 208 0
5.911298 1.300486 30.908747 207 207 207 0
6.026654 1.299867 30.894036 207 207 207 0
6.151327 1.301242 30.926734 207 207 207 0
6.287987 1.305054 31.017324 206 206 206 0
6.436966 1.311234 31.164203 206 206 206 0
6.561982 1.312396 31.191836 206 206 206 0
6.715457 1.319108 31.351341 205 205 205 0
6.865818 1.324983 31.490969 205 205 205 0
7.020305 1.331437 31.644377 204 204 204 0
7.173304 1.337396 31.785994 203 203 203 0
7.331255 1.344063 31.944468 203 203 203 0
7.506884 1.353700 32.173508 201 201 201 0
7.668324 1.360509 32.335334 201 201 201 0
7.853724 1.371285 32.591446 200 200 200 0
8.034607 1.380948 32.821105 197 197 197 0
8.216793 1.390534 33.048940 197 197 197 0
8.425050 1.404175 33.373142 194 194 194 0
8.608997 1.413417 33.592808 192 192 192 0
8.880525 1.436556 34.142735 189 189 189 0
9.180226 1.463514 34.783464 180 180 180 0
9.370704 1.472539 34.997959 116 116 116 0
-2.944336 1.606001 34.989138 89 89 89 0
-2.811077 1.606330 34.996286 118 118 118 0
-2.651148 1.590689 34.655528 130 130 130 0
-2.480991 1.566942 34.138160 141 141 141 0
-2.308773 1.539182 33.533376 146 146 146 0
-2.155767 1.521718 33.152897 157 157 157 0
-2.010610 1.507958 32.853106 158 158 158 0
-1.875752 1.500601 32.692841 163 163 163 0
-1.748933 1.499086 32.659816 170 170 170 0
-1.621180 1.496474 32.602917 170 170 170 0
-1.483588 1.483588 32.322171 172 172 172 0
-1.347508 1.470009 32.026337 179 179 179 0
-1.216397 1.459677 31.801232 180 180 180 0
-1.087806 1.450408 31.599292 180 180 180 0
-0.820764 1.231146 26.822347 182 182 182 0
-0.850218 1.457517 31.754183 186 186 186 0
-0.724097 1.448195 31.551081 187 187 187 0
-0.597858 1.434860 31.260564 186 186 186 0
-0.475103 1.425308 31.052471 188 188 188 0
-0.355847 1.423387 31.010609 191 191 191 0
-0.237834 1.427004 31.089406 192 192 192 0
-0.118641 1.423691 31.017224 193 193 193 0
0.000000 1.415718 30.843527 192 192 192 0
0.117473 1.409681 30.712008 195 195 195 0
0.234542 1.407254 30.659128 197 197 197 0
0.351668 1.406672 30.646450 196 196 196 0
0.468504 1.405513 30.621208 197 197 197 0
0.584084 1.401801 30.540321 196 196 196 0
0.698543 1.397086 30.437593 198 198 198 0
0.812932 1.393597 30.361594 200 200 200 0
0.927952 1.391928 30.325223 199 199 199 0
1.046588 1.395451 30.401984 201 201 201 0
1.160187 1.392225 30.331698 200 200 200 0
1.273344 1.389103 30.263675 201 201 201 0
1.386657 1.386657 30.210393 202 202 202 0
1.498704 1.383419 30.139853 203 203 203 0
1.612030 1.381740 30.103265 203 203 203 0
1.731830 1.385464 30.184396 204 204 204 0
1.843413 1.382560 30.121130 203 203 203 0
1.952126 1.377971 30.021159 204 204 204 0
2.063019 1.375346 29.963959 205 205 205 0
2.178609 1.375964 29.977421 205 205 205 0
2.297780 1.378668 30.036338 206 206 206 0
2.412578 1.378616 30.035202 205 205 205 0
2.523883 1.376664 29.992673 205 205 205 0
2.636074 1.375343 29.963897 205 205 205 0
2.750687 1.375343 29.963907 206 206 206 0
2.868374 1.376819 29.996066 207 207 207 0
2.985215 1.377792 30.017247 207 207 207 0
3.094838 1.375483 29.966958 207 207 207 0
3.204993 1.373568 29.925237 208 208 208 0
3.332403 1.378925 30.041943 208 208 208 0
3.459860 1.383944 30.151281 208 208 208 0
3.565964 1.380373 30.073492 208 208 208 0
3.667458 1.375297 29.962896 208 208 208 0
3.790053 1.378201 30.026164 208 208 208 0
3.925640 1.385520 30.185618 208 208 208 0
4.032075 1.382426 30.118207 208 208 208 0
4.133743 1.377914 30.019917 208 208 208 0
4.250647 1.378588 30.034602 208 208 208 0
4.391677 1.386845 30.214497 208 208 208 0
4.512926 1.388593 30.252564 208 208 208 0
4.620821 1.386246 30.201446 208 208 208 0
4.738402 1.386849 30.214581 208 208 208 0
4.868495 1.390999 30.304982 208 208 208 0
4.996550 1.394386 30.378783 209 209 209 0
5.112680 1.394367 30.378374 208 208 208 0
5.237648 1.396706 30.429329 208 208 208 0
5.385705 1.404967 30.609294 208 208 208 0
5.512441 1.407432 30.663001 208 208 208 0
5.622531 1.405633 30.623806 208 208 208 0
5.764994 1.411835 30.758938 207 207 207 0
5.913150 1.419156 30.918432 207 207 207 0
6.028145 1.418387 30.901678 207 207 207 0
6.156354 1.420697 30.952004 206 206 206 0
6.290507 1.424266 31.029755 207 207 207 0
6.440774 1.431283 31.182637 206 206 206 0
6.564683 1.432295 31.204675 206 206 206 0
6.719334 1.439857 31.369440 206 206 206 0
6.868060 1.445907 31.501249 205 205 205 0
7.022907 1.453015 31.656104 204 204 204 0
7.175534 1.459431 31.795874 203 203 203 0
7.339796 1.467959 31.981682 203 203 203 0
7.515003 1.478361 32.208307 201 201 201 0
7.671477 1.484802 32.348628 201 201 201 0
7.862029 1.497529 32.625911 200 200 200 0
8.038208 1.507164 32.835816 197 197 197 0
8.225880 1.518624 33.085489 198 198 198 0
8.436981 1.533997 33.420404 195 195 195 0
8.617784 1.543484 33.627095 192 192 192 0
8.893677 1.569472 34.193298 188 188 188 0
9.202247 1.600391 34.866901 176 176 176 0
9.370827 1.606428 34.998421 101 101 101 0
-2.944189 1.739748 34.987396 85 85 85 0
-2.811035 1.740165 34.995767 114 114 114 0
-2.656306 1.726599 34.722959 127 127 127 0
-2.481210 1.697670 34.141175 142 142 142 0
-2.317011 1.673397 33.653023 145 145 145 0
-2.159654 1.651500 33.212665 156 156 156 0
-2.012040 1.634783 32.876477 158 158 158 0
-1.877774 1.627404 32.728079 163 163 163 0
-1.750340 1.625316 32.686085 169 169 169 0
-1.620947 1.620947 32.598227 170 170 170 0
-1.483272 1.606878 32.315302 171 171 171 0
-1.347228 1.592178 32.019675 178 178 178 0
-1.216332 1.581232 31.799528 179 179 179 0
-1.090865 1.575694 31.688162 179 179 179 0
-1.070918 1.740241 34.997313 181 181 181 0
-0.848694 1.576145 31.697240 186 186 186 0
-0.723846 1.568333 31.540123 186 186 186 0
-0.598065 1.554968 31.271359 186 186 186 0
-0.475519 1.545436 31.079650 187 187 187 0
-0.356174 1.543419 31.039088 191 191 191 0
-0.237933 1.546566 31.102390 191 191 191 0
-0.118679 1.542823 31.027104 192 192 192 0
0.000000 1.534779 30.865335 192 192 192 0
0.117415 1.526401 30.696845 193 193 193 0
0.234469 1.524049 30.649557 197 197 197 0
0.351995 1.525312 30.674951 196 196 196 0
0.468433 1.522406 30.616520 196 196 196 0
0.584340 1.519283 30.553709 197 197 197 0
0.698717 1.513888 30.445204 197 197 197 0
0.813274 1.510367 30.374392 200 200 200 0
0.929319 1.510143 30.369890 200 200 200 0
1.046543 1.511673 30.400673 200 200 200 0
1.160125 1.508162 30.330065 200 200 200 0
1.274313 1.506006 30.286694 201 201 201 0
1.387776 1.503424 30.234775 202 202 202 0
1.501222 1.501222 30.190496 203 203 203 0
1.593800 1.479957 29.762837 203 203 203 0
1.732060 1.501118 30.188406 203 203 203 0
1.842184 1.496774 30.101039 204 204 204 0
1.952677 1.493224 30.029637 203 203 203 0
2.064551 1.491065 29.986220 204 204 204 0
2.180897 1.492192 30.008898 205 205 205 0
2.297394 1.493306 30.031290 206 206 206 0
2.410861 1.492438 30.013827 205 205 205 0
2.525081 1.492094 30.006909 205 205 205 0
2.637270 1.490631 29.977499 206 206 206 0
2.749986 1.489576 29.956270 206 206 206 0
2.869066 1.491914 30.003301 207 207 207 0
2.987782 1.493891 30.043055 207 207 207 0
3.095400 1.490378 29.972404 207 207 207 0
3.206960 1.488946 29.943602 207 207 207 0
3.335573 1.495257 30.070527 207 207 207 0
3.457915 1.498430 30.134339 208 208 208 0
3.564771 1.494904 30.063431 208 208 208 0
3.672244 1.491849 30.001996 208 208 208 0
3.791436 1.493596 30.037123 207 207 207 0
3.929504 1.502457 30.215330 208 208 208 0
4.034155 1.498400 30.133745 208 208 208 0
4.135387 1.493334 30.031857 208 208 208 0
4.250851 1.493542 30.036045 208 208 208 0
4.392206 1.502597 30.218138 208 208 208 0
4.512714 1.504238 30.251141 209 209 209 0
4.622263 1.502236 30.210871 208 208 208 0
4.738938 1.502590 30.218001 209 209 209 0
4.870095 1.507410 30.314940 209 209 209 0
4.996030 1.510428 30.375621 208 208 208 0
5.113882 1.510920 30.385512 208 208 208 0
5.240792 1.514006 30.447591 208 208 208 0
5.391171 1.523592 30.640360 208 208 208 0
5.516034 1.525712 30.682987 208 208 208 0
5.624470 1.523294 30.634370 208 208 208 0
5.769307 1.530633 30.781951 207 207 207 0
5.914787 1.537845 30.926989 206 206 206 0
6.029663 1.536973 30.909462 207 207 207 0
6.159713 1.539928 30.968896 206 206 206 0
6.297041 1.544557 31.061986 206 206 206 0
6.440890 1.550585 31.183200 206 206 206 0
6.570421 1.553009 31.231946 206 206 206 0
6.721130 1.560262 31.377824 205 205 205 0
6.872223 1.567349 31.520343 205 205 205 0
7.024733 1.574509 31.664337 204 204 204 0
7.183381 1.582779 31.830645 203 203 203 0
7.346406 1.591721 32.010482 202 202 202 0
7.520215 1.602669 32.230644 201 201 201 0
7.673818 1.609026 32.358498 200 200 200 0
7.857918 1.621475 32.608853 200 200 200 0
8.042073 1.633546 32.851604 197 197 197 0
8.228552 1.645710 33.096238 196 196 196 0
8.442651 1.662946 33.442863 194 194 194 0
8.628385 1.674164 33.668460 191 191 191 0
8.911727 1.703713 34.262696 187 187 187 0
9.230436 1.739068 34.973707 171 171 171 0
9.370705 1.740274 34.997966 92 92 92 0
-2.944150 1.873550 34.986923 81 81 81 0
-2.811048 1.874032 34.995929 111 111 111 0
-2.656374 1.859462 34.723845 124 124 124 0
-2.484209 1.830470 34.182439 141 141 141 0
-2.311544 1.797867 33.573622 143 143 143 0
-2.160114 1.778917 33.219745 156 156 156 0
-2.015204 1.763304 32.928178 158 158 158 0
-1.881171 1.755759 32.787292 161 161 161 0
-1.753414 1.753414 32.743490 169 169 169 0
-1.624081 1.749010 32.661259 170 170 170 0
-1.484949 1.732441 32.351831 171 171 171 0
-1.348183 1.715869 32.042381 177 177 177 0
-1.216988 1.703783 31.816675 178 178 178 0
-1.093040 1.700284 31.751333 179 179 179 0
-1.008430 1.764753 32.955231 181 181 181 0
-0.850276 1.700552 31.756344 185 185 185 0
-0.724169 1.689728 31.554203 186 186 186 0
-0.598307 1.675261 31.284046 186 186 186 0
-0.475886 1.665601 31.103654 186 186 186 0
-0.356341 1.662923 31.053657 190 190 190 0
-0.238084 1.666590 31.122129 192 192 192 0
-0.118669 1.661361 31.024485 191 191 191 0
0.000000 1.651921 30.848206 192 192 192 0
0.117488 1.644831 30.715804 193 193 193 0
0.234592 1.642145 30.665646 195 195 195 0
0.352204 1.643620 30.693178 196 196 196 0
0.468552 1.639934 30.624346 196 196 196 0
0.584591 1.636855 30.566847 197 197 197 0
0.699385 1.631899 30.474297 197 197 197 0
0.814447 1.628893 30.418173 199 199 199 0
0.929831 1.627204 30.386620 200 200 200 0
1.046748 1.628275 30.406637 200 200 200 0
1.161753 1.626454 30.372620 201 201 201 0
1.275505 1.623371 30.315044 201 201 201 0
1.389150 1.620675 30.264702 201 201 201 0
1.502793 1.618392 30.222072 203 203 203 0
1.442889 1.442889 26.944704 203 203 203 0
1.732267 1.616783 30.192023 203 203 203 0
1.843136 1.612744 30.116599 203 203 203 0
1.955067 1.610055 30.066387 204 204 204 0
2.065267 1.606319 29.996619 204 204 204 0
2.182243 1.607968 30.027421 205 205 205 0
2.299108 1.609375 30.053694 206 206 206 0
2.412044 1.608030 30.028564 205 205 205 0
2.525952 1.607424 30.017253 206 206 206 0
2.637257 1.605287 29.977346 206 206 206 0
2.750893 1.604688 29.966159 206 206 206 0
2.871149 1.607843 30.025088 207 207 207 0
2.987829 1.608831 30.043534 206 206 206 0
3.096499 1.605592 29.983050 207 207 207 0
3.211159 1.605580 29.982815 207 207 207 0
3.337864 1.611383 30.091177 207 207 207 0
3.459016 1.614208 30.143934 208 208 208 0
3.565704 1.610318 30.071298 208 208 208 0
3.670435 1.605815 29.987213 208 208 208 0
3.792056 1.608751 30.042032 208 208 208 0
3.929447 1.618008 30.214895 208 208 208 0
4.035928 1.614371 30.146985 208 208 208 0
4.137639 1.609082 30.048212 208 208 208 0
4.255290 1.610110 30.067405 208 208 208 0
4.396544 1.619779 30.247983 208 208 208 0
4.514615 1.620631 30.263887 208 208 208 0
4.624730 1.618655 30.226992 208 208 208 0
4.740638 1.618755 30.228843 208 208 208 0
4.875153 1.625051 30.346425 208 208 208 0
4.998802 1.627517 30.392475 208 208 208 0
5.113970 1.627172 30.386036 207 207 207 0
5.247505 1.632557 30.486595 208 208 208 0
5.395112 1.641991 30.662756 207 207 207 0
5.519582 1.644131 30.702724 208 208 208 0
5.628217 1.641563 30.654777 207 207 207 0
5.771416 1.648976 30.793202 207 207 207 0
5.915591 1.656366 30.931195 207 207 207 0
6.031552 1.655720 30.919142 207 207 207 0
6.161400 1.658839 30.977378 206 206 206 0
6.302852 1.664904 31.090649 205 205 205 0
6.450932 1.672464 31.231818 205 205 205 0
6.578352 1.674490 31.269648 205 205 205 0
6.726849 1.681712 31.404525 205 205 205 0
6.877526 1.689217 31.544668 203 203 203 0
7.033260 1.697683 31.702771 203 203 203 0
7.188180 1.705670 31.851911 203 203 203 0
7.356800 1.716587 32.055775 202 202 202 0
7.525473 1.727158 32.253177 200 200 200 0
7.679005 1.733969 32.380371 201 201 201 0
7.868809 1.748624 32.654046 198 198 198 0
8.044978 1.759839 32.863472 197 197 197 0
8.235198 1.773735 33.122967 197 197 197 0
8.458400 1.794206 33.505247 193 193 193 0
8.638093 1.804975 33.706341 191 191 191 0
8.934789 1.839515 34.351361 186 186 186 0
9.237080 1.874190 34.998882 165 165 165 0
9.370636 1.874127 34.997706 80 80 80 0
-2.944007 2.007277 34.985228 77 77 77 0
-2.810983 2.007845 34.995124 108 108 108 0
-2.657966 1.993474 34.744649 122 122 122 0
-2.484304 1.961292 34.183746 139 139 139 0
-2.319380 1.932817 33.687439 143 143 143 0
-2.163125 1.908640 33.266048 154 154 154 0
-2.017297 1.891216 32.962366 158 158 158 0
-1.884563 1.884563 32.846418 160 160 160 0
-1.755950 1.881375 32.790854 168 168 168 0
-1.626297 1.876496 32.705813 170 170 170 0
-1.485556 1.856945 32.365054 171 171 171 0
-1.348736 1.839185 32.055509 176 176 176 0
-1.216983 1.825475 31.816562 179 179 179 0
-1.092689 1.821148 31.741148 179 179 179 0
-0.976985 1.831846 31.927600 180 180 180 0
-0.852098 1.825924 31.824376 185 185 185 0
-0.724416 1.811041 31.564985 186 186 186 0
-0.598971 1.796914 31.318760 186 186 186 0
-0.476261 1.785980 31.128193 186 186 186 0
-0.356576 1.782881 31.074175 189 189 189 0
-0.238339 1.787540 31.155388 192 192 192 0
-0.118823 1.782341 31.064773 192 192 192 0
0.000000 1.769589 30.842514 192 192 192 0
0.117433 1.761500 30.701521 193 193 193 0
0.234727 1.760451 30.683237 196 196 196 0
0.352457 1.762286 30.715228 196 196 196 0
0.468933 1.758498 30.649202 196 196 196 0
0.584699 1.754096 30.572474 196 196 196 0
0.700229 1.750572 30.511064 197 197 197 0
0.815335 1.747146 30.451348 199 199 199 0
0.931457 1.746482 30.439774 200 200 200 0
1.048016 1.746693 30.443456 200 200 200 0
1.162376 1.743564 30.388915 201 201 201 0
1.275652 1.739526 30.318536 201 201 201 0
1.388720 1.735900 30.255339 200 200 200 0
1.505723 1.737372 30.281001 202 202 202 0
1.684622 1.804952 31.458858 203 203 203 0
1.731851 1.731851 30.184759 203 203 203 0
1.845765 1.730405 30.159565 204 204 204 0
1.954179 1.724275 30.052728 203 203 203 0
2.066463 1.722052 30.013984 204 204 204 0
2.183656 1.723939 30.046870 204 204 204 0
2.299921 1.724941 30.064333 206 206 206 0
2.413389 1.723849 30.045300 205 205 205 0
2.526062 1.722315 30.018563 205 205 205 0
2.638911 1.721029 29.996145 206 206 206 0
2.752757 1.720473 29.986465 206 206 206 0
2.872394 1.723436 30.038104 206 206 206 0
2.988933 1.724385 30.054634 207 207 207 0
3.098038 1.721132 29.997951 206 206 206 0
3.211149 1.720258 29.982714 207 207 207 0
3.340751 1.727975 30.117209 206 206 206 0
3.461540 1.730770 30.165926 207 207 207 0
3.567815 1.726362 30.089097 207 207 207 0
3.673502 1.721954 30.012271 207 207 207 0
3.790672 1.723033 30.031071 207 207 207 0
3.933043 1.735166 30.242547 208 208 208 0
4.037137 1.730202 30.156022 208 208 208 0
4.139090 1.724621 30.058748 207 207 207 0
4.258311 1.726342 30.088758 208 208 208 0
4.401800 1.737552 30.284139 209 209 209 0
4.515423 1.736701 30.269303 209 209 209 0
4.626790 1.735046 30.240458 208 208 208 0
4.747926 1.737046 30.275311 208 208 208 0
4.876639 1.741657 30.355673 208 208 208 0
5.004037 1.745594 30.424299 208 208 208 0
5.118306 1.744877 30.411802 208 208 208 0
5.254434 1.751478 30.526852 208 208 208 0
5.399167 1.760598 30.685804 208 208 208 0
5.524488 1.763135 30.730015 207 207 207 0
5.631698 1.759906 30.673738 207 207 207 0
5.775764 1.768091 30.816402 207 207 207 0
5.922292 1.776688 30.966233 206 206 206 0
6.034451 1.774838 30.934004 206 206 206 0
6.163517 1.777938 30.988020 207 207 207 0
6.307943 1.785267 31.115761 205 205 205 0
6.454910 1.793031 31.251079 206 206 206 0
6.589777 1.797212 31.323954 205 205 205 0
6.735318 1.804103 31.444062 205 205 205 0
6.887093 1.812393 31.588548 204 204 204 0
7.039304 1.820510 31.730017 203 203 203 0
7.196861 1.829710 31.890377 203 203 203 0
7.371343 1.842836 32.119144 201 201 201 0
7.532273 1.852198 32.282323 201 201 201 0
7.687375 1.859849 32.415664 200 200 200 0
7.873496 1.874642 32.673497 198 198 198 0
8.052967 1.887414 32.896105 197 197 197 0
8.251093 1.904098 33.186899 196 196 196 0
8.468554 1.924671 33.545472 193 193 193 0
8.662080 1.939272 33.799941 190 190 190 0
8.971619 1.979034 34.492959 185 185 185 0
9.236638 2.007965 34.997206 156 156 156 0
-2.943951 2.141055 34.984563 74 74 74 0
-2.810994 2.141710 34.995261 102 102 102 0
-2.657995 2.126396 34.745027 120 120 120 0
-2.481429 2.089624 34.144191 137 137 137 0
-2.323045 2.064929 33.740672 143 143 143 0
-2.165160 2.037798 33.297352 152 152 152 0
-2.021636 2.021636 33.033272 157 157 157 0
-1.889013 2.014947 32.923968 159 159 159 0
-1.759354 2.010690 32.854418 167 167 167 0
-1.626695 2.002086 32.713818 170 170 170 0
-1.486841 1.982455 32.393050 170 170 170 0
-1.350477 1.964331 32.096909 174 174 174 0
-1.217852 1.948564 31.839280 179 179 179 0
-1.094233 1.945304 31.786011 179 179 179 0
-0.977449 1.954897 31.942767 180 180 180 0
-0.851890 1.947178 31.816631 184 184 184 0
-0.724546 1.932124 31.570651 187 187 187 0
-0.599315 1.917808 31.336726 186 186 186 0
-0.476581 1.906326 31.149113 186 186 186 0
-0.357222 1.905185 31.130474 188 188 188 0
-0.238567 1.908540 31.185287 192 192 192 0
-0.118826 1.901216 31.065619 192 192 192 0
