ply
    format ascii 1.0
    element vertex 22347
    property float x
    property float y
    property float z
    property uchar red
    property uchar green
    property uchar blue
    property uchar alpha
    end_header
-4.311151 -7.737964 28.899959 205 205 205 0
-4.219710 -7.773149 29.031369 206 206 206 0
-4.112958 -7.781272 29.061707 206 206 206 0
-4.015424 -7.807769 29.160669 206 206 206 0
-3.902304 -7.804608 29.148862 206 206 206 0
-3.804347 -7.832479 29.252957 205 205 205 0
-3.689355 -7.825904 29.228400 207 207 207 0
-3.588180 -7.849143 29.315193 206 206 206 0
-3.478668 -7.855056 29.337279 206 206 206 0
-3.381267 -7.889623 29.466380 206 206 206 0
-3.268481 -7.889438 29.465689 205 205 205 0
-3.176863 -7.942157 29.662584 206 206 206 0
-3.069703 -7.958489 29.723582 207 207 207 0
-2.949299 -7.940419 29.656095 206 206 206 0
-2.835256 -7.938716 29.649734 206 206 206 0
-2.734864 -7.976686 29.791543 207 207 207 0
-2.625594 -7.990939 29.844776 207 207 207 0
-2.511082 -7.989806 29.840546 207 207 207 0
-2.388099 -7.960330 29.730458 208 208 208 0
-2.272822 -7.954878 29.710096 207 207 207 0
-2.178967 -8.027774 29.982350 207 207 207 0
-2.071231 -8.054788 30.083240 206 206 206 0
-1.950159 -8.030065 29.990904 207 207 207 0
-1.828019 -7.997582 29.869587 208 208 208 0
-1.722117 -8.036545 30.015107 207 207 207 0
-1.618217 -8.091083 30.218798 207 207 207 0
-1.502583 -8.090833 30.217865 206 206 206 0
-1.382884 -8.066825 30.128199 208 208 208 0
-1.268087 -8.069646 30.138734 207 207 207 0
-1.165151 -8.156055 30.461456 208 208 208 0
-1.050434 -8.170041 30.513692 207 207 207 0
-0.928366 -8.123203 30.338759 207 207 207 0
-0.810719 -8.107188 30.278948 207 207 207 0
-0.697411 -8.136462 30.388281 208 208 208 0
-0.583631 -8.170839 30.516671 209 209 209 0
-0.466512 -8.163952 30.490951 208 208 208 0
-0.346442 -8.083639 30.190995 182 182 182 0
-0.248583 -8.700410 32.494528 99 99 99 0
-0.124019 -8.681328 32.423260 99 99 99 0
0.000000 -8.599393 32.117249 100 100 100 0
0.122276 -8.559330 31.967619 102 102 102 0
0.239264 -8.374237 31.276330 100 100 100 0
0.257904 -6.017761 22.475296 102 102 102 0
0.339334 -5.938349 22.178709 103 103 103 0
0.419959 -5.879427 21.958644 100 100 100 0
0.483691 -5.643067 21.075880 100 100 100 0
0.690917 -6.909167 25.804544 157 157 157 0
0.784348 -6.863047 25.632297 203 203 203 0
0.889453 -6.917969 25.837420 205 205 205 0
0.993383 -6.953679 25.970789 205 205 205 0
1.095201 -6.969463 26.029739 205 205 205 0
1.197976 -6.988192 26.099689 205 205 205 0
1.304574 -7.024628 26.235772 205 205 205 0
1.857691 -9.288456 34.690779 204 204 204 0
1.518252 -7.085175 26.461904 204 204 204 0
2.130820 -9.322338 34.817323 204 204 204 0
2.263148 -9.318845 34.804276 203 203 203 0
2.409729 -9.371167 34.999692 204 204 204 0
2.543449 -9.370602 34.997580 204 204 204 0
2.677353 -9.370737 34.998083 204 204 204 0
2.811278 -9.370928 34.998797 204 204 204 0
2.944825 -9.369899 34.994953 203 203 203 0
3.078654 -9.369817 34.994646 203 203 203 0
3.212644 -9.370213 34.996126 203 203 203 0
3.346481 -9.370147 34.995881 203 203 203 0
3.480002 -9.369235 34.992474 204 204 204 0
3.613679 -9.368798 34.990841 203 203 203 0
3.747466 -9.368664 34.990341 203 203 203 0
3.881310 -9.368678 34.990395 203 203 203 0
4.014894 -9.368086 34.988182 203 203 203 0
4.148603 -9.367813 34.987165 203 203 203 0
4.282502 -9.367973 34.987761 203 203 203 0
4.416096 -9.367477 34.985907 202 202 202 0
4.549573 -9.366769 34.983263 201 201 201 0
4.683225 -9.366450 34.982074 202 202 202 0
4.816984 -9.366358 34.981729 202 202 202 0
4.950450 -9.365716 34.979333 202 202 202 0
5.084187 -9.365607 34.978924 202 202 202 0
5.217875 -9.365417 34.978217 201 201 201 0
5.351445 -9.365028 34.976763 201 201 201 0
5.485037 -9.364698 34.975528 201 201 201 0
5.618634 -9.364390 34.974381 201 201 201 0
5.752188 -9.364027 34.973022 201 201 201 0
5.885770 -9.363725 34.971895 201 201 201 0
6.019378 -9.363477 34.970971 201 201 201 0
6.152845 -9.363024 34.969279 200 200 200 0
6.286043 -9.362191 34.966168 200 200 200 0
6.419498 -9.361768 34.964585 201 201 201 0
6.553123 -9.361604 34.963974 200 200 200 0
5.857347 -8.200285 30.626649 199 199 199 0
6.819726 -9.360409 34.959510 200 200 200 0
6.953664 -9.360701 34.960602 200 200 200 0
7.087176 -9.360422 34.959558 199 199 199 0
7.220055 -9.359330 34.955482 199 199 199 0
7.353698 -9.359252 34.955188 199 199 199 0
7.487310 -9.359137 34.954760 199 199 199 0
7.620108 -9.358028 34.950617 198 198 198 0
7.753449 -9.357611 34.949061 198 198 198 0
7.887112 -9.357591 34.948985 199 199 199 0
8.020215 -9.356918 34.946472 199 199 199 0
8.153089 -9.356003 34.943056 198 198 198 0
8.286621 -9.355862 34.942530 198 198 198 0
8.419547 -9.355052 34.939503 197 197 197 0
8.553186 -9.355047 34.939485 198 198 198 0
8.129248 -8.754575 32.696825 198 198 198 0
8.301319 -8.804429 32.883020 197 197 197 0
8.464457 -8.843462 33.028804 197 197 197 0
8.612335 -8.865639 33.111631 196 196 196 0
8.808031 -8.935684 33.373235 196 196 196 0
8.964807 -8.964807 33.482005 197 197 197 0
9.125755 -8.997223 33.603073 196 196 196 0
9.329130 -9.069987 33.874837 192 192 192 0
9.486786 -9.096918 33.975419 175 175 175 0
9.599785 -9.080878 33.915509 133 133 133 0
9.310560 -8.689856 32.455111 82 82 82 0
-7.845961 -6.767141 25.640395 203 203 203 0
-7.749925 -6.768922 25.647140 203 203 203 0
-7.769627 -6.873131 26.041986 204 204 204 0
-7.771267 -6.963862 26.385762 203 203 203 0
-7.694808 -6.986076 26.469929 204 204 204 0
-7.565561 -6.960316 26.372326 204 204 204 0
-7.472363 -6.967474 26.399447 203 203 203 0
-7.385296 -6.980622 26.449266 204 204 204 0
-7.403645 -7.095160 26.883242 203 203 203 0
-7.321520 -7.115280 26.959478 203 203 203 0
-7.207995 -7.105024 26.920617 203 203 203 0
-7.094867 -7.094867 26.882133 204 204 204 0
-7.108428 -7.212964 27.329596 204 204 204 0
-7.103098 -7.315130 27.716701 204 204 204 0
-6.960899 -7.277304 27.573379 204 204 204 0
-6.793538 -7.211602 27.324438 205 205 205 0
-6.673593 -7.194968 27.261410 205 205 205 0
-6.732931 -7.374162 27.940371 204 204 204 0
-6.612781 -7.359385 27.884380 204 204 204 0
-6.483593 -7.333901 27.787821 205 205 205 0
-6.317491 -7.265115 27.527195 204 204 204 0
-6.194379 -7.244273 27.448228 204 204 204 0
-6.201104 -7.377175 27.951786 205 205 205 0
-6.168700 -7.467374 28.293545 206 206 206 0
-6.027449 -7.426678 28.139351 206 206 206 0
-5.893152 -7.393227 28.012605 205 205 205 0
-5.791976 -7.400858 28.041520 206 206 206 0
-5.743450 -7.477322 28.331238 205 205 205 0
-5.655143 -7.503939 28.432089 205 205 205 0
-5.526236 -7.476672 28.328776 205 205 205 0
-5.398892 -7.450471 28.229501 205 205 205 0
-5.316803 -7.486927 28.367632 205 205 205 0
-5.280139 -7.590200 28.758928 205 205 205 0
-5.169685 -7.589538 28.756420 205 205 205 0
-5.031314 -7.546971 28.595136 206 206 206 0
-4.921411 -7.546163 28.592073 206 206 206 0
-4.849190 -7.604411 28.812773 204 204 204 0
-4.776733 -7.664990 29.042303 205 205 205 0
-4.638574 -7.620515 28.873789 206 206 206 0
-4.508689 -7.587793 28.749807 206 206 206 0
-4.402363 -7.594075 28.773611 206 206 206 0
-4.310873 -7.626929 28.898094 206 206 206 0
-4.221259 -7.664919 29.042033 206 206 206 0
-4.108843 -7.662436 29.032627 206 206 206 0
-4.013487 -7.692516 29.146599 206 206 206 0
-3.906070 -7.700538 29.176993 206 206 206 0
-3.800531 -7.712842 29.223614 205 205 205 0
-3.691396 -7.718374 29.244574 206 206 206 0
-3.584357 -7.728769 29.283958 205 205 205 0
-3.481307 -7.748715 29.359534 206 206 206 0
-3.375192 -7.762942 29.413438 206 206 206 0
-3.267843 -7.775212 29.459931 206 206 206 0
-3.177164 -7.829440 29.665398 206 206 206 0
-3.069482 -7.844233 29.721447 206 206 206 0
-2.949079 -7.826402 29.653887 207 207 207 0
-2.836616 -7.829061 29.663961 206 206 206 0
-2.735240 -7.863814 29.795638 207 207 207 0
-2.625725 -7.877176 29.846268 207 207 207 0
-2.508116 -7.866365 29.805305 207 207 207 0
-2.388655 -7.848439 29.737383 206 206 206 0
-2.272417 -7.839839 29.704797 206 206 206 0
-2.178792 -7.912456 29.979939 207 207 207 0
-2.070288 -7.936103 30.069537 207 207 207 0
-1.946796 -7.901703 29.939199 208 208 208 0
-1.828883 -7.887057 29.883706 208 208 208 0
-1.724537 -7.932871 30.057294 207 207 207 0
-1.618895 -7.978839 30.231462 207 207 207 0
-1.502927 -7.977073 30.224771 207 207 207 0
-1.382290 -7.948167 30.115248 206 206 206 0
-1.267618 -7.951425 30.127593 207 207 207 0
-1.165202 -8.039893 30.462793 208 208 208 0
-1.051111 -8.058521 30.533374 208 208 208 0
-0.928845 -8.011285 30.354401 206 206 206 0
-0.810568 -7.989882 30.273305 206 206 206 0
-0.697539 -8.021699 30.393857 208 208 208 0
-0.584404 -8.064773 30.557062 207 207 207 0
-0.467094 -8.057374 30.529029 207 207 207 0
-0.345926 -7.956291 30.146029 168 168 168 0
-0.255998 -8.831925 33.463766 97 97 97 0
-0.123758 -8.539327 32.355128 111 111 111 0
0.000000 -8.438622 31.973562 99 99 99 0
0.120841 -8.338010 31.592347 105 105 105 0
0.175604 -6.058343 22.954789 100 100 100 0
0.353346 -8.126965 30.792705 104 104 104 0
0.341828 -5.896524 22.341667 106 106 106 0
0.417854 -5.766386 21.848578 106 106 106 0
0.483336 -5.558361 21.060379 107 107 107 0
0.690241 -6.803805 25.779311 157 157 157 0
0.783110 -6.754328 25.591846 204 204 204 0
0.887247 -6.802226 25.773328 205 205 205 0
0.990531 -6.834665 25.896241 205 205 205 0
1.092669 -6.854014 25.969554 205 205 205 0
1.193280 -6.861362 25.997394 204 204 204 0
1.298762 -6.893428 26.118889 205 205 205 0
1.408539 -6.942085 26.303249 205 205 205 0
1.514765 -6.967917 26.401127 204 204 204 0
1.617803 -6.976777 26.434694 203 203 203 0
2.258372 -9.166334 34.730830 204 204 204 0
2.401968 -9.207543 34.886967 204 204 204 0
2.543549 -9.237099 34.998955 204 204 204 0
2.677470 -9.237273 34.999613 204 204 204 0
2.808533 -9.228035 34.964613 204 204 204 0
2.944921 -9.236345 34.996096 204 204 204 0
3.078743 -9.236228 34.995652 204 204 204 0
3.212754 -9.236667 34.997316 204 204 204 0
3.346649 -9.236750 34.997632 204 204 204 0
3.480169 -9.235832 34.994154 203 203 203 0
3.613839 -9.235367 34.992393 203 203 203 0
3.747676 -9.235345 34.992310 203 203 203 0
3.881520 -9.235340 34.992291 203 203 203 0
4.015107 -9.234745 34.990036 202 202 202 0
4.148787 -9.234396 34.988713 202 202 202 0
4.282658 -9.234481 34.989033 202 202 202 0
4.416359 -9.234205 34.987989 202 202 202 0
4.549825 -9.233468 34.985195 201 201 201 0
4.683446 -9.233079 34.983721 202 202 202 0
4.817231 -9.233026 34.983521 202 202 202 0
4.950628 -9.232252 34.980591 202 202 202 0
5.084358 -9.232123 34.980101 202 202 202 0
5.218094 -9.232013 34.979685 201 201 201 0
5.351680 -9.231647 34.978298 202 202 202 0
5.485269 -9.231306 34.977006 202 202 202 0
5.618864 -9.230990 34.975808 202 202 202 0
5.752474 -9.230714 34.974762 201 201 201 0
5.886022 -9.230352 34.973390 201 201 201 0
6.019622 -9.230086 34.972384 201 201 201 0
6.153042 -9.229563 34.970402 201 201 201 0
6.286363 -9.228916 34.967950 201 201 201 0
6.419865 -9.228556 34.966584 201 201 201 0
6.553440 -9.228313 34.965664 200 200 200 0
5.837804 -8.056170 30.524466 200 200 200 0
6.819967 -9.227015 34.960745 200 200 200 0
6.110307 -8.107908 30.720499 200 200 200 0
7.087611 -9.227268 34.961703 200 200 200 0
7.220372 -9.226031 34.957017 199 199 199 0
7.353941 -9.225853 34.956344 199 199 199 0
7.487663 -9.225870 34.956409 200 200 200 0
7.620596 -9.224932 34.952853 199 199 199 0
7.753801 -9.224349 34.950647 199 199 199 0
7.887393 -9.224239 34.950228 198 198 198 0
8.020713 -9.223820 34.948642 198 198 198 0
8.153487 -9.222797 34.944765 199 199 199 0
8.287028 -9.222660 34.944245 198 198 198 0
8.433208 -9.236371 34.996195 198 198 198 0
8.553588 -9.221837 34.941127 197 197 197 0
8.686849 -9.221424 34.939564 198 198 198 0
8.262680 -8.638257 32.729967 197 197 197 0
8.447529 -8.699694 32.962752 197 197 197 0
8.585137 -8.711389 33.007062 196 196 196 0
8.779557 -8.779557 33.265347 197 197 197 0
8.944096 -8.816323 33.404653 197 197 197 0
9.084147 -8.828256 33.449866 197 197 197 0
9.271203 -8.884903 33.664498 196 196 196 0
9.456338 -8.938183 33.866375 195 195 195 0
9.589855 -8.941892 33.880427 192 192 192 0
9.116343 -8.387036 31.778103 176 176 176 0
9.981344 -9.062009 34.335547 136 136 136 0
10.095833 -9.046915 34.278356 94 94 94 0
-7.843351 -6.666848 25.631865 204 204 204 0
-7.751782 -6.672420 25.653287 203 203 203 0
-7.759534 -6.764722 26.008158 203 203 203 0
-7.751193 -6.845209 26.317606 204 204 204 0
-7.692033 -6.882345 26.460382 203 203 203 0
-7.566620 -6.860403 26.376019 203 203 203 0
-7.472204 -6.866350 26.398885 203 203 203 0
-7.398246 -6.891517 26.495645 204 204 204 0
-7.411117 -6.999388 26.910375 204 204 204 0
-7.326613 -7.017038 26.978230 204 204 204 0
-7.208235 -7.002285 26.921512 203 203 203 0
-7.089536 -6.986789 26.861934 203 203 203 0
-7.108277 -7.108277 27.329015 204 204 204 0
-7.104995 -7.211039 27.724103 204 204 204 0
-6.962186 -7.173162 27.578476 204 204 204 0
-6.802235 -7.116185 27.359418 204 204 204 0
-6.688801 -7.106851 27.323534 205 205 205 0
-6.723855 -7.257494 27.902707 204 204 204 0
-6.621447 -7.262232 27.920923 205 205 205 0
-6.482564 -7.226464 27.783408 204 204 204 0
-6.317248 -7.159548 27.526137 204 204 204 0
-6.194509 -7.139434 27.448805 204 204 204 0
-6.213739 -7.285073 28.008741 204 204 204 0
-6.168934 -7.359431 28.294620 205 205 205 0
-6.024583 -7.315565 28.125971 205 205 205 0
-5.885727 -7.276898 27.977310 204 204 204 0
-5.802680 -7.307079 28.093345 205 205 205 0
-5.753037 -7.381255 28.378529 206 206 206 0
-5.654410 -7.394228 28.428406 206 206 206 0
-5.513315 -7.351086 28.262539 205 205 205 0
-5.405190 -7.351059 28.262432 206 206 206 0
-5.310511 -7.369688 28.334057 205 205 205 0
-5.278577 -7.477984 28.750419 204 204 204 0
-5.173505 -7.485072 28.777669 205 205 205 0
-5.037337 -7.446497 28.629364 206 206 206 0
-4.920586 -7.435552 28.587282 205 205 205 0
-4.851481 -7.497744 28.826389 206 206 206 0
-4.773708 -7.549119 29.023910 205 205 205 0
-4.643382 -7.517856 28.903716 206 206 206 0
-4.508205 -7.477024 28.746727 206 206 206 0
-4.400744 -7.481265 28.763034 206 206 206 0
-4.312071 -7.518482 28.906121 206 206 206 0
-4.225584 -7.561572 29.071786 205 205 205 0
-4.118383 -7.568920 29.100040 205 205 205 0
-4.020992 -7.595207 29.201104 206 206 206 0
-3.908907 -7.594448 29.198184 206 206 206 0
-3.809839 -7.619678 29.295186 205 205 205 0
-3.689797 -7.603218 29.231902 206 206 206 0
-3.589287 -7.627235 29.324242 207 207 207 0
-3.478651 -7.630589 29.337135 206 206 206 0
-3.384639 -7.671848 29.495762 206 206 206 0
-3.272649 -7.673797 29.503256 206 206 206 0
-3.178572 -7.719389 29.678544 206 206 206 0
-3.070326 -7.732672 29.729611 206 206 206 0
-2.950861 -7.717636 29.671804 206 206 206 0
-2.835170 -7.711663 29.648839 207 207 207 0
-2.735147 -7.749583 29.794629 206 206 206 0
-2.626120 -7.764180 29.850749 206 206 206 0
-2.509448 -7.756477 29.821133 206 206 206 0
-2.387107 -7.729679 29.718103 206 206 206 0
-2.270313 -7.719065 29.677296 206 206 206 0
-2.175233 -7.785044 29.930965 207 207 207 0
-2.069214 -7.817032 30.053949 208 208 208 0
-1.950721 -7.802885 29.999559 207 207 207 0
-1.829268 -7.774388 29.889997 207 207 207 0
-1.723064 -7.811223 30.031613 207 207 207 0
-1.617975 -7.858735 30.214281 208 208 208 0
-1.503718 -7.865604 30.240694 207 207 207 0
-1.382586 -7.834654 30.121701 207 207 207 0
-1.269358 -7.846940 30.168936 208 208 208 0
-1.166044 -7.929097 30.484802 208 208 208 0
-1.050798 -7.939364 30.524274 207 207 207 0
-0.929299 -7.899042 30.369250 208 208 208 0
-0.811611 -7.884225 30.312284 207 207 207 0
-0.698079 -7.911557 30.417368 208 208 208 0
-0.585252 -7.959426 30.601409 208 208 208 0
-0.467336 -7.944706 30.544812 204 204 204 0
-0.347244 -7.870862 30.260906 146 146 146 0
-0.256480 -8.720332 33.526845 89 89 89 0
-0.123394 -8.390784 32.259839 124 124 124 0
0.000000 -8.369469 32.177889 91 91 91 0
0.087451 -5.946634 22.862877 110 110 110 0
0.172340 -5.859566 22.528127 104 104 104 0
0.353402 -8.010455 30.797598 92 92 92 0
0.340379 -5.786440 22.246981 82 82 82 0
0.417780 -5.681812 21.844723 105 105 105 0
0.478478 -5.422755 20.848733 113 113 113 0
0.687390 -6.677507 25.672847 160 160 160 0
0.781146 -6.639738 25.527636 204 204 204 0
0.885118 -6.687561 25.711499 205 205 205 0
0.986662 -6.709302 25.795088 206 206 206 0
1.090510 -6.741337 25.918251 205 205 205 0
1.189203 -6.738817 25.908561 205 205 205 0
1.293959 -6.768399 26.022294 205 205 205 0
1.403685 -6.817897 26.212598 204 204 204 0
1.509935 -6.845040 26.316955 204 204 204 0
1.615050 -6.863962 26.389705 204 204 204 0
1.722480 -6.889920 26.489504 204 204 204 0
1.835631 -6.934607 26.661310 205 205 205 0
1.946825 -6.967585 26.788102 205 205 205 0
2.055952 -6.990236 26.875187 205 205 205 0
2.164820 -7.009893 26.950761 204 204 204 0
2.598794 -8.032637 30.882879 204 204 204 0
3.078914 -9.102875 34.997597 204 204 204 0
3.212836 -9.103036 34.998215 204 204 204 0
3.346798 -9.103289 34.999190 204 204 204 0
3.480330 -9.102403 34.995781 202 202 202 0
3.613995 -9.101913 34.993899 202 202 202 0
3.747908 -9.102062 34.994473 204 204 204 0
3.881759 -9.102056 34.994450 202 202 202 0
4.015261 -9.101258 34.991381 202 202 202 0
4.148927 -9.100873 34.989898 203 203 203 0
4.282844 -9.101044 34.990559 203 203 203 0
4.416619 -9.100911 34.990046 203 203 203 0
4.550020 -9.100040 34.986697 202 202 202 0
4.683613 -9.099592 34.984975 202 202 202 0
4.817520 -9.099760 34.985620 202 202 202 0
4.950770 -9.098712 34.981594 202 202 202 0
5.084543 -9.098655 34.981374 202 202 202 0
5.218327 -9.098622 34.981245 201 201 201 0
5.352096 -9.098563 34.981020 202 202 202 0
4.598671 -7.627064 29.323583 201 201 201 0
4.718879 -7.640089 29.373662 201 201 201 0
5.752713 -9.097313 34.976214 201 201 201 0
5.886341 -9.097073 34.975289 201 201 201 0
6.019870 -9.096692 34.973825 201 201 201 0
6.153389 -9.096314 34.972372 201 201 201 0
6.286770 -9.095752 34.970213 200 200 200 0
6.420172 -9.095244 34.968257 200 200 200 0
6.553741 -9.094987 34.967272 201 201 201 0
5.811628 -7.903814 30.387598 201 201 201 0
6.820313 -9.093751 34.962517 200 200 200 0
6.094387 -7.969583 30.640456 200 200 200 0
7.087897 -9.093906 34.963113 201 201 201 0
7.220788 -9.092845 34.959033 200 200 200 0
7.354268 -9.092549 34.957897 199 199 199 0
7.488075 -9.092663 34.958334 200 200 200 0
7.621043 -9.091771 34.954906 199 199 199 0
7.754199 -9.091130 34.952442 199 199 199 0
7.887839 -9.091068 34.952204 199 199 199 0
8.021309 -9.090817 34.951238 198 198 198 0
8.153957 -9.089657 34.946778 198 198 198 0
8.287202 -9.089189 34.944980 199 199 199 0
8.420615 -9.088918 34.943937 198 198 198 0
8.554082 -9.088712 34.943145 198 198 198 0
8.687200 -9.088148 34.940976 197 197 197 0
8.226260 -8.475541 32.585702 197 197 197 0
8.417191 -8.542821 32.844370 197 197 197 0
8.556423 -8.556423 32.896666 197 197 197 0
8.727895 -8.601404 33.069604 197 197 197 0
8.913752 -8.659073 33.291324 197 197 197 0
9.061545 -8.678663 33.366638 197 197 197 0
9.235514 -8.722430 33.534910 197 197 197 0
9.437598 -8.791187 33.799257 196 196 196 0
9.570909 -8.794890 33.813494 197 197 197 0
9.397816 -8.520686 32.759271 196 196 196 0
9.949379 -8.902076 34.225592 192 192 192 0
10.082911 -8.904389 34.234482 178 178 178 0
10.226561 -8.915464 34.277062 139 139 139 0
10.485619 -9.025596 34.700485 91 91 91 0
-7.846775 -6.571674 25.643054 203 203 203 0
-7.753086 -6.575402 25.657602 203 203 203 0
-7.763366 -6.668533 26.021003 203 203 203 0
-7.747116 -6.740997 26.303764 204 204 204 0
-7.697409 -6.785873 26.478873 204 204 204 0
-7.577702 -6.769414 26.414647 204 204 204 0
-7.470826 -6.764126 26.394015 204 204 204 0
-7.386526 -6.779414 26.453670 204 204 204 0
-7.406209 -6.891889 26.892551 204 204 204 0
-7.329558 -6.916625 26.989075 204 204 204 0
-7.217577 -6.908252 26.956404 204 204 204 0
-7.083758 -6.878432 26.840043 204 204 204 0
-7.105349 -7.000858 27.317757 204 204 204 0
-7.102243 -7.102243 27.713366 204 204 204 0
-6.958551 -7.063984 27.564076 205 205 205 0
-6.803326 -7.012659 27.363804 205 205 205 0
-6.679785 -6.992900 27.286705 204 204 204 0
-6.708428 -7.134360 27.838690 204 204 204 0
-6.604228 -7.136827 27.848315 204 204 204 0
-6.487269 -7.125361 27.803573 205 205 205 0
-6.319350 -7.056608 27.535295 204 204 204 0
-6.194374 -7.034289 27.448207 205 205 205 0
-6.210002 -7.173623 27.991896 205 205 205 0
-6.168998 -7.251278 28.294911 204 204 204 0
-6.030107 -7.214592 28.151759 204 204 204 0
-5.891704 -7.177166 28.005721 206 206 206 0
-5.801406 -7.198040 28.087173 205 205 205 0
-5.747376 -7.265551 28.350603 206 206 206 0
-5.654781 -7.285968 28.430273 204 204 204 0
-5.521255 -7.253413 28.303242 205 205 205 0
-5.392318 -7.225706 28.195126 205 205 205 0
-5.302690 -7.250617 28.292330 205 205 205 0
-5.281947 -7.372718 28.768774 205 205 205 0
-5.178217 -7.381713 28.803875 205 205 205 0
-5.039181 -7.339677 28.639846 206 206 206 0
-4.922300 -7.328757 28.597239 205 205 205 0
-4.852627 -7.389227 28.833197 205 205 205 0
-4.777959 -7.444726 29.049757 206 206 206 0
-4.640503 -7.402708 28.885798 206 206 206 0
-4.508773 -7.367994 28.750344 206 206 206 0
-4.406100 -7.380217 28.798037 206 206 206 0
-4.318676 -7.419263 28.950397 206 206 206 0
-4.222885 -7.445612 29.053214 206 206 206 0
-4.122453 -7.464983 29.128799 205 205 205 0
-4.019355 -7.480466 29.189215 206 206 206 0
-3.909648 -7.484183 29.203718 205 205 205 0
-3.814248 -7.516313 29.329092 206 206 206 0
-3.697044 -7.506120 29.289318 206 206 206 0
-3.590220 -7.517023 29.331861 207 207 207 0
-3.490281 -7.543511 29.435218 206 206 206 0
-3.377171 -7.542350 29.430688 206 206 206 0
-3.268857 -7.552188 29.469078 206 206 206 0
-3.179847 -7.608920 29.690450 206 206 206 0
-3.073105 -7.625852 29.756520 206 206 206 0
-2.950471 -7.603138 29.667888 206 206 206 0
-2.835904 -7.600222 29.656510 207 207 207 0
-2.732812 -7.629101 29.769199 207 207 207 0
-2.625426 -7.647980 29.842865 206 206 206 0
-2.509373 -7.642183 29.820244 208 208 208 0
-2.388497 -7.620444 29.735416 206 206 206 0
-2.269305 -7.602172 29.664117 208 208 208 0
-2.177197 -7.677484 29.957992 208 208 208 0
-2.070498 -7.706852 30.072586 208 208 208 0
-1.952650 -7.695739 30.029222 207 207 207 0
-1.831809 -7.670700 29.931517 208 208 208 0
-1.720421 -7.684548 29.985553 208 208 208 0
-1.616349 -7.735384 30.183920 207 207 207 0
-1.501815 -7.740124 30.202417 207 207 207 0
-1.382048 -7.716437 30.109988 208 208 208 0
-1.269116 -7.730069 30.163179 207 207 207 0
-1.165620 -7.809651 30.473713 207 207 207 0
-1.051370 -7.826862 30.540874 208 208 208 0
-0.929573 -7.785171 30.378192 207 207 207 0
-0.811843 -7.770495 30.320924 208 208 208 0
-0.698100 -7.795446 30.418286 208 208 208 0
-0.585254 -7.842406 30.601525 208 208 208 0
-0.467477 -7.830234 30.554031 203 203 203 0
-0.349519 -7.805915 30.459134 135 135 135 0
-0.259032 -8.677585 33.860443 91 91 91 0
-0.124158 -8.318578 32.459578 105 105 105 0
0.000000 -8.199338 31.994294 112 112 112 0
0.088598 -5.936056 23.162836 95 95 95 0
0.172321 -5.772748 22.525598 117 117 117 0
0.352235 -7.866582 30.695863 94 94 94 0
0.338322 -5.666900 22.112576 98 98 98 0
0.417056 -5.588545 21.806830 112 112 112 0
0.495064 -5.528219 21.571435 113 113 113 0
0.686755 -6.573229 25.649122 155 155 155 0
0.780711 -6.538453 25.513427 204 204 204 0
0.883348 -6.576038 25.660085 205 205 205 0
0.984398 -6.595466 25.735895 206 206 206 0
1.087844 -6.625958 25.854873 205 205 205 0
1.186835 -6.626496 25.856974 205 205 205 0
1.291833 -6.657909 25.979550 205 205 205 0
1.400103 -6.700492 26.145712 206 206 206 0
1.505552 -6.724799 26.240557 204 204 204 0
1.609765 -6.740890 26.303345 204 204 204 0
1.715986 -6.763002 26.389627 204 204 204 0
1.829072 -6.808211 26.566038 205 205 205 0
1.941285 -6.845583 26.711866 204 204 204 0
2.048946 -6.863969 26.783607 205 205 205 0
2.159023 -6.888310 26.878587 204 204 204 0
2.270931 -6.916016 26.986696 204 204 204 0
2.387436 -6.954706 27.137669 205 205 205 0
2.498360 -6.974589 27.215251 204 204 204 0
2.605562 -6.982905 27.247704 204 204 204 0
3.480513 -8.969013 34.997613 204 204 204 0
3.614155 -8.968459 34.995448 203 203 203 0
3.748038 -8.968520 34.995688 203 203 203 0
3.881958 -8.968662 34.996240 203 203 203 0
4.015440 -8.967816 34.992941 203 203 203 0
4.149072 -8.967348 34.991117 203 203 203 0
4.283101 -8.967743 34.992656 204 204 204 0
4.416821 -8.967485 34.991651 203 203 203 0
4.550224 -8.966618 34.988266 203 203 203 0
4.683807 -8.966145 34.986419 203 203 203 0
4.817717 -8.966306 34.987048 202 202 202 0
4.841067 -8.766256 34.206444 202 202 202 0
5.084711 -8.965148 34.982532 202 202 202 0
5.218497 -8.965110 34.982381 202 202 202 0
4.424063 -7.410306 28.915447 202 202 202 0
4.582465 -7.488418 29.220244 202 202 202 0
4.708705 -7.511506 29.310335 202 202 202 0
4.827134 -7.521349 29.348743 201 201 201 0
5.886548 -8.963607 34.976519 201 201 201 0
6.020141 -8.963322 34.975404 201 201 201 0
6.153701 -8.963000 34.974148 202 202 202 0
6.287141 -8.962520 34.972275 201 201 201 0
6.420550 -8.962017 34.970314 201 201 201 0
6.554016 -8.961613 34.968738 201 201 201 0
5.788461 -7.756538 30.266465 200 200 200 0
6.820545 -8.960324 34.963706 200 200 200 0
6.075314 -7.827809 30.544567 201 201 201 0
7.088198 -8.960552 34.964596 200 200 200 0
7.221290 -8.959749 34.961464 200 200 200 0
6.507137 -7.926876 30.931133 199 199 199 0
7.488347 -8.959272 34.959603 200 200 200 0
7.621592 -8.958714 34.957423 199 199 199 0
7.754575 -8.957872 34.954138 199 199 199 0
7.888270 -8.957866 34.954114 200 200 200 0
8.021808 -8.957686 34.953412 198 198 198 0
8.154397 -8.956469 34.948663 199 199 199 0
8.287623 -8.955980 34.946755 198 198 198 0
8.421264 -8.955947 34.946627 198 198 198 0
8.554262 -8.955243 34.943879 198 198 198 0
8.687567 -8.954877 34.942452 198 198 198 0
8.193746 -8.317894 32.456906 198 198 198 0
8.384353 -8.384353 32.716236 198 198 198 0
8.535038 -8.409523 32.814450 198 198 198 0
8.682753 -8.431079 32.898563 197 197 197 0
8.870765 -8.490589 33.130774 197 197 197 0
9.024050 -8.515653 33.228573 197 197 197 0
9.176024 -8.538800 33.318895 197 197 197 0
9.404098 -8.631158 33.679282 196 196 196 0
9.559343 -8.655081 33.772632 197 197 197 0
9.744524 -8.705108 33.967839 196 196 196 0
9.928032 -8.752344 34.152158 196 196 196 0
10.072481 -8.764367 34.199070 196 196 196 0
10.232781 -8.789697 34.297909 194 194 194 0
10.434307 -8.849349 34.530675 179 179 179 0
-7.859543 -6.484123 25.684781 203 203 203 0
-7.757891 -6.481276 25.673502 203 203 203 0
-7.761301 -6.567255 26.014080 204 204 204 0
-7.756876 -6.648751 26.336900 203 203 203 0
-7.684546 -6.673421 26.434626 204 204 204 0
-7.565915 -6.658005 26.373560 204 204 204 0
-7.483280 -6.674276 26.438013 204 204 204 0
-7.390459 -6.681785 26.467755 204 204 204 0
-7.389019 -6.773268 26.830135 204 204 204 0
-7.325219 -6.809359 26.973098 204 204 204 0
-7.216050 -6.803704 26.950701 204 204 204 0
-7.085911 -6.777827 26.848198 204 204 204 0
-7.105970 -6.896971 27.320146 204 204 204 0
-7.112606 -7.006448 27.753803 205 205 205 0
-6.955352 -6.955352 27.551403 204 204 204 0
-6.804404 -6.909087 27.368139 204 204 204 0
-6.673849 -6.882407 27.262456 204 204 204 0
-6.721361 -7.041426 27.892359 204 204 204 0
-6.609507 -7.035926 27.870574 204 204 204 0
-6.479735 -7.010861 27.771284 204 204 204 0
-6.323786 -6.956164 27.554621 205 205 205 0
-6.195274 -6.930307 27.452196 204 204 204 0
-6.202731 -7.058280 27.959123 204 204 204 0
-6.169492 -7.143622 28.297175 204 204 204 0
-6.031797 -7.108904 28.159651 205 205 205 0
-5.894404 -7.073285 28.018558 205 205 205 0
-5.808357 -7.099103 28.120828 205 205 205 0
-5.752589 -7.163601 28.376317 205 205 205 0
-5.660827 -7.184895 28.460667 204 204 204 0
-5.511892 -7.133037 28.255245 205 205 205 0
-5.396023 -7.122750 28.214500 205 205 205 0
-5.308617 -7.150382 28.323955 204 204 204 0
-5.282096 -7.262882 28.769585 206 206 206 0
-5.175140 -7.267218 28.786760 205 205 205 0
-5.036005 -7.225572 28.621795 205 205 205 0
-4.921895 -7.218780 28.594889 206 206 206 0
-4.857619 -7.286429 28.862860 205 205 205 0
-4.777727 -7.333255 29.048345 206 206 206 0
-4.642461 -7.295296 28.897984 207 207 207 0
-4.510701 -7.261129 28.762643 206 206 206 0
-4.403986 -7.266577 28.784221 205 205 205 0
-4.314805 -7.301978 28.924454 206 206 206 0
-4.223554 -7.335646 29.057818 207 207 207 0
-4.119826 -7.348878 29.110232 206 206 206 0
-4.013439 -7.357972 29.146253 206 206 206 0
-3.908030 -7.369428 29.191635 206 206 206 0
-3.809739 -7.395375 29.294416 206 206 206 0
-3.696136 -7.392273 29.282126 206 206 206 0
-3.598576 -7.422063 29.400132 207 207 207 0
-3.485782 -7.421342 29.397275 206 206 206 0
-3.380417 -7.436918 29.458973 207 207 207 0
-3.273457 -7.449937 29.510543 206 206 206 0
-3.183160 -7.503163 29.721381 207 207 207 0
-3.075279 -7.517349 29.777575 207 207 207 0
-2.952573 -7.494993 29.689018 207 207 207 0
-2.836651 -7.488758 29.664322 206 206 206 0
-2.734548 -7.520007 29.788104 206 206 206 0
-2.624589 -7.531429 29.833347 207 207 207 0
-2.509045 -7.527136 29.816346 208 208 208 0
-2.388835 -7.507768 29.739624 207 207 207 0
-2.270809 -7.493668 29.683773 208 208 208 0
-2.176516 -7.560529 29.948619 206 206 206 0
-2.071928 -7.597070 30.093365 208 208 208 0
-1.951752 -7.577390 30.015407 207 207 207 0
-1.831351 -7.554321 29.924028 207 207 207 0
-1.722977 -7.581099 30.030099 207 207 207 0
-1.619318 -7.633927 30.239363 208 208 208 0
-1.502778 -7.629487 30.221775 208 208 208 0
-1.382164 -7.601903 30.112508 207 207 207 0
-1.269186 -7.615115 30.164845 207 207 207 0
-1.166496 -7.698872 30.496621 207 207 207 0
-1.050852 -7.706250 30.525847 208 208 208 0
-0.929709 -7.670099 30.382648 208 208 208 0
-0.812276 -7.658604 30.337110 208 208 208 0
-0.695183 -7.647017 30.291214 208 208 208 0
-0.585369 -7.726871 30.607532 209 209 209 0
-0.468037 -7.722607 30.590641 199 199 199 0
-0.355226 -7.814968 30.956499 118 118 118 0
-0.258484 -8.529985 33.788809 97 97 97 0
-0.125901 -8.309477 32.915339 100 100 100 0
0.000000 -8.087886 32.037575 92 92 92 0
0.087615 -5.782557 22.905753 109 109 109 0
0.173138 -5.713565 22.632462 100 100 100 0
0.350830 -7.718260 30.573421 105 105 105 0
0.339782 -5.606395 22.207942 100 100 100 0
0.418301 -5.521579 21.871971 113 113 113 0
0.494753 -5.442284 21.557870 104 104 104 0
0.686563 -6.473309 25.641945 152 152 152 0
0.779746 -6.432904 25.481892 203 203 203 0
0.882413 -6.471032 25.632925 205 205 205 0
0.981119 -6.475386 25.650171 205 205 205 0
1.085421 -6.512528 25.797297 205 205 205 0
1.185086 -6.517973 25.818865 205 205 205 0
1.288771 -6.542993 25.917974 205 205 205 0
1.396701 -6.584447 26.082181 205 205 205 0
1.502610 -6.611482 26.189273 204 204 204 0
1.606480 -6.626730 26.249672 205 205 205 0
1.712276 -6.647659 26.332575 205 205 205 0
1.823019 -6.684403 26.478127 204 204 204 0
1.935322 -6.722698 26.629819 204 204 204 0
2.044392 -6.746494 26.724078 205 205 205 0
2.154815 -6.772276 26.826208 205 205 205 0
2.264419 -6.793257 26.909315 205 205 205 0
2.381547 -6.834006 27.070730 204 204 204 0
2.490044 -6.847621 27.124662 203 203 203 0
2.598626 -6.860372 27.175172 205 205 205 0
2.716199 -6.894967 27.312207 204 204 204 0
3.614280 -8.834908 34.996664 203 203 203 0
3.748200 -8.835043 34.997199 203 203 203 0
3.882104 -8.835132 34.997554 204 204 204 0
4.015646 -8.834422 34.994739 203 203 203 0
4.149288 -8.833967 34.992939 203 203 203 0
3.422770 -7.059463 27.963806 203 203 203 0
3.539414 -7.078828 28.040515 203 203 203 0
3.672794 -7.129542 28.241403 203 203 203 0
4.683972 -8.832633 34.987652 203 203 203 0
4.817861 -8.832746 34.988099 203 203 203 0
4.951527 -8.832453 34.986942 203 203 203 0
4.182570 -7.264463 28.775850 203 203 203 0
4.299507 -7.276088 28.821899 202 202 202 0
4.410409 -7.277174 28.826200 202 202 202 0
4.560420 -7.341163 29.079673 203 203 203 0
4.694250 -7.376679 29.220356 203 203 203 0
4.815367 -7.391028 29.277196 202 202 202 0
4.960888 -7.441332 29.476457 202 202 202 0
5.095916 -7.474010 29.605903 201 201 201 0
5.212486 -7.478785 29.624817 201 201 201 0
5.343120 -7.503104 29.721150 201 201 201 0
5.506557 -7.571516 29.992141 201 201 201 0
5.638897 -7.595249 30.086153 201 201 201 0
5.767328 -7.612873 30.155965 201 201 201 0
6.812896 -8.816689 34.924497 200 200 200 0
6.954856 -8.827317 34.966594 200 200 200 0
6.188893 -7.706923 30.528513 200 200 200 0
7.221726 -8.826554 34.963573 200 200 200 0
6.490068 -7.788082 30.849998 200 200 200 0
6.630063 -7.814003 30.952676 200 200 200 0
6.777401 -7.847517 31.085432 200 200 200 0
7.754997 -8.824652 34.956040 199 199 199 0
7.888723 -8.824674 34.956124 199 199 199 0
8.022342 -8.824577 34.955740 199 199 199 0
8.154911 -8.823346 34.950866 199 199 199 0
8.288029 -8.822741 34.948469 199 199 199 0
8.421734 -8.822769 34.948579 198 198 198 0
8.554551 -8.821881 34.945063 198 198 198 0
8.688009 -8.821670 34.944228 199 199 199 0
8.167995 -8.167995 32.354903 198 198 198 0
8.350877 -8.226237 32.585608 198 198 198 0
8.519164 -8.268600 32.753417 197 197 197 0
8.656432 -8.280065 32.798831 197 197 197 0
8.825076 -8.320786 32.960136 197 197 197 0
9.001936 -8.367996 33.147144 197 197 197 0
9.154712 -8.391819 33.241510 197 197 197 0
9.366115 -8.467994 33.543253 196 196 196 0
9.541486 -8.509974 33.709542 196 196 196 0
9.691900 -8.528872 33.784401 196 196 196 0
9.903070 -8.600035 34.066290 196 196 196 0
10.053651 -8.617415 34.135137 196 196 196 0
10.221930 -8.649325 34.261538 195 195 195 0
10.419279 -8.704714 34.480943 194 194 194 0
-7.856566 -6.383460 25.675053 203 203 203 0
-7.764907 -6.388847 25.696721 204 204 204 0
-7.754270 -6.461891 25.990513 203 203 203 0
-7.757158 -6.548250 26.337860 203 203 203 0
-7.672999 -6.562433 26.394904 204 204 204 0
-7.561199 -6.553039 26.357122 204 204 204 0
-7.466992 -6.558844 26.380471 204 204 204 0
-7.378828 -6.570189 26.426101 204 204 204 0
-7.393048 -6.674279 26.844764 203 203 203 0
-7.315869 -6.697626 26.938668 203 203 203 0
-7.199002 -6.684787 26.887029 204 204 204 0
-7.084874 -6.674157 26.844271 204 204 204 0
-7.103609 -6.790215 27.311069 204 204 204 0
-7.114289 -6.901923 27.760372 204 204 204 0
-6.965658 -6.860117 27.592226 204 204 204 0
-6.798465 -6.798465 27.344253 204 204 204 0
-6.674839 -6.779133 27.266498 204 204 204 0
-6.725584 -6.939095 27.909883 204 204 204 0
-6.616004 -6.936133 27.897972 205 205 205 0
-6.482631 -6.907722 27.783698 205 205 205 0
-6.317428 -6.843881 27.526921 205 205 205 0
-6.197213 -6.827438 27.460785 206 206 206 0
-6.210602 -6.960158 27.994602 205 205 205 0
-6.167803 -7.033459 28.289428 204 204 204 0
-6.026832 -6.995430 28.136469 204 204 204 0
-5.883856 -6.953648 27.968419 205 205 205 0
-5.802121 -6.984035 28.090638 206 206 206 0
-5.761108 -7.065510 28.418340 205 205 205 0
-5.670090 -7.087613 28.507242 206 206 206 0
-5.519121 -7.034174 28.292302 205 205 205 0
-5.407822 -7.030168 28.276192 206 206 206 0
-5.320450 -7.057740 28.387087 205 205 205 0
-5.292846 -7.167395 28.828136 206 206 206 0
-5.178050 -7.161132 28.802946 205 205 205 0
-5.044932 -7.128708 28.672530 206 206 206 0
-4.931601 -7.123424 28.651279 205 205 205 0
-4.858489 -7.177313 28.868028 205 205 205 0
-4.779883 -7.225404 29.061456 205 205 205 0
-4.641127 -7.182696 28.889679 205 205 205 0
-4.513164 -7.155016 28.778347 205 205 205 0
-4.406032 -7.159802 28.797594 206 206 206 0
-4.320597 -7.200995 28.963278 206 206 206 0
-4.226048 -7.228767 29.074980 205 205 205 0
-4.122994 -7.243098 29.132620 206 206 206 0
-4.017299 -7.253457 29.174285 206 206 206 0
-3.911496 -7.264207 29.217523 206 206 206 0
-3.811053 -7.285837 29.304524 206 206 206 0
-3.698001 -7.283942 29.296901 207 207 207 0
-3.602364 -7.317303 29.431082 207 207 207 0
-3.487238 -7.311950 29.409553 207 207 207 0
-3.383623 -7.331182 29.486907 207 207 207 0
-3.278567 -7.348512 29.556609 207 207 207 0
-3.183967 -7.391351 29.728913 207 207 207 0
-3.074791 -7.402274 29.772847 206 206 206 0
-2.953677 -7.384191 29.700116 207 207 207 0
-2.839610 -7.382986 29.695269 207 207 207 0
-2.736064 -7.410174 29.804621 207 207 207 0
-2.627120 -7.424469 29.862119 207 207 207 0
-2.512565 -7.423487 29.858169 209 209 209 0
-2.390049 -7.397771 29.754735 206 206 206 0
-2.271379 -7.381981 29.691227 208 208 208 0
-2.177522 -7.449419 29.962469 206 206 206 0
-2.072124 -7.482668 30.096202 207 207 207 0
-1.950894 -7.459299 30.002207 207 207 207 0
-1.831875 -7.441991 29.932592 207 207 207 0
-1.721652 -7.460490 30.007000 207 207 207 0
-1.618063 -7.512434 30.215924 208 208 208 0
-1.502354 -7.511771 30.213258 207 207 207 0
-1.383734 -7.495226 30.146709 208 208 208 0
-1.269095 -7.499196 30.162678 208 208 208 0
-1.166313 -7.581038 30.491855 208 208 208 0
-1.050893 -7.589786 30.527043 207 207 207 0
-0.929752 -7.554236 30.384056 208 208 208 0
-0.811028 -7.530978 30.290510 208 208 208 0
-0.694072 -7.519117 30.242802 208 208 208 0
-0.586591 -7.625680 30.671413 208 208 208 0
-0.467120 -7.590697 30.530705 191 191 191 0
-0.366168 -7.933645 31.910086 113 113 113 0
-0.257998 -8.384950 33.725288 88 88 88 0
-0.126116 -8.197524 32.971441 96 96 96 0
0.000000 -7.962475 32.026041 118 118 118 0
0.088333 -5.741631 23.093538 97 97 97 0
0.173648 -5.643557 22.699075 97 97 97 0
0.351499 -7.615821 30.631759 98 98 98 0
0.337691 -5.487483 22.071326 107 107 107 0
0.572229 -7.438983 29.920496 98 98 98 0
0.492256 -5.332776 21.449076 100 100 100 0
0.685676 -6.366990 25.608809 149 149 149 0
0.778968 -6.329117 25.456480 204 204 204 0
0.880070 -6.356064 25.564862 205 205 205 0
0.978363 -6.359361 25.578124 205 205 205 0
1.081937 -6.393265 25.714489 206 206 206 0
1.181990 -6.402445 25.751411 205 205 205 0
1.285621 -6.428107 25.854629 206 206 206 0
1.393039 -6.467681 26.013801 205 205 205 0
1.498135 -6.491917 26.111282 205 205 205 0
1.601137 -6.504620 26.162373 205 205 205 0
1.703292 -6.512587 26.194417 204 204 204 0
1.816854 -6.560862 26.388583 204 204 204 0
1.929722 -6.601679 26.552756 205 205 205 0
2.039575 -6.628618 26.661106 204 204 204 0
2.146072 -6.642605 26.717366 204 204 204 0
2.256426 -6.666712 26.814327 204 204 204 0
2.374965 -6.711857 26.995906 205 205 205 0
2.482131 -6.722438 27.038463 204 204 204 0
2.591238 -6.737219 27.097916 205 205 205 0
2.705355 -6.763387 27.203167 204 204 204 0
2.826215 -6.803851 27.365916 204 204 204 0
3.748298 -8.701407 34.998116 204 204 204 0
3.057385 -6.852759 27.562630 204 204 204 0
4.015883 -8.701079 34.996799 203 203 203 0
3.298053 -6.915271 27.814063 204 204 204 0
3.417822 -6.942451 27.923383 203 203 203 0
3.529039 -6.951137 27.958319 203 203 203 0
3.659207 -6.995544 28.136928 202 202 202 0
3.791196 -7.040792 28.318922 203 203 203 0
3.909724 -7.059225 28.393061 204 204 204 0
4.032320 -7.083805 28.491924 203 203 203 0
4.176426 -7.143886 28.733580 203 203 203 0
4.288686 -7.147810 28.749360 202 202 202 0
4.398300 -7.147237 28.747058 202 202 202 0
4.541657 -7.200188 28.960033 202 202 202 0
4.678711 -7.240863 29.123631 202 202 202 0
4.799681 -7.255332 29.181828 201 201 201 0
4.936461 -7.292499 29.331319 202 202 202 0
5.078249 -7.335249 29.503264 201 201 201 0
5.198871 -7.346231 29.547435 201 201 201 0
5.327852 -7.368306 29.636222 202 202 202 0
5.483746 -7.425906 29.867897 201 201 201 0
5.623510 -7.459758 30.004054 201 201 201 0
5.753126 -7.479064 30.081705 200 200 200 0
5.905144 -7.526164 30.271148 201 201 201 0
6.042172 -7.552715 30.377939 200 200 200 0
6.172562 -7.570124 30.447959 200 200 200 0
6.312874 -7.598830 30.563418 200 200 200 0
6.473083 -7.650007 30.769260 200 200 200 0
6.612349 -7.675048 30.869978 200 200 200 0
6.758463 -7.707019 30.998567 200 200 200 0
7.755470 -8.691475 34.958172 199 199 199 0
7.888986 -8.691256 34.957288 200 200 200 0
8.022667 -8.691223 34.957155 199 199 199 0
8.155476 -8.690262 34.953290 199 199 199 0
8.288398 -8.689449 34.950023 199 199 199 0
8.422143 -8.689512 34.950276 198 198 198 0
7.988686 -8.113509 32.633521 198 198 198 0
8.014816 -8.014816 32.236566 198 198 198 0
8.145191 -8.021779 32.264572 198 198 198 0
8.312145 -8.064021 32.434473 198 198 198 0
8.491833 -8.117193 32.648340 197 197 197 0
8.632613 -8.132172 32.708584 198 198 198 0
8.785919 -8.158353 32.813888 197 197 197 0
8.974252 -8.215865 33.045208 197 197 197 0
9.126638 -8.239326 33.139570 197 197 197 0
9.323313 -8.301580 33.389965 197 197 197 0
9.510965 -8.354226 33.601713 196 196 196 0
9.650387 -8.363669 33.639693 197 197 197 0
9.885069 -8.454336 34.004366 196 196 196 0
10.022392 -8.460461 34.029003 197 197 197 0
10.189863 -8.491553 34.154058 195 195 195 0
10.400583 -8.557442 34.419071 195 195 195 0
-7.846575 -6.277260 25.642401 203 203 203 0
-7.771584 -6.295967 25.718818 203 203 203 0
-7.756245 -6.364098 25.997134 204 204 204 0
-7.738180 -6.431734 26.273423 204 204 204 0
-7.682465 -6.469445 26.427469 204 204 204 0
-7.567425 -6.457536 26.378823 203 203 203 0
-7.474736 -6.464637 26.407831 203 203 203 0
-7.393156 -6.481671 26.477414 203 203 203 0
-7.403306 -6.580716 26.882011 204 204 204 0
-7.320790 -6.599022 26.956789 204 204 204 0
-7.208426 -6.590561 26.922224 203 203 203 0
-7.077059 -6.564228 26.814658 204 204 204 0
-7.100381 -6.682711 27.298658 205 205 205 0
-7.108997 -6.790683 27.739720 204 204 204 0
-6.958410 -6.747549 27.563519 205 205 205 0
-6.807516 -6.702785 27.380656 205 205 205 0
-6.678717 -6.678717 27.282340 204 204 204 0
-6.743355 -6.850392 27.983627 205 205 205 0
-6.621249 -6.834837 27.920088 205 205 205 0
-6.482807 -6.801634 27.784452 204 204 204 0
-6.322913 -6.744441 27.550819 205 205 205 0
-6.201888 -6.727472 27.481503 205 205 205 0
-6.205827 -6.847809 27.973078 205 205 205 0
-6.163067 -6.919935 28.267709 205 205 205 0
-6.023548 -6.884055 28.121141 205 205 205 0
-5.890971 -6.854948 28.002239 205 205 205 0
-5.797335 -6.870916 28.067467 205 205 205 0
-5.747561 -6.940451 28.351515 206 206 206 0
-5.668718 -6.976884 28.500342 206 206 206 0
-5.527767 -6.936806 28.336626 205 205 205 0
-5.419830 -6.937383 28.338982 206 206 206 0
-5.345017 -6.981247 28.518166 206 206 206 0
-5.291995 -7.055993 28.823502 206 206 206 0
-5.178727 -7.051884 28.806715 205 205 205 0
-5.045821 -7.020273 28.677585 205 205 205 0
-4.936369 -7.020614 28.678980 206 206 206 0
-4.858702 -7.067203 28.869295 206 206 206 0
-4.782218 -7.117719 29.075651 206 206 206 0
-4.646163 -7.079867 28.921025 205 205 205 0
-4.513770 -7.045885 28.782209 206 206 206 0
-4.410881 -7.057409 28.829287 206 206 206 0
-4.323308 -7.094659 28.981450 206 206 206 0
-4.227415 -7.119857 29.084382 206 206 206 0
-4.123773 -7.133012 29.138121 206 206 206 0
-4.020773 -7.148040 29.199512 205 205 205 0
-3.910872 -7.151308 29.212861 207 207 207 0
-3.812896 -7.177216 29.318691 206 206 206 0
-3.700785 -7.177281 29.318957 206 206 206 0
-3.598618 -7.197236 29.400473 206 206 206 0
-3.489107 -7.203319 29.425321 206 206 206 0
-3.388730 -7.229292 29.531420 207 207 207 0
-3.277952 -7.234100 29.551063 206 206 206 0
-3.186012 -7.282313 29.748010 206 206 206 0
-3.072805 -7.283685 29.753615 207 207 207 0
-2.950879 -7.263702 29.671984 207 207 207 0
-2.838693 -7.267054 29.685677 206 206 206 0
-2.736026 -7.296070 29.804209 208 208 208 0
-2.628346 -7.313657 29.876051 207 207 207 0
-2.511512 -7.306217 29.845658 207 207 207 0
-2.390999 -7.286855 29.766565 208 208 208 0
-2.275711 -7.282275 29.747856 206 206 206 0
-2.179395 -7.341120 29.988235 207 207 207 0
-2.072622 -7.369323 30.103444 207 207 207 0
-1.951185 -7.345638 30.006691 207 207 207 0
-1.832410 -7.329641 29.941343 206 206 206 0
-1.723585 -7.353962 30.040695 207 207 207 0
-1.614221 -7.379296 30.144182 208 208 208 0
-1.502053 -7.394720 30.207190 207 207 207 0
-1.379557 -7.357636 30.055702 206 206 206 0
-1.268352 -7.379500 30.145015 207 207 207 0
-1.165876 -7.461604 30.480410 207 207 207 0
-1.051078 -7.474329 30.532390 207 207 207 0
-0.929584 -7.436675 30.378574 207 207 207 0
-0.811406 -7.418574 30.304631 208 208 208 0
-0.694714 -7.410286 30.270777 208 208 208 0
-0.588652 -7.534742 30.779173 207 207 207 0
-0.462873 -7.405964 30.253120 181 181 181 0
-0.386910 -8.254074 33.717621 110 110 110 0
-0.256130 -8.196171 33.481092 107 107 107 0
-0.125516 -8.033000 32.814541 93 93 93 0
0.000000 -5.708174 23.317702 98 98 98 0
0.088591 -5.669807 23.160976 91 91 91 0
0.172952 -5.534469 22.608126 108 108 108 0
0.352852 -7.527516 30.749656 94 94 94 0
0.464125 -7.426000 30.334968 122 122 122 0
0.571665 -7.317308 29.890962 96 96 96 0
0.498000 -5.311995 21.699328 99 99 99 0
0.686116 -6.273061 25.625249 134 134 134 0
0.778245 -6.225957 25.432831 203 203 203 0
0.878780 -6.249104 25.527387 206 206 206 0
0.976494 -6.249562 25.529257 205 205 205 0
1.080231 -6.284980 25.673936 206 206 206 0
1.179671 -6.291578 25.700893 206 206 206 0
1.280548 -6.304238 25.752607 205 205 205 0
1.388238 -6.346232 25.924150 205 205 205 0
1.494723 -6.377485 26.051816 206 206 206 0
1.597824 -6.391294 26.108227 206 206 206 0
1.697675 -6.391246 26.108032 205 205 205 0
1.809646 -6.434297 26.283893 205 205 205 0
1.924072 -6.481083 26.475013 205 205 205 0
2.032730 -6.504735 26.571629 205 205 205 0
2.139308 -6.519795 26.633149 205 205 205 0
2.249812 -6.544907 26.735731 204 204 204 0
2.370555 -6.596327 26.945782 205 205 205 0
2.475239 -6.600638 26.963389 204 204 204 0
2.582928 -6.612297 27.011016 204 204 204 0
2.694236 -6.631966 27.091364 204 204 204 0
3.612588 -8.563172 34.980277 204 204 204 0
3.748478 -8.567949 34.999793 203 203 203 0
3.051605 -6.734577 27.510527 204 204 204 0
3.162950 -6.747627 27.563838 204 204 204 0
3.285536 -6.783042 27.708504 203 203 203 0
3.408762 -6.817523 27.849359 203 203 203 0
3.519759 -6.826200 27.884802 203 203 203 0
3.643566 -6.858476 28.016652 204 204 204 0
3.780204 -6.912373 28.236820 203 203 203 0
3.898783 -6.931170 28.313603 203 203 203 0
4.016748 -6.947888 28.381897 202 202 202 0
4.166877 -7.017899 28.667886 202 202 202 0
4.278179 -7.020601 28.678927 202 202 202 0
4.383379 -7.013407 28.649537 202 202 202 0
4.521201 -7.057485 28.829596 203 203 203 0
4.666205 -7.110408 29.045786 202 202 202 0
4.784093 -7.120510 29.087050 202 202 202 0
4.915777 -7.150221 29.208421 201 201 201 0
5.062862 -7.200515 29.413867 202 202 202 0
5.188432 -7.218688 29.488105 201 201 201 0
5.309813 -7.230384 29.535880 201 201 201 0
5.459560 -7.279413 29.736165 201 201 201 0
5.607708 -7.324353 29.919743 201 201 201 0
5.734800 -7.340544 29.985880 201 201 201 0
5.882020 -7.381359 30.152609 201 201 201 0
6.027867 -7.418914 30.306020 200 200 200 0
6.153971 -7.431210 30.356249 200 200 200 0
6.291014 -7.456017 30.457585 200 200 200 0
6.456725 -7.513280 30.691503 200 200 200 0
6.594471 -7.536538 30.786512 200 200 200 0
6.739349 -7.566989 30.910902 200 200 200 0
6.884853 -7.597079 31.033820 200 200 200 0
7.032783 -7.628782 31.163325 200 200 200 0
7.188236 -7.667452 31.321290 199 199 199 0
7.340806 -7.701829 31.461721 199 199 199 0
7.515843 -7.758290 31.692359 199 199 199 0
8.422643 -8.556336 34.952352 199 199 199 0
8.555966 -8.555966 34.950842 198 198 198 0
7.980464 -7.857688 32.098399 198 198 198 0
8.120826 -7.874740 32.168056 199 199 199 0
8.267365 -7.897185 32.259742 197 197 197 0
8.463031 -7.965206 32.537605 198 198 198 0
8.596286 -7.973367 32.570944 198 198 198 0
8.747996 -7.998168 32.672255 198 198 198 0
8.941519 -8.059960 32.924675 197 197 197 0
9.090206 -8.080183 33.007285 197 197 197 0
9.277048 -8.133302 33.224274 198 198 198 0
9.470409 -8.190624 33.458431 196 196 196 0
9.613481 -8.203504 33.511044 197 197 197 0
9.496344 -7.996921 32.667162 197 197 197 0
9.995773 -8.308175 33.938625 196 196 196 0
10.145575 -8.324574 34.005613 196 196 196 0
10.367418 -8.398921 34.309318 196 196 196 0
-7.881520 -6.206697 25.756601 204 204 204 0
-7.766635 -6.193645 25.702439 203 203 203 0
-7.769824 -6.275627 26.042646 204 204 204 0
-7.778121 -6.363917 26.409035 203 203 203 0
-7.693206 -6.377263 26.464418 203 203 203 0
-7.578994 -6.366355 26.419152 204 204 204 0
-7.474264 -6.363225 26.406163 204 204 204 0
-7.396565 -6.383337 26.489624 203 203 203 0
-7.395362 -6.470942 26.853166 204 204 204 0
-7.345047 -6.517436 27.046110 204 204 204 0
-7.227521 -6.504769 26.993544 205 205 205 0
-7.093522 -6.476694 26.877038 204 204 204 0
-7.106917 -6.584349 27.323786 204 204 204 0
-7.124327 -6.698994 27.799539 204 204 204 0
-6.958085 -6.641808 27.562230 204 204 204 0
-6.806877 -6.597435 27.378088 205 205 205 0
-6.672591 -6.568332 27.257316 205 205 205 0
-6.739738 -6.739738 27.968620 205 205 205 0
-6.611913 -6.718557 27.880721 205 205 205 0
-6.483086 -6.695646 27.785645 204 204 204 0
-6.322954 -6.639102 27.551000 204 204 204 0
-6.201947 -6.622417 27.481761 205 205 205 0
-6.195547 -6.729646 27.926739 205 205 205 0
-6.162704 -6.811410 28.266045 205 205 205 0
-6.019997 -6.772496 28.104560 205 205 205 0
-5.891242 -6.748150 28.003529 205 205 205 0
-5.795525 -6.761445 28.058701 205 205 205 0
