ply
    format ascii 1.0
    element vertex 23279
    property float x
    property float y
    property float z
    property uchar red
    property uchar green
    property uchar blue
    property uchar alpha
    end_header
-0.443348 4.699487 23.181586 199 199 199 0
-0.355109 4.705194 23.209738 199 199 199 0
-0.266183 4.702570 23.196795 199 199 199 0
-0.176967 4.689636 23.132994 202 202 202 0
-0.087987 4.663288 23.003024 202 202 202 0
0.000000 4.654077 22.957586 203 203 203 0
0.087632 4.644491 22.910303 203 203 203 0
0.175194 4.642629 22.901119 203 203 203 0
0.263204 4.649942 22.937190 203 203 203 0
0.350290 4.641348 22.894798 203 203 203 0
0.436133 4.623006 22.804323 204 204 204 0
0.522517 4.615569 22.767638 204 204 204 0
0.608479 4.607052 22.725623 206 206 206 0
0.696412 4.613729 22.758561 206 206 206 0
0.784826 4.621752 22.798138 206 206 206 0
0.872158 4.622436 22.801509 207 207 207 0
0.956120 4.606759 22.724178 207 207 207 0
1.038475 4.586598 22.624730 207 207 207 0
1.122599 4.576748 22.576141 207 207 207 0
1.211655 4.586980 22.626610 207 207 207 0
1.301867 4.599929 22.690489 208 208 208 0
1.383363 4.582391 22.603976 208 208 208 0
1.464001 4.564239 22.514437 209 209 209 0
1.545513 4.550678 22.447542 210 210 210 0
1.628572 4.542859 22.408975 210 210 210 0
1.715552 4.546213 22.425515 210 210 210 0
1.808266 4.563718 22.511867 210 210 210 0
1.892681 4.559641 22.491754 211 211 211 0
1.974251 4.549361 22.441044 211 211 211 0
2.058067 4.544898 22.419031 211 211 211 0
2.146315 4.550188 22.445127 211 211 211 0
2.234271 4.554475 22.466270 211 211 211 0
2.320463 4.554982 22.468773 211 211 211 0
2.405715 4.553675 22.462328 211 211 211 0
2.489026 4.548910 22.438819 211 211 211 0
2.577497 4.553577 22.461843 212 212 212 0
2.663705 4.554077 22.464307 211 211 211 0
2.755754 4.564218 22.514331 212 212 212 0
2.845164 4.569506 22.540416 212 212 212 0
2.931975 4.570431 22.544981 213 213 213 0
3.015530 4.566374 22.524967 212 212 212 0
3.097600 4.560356 22.495280 213 213 213 0
3.190541 4.570234 22.544007 212 212 212 0
3.285346 4.582193 22.603000 213 213 213 0
3.365753 4.573972 22.562446 213 213 213 0
3.451997 4.573896 22.562070 213 213 213 0
3.536680 4.571806 22.551764 213 213 213 0
3.619417 4.567360 22.529832 213 213 213 0
3.713504 4.577109 22.577921 213 213 213 0
3.808514 4.587529 22.629319 213 213 213 0
3.896266 4.588936 22.636259 213 213 213 0
3.987870 4.594720 22.664791 213 213 213 0
4.076451 4.596849 22.675294 213 213 213 0
4.170113 4.604500 22.713033 213 213 213 0
4.265174 4.613352 22.756699 213 213 213 0
4.359683 4.621264 22.795726 213 213 213 0
4.451521 4.626091 22.819537 213 213 213 0
4.545315 4.632725 22.852261 213 213 213 0
4.657088 4.657088 22.972441 214 214 214 0
4.758581 4.670459 23.038398 213 213 213 0
4.842846 4.666742 23.020063 213 213 213 0
4.929993 4.665887 23.015843 213 213 213 0
5.029722 4.676759 23.069475 212 212 212 0
5.149140 4.705249 23.210008 212 212 212 0
5.231783 4.699737 23.182821 212 212 212 0
5.316382 4.696137 23.165062 212 212 212 0
5.417950 4.707399 23.220613 212 212 212 0
5.532922 4.729756 23.330898 213 213 213 0
5.642141 4.746563 23.413802 212 212 212 0
5.736501 4.750539 23.433417 212 212 212 0
5.847813 4.768217 23.520615 212 212 212 0
5.960513 4.786473 23.610668 211 211 211 0
6.075318 4.805849 23.706247 211 211 211 0
6.173642 4.811809 23.735647 211 211 211 0
6.300741 4.839700 23.873225 212 212 212 0
6.433577 4.871137 24.028297 209 209 209 0
6.548104 4.888021 24.111587 209 209 209 0
6.653930 4.898032 24.160964 209 209 209 0
6.307917 4.579720 22.590802 209 209 209 0
6.907513 4.947273 24.403860 209 209 209 0
7.028737 4.966974 24.501045 207 207 207 0
7.171572 5.001228 24.670009 207 207 207 0
7.334874 5.048679 24.904079 206 206 206 0
7.481134 5.083335 25.075027 205 205 205 0
7.621014 5.112832 25.220531 204 204 204 0
-10.713500 7.231612 35.011436 211 211 211 0
-10.579424 7.231505 35.010918 212 212 212 0
-6.138405 4.249665 20.574510 211 211 211 0
-6.035846 4.232931 20.493491 211 211 211 0
-5.934879 4.216887 20.415819 211 211 211 0
-5.893366 4.243223 20.543322 210 210 210 0
-5.829683 4.254093 20.595948 211 211 211 0
-5.817986 4.303716 20.836194 211 211 211 0
-5.788779 4.341584 21.019530 211 211 211 0
-5.742879 4.367823 21.146566 211 211 211 0
-5.691097 4.390275 21.255263 211 211 211 0
-5.610632 4.390930 21.258435 211 211 211 0
-5.537930 4.397768 21.291543 211 211 211 0
-5.486798 4.422195 21.409804 211 211 211 0
-5.485171 4.487867 21.727752 211 211 211 0
-5.418386 4.501428 21.793407 211 211 211 0
-5.344293 4.509247 21.831261 211 211 211 0
-5.245269 4.495945 21.766861 211 211 211 0
-5.218405 4.545062 22.004658 212 212 212 0
-5.217670 4.618921 22.362241 212 212 212 0
-5.155919 4.640327 22.465876 211 211 211 0
-5.043000 4.615627 22.346296 211 211 211 0
-4.932073 4.591930 22.231565 211 211 211 0
-4.872190 4.615759 22.346932 211 211 211 0
-4.872518 4.698499 22.747516 210 210 210 0
-4.793554 4.706398 22.785758 211 211 211 0
-4.695095 4.695095 22.731034 211 211 211 0
-4.579293 4.665695 22.588696 212 212 212 0
-4.499604 4.672666 22.622443 211 211 211 0
-4.489381 4.753463 23.013617 211 211 211 0
-4.422804 4.776628 23.125773 212 212 212 0
-4.327505 4.769088 23.089265 211 211 211 0
-4.226271 4.754554 23.018903 210 210 210 0
-4.148826 4.766736 23.077880 212 212 212 0
-4.102063 4.815466 23.313802 211 211 211 0
-4.043940 4.852728 23.494202 212 212 212 0
-3.957287 4.856670 23.513289 211 211 211 0
-3.857700 4.844553 23.454626 211 211 211 0
-3.801902 4.888159 23.665744 212 212 212 0
-3.754151 4.944492 23.938475 213 213 213 0
-3.677870 4.965125 24.038366 212 212 212 0
-3.579640 4.956425 23.996248 212 212 212 0
-3.482247 4.948456 23.957668 212 212 212 0
-3.399167 4.960946 24.018135 212 212 212 0
-3.328813 4.993220 24.174387 211 211 211 0
-3.260188 5.030005 24.352480 213 213 213 0
-3.154267 5.009718 24.254263 212 212 212 0
-3.056200 5.001055 24.212320 213 213 213 0
-2.974546 5.019547 24.301848 212 212 212 0
-2.902116 5.055299 24.474939 212 212 212 0
-2.817841 5.072114 24.556348 212 212 212 0
-2.730414 5.084219 24.614956 214 214 214 0
-2.647738 5.106353 24.722114 213 213 213 0
-2.560484 5.120968 24.792872 214 214 214 0
-2.467194 5.124173 24.808390 213 213 213 0
-2.366925 5.112558 24.752155 214 214 214 0
-2.263196 5.092191 24.653550 204 204 204 0
-2.163745 5.080098 24.595003 196 196 196 0
-2.067532 5.074852 24.569605 190 190 190 0
-1.962051 5.045274 24.426405 190 190 190 0
-1.863186 5.030604 24.355379 191 191 191 0
-1.771632 5.035164 24.377460 191 191 191 0
-1.677143 5.031429 24.359377 190 190 190 0
-1.581298 5.022946 24.318305 190 190 190 0
-1.480545 4.996839 24.191911 189 189 189 0
-1.376135 4.954086 23.984926 194 194 194 0
-1.275386 4.919345 23.816727 194 194 194 0
-1.179041 4.897555 23.711233 194 194 194 0
-1.086242 4.888089 23.665405 194 194 194 0
-1.001015 4.914073 23.791204 195 195 195 0
-0.906767 4.896543 23.706335 194 194 194 0
-0.810709 4.864253 23.550004 197 197 197 0
-0.717202 4.841112 23.437969 198 198 198 0
-0.624763 4.819596 23.333800 199 199 199 0
-0.533428 4.800852 23.243048 200 200 200 0
-0.443888 4.793992 23.209840 200 200 200 0
-0.355741 4.802504 23.251049 199 199 199 0
-0.266562 4.798109 23.229769 199 199 199 0
-0.177039 4.780057 23.142375 199 199 199 0
-0.088180 4.761703 23.053511 202 202 202 0
0.000000 4.742974 22.962837 203 203 203 0
0.087765 4.739318 22.945138 202 202 202 0
0.175554 4.739965 22.948269 204 204 204 0
0.263561 4.744098 22.968279 203 203 203 0
0.350908 4.737260 22.935171 203 203 203 0
0.436563 4.714884 22.826843 204 204 204 0
0.522374 4.701363 22.761380 203 203 203 0
0.609023 4.698181 22.745974 205 205 205 0
0.698120 4.712312 22.814389 206 206 206 0
0.786373 4.718236 22.843071 206 206 206 0
0.872840 4.713334 22.819336 207 207 207 0
0.956892 4.697467 22.742520 207 207 207 0
1.039117 4.676026 22.638714 207 207 207 0
1.123714 4.667736 22.598578 208 208 208 0
1.212478 4.676703 22.641988 208 208 208 0
1.304057 4.694604 22.728654 207 207 207 0
1.385311 4.675426 22.635809 207 207 207 0
1.466341 4.657790 22.550425 208 208 208 0
1.547126 4.641378 22.470967 209 209 209 0
1.631560 4.637065 22.450085 210 210 210 0
1.717497 4.637243 22.450945 209 209 209 0
1.809609 4.653280 22.528587 210 210 210 0
1.894305 4.649658 22.511051 211 211 211 0
1.974798 4.636483 22.447266 210 210 210 0
2.061372 4.638087 22.455033 211 211 211 0
2.149421 4.642750 22.477608 210 210 210 0
2.237869 4.647883 22.502458 211 211 211 0
2.323524 4.647048 22.498417 211 211 211 0
2.407248 4.642550 22.476641 210 210 210 0
2.491487 4.639320 22.461003 212 212 212 0
2.581118 4.646012 22.493402 211 211 211 0
2.669429 4.649973 22.512577 212 212 212 0
2.760325 4.658049 22.551678 212 212 212 0
2.847886 4.660177 22.561978 212 212 212 0
2.935412 4.662125 22.571409 212 212 212 0
3.018564 4.657213 22.547629 212 212 212 0
3.102480 4.653720 22.530719 212 212 212 0
3.192974 4.660017 22.561203 212 212 212 0
3.290502 4.675977 22.638474 213 213 213 0
3.369545 4.665524 22.587867 213 213 213 0
3.455824 4.665363 22.587087 212 212 212 0
3.538932 4.661032 22.566119 213 213 213 0
3.625361 4.661178 22.566826 213 213 213 0
3.716238 4.666904 22.594549 213 213 213 0
3.812201 4.678610 22.651225 213 213 213 0
3.898960 4.678752 22.651908 213 213 213 0
3.992484 4.686829 22.691013 212 212 212 0
4.082299 4.690301 22.707823 213 213 213 0
4.172966 4.694587 22.728575 213 213 213 0
4.270475 4.706238 22.784982 213 213 213 0
4.366789 4.716132 22.832885 213 213 213 0
4.458750 4.721029 22.856594 213 213 213 0
4.553352 4.728481 22.892670 213 213 213 0
4.665812 4.753847 23.015476 213 213 213 0
4.766164 4.766164 23.075111 213 213 213 0
4.851530 4.763321 23.061344 213 213 213 0
4.940763 4.764307 23.066121 212 212 212 0
4.991414 4.728708 22.893769 212 212 212 0
5.149855 4.794693 23.213231 213 213 213 0
5.239408 4.795390 23.216606 213 213 213 0
5.325516 4.792964 23.204861 213 213 213 0
5.427744 4.804889 23.262593 212 212 212 0
5.546523 4.830842 23.388246 212 212 212 0
5.648565 4.841627 23.440461 212 212 212 0
5.745768 4.847992 23.471276 212 212 212 0
5.859556 4.867939 23.567849 211 211 211 0
5.973236 4.887193 23.661066 211 211 211 0
6.085323 4.904589 23.745285 211 211 211 0
6.189175 4.914933 23.795366 211 211 211 0
6.315565 4.942616 23.929394 210 210 210 0
6.446807 4.973251 24.077710 209 209 209 0
6.557719 4.987561 24.146989 209 209 209 0
6.673541 5.005155 24.232174 209 209 209 0
6.825093 5.048699 24.442986 209 209 209 0
6.929314 5.056526 24.480883 209 209 209 0
7.050491 5.076353 24.576874 207 207 207 0
7.198909 5.115015 24.764050 207 207 207 0
7.354767 5.157889 24.971623 207 207 207 0
7.495981 5.189525 25.124789 205 205 205 0
7.643542 5.224700 25.295084 203 203 203 0
-10.713467 7.365508 35.011329 211 211 211 0
-10.579430 7.365426 35.010936 211 211 211 0
-6.144576 4.332714 20.595193 211 211 211 0
-6.044426 4.317447 20.522625 211 211 211 0
-5.928594 4.290430 20.394200 211 211 211 0
-5.882048 4.313502 20.503871 211 211 211 0
-5.818127 4.324283 20.555119 211 211 211 0
-5.801832 4.371243 20.778339 210 210 210 0
-5.786614 4.420330 21.011671 211 211 211 0
-5.728631 4.437672 21.094103 210 210 210 0
-5.688028 4.469165 21.243802 211 211 211 0
-5.598413 4.462503 21.212136 211 211 211 0
-5.529802 4.472634 21.260292 211 211 211 0
-5.492299 4.508604 21.431273 211 211 211 0
-5.476220 4.563516 21.692294 211 211 211 0
-5.430365 4.594924 21.841588 211 211 211 0
-5.340204 4.589238 21.814559 211 211 211 0
-5.238926 4.573666 21.740538 210 210 210 0
-5.212733 4.624198 21.980740 211 211 211 0
-5.207369 4.695169 22.318092 211 211 211 0
-5.151768 4.722454 22.447793 211 211 211 0
-5.033921 4.692638 22.306064 211 211 211 0
-4.924719 4.669992 22.198418 211 211 211 0
-4.871309 4.700386 22.342893 211 211 211 0
-4.871369 4.784380 22.742152 211 211 211 0
-4.787044 4.787044 22.754814 211 211 211 0
-4.692550 4.779449 22.718712 211 211 211 0
-4.579241 4.752043 22.588437 210 210 210 0
-4.495440 4.754793 22.601510 211 211 211 0
-4.486510 4.838393 22.998899 211 211 211 0
-4.422129 4.864342 23.122244 211 211 211 0
-4.310170 4.837946 22.996771 212 212 212 0
-4.225085 4.841244 23.012448 212 212 212 0
-4.147096 4.852985 23.068257 212 212 212 0
-4.096601 4.898110 23.282759 212 212 212 0
-4.042427 4.940744 23.485415 212 212 212 0
-3.963790 4.954738 23.551933 211 211 211 0
-3.859856 4.937026 23.467740 212 212 212 0
-3.804159 4.981637 23.679795 211 211 211 0
-3.746722 5.026091 23.891102 212 212 212 0
-3.676619 5.055351 24.030191 212 212 212 0
-3.579388 5.047855 23.994559 212 212 212 0
-3.479417 5.035998 23.938195 212 212 212 0
-3.395952 5.048037 23.995421 211 211 211 0
-3.323383 5.077390 24.134951 212 212 212 0
-3.257976 5.119677 24.335955 212 212 212 0
-3.152595 5.099786 24.241406 212 212 212 0
-3.051772 5.086286 24.177236 212 212 212 0
-2.970794 5.106053 24.271196 211 211 211 0
-2.894981 5.136257 24.414767 213 213 213 0
-2.811599 5.154598 24.501953 213 213 213 0
-2.727303 5.172472 24.586911 213 213 213 0
-2.645858 5.197220 24.704553 213 213 213 0
-2.557514 5.209752 24.764119 213 213 213 0
-2.465552 5.215590 24.791871 213 213 213 0
-2.369581 5.213077 24.779927 214 214 214 0
-2.265643 5.192098 24.680205 211 211 211 0
-2.168088 5.184557 24.644360 198 198 198 0
-2.080807 5.202017 24.727354 192 192 192 0
-1.967987 5.154251 24.500303 188 188 188 0
-1.872410 5.149127 24.475947 188 188 188 0
-1.777390 5.145077 24.456695 191 191 191 0
-1.681002 5.136394 24.415422 192 192 192 0
-1.584919 5.127680 24.373998 190 190 190 0
-1.482636 5.096562 24.226081 189 189 189 0
-1.378259 5.053616 24.021943 191 191 191 0
-1.278852 5.024062 23.881460 194 194 194 0
-1.182616 5.003374 23.783122 193 193 193 0
-1.050515 4.814859 22.887029 194 194 194 0
-1.003250 5.016248 23.844314 195 195 195 0
-0.907901 4.993453 23.735964 195 195 195 0
-0.811889 4.961544 23.584283 194 194 194 0
-0.717942 4.935849 23.462148 198 198 198 0
-0.625120 4.911660 23.347164 198 198 198 0
-0.534152 4.896390 23.274580 199 199 199 0
-0.445169 4.896859 23.276811 199 199 199 0
-0.356442 4.901080 23.296876 199 199 199 0
-0.266651 4.888595 23.237528 199 199 199 0
-0.177178 4.872406 23.160574 200 200 200 0
-0.088287 4.855777 23.081530 201 201 201 0
0.000000 4.834262 22.979259 203 203 203 0
0.087788 4.828316 22.950997 203 203 203 0
0.175706 4.831907 22.968067 203 203 203 0
0.264067 4.841231 23.012387 203 203 203 0
0.351426 4.832113 22.969044 203 203 203 0
0.437281 4.810089 22.864356 203 203 203 0
0.523175 4.795775 22.796316 203 203 203 0
0.610231 4.794672 22.791074 203 203 203 0
0.699656 4.810136 22.864580 205 205 205 0
0.787598 4.813099 22.878663 206 206 206 0
0.874223 4.808225 22.855496 206 206 206 0
0.957419 4.787093 22.755046 206 206 206 0
1.040698 4.769866 22.673161 207 207 207 0
1.125131 4.760169 22.627067 207 207 207 0
1.214566 4.771509 22.680968 207 207 207 0
1.306191 4.789366 22.765851 208 208 208 0
1.386670 4.766678 22.658004 207 207 207 0
1.467387 4.747428 22.566504 208 208 208 0
1.548898 4.732744 22.496704 208 208 208 0
1.633956 4.729874 22.483061 209 209 209 0
1.720896 4.732463 22.495367 209 209 209 0
1.812092 4.745955 22.559501 210 210 210 0
1.896368 4.740921 22.535572 210 210 210 0
1.977909 4.729783 22.482630 211 211 211 0
2.062766 4.727172 22.470217 210 210 210 0
2.153255 4.737160 22.517695 211 211 211 0
2.240257 4.739004 22.526461 210 210 210 0
2.326119 4.738390 22.523543 210 210 210 0
2.409469 4.732885 22.497372 211 211 211 0
2.494366 4.730693 22.486956 211 211 211 0
2.584448 4.738155 22.522422 211 211 211 0
2.675429 4.746730 22.563183 211 211 211 0
2.764152 4.750886 22.582940 211 211 211 0
2.852760 4.754600 22.600592 212 212 212 0
2.937908 4.752498 22.590604 212 212 212 0
3.021703 4.748390 22.571077 212 212 212 0
3.106688 4.746328 22.561275 212 212 212 0
3.198395 4.754370 22.599503 212 212 212 0
3.295635 4.769998 22.673789 212 212 212 0
3.374934 4.759522 22.623990 213 213 213 0
3.457859 4.754556 22.600387 212 212 212 0
3.544932 4.755396 22.604379 213 213 213 0
3.630504 4.754232 22.598844 213 213 213 0
3.722413 4.761226 22.632089 213 213 213 0
3.818875 4.773594 22.690880 213 213 213 0
3.905046 4.772833 22.687265 213 213 213 0
3.996836 4.778825 22.715747 213 213 213 0
4.086201 4.781724 22.729528 213 213 213 0
4.179597 4.789122 22.764690 212 212 212 0
4.276683 4.800359 22.818104 213 213 213 0
4.372817 4.810098 22.864401 213 213 213 0
4.464768 4.814946 22.887443 212 212 212 0
4.561060 4.824198 22.931423 213 213 213 0
4.674432 4.850826 23.057994 214 214 214 0
4.771476 4.859836 23.100826 213 213 213 0
4.857783 4.857783 23.091064 212 212 212 0
4.945264 4.856955 23.087132 212 212 212 0
5.076391 4.898272 23.283528 212 212 212 0
5.156832 4.890099 23.244679 213 213 213 0
5.244941 4.889352 23.241127 213 213 213 0
5.334512 4.889969 23.244060 212 212 212 0
5.437863 4.902991 23.305958 212 212 212 0
5.555959 4.928673 23.428037 212 212 212 0
5.655637 4.937461 23.469809 211 211 211 0
5.756008 4.946569 23.513104 211 211 211 0
5.870846 4.967639 23.613258 211 211 211 0
5.985206 4.987672 23.708482 211 211 211 0
6.095352 5.003647 23.784418 211 211 211 0
6.203423 5.017474 23.850144 211 211 211 0
6.334091 5.048913 23.999587 209 209 209 0
6.461877 5.077189 24.133995 209 209 209 0
6.567038 5.087142 24.181306 208 208 208 0
6.693982 5.113459 24.306399 209 209 209 0
6.835312 5.149892 24.479583 208 208 208 0
6.948766 5.164624 24.549607 207 207 207 0
7.069590 5.184366 24.643451 206 206 206 0
7.225684 5.229113 24.856154 206 206 206 0
7.370881 5.264915 25.026335 206 206 206 0
7.515787 5.299594 25.191176 203 203 203 0
7.664025 5.335714 25.362870 203 203 203 0
-10.713455 7.499419 35.011292 211 211 211 0
-10.579446 7.499354 35.010989 211 211 211 0
-6.143457 4.410687 20.591444 211 211 211 0
-6.033516 4.388012 20.485583 211 211 211 0
-5.924966 4.365765 20.381721 211 211 211 0
-5.868822 4.382054 20.457766 211 211 211 0
-5.816994 4.402049 20.551117 211 211 211 0
-5.805236 4.453332 20.790530 211 211 211 0
-5.761269 4.480987 20.919640 211 211 211 0
-5.716303 4.508633 21.048708 211 211 211 0
-5.684058 4.547246 21.228974 212 212 212 0
-5.592342 4.538712 21.189132 210 210 210 0
-5.529833 4.553980 21.260413 211 211 211 0
-5.478746 4.579250 21.378385 211 211 211 0
-5.484810 4.653778 21.726320 211 211 211 0
-5.408648 4.659758 21.754240 211 211 211 0
-5.349043 4.680412 21.850664 211 211 211 0
-5.242405 4.659916 21.754974 211 211 211 0
-5.209881 4.705699 21.968715 212 212 212 0
-5.204071 4.777508 22.303958 212 212 212 0
-5.154887 4.811228 22.461381 211 211 211 0
-5.035198 4.779171 22.311721 211 211 211 0
-4.928837 4.758877 22.216981 211 211 211 0
-4.867391 4.781998 22.324922 211 211 211 0
-4.872531 4.872531 22.747577 211 211 211 0
-4.788251 4.875310 22.760552 212 212 212 0
-4.689271 4.862948 22.702838 211 211 211 0
-4.579968 4.839212 22.592026 212 212 212 0
-4.493541 4.839198 22.591961 211 211 211 0
-4.479238 4.918378 22.961617 211 211 211 0
-4.423817 4.954675 23.131068 212 212 212 0
-4.324964 4.942816 23.075703 211 211 211 0
-4.224498 4.928581 23.009250 211 211 211 0
-4.152575 4.947749 23.098736 211 211 211 0
-4.099688 4.990924 23.300299 211 211 211 0
-4.042283 5.030396 23.484576 212 212 212 0
-3.960107 5.040136 23.530049 211 211 211 0
-3.861570 5.029021 23.478157 212 212 212 0
-3.804983 5.073310 23.684921 213 213 213 0
-3.750927 5.123218 23.917916 212 212 212 0
-3.674853 5.144795 24.018650 212 212 212 0
-3.580106 5.140665 23.999369 212 212 212 0
-3.479349 5.127461 23.937729 212 212 212 0
-3.394939 5.138286 23.988261 211 211 211 0
-3.324035 5.170721 24.139686 212 212 212 0
-3.256054 5.209686 24.321597 212 212 212 0
-3.150156 5.188493 24.222655 212 212 212 0
-3.048853 5.173812 24.154118 213 213 213 0
-2.966354 5.191119 24.234917 213 213 213 0
-2.888877 5.218616 24.363287 213 213 213 0
-2.807886 5.241387 24.469594 214 214 214 0
-2.721710 5.255715 24.536484 213 213 213 0
-2.635994 5.271988 24.612455 212 212 212 0
-2.550030 5.288950 24.691644 213 213 213 0
-2.461983 5.302732 24.755984 213 213 213 0
-2.367671 5.303584 24.759962 213 213 213 0
-2.270070 5.296829 24.728428 214 214 214 0
-2.162773 5.265882 24.583952 206 206 206 0
-2.072888 5.276442 24.633251 190 190 190 0
-1.971323 5.256860 24.541832 188 188 188 0
-1.877583 5.257234 24.543575 188 188 188 0
-1.781030 5.249353 24.506783 189 189 189 0
-1.685468 5.243680 24.480297 190 190 190 0
-1.587539 5.229540 24.414286 189 189 189 0
-1.484223 5.194782 24.252015 190 190 190 0
-1.381592 5.157942 24.080029 190 190 190 0
-1.279937 5.119746 23.901709 191 191 191 0
-1.187181 5.114012 23.874938 194 194 194 0
-1.179061 5.502287 25.687614 193 193 193 0
-1.002160 5.101905 23.818415 194 194 194 0
-0.909089 5.090899 23.767036 194 194 194 0
-0.813442 5.061418 23.629401 195 195 195 0
-0.718742 5.031197 23.488314 196 196 196 0
-0.626297 5.010374 23.391101 198 198 198 0
-0.534684 4.990381 23.297765 199 199 199 0
-0.446385 4.999507 23.340369 199 199 199 0
-0.357292 5.002083 23.352394 199 199 199 0
-0.267418 4.991810 23.304434 199 199 199 0
-0.177233 4.962519 23.167689 199 199 199 0
-0.088339 4.946976 23.095124 199 199 199 0
0.000000 4.931013 23.020604 202 202 202 0
0.087920 4.923494 22.985498 203 203 203 0
0.176135 4.931792 23.024240 203 203 203 0
0.264375 4.935008 23.039254 204 204 204 0
0.351950 4.927304 23.003286 203 203 203 0
0.437608 4.901209 22.881461 203 203 203 0
0.524040 4.891036 22.833969 203 203 203 0
0.611683 4.893464 22.845304 204 204 204 0
0.700704 4.904929 22.898829 204 204 204 0
0.789108 4.910005 22.922526 205 205 205 0
0.874591 4.897708 22.865117 207 207 207 0
0.958100 4.877599 22.771237 207 207 207 0
1.040569 4.855988 22.670345 207 207 207 0
1.126889 4.854290 22.662420 207 207 207 0
1.213850 4.855398 22.667592 208 208 208 0
1.308356 4.884530 22.803597 207 207 207 0
1.388547 4.859916 22.688681 207 207 207 0
1.468520 4.837478 22.583929 208 208 208 0
1.550401 4.823471 22.518537 208 208 208 0
1.635828 4.821386 22.508807 208 208 208 0
1.725422 4.831182 22.554539 207 207 207 0
1.815209 4.840557 22.598307 209 209 209 0
1.898057 4.831418 22.555641 210 210 210 0
1.979930 4.820699 22.505598 210 210 210 0
2.065101 4.818570 22.495659 210 210 210 0
2.155526 4.828377 22.541444 211 211 211 0
2.242920 4.830905 22.553246 210 210 210 0
2.329535 4.831627 22.556616 211 211 211 0
2.413341 4.826682 22.533530 211 211 211 0
2.497572 4.822897 22.515860 211 211 211 0
2.590464 4.835533 22.574849 211 211 211 0
2.680127 4.841519 22.602798 212 212 212 0
2.768449 4.844785 22.618045 212 212 212 0
2.856754 4.847825 22.632236 212 212 212 0
2.941271 4.844446 22.616462 212 212 212 0
3.025126 4.840201 22.596642 212 212 212 0
3.113322 4.842945 22.609455 211 211 211 0
3.203537 4.848596 22.635835 213 213 213 0
3.297847 4.859986 22.689008 212 212 212 0
3.378416 4.851059 22.647334 212 212 212 0
3.462404 4.847365 22.630089 212 212 212 0
3.549448 4.848027 22.633179 213 213 213 0
3.634709 4.846279 22.625019 212 212 212 0
3.729258 4.856708 22.673705 212 212 212 0
3.822318 4.864768 22.711337 212 212 212 0
3.908727 4.864193 22.708651 212 212 212 0
4.001817 4.871777 22.744059 212 212 212 0
4.093590 4.877468 22.770627 212 212 212 0
4.187312 4.885197 22.806710 213 213 213 0
4.283328 4.895232 22.853557 213 213 213 0
4.378611 4.904044 22.894698 212 212 212 0
4.473149 4.911693 22.930405 212 212 212 0
4.570296 4.921857 22.977857 212 212 212 0
4.682732 4.947792 23.098937 213 213 213 0
4.775538 4.952410 23.120495 212 212 212 0
4.864617 4.953065 23.123553 212 212 212 0
4.959213 4.959213 23.152257 212 212 212 0
5.079936 4.990814 23.299785 212 212 212 0
5.164343 4.986262 23.278535 212 212 212 0
5.251920 4.984873 23.272052 212 212 212 0
5.342723 4.986542 23.279841 213 213 213 0
5.454253 5.007183 23.376205 212 212 212 0
5.569480 5.030498 23.485053 211 211 211 0
5.664581 5.035183 23.506924 211 211 211 0
5.771141 5.049749 23.574924 211 211 211 0
5.886368 5.071332 23.675688 211 211 211 0
6.002386 5.092934 23.776535 211 211 211 0
6.109089 5.106104 23.838022 211 211 211 0
6.216058 5.119107 23.898725 210 210 210 0
6.355607 5.158174 24.081110 209 209 209 0
6.480549 5.184439 24.203732 209 209 209 0
6.579171 5.189205 24.225981 209 209 209 0
6.708513 5.217732 24.359161 209 209 209 0
6.847215 5.252658 24.522213 207 207 207 0
6.961573 5.268217 24.594853 207 207 207 0
7.092536 5.295760 24.723436 206 206 206 0
7.252509 5.343954 24.948430 206 206 206 0
7.398579 5.380785 25.120377 205 205 205 0
7.538561 5.412300 25.267508 203 203 203 0
7.684731 5.447404 25.431392 202 202 202 0
-10.713436 7.633323 35.011230 211 211 211 0
-10.579441 7.633268 35.010975 211 211 211 0
-6.130047 4.479650 20.546496 211 211 211 0
-6.029657 4.463512 20.472478 211 211 211 0
-5.914034 4.435525 20.344113 211 211 211 0
-5.863294 4.456103 20.438496 211 211 211 0
-5.811074 4.476098 20.530204 210 210 210 0
-5.780652 4.513660 20.702486 211 211 211 0
-5.750061 4.552132 20.878945 211 211 211 0
-5.697010 4.573656 20.977667 210 210 210 0
-5.665284 4.613160 21.158856 212 212 212 0
-5.573883 4.604512 21.119194 211 211 211 0
-5.522153 4.628864 21.230885 211 211 211 0
-5.455629 4.641356 21.288182 211 211 211 0
-5.476272 4.729507 21.692500 211 211 211 0
-5.413449 4.747178 21.773550 211 211 211 0
-5.346948 4.762126 21.842109 212 212 212 0
-5.241077 4.741927 21.749463 211 211 211 0
-5.209623 4.789492 21.967629 211 211 211 0
-5.205189 4.863865 22.308748 211 211 211 0
-5.154551 4.896824 22.459918 211 211 211 0
-5.033520 4.862892 22.304286 211 211 211 0
-4.930372 4.845365 22.223897 211 211 211 0
-4.873410 4.873410 22.352528 211 211 211 0
-4.876342 4.963419 22.765367 212 212 212 0
-4.784061 4.958026 22.740632 211 211 211 0
-4.687691 4.948119 22.695189 211 211 211 0
-4.576023 4.921383 22.572562 212 212 212 0
-4.486707 4.918121 22.557601 211 211 211 0
-4.470025 4.995910 22.914391 211 211 211 0
-4.418318 5.036883 23.102318 211 211 211 0
-4.315169 5.019687 23.023445 211 211 211 0
-4.223428 5.015320 23.003418 210 210 210 0
-4.143182 5.024711 23.046488 212 212 212 0
-4.094275 5.073341 23.269538 212 212 212 0
-4.034494 5.110359 23.439327 212 212 212 0
-3.955492 5.124161 23.502629 212 212 212 0
-3.858101 5.114227 23.457067 211 211 211 0
-3.796332 5.152165 23.631074 211 211 211 0
-3.746441 5.208467 23.889312 212 212 212 0
-3.674817 5.236615 24.018414 212 212 212 0
-3.577399 5.228506 23.981223 212 212 212 0
-3.479141 5.218711 23.936297 212 212 212 0
-3.398516 5.235551 24.013536 212 212 212 0
-3.323677 5.262489 24.137090 213 213 213 0
-3.254732 5.300563 24.311721 212 212 212 0
-3.150399 5.281550 24.224518 212 212 212 0
-3.050491 5.269030 24.167090 212 212 212 0
-2.962554 5.277050 24.203875 212 212 212 0
-2.880585 5.296560 24.293359 213 213 213 0
-2.804519 5.328585 24.440249 212 212 212 0
-2.718447 5.343155 24.507076 212 212 212 0
-2.628148 5.350159 24.539201 213 213 213 0
-2.542600 5.367712 24.619708 214 214 214 0
-2.456840 5.386149 24.704273 213 213 213 0
-2.370510 5.404763 24.789649 213 213 213 0
-2.278733 5.411990 24.822796 214 214 214 0
-2.174014 5.387774 24.711727 210 210 210 0
-2.080266 5.389779 24.720923 193 193 193 0
-1.976562 5.364954 24.607059 185 185 185 0
-1.883343 5.367527 24.618859 184 184 184 0
-1.786399 5.359196 24.580651 187 187 187 0
-1.689689 5.350683 24.541601 188 188 188 0
-1.591045 5.334680 24.468201 190 190 190 0
-1.486663 5.296237 24.291879 188 188 188 0
-1.383467 5.257175 24.112716 189 189 189 0
-1.281875 5.219063 23.937911 189 189 189 0
-1.187521 5.206824 23.881773 193 193 193 0
-1.102294 5.235894 24.015110 195 195 195 0
-1.006750 5.216796 23.927512 194 194 194 0
-0.911163 5.193631 23.821263 194 194 194 0
-0.815261 5.163322 23.682248 194 194 194 0
-0.720057 5.130406 23.531272 194 194 194 0
-0.627247 5.107585 23.426604 197 197 197 0
-0.535350 5.085830 23.326818 199 199 199 0
-0.447358 5.099886 23.391292 199 199 199 0
-0.358015 5.101719 23.399697 199 199 199 0
-0.267440 5.081359 23.306313 199 199 199 0
-0.177568 5.060701 23.211564 199 199 199 0
-0.088324 5.034492 23.091351 200 200 200 0
0.000000 5.027918 23.061199 200 200 200 0
0.088072 5.020082 23.025257 203 203 203 0
0.176450 5.028822 23.065347 203 203 203 0
0.264681 5.028940 23.065887 203 203 203 0
0.352078 5.017115 23.011650 203 203 203 0
0.438397 4.997724 22.922709 203 203 203 0
0.525101 4.988455 22.880197 203 203 203 0
0.613540 4.995967 22.914654 204 204 204 0
0.702084 5.002352 22.943935 204 204 204 0
0.791587 5.013385 22.994542 204 204 204 0
0.876208 4.994388 22.907408 205 205 205 0
0.959297 4.970905 22.799701 206 206 206 0
1.042613 4.952411 22.714876 207 207 207 0
1.128749 4.949132 22.699836 206 206 206 0
1.013683 4.127138 18.929655 207 207 207 0
1.309807 4.977265 22.828873 207 207 207 0
1.390426 4.953392 22.719375 207 207 207 0
1.471261 4.933053 22.626090 207 207 207 0
1.553721 4.920117 22.566757 208 208 208 0
1.639573 4.918718 22.560341 208 208 208 0
1.731024 4.933417 22.627758 208 208 208 0
1.818401 4.935659 22.638042 208 208 208 0
1.900217 4.923290 22.581308 209 209 209 0
1.982426 4.912969 22.533969 209 209 209 0
2.067185 4.909564 22.518353 209 209 209 0
2.158297 4.920918 22.570431 210 210 210 0
2.246176 4.924308 22.585979 210 210 210 0
2.330744 4.920459 22.568325 211 211 211 0
2.415852 4.917985 22.556979 211 211 211 0
2.501544 4.916829 22.551673 211 211 211 0
2.591820 4.924457 22.586663 212 212 212 0
2.684873 4.936702 22.642828 211 211 211 0
2.773433 4.940177 22.658764 211 211 211 0
2.861475 4.942548 22.669640 212 212 212 0
2.945102 4.937377 22.645921 211 211 211 0
3.033193 4.939772 22.656906 211 211 211 0
3.122092 4.943313 22.673146 212 212 212 0
3.360944 5.177671 23.748062 213 213 213 0
3.299242 4.948863 22.698605 212 212 212 0
3.382418 4.943533 22.674159 212 212 212 0
3.466984 4.940452 22.660024 212 212 212 0
3.553245 4.939877 22.657388 211 211 211 0
3.642941 4.943991 22.676259 212 212 212 0
3.737388 4.954213 22.723140 211 211 211 0
3.828293 4.959380 22.746841 212 212 212 0
3.914535 4.958411 22.742397 212 212 212 0
4.005633 4.963502 22.765745 212 212 212 0
4.100104 4.972467 22.806865 212 212 212 0
4.192070 4.978083 22.832624 212 212 212 0
4.290059 4.990477 22.889472 213 213 213 0
4.383429 4.997109 22.919892 212 212 212 0
4.476913 5.003609 22.949704 213 213 213 0
4.580503 5.020936 23.029175 213 213 213 0
4.692343 5.046482 23.146344 212 212 212 0
4.782628 5.048330 23.154822 212 212 212 0
4.869891 5.046978 23.148618 212 212 212 0
4.964770 5.053426 23.178196 212 212 212 0
5.089978 5.089978 23.345847 212 212 212 0
5.169405 5.080278 23.301354 212 212 212 0
5.256527 5.078340 23.292465 212 212 212 0
5.351786 5.084197 23.319329 212 212 212 0
5.465459 5.107068 23.424231 211 211 211 0
5.578256 5.128396 23.522057 211 211 211 0
5.673226 5.132919 23.542798 211 211 211 0
5.781699 5.149326 23.618051 210 210 210 0
5.902903 5.176392 23.742196 211 211 211 0
6.015738 5.195410 23.829423 211 211 211 0
6.116742 5.203795 23.867883 210 210 210 0
6.236502 5.227656 23.977323 209 209 209 0
6.376342 5.267413 24.159674 209 209 209 0
6.492673 5.286891 24.249014 208 208 208 0
6.599158 5.297916 24.299578 209 209 209 0
6.719565 5.319655 24.399290 208 208 208 0
6.866784 5.361736 24.592297 207 207 207 0
6.988116 5.382738 24.688629 205 205 205 0
7.121819 5.412583 24.825513 206 206 206 0
7.279140 5.459355 25.040040 205 205 205 0
7.423208 5.495102 25.204001 203 203 203 0
7.573262 5.534307 25.383819 202 202 202 0
7.724520 5.573388 25.563069 202 202 202 0
-10.713489 7.767279 35.011401 210 210 210 0
-10.579439 7.767183 35.010969 211 211 211 0
-6.124694 4.554260 20.528553 210 210 210 0
-6.023683 4.537319 20.452195 211 211 211 0
-5.914702 4.513851 20.346412 211 211 211 0
-5.861753 4.533089 20.433126 211 211 211 0
-5.796228 4.542989 20.477752 211 211 211 0
-5.782381 4.594220 20.708678 211 211 211 0
-5.738639 4.622792 20.837469 211 211 211 0
-5.692946 4.650575 20.962701 211 211 211 0
-5.643196 4.675791 21.076362 211 211 211 0
-5.567545 4.679965 21.095178 211 211 211 0
-5.502415 4.693236 21.154997 212 212 212 0
-5.440973 4.710096 21.230996 212 212 212 0
-5.437090 4.778049 21.537294 212 212 212 0
-5.406040 4.823851 21.743750 211 211 211 0
-5.330558 4.830819 21.775157 211 211 211 0
-5.239070 4.823270 21.741133 211 211 211 0
-5.200605 4.865082 21.929601 211 211 211 0
-5.206483 4.950427 22.314297 212 212 212 0
-5.143153 4.971714 22.410252 212 212 212 0
-5.038584 4.953184 22.326727 212 212 212 0
-4.933670 4.933670 22.238766 211 211 211 0
-4.876289 4.961838 22.365732 211 211 211 0
-4.873860 5.047927 22.753782 211 211 211 0
-4.786694 5.047786 22.753149 212 212 212 0
-4.684483 5.031481 22.679654 211 211 211 0
-4.573217 5.004653 22.558724 212 212 212 0
-4.483149 5.000435 22.539714 210 210 210 0
-4.460931 5.073215 22.867772 212 212 212 0
-4.410177 5.115805 23.059747 211 211 211 0
-4.316258 5.109040 23.029255 211 211 211 0
-4.216715 5.095198 22.966859 211 211 211 0
-4.131577 5.098542 22.981932 211 211 211 0
-4.089404 5.156205 23.241855 212 212 212 0
-4.032004 5.196805 23.424857 212 212 212 0
-3.954673 5.212979 23.497763 211 211 211 0
-3.859718 5.206132 23.466900 211 211 211 0
-3.790244 5.234146 23.593177 212 212 212 0
-3.748388 5.302598 23.901725 211 211 211 0
-3.672249 5.324761 24.001626 211 211 211 0
-3.579073 5.322724 23.992445 211 211 211 0
-3.484000 5.317684 23.969728 213 213 213 0
-3.405609 5.338522 24.063654 212 212 212 0
-3.332672 5.369304 24.202408 212 212 212 0
-3.256958 5.397245 24.328350 213 213 213 0
-3.152298 5.377449 24.239123 212 212 212 0
-3.050133 5.360840 24.164254 212 212 212 0
-2.963979 5.372212 24.215514 213 213 213 0
-2.881353 5.390918 24.299833 212 212 212 0
-2.799858 5.413060 24.399638 212 212 212 0
-2.714596 5.429192 24.472353 212 212 212 0
-2.621750 5.430768 24.479460 213 213 213 0
-2.545210 5.467489 24.644981 213 213 213 0
-2.460354 5.488482 24.739608 213 213 213 0
-2.378699 5.518582 24.875285 213 213 213 0
-2.289900 5.533925 24.944443 213 213 213 0
-2.193728 5.532011 24.935815 214 214 214 0
-2.095879 5.525498 24.906461 200 200 200 0
-1.986655 5.486952 24.732713 185 185 185 0
-1.890442 5.482280 24.711654 182 182 182 0
-1.787661 5.457070 24.598016 183 183 183 0
-1.692678 5.454184 24.585007 187 187 187 0
-1.594665 5.440621 24.523874 187 187 187 0
-1.489368 5.398959 24.336078 188 188 188 0
-1.385115 5.355778 24.141439 189 189 189 0
-1.284129 5.319964 23.980004 188 188 188 0
-1.190739 5.312526 23.946476 192 192 192 0
-1.103705 5.334576 24.045869 193 193 193 0
-1.008715 5.318680 23.974216 194 194 194 0
-0.912727 5.293816 23.862142 193 193 193 0
-0.816525 5.262049 23.718949 195 195 195 0
-0.721092 5.227914 23.565085 194 194 194 0
-0.628397 5.206720 23.469551 195 195 195 0
-0.536312 5.184347 23.368704 198 198 198 0
-0.448688 5.204785 23.460830 199 199 199 0
-0.359024 5.205845 23.465608 199 199 199 0
-0.268295 5.187029 23.380792 199 199 199 0
-0.177881 5.158549 23.252419 198 198 198 0
-0.088627 5.140370 23.170475 199 199 199 0
0.000000 5.130128 23.124309 199 199 199 0
0.088411 5.127866 23.114114 200 200 200 0
0.176887 5.129730 23.122516 202 202 202 0
0.265089 5.125050 23.101421 203 203 203 0
0.352416 5.110032 23.033725 203 203 203 0
0.438972 5.092079 22.952803 203 203 203 0
0.525628 5.081073 22.903191 203 203 203 0
0.614979 5.095539 22.968397 204 204 204 0
0.703738 5.102099 22.997968 204 204 204 0
0.791781 5.102587 23.000167 203 203 203 0
0.876554 5.084013 22.916442 204 204 204 0
0.960147 5.062594 22.819898 206 206 206 0
1.044347 5.047675 22.752648 206 206 206 0
1.132152 5.051141 22.768270 207 207 207 0
1.223366 5.068230 22.845300 207 207 207 0
1.309962 5.065187 22.831585 207 207 207 0
1.392386 5.047398 22.751402 207 207 207 0
1.473194 5.026192 22.655812 207 207 207 0
1.555872 5.013365 22.597996 208 208 208 0
1.643349 5.016538 22.612296 208 208 208 0
1.735349 5.032513 22.684305 208 208 208 0
1.821566 5.030991 22.677446 207 207 207 0
1.902238 5.014991 22.605322 208 208 208 0
1.984494 5.004377 22.557479 208 208 208 0
2.071813 5.006882 22.568770 208 208 208 0
2.160653 5.012714 22.595061 209 209 209 0
2.249828 5.018846 22.622702 210 210 210 0
2.335106 5.016154 22.610564 210 210 210 0
2.420888 5.014697 22.603996 210 210 210 0
2.506303 5.012607 22.594577 210 210 210 0
2.595886 5.018712 22.622098 211 211 211 0
2.689094 5.031209 22.678426 211 211 211 0
2.778794 5.036564 22.702563 211 211 211 0
2.866628 5.038315 22.710458 211 211 211 0
2.949944 5.032258 22.683155 211 211 211 0
3.035083 5.029566 22.671022 212 212 212 0
3.125180 5.035013 22.695572 212 212 212 0
3.223323 5.052777 22.775645 211 211 211 0
3.303900 5.042794 22.730647 211 211 211 0
3.386648 5.036553 22.702515 211 211 211 0
3.472048 5.034470 22.693125 212 212 212 0
3.557688 5.032826 22.685717 212 212 212 0
3.653123 5.044789 22.739639 212 212 212 0
3.745588 5.052189 22.772994 212 212 212 0
3.836001 5.056547 22.792638 211 211 211 0
3.923842 5.057397 22.796469 212 212 212 0
4.014354 5.061577 22.815311 213 213 213 0
4.107369 5.068669 22.847278 212 212 212 0
4.200985 5.076190 22.881180 212 212 212 0
4.298912 5.088508 22.936705 213 213 213 0
4.388062 5.090151 22.944113 212 212 212 0
4.481942 5.097111 22.975483 212 212 212 0
4.593247 5.123238 23.093250 212 212 212 0
4.700561 5.144010 23.186881 212 212 212 0
4.790109 5.144932 23.191038 212 212 212 0
4.878378 5.144472 23.188964 212 212 212 0
4.974739 5.152408 23.224737 212 212 212 0
5.094629 5.184008 23.367177 213 213 213 0
5.178095 5.178095 23.340523 212 212 212 0
5.262099 5.172911 23.317154 212 212 212 0
5.360077 5.181408 23.355455 211 211 211 0
5.479082 5.209618 23.482617 211 211 211 0
5.590699 5.230008 23.574525 210 210 210 0
5.685084 5.233887 23.592008 211 211 211 0
5.794682 5.251431 23.671088 210 210 210 0
5.916004 5.278896 23.794889 210 210 210 0
6.030352 5.299400 23.887313 210 210 210 0
6.128623 5.305375 23.914245 209 209 209 0
6.261416 5.340619 24.073110 209 209 209 0
6.399186 5.379026 24.246229 209 209 209 0
6.505505 5.390276 24.296937 209 209 209 0
6.612236 5.401545 24.347736 209 209 209 0
6.410263 5.163823 23.276192 207 207 207 0
6.893837 5.477295 24.689181 205 205 205 0
7.013513 5.497078 24.778355 206 206 206 0
7.160076 5.537126 24.958872 206 206 206 0
7.306825 5.576261 25.135276 203 203 203 0
7.460280 5.619431 25.329869 202 202 202 0
7.627874 5.672009 25.566866 202 202 202 0
7.787749 5.717588 25.772313 200 200 200 0
-10.713507 7.901212 35.011462 211 211 211 0
-10.579420 7.901086 35.010904 210 210 210 0
-6.129264 4.636238 20.543872 210 210 210 0
-6.027468 4.618449 20.465045 211 211 211 0
-5.922079 4.597403 20.371787 211 211 211 0
-5.867107 4.615458 20.451790 211 211 211 0
-5.792138 4.618056 20.463302 210 210 210 0
-5.759805 4.655185 20.627826 211 211 211 0
-5.724074 4.690561 20.784582 211 211 211 0
-5.690867 4.729030 20.955047 211 211 211 0
-5.635315 4.749766 21.046928 211 211 211 0
-5.553326 4.748496 21.041304 210 210 210 0
-5.490280 4.763625 21.108342 211 211 211 0
-5.450813 4.799969 21.269389 211 211 211 0
-5.443343 4.866019 21.562065 211 211 211 0
-5.396133 4.898029 21.703905 211 211 211 0
-5.327404 4.911200 21.762270 211 211 211 0
-5.228587 4.896613 21.697631 211 211 211 0
-5.189352 4.938255 21.882152 211 211 211 0
-5.194279 5.023975 22.261992 211 211 211 0
-5.138734 5.053089 22.391000 211 211 211 0
-5.030775 5.030775 22.292125 211 211 211 0
-4.939360 5.024522 22.264414 211 211 211 0
-4.883759 5.055119 22.399997 211 211 211 0
-4.870532 5.131453 22.738245 212 212 212 0
-4.804502 5.153921 22.837801 211 211 211 0
-4.690974 5.125323 22.711081 211 211 211 0
-4.577395 5.095590 22.579330 211 211 211 0
-4.488338 5.092537 22.565800 211 211 211 0
-4.455240 5.154101 22.838602 212 212 212 0
-4.405357 5.198321 23.034547 211 211 211 0
-4.319893 5.201504 23.048648 212 212 212 0
-4.204377 5.167880 22.899656 211 211 211 0
-4.133342 5.188663 22.991750 211 211 211 0
-4.100992 5.259968 23.307712 212 212 212 0
-4.053866 5.315068 23.551870 211 211 211 0
-3.967843 5.320516 23.576012 212 212 212 0
-3.865154 5.303350 23.499946 211 211 211 0
-3.789329 5.323105 23.587482 211 211 211 0
-3.751983 5.399194 23.924646 211 211 211 0
-3.674480 5.419857 24.016206 212 212 212 0
-3.579112 5.414554 23.992706 212 212 212 0
-3.479064 5.401704 23.935766 212 212 212 0
-3.403714 5.427545 24.050269 212 212 212 0
-3.352833 5.494921 24.348826 212 212 212 0
-3.259278 5.494211 24.345679 211 211 211 0
-3.157500 5.479192 24.279126 211 211 211 0
-3.054276 5.460675 24.197075 212 212 212 0
-2.967747 5.471783 24.246296 211 211 211 0
-2.875261 5.472270 24.248456 211 211 211 0
-2.782914 5.473064 24.251975 210 210 210 0
-2.713586 5.520744 24.463249 210 210 210 0
-2.636854 5.556228 24.620485 208 208 208 0
-2.569039 5.613826 24.875712 208 208 208 0
-2.486358 5.642121 25.001090 206 206 206 0
-2.396975 5.656862 25.066410 206 206 206 0
-2.299837 5.653766 25.052690 205 205 205 0
-2.203574 5.652647 25.047730 202 202 202 0
-2.100820 5.634018 24.965186 196 196 196 0
-1.997173 5.611105 24.863655 182 182 182 0
-1.895671 5.592231 24.780019 180 180 180 0
-1.793020 5.567799 24.671757 180 180 180 0
-1.698572 5.567540 24.670612 182 182 182 0
-1.597605 5.544629 24.569090 188 188 188 0
-1.491168 5.498683 24.365496 188 188 188 0
-1.388541 5.461596 24.201156 188 188 188 0
-1.288075 5.428315 24.053684 187 187 187 0
-1.193470 5.416517 24.001407 190 190 190 0
-1.108557 5.450403 24.151559 191 191 191 0
-1.012290 5.429558 24.059190 193 193 193 0
-0.914625 5.396290 23.911774 194 194 194 0
-0.818100 5.363099 23.764702 193 193 193 0
-0.722348 5.327315 23.606135 194 194 194 0
-0.629678 5.307285 23.517383 194 194 194 0
-0.537878 5.289136 23.436961 195 195 195 0
-0.449546 5.304642 23.505671 198 198 198 0
-0.359295 5.299595 23.483307 200 200 200 0
-0.268851 5.287398 23.429260 198 198 198 0
-0.178503 5.265843 23.333747 198 198 198 0
-0.088812 5.239889 23.218739 199 199 199 0
0.000000 5.233127 23.188774 199 199 199 0
0.088580 5.226231 23.158219 200 200 200 0
0.177222 5.228060 23.166322 200 200 200 0
0.265801 5.227425 23.163511 203 203 203 0
0.352945 5.205932 23.068270 203 203 203 0
0.439777 5.189373 22.994897 203 203 203 0
0.526392 5.176190 22.936479 204 204 204 0
0.615842 5.190669 23.000637 203 203 203 0
0.705447 5.202671 23.053821 204 204 204 0
0.793568 5.202279 23.052084 204 204 204 0
0.877623 5.177978 22.944404 204 204 204 0
0.961151 5.155262 22.843744 204 204 204 0
1.045405 5.139910 22.775718 206 206 206 0
1.134541 5.149069 22.816303 207 207 207 0
1.227754 5.174107 22.927250 207 207 207 0
1.311431 5.158297 22.857191 207 207 207 0
1.393648 5.139077 22.772024 207 207 207 0
1.475845 5.122052 22.696584 208 208 208 0
1.559014 5.110102 22.643631 208 208 208 0
1.645901 5.110955 22.647415 207 207 207 0
1.738084 5.127349 22.720056 208 208 208 0
1.824869 5.127012 22.718564 207 207 207 0
1.905319 5.109718 22.641932 208 208 208 0
1.988334 5.100508 22.601121 208 208 208 0
2.074189 5.099048 22.594650 208 208 208 0
2.165359 5.110247 22.644275 209 209 209 0
2.252077 5.110482 22.645316 209 209 209 0
2.338167 5.109328 22.640203 209 209 209 0
2.423530 5.106725 22.628669 209 209 209 0
2.510831 5.108242 22.635391 209 209 209 0
2.598594 5.110567 22.645695 210 210 210 0
2.692125 5.123722 22.703984 210 210 210 0
2.783665 5.132382 22.742358 209 209 209 0
2.871849 5.134518 22.751824 210 210 210 0
2.953021 5.124360 22.706812 210 210 210 0
3.040105 5.124748 22.708534 211 211 211 0
3.128931 5.127970 22.722811 210 210 210 0
3.226505 5.144968 22.798129 211 211 211 0
3.306907 5.134407 22.751335 211 211 211 0
3.389495 5.127697 22.721601 211 211 211 0
3.476246 5.127462 22.720560 212 212 212 0
3.563994 5.128674 22.725928 211 211 211 0
3.660363 5.141938 22.784705 212 212 212 0
3.753736 5.150474 22.822529 212 212 212 0
3.844351 5.154925 22.842252 212 212 212 0
3.930740 5.153637 22.836544 212 212 212 0
4.021228 5.157662 22.854380 212 212 212 0
4.113903 5.164261 22.883622 212 212 212 0
4.209942 5.174720 22.929967 212 212 212 0
4.308144 5.187357 22.985961 212 212 212 0
4.398510 5.190242 22.998744 211 211 211 0
4.491618 5.196186 23.025085 211 211 211 0
4.602522 5.222093 23.139881 211 211 211 0
4.710517 5.243783 23.235995 212 212 212 0
4.796575 5.240702 23.222342 212 212 212 0
4.886184 5.241543 23.226067 212 212 212 0
4.985882 5.252982 23.276758 211 211 211 0
5.106239 5.285406 23.420431 212 212 212 0
5.187922 5.277369 23.384820 212 212 212 0
5.271611 5.271611 23.359304 211 211 211 0
5.370300 5.280795 23.399998 211 211 211 0
5.492752 5.312662 23.541207 210 210 210 0
5.601582 5.330538 23.620419 210 210 210 0
5.701943 5.339915 23.661969 210 210 210 0
5.809243 5.355396 23.730567 210 210 210 0
5.931081 5.383596 23.855529 211 211 211 0
6.043315 5.402358 23.938662 209 209 209 0
6.149294 5.415050 23.994906 208 208 208 0
6.281678 5.450279 24.151010 209 209 209 0
6.420873 5.490312 24.328402 208 208 208 0
6.528369 5.502483 24.382331 209 209 209 0
6.648380 5.524710 24.480824 207 207 207 0
6.792075 5.565728 24.662580 207 207 207 0
6.905751 5.581360 24.731849 206 206 206 0
7.038176 5.611519 24.865487 205 205 205 0
7.199316 5.663462 25.095655 205 205 205 0
7.344988 5.702030 25.266557 203 203 203 0
7.500840 5.747397 25.467582 202 202 202 0
7.683690 5.812022 25.753946 201 201 201 0
7.854081 5.865706 25.991830 197 197 197 0
-10.713553 8.035165 35.011611 210 210 210 0
-10.579451 8.035026 35.011006 211 211 211 0
-6.105735 4.696719 20.465009 211 211 211 0
-6.046857 4.711837 20.530879 211 211 211 0
-5.936141 4.686427 20.420163 211 211 211 0
-5.864764 4.691811 20.443623 211 211 211 0
-5.789752 4.694393 20.454873 211 211 211 0
-5.755504 4.730551 20.612423 211 211 211 0
-5.730999 4.775833 20.809729 210 210 210 0
-5.693349 4.811281 20.964188 211 211 211 0
-5.639925 4.834221 21.064146 211 211 211 0
-5.554164 4.829708 21.044480 211 211 211 0
-5.499206 4.852241 21.142661 210 210 210 0
-5.448435 4.879195 21.260111 212 212 212 0
-5.443485 4.948622 21.562624 211 211 211 0
-5.401834 4.986308 21.726832 211 211 211 0
-5.315592 4.983368 21.714021 211 211 211 0
-5.234540 4.985276 21.722335 211 211 211 0
-5.199583 5.031855 21.925294 212 212 212 0
-5.167593 5.082879 22.147619 211 211 211 0
-5.120725 5.120725 22.312528 211 211 211 0
-5.021007 5.106109 22.248840 212 212 212 0
-4.927329 5.097236 22.210180 211 211 211 0
-4.923082 5.182191 22.580353 211 211 211 0
-4.890768 5.240109 22.832719 210 210 210 0
-4.821581 5.259907 22.918983 211 211 211 0
-4.709942 5.233269 22.802914 211 211 211 0
-4.594549 5.201376 22.663947 211 211 211 0
-4.488422 5.178949 22.566226 210 210 210 0
-4.423721 5.204377 22.677026 210 210 210 0
-4.394274 5.273129 22.976598 210 210 210 0
-4.324668 5.295511 23.074124 210 210 210 0
-4.200865 5.251082 22.880529 208 208 208 0
-4.123018 5.263427 22.934321 208 208 208 0
-4.096400 5.343131 23.281617 208 208 208 0
-4.052876 5.403834 23.546118 205 205 205 0
-3.965842 5.407966 23.564121 205 205 205 0
-3.861185 5.387700 23.475815 203 203 203 0
-3.826453 5.466361 23.818567 201 201 201 0
-3.777044 5.527382 24.084453 199 199 199 0
-3.683214 5.524821 24.073292 196 196 196 0
-3.583336 5.512825 24.021023 193 193 193 0
-3.481731 5.497470 23.954119 190 190 190 0
-3.396795 5.508316 24.001378 185 185 185 0
-3.319031 5.531719 24.103351 180 180 180 0
-3.241549 5.556942 24.213253 176 176 176 0
-3.157021 5.571214 24.275441 168 168 168 0
-3.056577 5.557412 24.215303 163 163 163 0
-2.985948 5.598652 24.394999 154 154 154 0
-2.918640 5.648980 24.614292 148 148 148 0
-2.862288 5.724575 24.943682 138 138 138 0
-2.811322 5.816528 25.344347 143 143 143 0
-2.719955 5.828475 25.396405 149 149 149 0
-2.614286 5.809525 25.313834 152 152 152 0
-2.516601 5.807542 25.305192 152 152 152 0
-2.413162 5.791590 25.235685 158 158 158 0
-2.307603 5.769008 25.137289 163 163 163 0
-2.211709 5.769676 25.140198 162 162 162 0
-2.105457 5.742156 25.020289 165 165 165 0
-2.002341 5.720975 24.927997 173 173 173 0
-1.899759 5.699278 24.833453 177 177 177 0
-1.798820 5.680486 24.751571 178 178 178 0
-1.703423 5.678075 24.741069 181 181 181 0
-1.600083 5.647351 24.607195 185 185 185 0
-1.493961 5.602354 24.411129 186 186 186 0
-1.390130 5.560522 24.228853 187 187 187 0
-1.289785 5.527650 24.085619 188 188 188 0
-1.178761 5.440435 23.705599 186 186 186 0
-1.107580 5.537901 24.130287 188 188 188 0
-1.013485 5.528098 24.087573 192 192 192 0
-0.916173 5.497040 23.952246 193 193 193 0
-0.819397 5.462647 23.802381 193 193 193 0
-0.723866 5.428997 23.655760 193 193 193 0
-0.631230 5.410546 23.575362 194 194 194 0
-0.539678 5.396777 23.515368 193 193 193 0
-0.450640 5.407677 23.562864 197 197 197 0
-0.359946 5.399194 23.525901 198 198 198 0
-0.269428 5.388570 23.479607 198 198 198 0
