ply
    format ascii 1.0
    element vertex 24419
    property float x
    property float y
    property float z
    property uchar red
    property uchar green
    property uchar blue
    property uchar alpha
    end_header
5.415733 -0.253863 22.123094 213 213 213 0
5.488508 -0.253316 22.075447 213 213 213 0
5.561824 -0.252810 22.031387 213 213 213 0
5.643359 -0.252688 22.020717 213 213 213 0
5.738923 -0.253188 22.064294 213 213 213 0
5.823990 -0.253217 22.066837 213 213 213 0
5.897504 -0.252750 22.026158 213 213 213 0
5.969894 -0.252249 21.982487 212 212 212 0
6.050132 -0.252089 21.968526 213 213 213 0
6.131690 -0.251987 21.959672 213 213 213 0
6.212309 -0.251850 21.947743 213 213 213 0
6.296728 -0.251869 21.949380 214 214 214 0
6.372207 -0.251534 21.920216 214 214 214 0
6.449118 -0.251264 21.896675 213 213 213 0
6.532724 -0.251259 21.896177 214 214 214 0
6.614825 -0.251196 21.890710 214 214 214 0
-8.967824 -0.224196 29.306614 163 163 163 0
-8.796465 -0.222695 29.110499 163 163 163 0
-8.792698 -0.225454 29.471085 167 167 167 0
-8.650983 -0.224701 29.372663 170 170 170 0
-8.567259 -0.225454 29.471136 169 169 169 0
-8.543982 -0.227840 29.782943 177 177 177 0
-8.519485 -0.230256 30.098869 175 175 175 0
-8.382387 -0.229654 30.020189 175 175 175 0
-8.286358 -0.230177 30.088444 179 179 179 0
-8.237394 -0.232039 30.331930 170 170 170 0
-7.617785 -0.217651 28.451111 87 87 87 0
-5.013059 -0.151911 19.857632 73 73 73 0
-5.769594 -0.180300 23.568601 141 141 141 0
-5.771516 -0.183223 23.950686 200 200 200 0
-5.670265 -0.182912 23.910037 203 203 203 0
-5.489688 -0.179990 23.528074 202 202 202 0
-5.346845 -0.178228 23.297798 203 203 203 0
-5.227076 -0.177189 23.161962 202 202 202 0
-5.155302 -0.177769 23.237781 202 202 202 0
-5.172218 -0.181481 23.723048 203 203 203 0
-5.047198 -0.180257 23.563016 202 202 202 0
-4.905744 -0.178391 23.319045 203 203 203 0
-4.784537 -0.177205 23.164064 202 202 202 0
-4.678271 -0.176539 23.076931 202 202 202 0
-4.625002 -0.177885 23.252901 203 203 203 0
-4.582765 -0.179716 23.492323 203 203 203 0
-4.480514 -0.179221 23.427523 204 204 204 0
-4.355241 -0.177765 23.237246 203 203 203 0
-4.251806 -0.177159 23.157987 203 203 203 0
-4.177062 -0.177747 23.234945 204 204 204 0
-4.117318 -0.179014 23.400499 203 203 203 0
-4.033809 -0.179280 23.435344 204 204 204 0
-3.940507 -0.179114 23.413588 203 203 203 0
-3.837528 -0.178490 23.331981 204 204 204 0
-3.748255 -0.178488 23.331810 204 204 204 0
-3.681008 -0.179561 23.472075 204 204 204 0
-3.606927 -0.180346 23.574688 204 204 204 0
-3.520060 -0.180516 23.596849 204 204 204 0
-3.415526 -0.179765 23.498632 204 204 204 0
-3.309730 -0.178904 23.386189 205 205 205 0
-3.209555 -0.178309 23.308314 205 205 205 0
-3.142191 -0.179554 23.471083 204 204 204 0
-3.063422 -0.180201 23.555727 205 205 205 0
-2.966050 -0.179761 23.498116 205 205 205 0
-2.860334 -0.178771 23.368741 204 204 204 0
-2.760679 -0.178108 23.282132 205 205 205 0
-2.669995 -0.178000 23.267927 204 204 204 0
-2.582608 -0.178111 23.282474 205 205 205 0
-2.500768 -0.178626 23.349840 206 206 206 0
-2.409007 -0.178445 23.326142 205 205 205 0
-2.314984 -0.178076 23.277864 206 206 206 0
-2.222912 -0.177833 23.246139 206 206 206 0
-2.136936 -0.178078 23.278174 206 206 206 0
-2.049362 -0.178205 23.294822 205 205 205 0
-1.959761 -0.178160 23.288898 206 206 206 0
-1.870116 -0.178106 23.281863 206 206 206 0
-1.784477 -0.178448 23.326498 207 207 207 0
-1.691947 -0.178100 23.281009 206 206 206 0
-1.604727 -0.178303 23.307582 207 207 207 0
-1.516044 -0.178358 23.314792 207 207 207 0
-1.427839 -0.178480 23.330704 207 207 207 0
-1.342353 -0.178980 23.396131 206 206 206 0
-1.250357 -0.178622 23.349338 207 207 207 0
-1.157508 -0.178078 23.278194 206 206 206 0
-1.064331 -0.177389 23.188048 207 207 207 0
-0.976784 -0.177597 23.215307 208 208 208 0
-0.891442 -0.178288 23.305673 207 207 207 0
-0.801671 -0.178149 23.287451 207 207 207 0
-0.710153 -0.177538 23.207602 208 208 208 0
-0.619362 -0.176961 23.132113 208 208 208 0
-0.529591 -0.176530 23.075855 207 207 207 0
-0.440868 -0.176347 23.051905 207 207 207 0
-0.353975 -0.176988 23.135635 207 207 207 0
-0.265846 -0.177231 23.167413 208 208 208 0
-0.176863 -0.176863 23.119384 207 207 207 0
-0.088129 -0.176258 23.040270 208 208 208 0
0.000000 -0.176087 23.017905 208 208 208 0
0.088014 -0.176028 23.010175 208 208 208 0
0.176368 -0.176368 23.054605 208 208 208 0
0.265220 -0.176813 23.112824 209 209 209 0
0.352843 -0.176421 23.061633 208 208 208 0
0.439964 -0.175986 23.004669 208 208 208 0
0.526890 -0.175630 22.958158 209 209 209 0
0.617142 -0.176326 23.049170 208 208 208 0
0.707114 -0.176779 23.108317 208 208 208 0
0.795015 -0.176670 23.094106 209 209 209 0
0.879629 -0.175926 22.996831 209 209 209 0
0.964796 -0.175417 22.930387 209 209 209 0
1.050163 -0.175027 22.879364 209 209 209 0
1.141678 -0.175643 22.959834 210 210 210 0
1.234604 -0.176372 23.055171 209 209 209 0
1.316946 -0.175593 22.953313 209 209 209 0
1.399280 -0.174910 22.864056 209 209 209 0
1.482189 -0.174375 22.794134 210 210 210 0
1.567476 -0.174164 22.766540 209 209 209 0
1.659006 -0.174632 22.827745 210 210 210 0
1.748416 -0.174842 22.855115 209 209 209 0
1.832399 -0.174514 22.812312 210 210 210 0
1.914836 -0.174076 22.755031 210 210 210 0
2.000138 -0.173925 22.735305 210 210 210 0
2.088222 -0.174018 22.747511 210 210 210 0
2.174728 -0.173978 22.742255 210 210 210 0
2.260982 -0.173922 22.734863 210 210 210 0
2.346127 -0.173787 22.717278 211 211 211 0
2.430708 -0.173622 22.695685 210 210 210 0
2.514040 -0.173382 22.664320 210 210 210 0
2.602693 -0.173513 22.681416 210 210 210 0
2.693470 -0.173772 22.715324 210 210 210 0
2.779670 -0.173729 22.709722 210 210 210 0
2.864799 -0.173624 22.695974 211 211 211 0
2.947247 -0.173367 22.662414 210 210 210 0
3.029576 -0.173119 22.629888 211 211 211 0
3.109475 -0.172749 22.581518 211 211 211 0
3.197428 -0.172834 22.592674 210 210 210 0
3.291729 -0.173249 22.646915 211 211 211 0
3.368080 -0.172722 22.578046 211 211 211 0
3.445954 -0.172298 22.522578 211 211 211 0
3.525524 -0.171977 22.480623 211 211 211 0
3.606712 -0.171748 22.450746 211 211 211 0
3.692409 -0.171740 22.449666 211 211 211 0
3.781217 -0.171873 22.467121 212 212 212 0
3.865872 -0.171817 22.459679 211 211 211 0
3.946400 -0.171583 22.429099 212 212 212 0
4.026931 -0.171359 22.399839 212 212 212 0
4.110121 -0.171255 22.386281 212 212 212 0
4.191442 -0.171079 22.363303 211 211 211 0
4.274217 -0.170969 22.348847 212 212 212 0
4.359409 -0.170957 22.347349 211 211 211 0
4.443986 -0.170923 22.342814 212 212 212 0
4.526798 -0.170823 22.329749 213 213 213 0
4.607513 -0.170649 22.307009 212 212 212 0
4.696726 -0.170790 22.325496 212 212 212 0
4.786531 -0.170948 22.346083 213 213 213 0
4.871320 -0.170924 22.342942 213 213 213 0
4.946801 -0.170579 22.297953 212 212 212 0
5.020407 -0.170183 22.246183 212 212 212 0
5.092199 -0.169740 22.188231 212 212 212 0
5.181207 -0.169876 22.205967 212 212 212 0
5.281099 -0.170358 22.269024 212 212 212 0
5.353176 -0.169942 22.214654 213 213 213 0
5.418780 -0.169337 22.135540 213 213 213 0
5.493004 -0.169016 22.093532 212 212 212 0
5.567701 -0.168718 22.054670 212 212 212 0
5.654464 -0.168790 22.064048 213 213 213 0
5.748437 -0.169072 22.100871 213 213 213 0
5.831592 -0.169032 22.095641 213 213 213 0
5.901856 -0.168624 22.042413 213 213 213 0
5.976587 -0.168355 22.007133 213 213 213 0
6.059044 -0.168307 22.000886 212 212 212 0
6.139677 -0.168210 21.988277 213 213 213 0
6.219619 -0.168098 21.973570 213 213 213 0
6.302175 -0.168058 21.968366 213 213 213 0
6.380898 -0.167918 21.950114 214 214 214 0
6.456636 -0.167705 21.922199 214 214 214 0
6.541185 -0.167723 21.924533 213 213 213 0
6.621588 -0.167635 21.913091 213 213 213 0
-8.957195 -0.111965 29.271879 162 162 162 0
-8.798347 -0.111371 29.116726 163 163 163 0
-8.740036 -0.112052 29.294574 169 169 169 0
-8.627827 -0.112050 29.294039 169 169 169 0
-8.526045 -0.112185 29.329360 172 172 172 0
-8.528498 -0.113713 29.728968 175 175 175 0
-8.525259 -0.115206 30.119268 176 176 176 0
-8.369465 -0.114650 29.973911 176 176 176 0
-8.310522 -0.115424 30.176186 179 179 179 0
-8.237848 -0.116026 30.333601 174 174 174 0
-7.821968 -0.111742 29.213700 100 100 100 0
-5.812609 -0.090822 23.744318 133 133 133 0
-5.838238 -0.092670 24.227568 200 200 200 0
-5.687412 -0.091732 23.982339 202 202 202 0
-5.497762 -0.090127 23.562680 201 201 201 0
-5.353961 -0.089233 23.328806 203 203 203 0
-5.231791 -0.088674 23.182856 201 201 201 0
-5.150703 -0.088805 23.217050 202 202 202 0
-5.182094 -0.090914 23.768346 202 202 202 0
-5.053054 -0.090233 23.590355 202 202 202 0
-4.919581 -0.089447 23.384817 203 203 203 0
-4.790035 -0.088704 23.190681 203 203 203 0
-4.693368 -0.088554 23.151403 202 202 202 0
-4.635064 -0.089136 23.303488 203 203 203 0
-4.587766 -0.089956 23.517958 203 203 203 0
-4.482185 -0.089644 23.436259 203 203 203 0
-4.362872 -0.089038 23.277963 203 203 203 0
-4.257247 -0.088693 23.187618 204 204 204 0
-4.182873 -0.088997 23.267265 204 204 204 0
-4.122726 -0.089624 23.431239 203 203 203 0
-4.040982 -0.089800 23.477020 204 204 204 0
-3.948913 -0.089748 23.463538 204 204 204 0
-3.836995 -0.089232 23.328745 204 204 204 0
-3.753817 -0.089377 23.366429 204 204 204 0
-3.685929 -0.089901 23.503456 204 204 204 0
-3.612370 -0.090309 23.610262 204 204 204 0
-3.524930 -0.090383 23.629494 205 205 205 0
-3.422136 -0.090056 23.544110 204 204 204 0
-3.314445 -0.089580 23.419501 204 204 204 0
-3.218621 -0.089406 23.374152 205 205 205 0
-3.142404 -0.089783 23.472669 204 204 204 0
-3.063005 -0.090088 23.552519 204 204 204 0
-2.965954 -0.089877 23.497358 205 205 205 0
-2.862707 -0.089460 23.388130 205 205 205 0
-2.762957 -0.089128 23.301344 205 205 205 0
-2.674643 -0.089155 23.308435 205 205 205 0
-2.584806 -0.089131 23.302285 206 206 206 0
-2.502913 -0.089390 23.369867 205 205 205 0
-2.412679 -0.089358 23.361696 205 205 205 0
-2.317662 -0.089141 23.304796 206 206 206 0
-2.226488 -0.089060 23.283536 205 205 205 0
-2.139457 -0.089144 23.305628 206 206 206 0
-2.051995 -0.089217 23.324750 205 205 205 0
-1.960320 -0.089105 23.295546 206 206 206 0
-1.871613 -0.089124 23.300504 205 205 205 0
-1.786236 -0.089312 23.349494 206 206 206 0
-1.695298 -0.089226 23.327115 206 206 206 0
-1.605873 -0.089215 23.324220 206 206 206 0
-1.518072 -0.089298 23.345980 206 206 206 0
-1.429747 -0.089359 23.361885 207 207 207 0
-1.343017 -0.089534 23.407696 206 206 206 0
-1.252127 -0.089438 23.382383 207 207 207 0
-1.158911 -0.089147 23.306407 207 207 207 0
-1.065916 -0.088826 23.222563 207 207 207 0
-0.977854 -0.088896 23.240729 207 207 207 0
-0.892578 -0.089258 23.335367 207 207 207 0
-0.802430 -0.089159 23.309528 206 206 206 0
-0.711009 -0.088876 23.235603 207 207 207 0
-0.620226 -0.088604 23.164378 208 208 208 0
-0.530389 -0.088398 23.110616 208 208 208 0
-0.441769 -0.088354 23.099032 207 207 207 0
-0.354281 -0.088570 23.155639 208 208 208 0
-0.266300 -0.088767 23.207005 208 208 208 0
-0.176973 -0.088487 23.133789 208 208 208 0
-0.088284 -0.088284 23.080789 208 208 208 0
0.000000 -0.088217 23.063323 208 208 208 0
0.088153 -0.088153 23.046642 208 208 208 0
0.176672 -0.088336 23.094428 208 208 208 0
0.265388 -0.088463 23.127470 208 208 208 0
0.353334 -0.088334 23.093753 208 208 208 0
0.440442 -0.088088 23.029663 208 208 208 0
0.527555 -0.087926 22.987161 209 209 209 0
0.618202 -0.088315 23.088775 208 208 208 0
0.707737 -0.088467 23.128656 209 209 209 0
0.796096 -0.088455 23.125520 209 209 209 0
0.880929 -0.088093 23.030821 209 209 209 0
0.966424 -0.087857 22.969068 209 209 209 0
1.052353 -0.087696 22.927074 209 209 209 0
1.142293 -0.087869 22.972212 209 209 209 0
1.236237 -0.088303 23.085653 209 209 209 0
1.318689 -0.087913 22.983680 209 209 209 0
1.400301 -0.087519 22.880731 210 210 210 0
1.483582 -0.087270 22.815565 209 209 209 0
1.569326 -0.087185 22.793411 209 209 209 0
1.661541 -0.087450 22.862622 210 210 210 0
1.750155 -0.087508 22.877839 209 209 209 0
1.834332 -0.087349 22.836372 210 210 210 0
1.916840 -0.087129 22.778848 210 210 210 0
2.002670 -0.087073 22.764081 210 210 210 0
2.090235 -0.087093 22.769448 209 209 209 0
2.176775 -0.087071 22.763660 211 211 211 0
2.262431 -0.087017 22.749429 210 210 210 0
2.347401 -0.086941 22.729620 210 210 210 0
2.431886 -0.086853 22.706681 210 210 210 0
2.517320 -0.086804 22.693896 210 210 210 0
2.606334 -0.086878 22.713151 210 210 210 0
2.696249 -0.086976 22.738762 211 211 211 0
2.785889 -0.087059 22.760534 211 211 211 0
2.868611 -0.086928 22.726173 210 210 210 0
2.947952 -0.086704 22.667834 210 210 210 0
3.031392 -0.086611 22.643448 211 211 211 0
3.117054 -0.086585 22.636555 210 210 210 0
3.203973 -0.086594 22.638918 210 210 210 0
3.294997 -0.086710 22.669399 211 211 211 0
3.370084 -0.086412 22.591477 211 211 211 0
3.449010 -0.086225 22.542550 211 211 211 0
3.530256 -0.086104 22.510800 211 211 211 0
3.610022 -0.085953 22.471346 211 211 211 0
3.699600 -0.086037 22.493385 211 211 211 0
3.785595 -0.086036 22.493135 211 211 211 0
3.869825 -0.085996 22.482644 211 211 211 0
3.951974 -0.085912 22.460780 211 211 211 0
4.033497 -0.085819 22.436360 211 211 211 0
4.114694 -0.085723 22.411187 212 212 212 0
4.197303 -0.085659 22.394572 211 211 211 0
4.279000 -0.085580 22.373854 212 212 212 0
4.366371 -0.085615 22.383035 212 212 212 0
4.450149 -0.085580 22.373802 212 212 212 0
4.529694 -0.085466 22.344030 212 212 212 0
4.611177 -0.085392 22.324751 211 211 211 0
4.702414 -0.085498 22.352532 211 211 211 0
4.790731 -0.085549 22.365691 211 211 211 0
4.875725 -0.085539 22.363147 213 213 213 0
4.951041 -0.085363 22.317067 212 212 212 0
5.023839 -0.085150 22.261391 211 211 211 0
5.100572 -0.085010 22.224715 212 212 212 0
5.188437 -0.085056 22.236954 212 212 212 0
5.289088 -0.085308 22.302710 213 213 213 0
5.359459 -0.085071 22.240727 212 212 212 0
5.427450 -0.084804 22.170956 213 213 213 0
5.497451 -0.084576 22.111417 213 213 213 0
5.573503 -0.084447 22.077652 212 212 212 0
5.663532 -0.084530 22.099433 213 213 213 0
5.755103 -0.084634 22.126501 213 213 213 0
5.834855 -0.084563 22.108004 213 213 213 0
5.907476 -0.084393 22.063404 213 213 213 0
5.983781 -0.084279 22.033622 212 212 212 0
6.068617 -0.084286 22.035647 213 213 213 0
6.146501 -0.084199 22.012718 213 213 213 0
6.227273 -0.084152 22.000612 213 213 213 0
6.308705 -0.084116 21.991128 213 213 213 0
6.387211 -0.084042 21.971830 213 213 213 0
6.464714 -0.083957 21.949627 214 214 214 0
6.549236 -0.083965 21.951522 213 213 213 0
6.628827 -0.083909 21.937045 213 213 213 0
-8.933173 0.000000 29.193377 162 162 162 0
-8.798651 0.000000 29.117735 164 164 164 0
-8.763341 0.000000 29.372687 170 170 170 0
-8.616093 0.000000 29.254198 169 169 169 0
-8.507257 0.000000 29.264728 172 172 172 0
-8.492275 0.000000 29.602703 175 175 175 0
-8.496610 0.000000 30.018052 176 176 176 0
-8.331382 0.000000 29.837522 176 176 176 0
-8.315279 0.000000 30.193461 180 180 180 0
-8.291307 0.000000 30.530452 177 177 177 0
-7.915485 0.000000 29.562971 107 107 107 0
-6.046202 0.000000 22.908787 70 70 70 0
-5.815130 0.000000 22.357285 71 71 71 0
-4.917932 0.000000 19.780523 70 70 70 0
-5.818135 0.000000 23.766890 122 122 122 0
-5.875939 0.000000 24.384018 197 197 197 0
-5.707472 0.000000 24.066928 201 201 201 0
-5.512174 0.000000 23.624449 202 202 202 0
-5.378692 0.000000 23.436566 201 201 201 0
-5.253947 0.000000 23.281031 202 202 202 0
-4.931097 0.000000 22.227166 203 203 203 0
-5.190425 0.000000 23.806560 202 202 202 0
-5.066120 0.000000 23.651356 203 203 203 0
-4.922073 0.000000 23.396665 203 203 203 0
-4.796600 0.000000 23.222466 203 203 203 0
-4.695462 0.000000 23.161731 203 203 203 0
-4.645229 0.000000 23.354597 203 203 203 0
-4.592710 0.000000 23.543304 203 203 203 0
-4.492393 0.000000 23.489636 203 203 203 0
-4.367457 0.000000 23.302424 203 203 203 0
-4.263504 0.000000 23.221701 203 203 203 0
-4.188798 0.000000 23.300224 203 203 203 0
-4.128771 0.000000 23.465592 203 203 203 0
-4.046427 0.000000 23.508655 203 203 203 0
-3.950200 0.000000 23.471182 204 204 204 0
-3.844958 0.000000 23.377158 204 204 204 0
-3.757147 0.000000 23.387157 204 204 204 0
-3.689350 0.000000 23.525265 204 204 204 0
-3.617110 0.000000 23.641240 205 205 205 0
-3.527485 0.000000 23.646624 204 204 204 0
-3.423586 0.000000 23.554082 204 204 204 0
-3.316574 0.000000 23.434549 204 204 204 0
-3.218149 0.000000 23.370725 204 204 204 0
-3.144974 0.000000 23.491868 205 205 205 0
-3.068032 0.000000 23.591171 204 204 204 0
-2.968572 0.000000 23.518098 205 205 205 0
-2.865165 0.000000 23.408212 204 204 204 0
-2.766761 0.000000 23.333422 205 205 205 0
-2.678401 0.000000 23.341189 205 205 205 0
-2.590905 0.000000 23.357265 205 205 205 0
-2.505751 0.000000 23.396370 205 205 205 0
-2.418383 0.000000 23.416923 205 205 205 0
-2.320087 0.000000 23.329182 206 206 206 0
-2.229330 0.000000 23.313252 206 206 206 0
-2.143302 0.000000 23.347515 205 205 205 0
-2.053691 0.000000 23.344025 206 206 206 0
-1.962379 0.000000 23.320015 206 206 206 0
-1.874125 0.000000 23.331779 206 206 206 0
-1.786191 0.000000 23.348905 206 206 206 0
-1.698112 0.000000 23.365832 207 207 207 0
-1.608201 0.000000 23.358034 206 206 206 0
-1.519476 0.000000 23.367571 206 206 206 0
-1.431959 0.000000 23.398024 207 207 207 0
-1.345081 0.000000 23.443686 207 207 207 0
-1.252500 0.000000 23.389364 206 206 206 0
-1.160047 0.000000 23.329256 206 206 206 0
-1.066763 0.000000 23.241028 207 207 207 0
-0.979560 0.000000 23.281284 207 207 207 0
-0.894709 0.000000 23.391080 208 208 208 0
-0.803930 0.000000 23.353073 207 207 207 0
-0.711364 0.000000 23.247180 207 207 207 0
-0.620640 0.000000 23.179836 207 207 207 0
-0.530985 0.000000 23.136587 207 207 207 0
-0.442878 0.000000 23.157026 207 207 207 0
-0.355127 0.000000 23.210931 208 208 208 0
-0.266655 0.000000 23.237905 208 208 208 0
-0.177237 0.000000 23.168175 208 208 208 0
-0.088430 0.000000 23.118955 208 208 208 0
0.000000 0.000000 23.083053 208 208 208 0
0.088282 0.000000 23.080176 208 208 208 0
0.176806 0.000000 23.111911 208 208 208 0
0.265562 0.000000 23.142699 208 208 208 0
0.353417 0.000000 23.099151 208 208 208 0
0.440854 0.000000 23.051200 209 209 209 0
0.528464 0.000000 23.026772 209 209 209 0
0.619187 0.000000 23.125552 209 209 209 0
0.708411 0.000000 23.150693 208 208 208 0
0.796874 0.000000 23.148121 209 209 209 0
0.881748 0.000000 23.052233 209 209 209 0
0.967400 0.000000 22.992277 209 209 209 0
1.056001 0.000000 23.006553 209 209 209 0
1.140281 0.000000 22.931745 209 209 209 0
1.236375 0.000000 23.088233 209 209 209 0
1.318904 0.000000 22.987430 209 209 209 0
1.401212 0.000000 22.895613 209 209 209 0
1.485573 0.000000 22.846175 209 209 209 0
1.572156 0.000000 22.834503 209 209 209 0
1.665112 0.000000 22.911755 209 209 209 0
1.751617 0.000000 22.896950 210 210 210 0
1.835455 0.000000 22.850359 210 210 210 0
1.918468 0.000000 22.798193 209 209 209 0
2.005097 0.000000 22.791667 209 209 209 0
2.092857 0.000000 22.798005 210 210 210 0
2.179012 0.000000 22.787057 210 210 210 0
2.265247 0.000000 22.777747 210 210 210 0
2.350297 0.000000 22.757655 209 209 209 0
2.434099 0.000000 22.727353 210 210 210 0
2.521600 0.000000 22.732479 210 210 210 0
2.607968 0.000000 22.727392 210 210 210 0
2.700435 0.000000 22.774069 210 210 210 0
2.786289 0.000000 22.763801 210 210 210 0
2.872397 0.000000 22.756162 210 210 210 0
2.952250 0.000000 22.700883 210 210 210 0
3.037621 0.000000 22.689982 211 211 211 0
3.122307 0.000000 22.674705 211 211 211 0
2.988413 0.000000 21.115799 211 211 211 0
3.300184 0.000000 22.705085 211 211 211 0
3.373521 0.000000 22.614519 211 211 211 0
3.453577 0.000000 22.572401 210 210 210 0
3.534757 0.000000 22.539497 211 211 211 0
3.615806 0.000000 22.507352 211 211 211 0
3.704996 0.000000 22.526194 211 211 211 0
3.790596 0.000000 22.522854 211 211 211 0
3.873107 0.000000 22.501708 212 212 212 0
3.956988 0.000000 22.489274 211 211 211 0
4.038571 0.000000 22.464587 211 211 211 0
4.120987 0.000000 22.445464 212 212 212 0
4.201787 0.000000 22.418499 212 212 212 0
4.287016 0.000000 22.415770 211 211 211 0
4.370704 0.000000 22.405252 211 211 211 0
4.454041 0.000000 22.393366 212 212 212 0
4.535496 0.000000 22.372650 211 211 211 0
4.618933 0.000000 22.362298 213 213 213 0
4.711759 0.000000 22.396952 212 212 212 0
4.797903 0.000000 22.399173 212 212 212 0
4.881004 0.000000 22.387357 212 212 212 0
4.955242 0.000000 22.336001 212 212 212 0
5.029634 0.000000 22.287069 212 212 212 0
5.110635 0.000000 22.268560 213 213 213 0
5.167132 0.000000 22.145643 213 213 213 0
5.289904 0.000000 22.306153 212 212 212 0
5.364952 0.000000 22.263519 212 212 212 0
5.432787 0.000000 22.192756 212 212 212 0
5.505838 0.000000 22.145151 213 213 213 0
5.580404 0.000000 22.104988 212 212 212 0
5.676951 0.000000 22.151796 213 213 213 0
5.763695 0.000000 22.159535 213 213 213 0
5.839598 0.000000 22.125976 213 213 213 0
5.912683 0.000000 22.082851 213 213 213 0
5.992033 0.000000 22.064008 213 213 213 0
6.076703 0.000000 22.065007 213 213 213 0
6.152843 0.000000 22.035430 213 213 213 0
6.231574 0.000000 22.015807 214 214 214 0
6.313815 0.000000 22.008942 213 213 213 0
6.389775 0.000000 21.980650 214 214 214 0
6.471440 0.000000 21.972466 213 213 213 0
6.557962 0.000000 21.980769 214 214 214 0
6.637564 0.000000 21.965960 213 213 213 0
-8.899370 0.111242 29.082909 162 162 162 0
-8.784245 0.111193 29.070059 166 166 166 0
-8.751333 0.112197 29.332437 169 169 169 0
-8.589326 0.111550 29.163318 168 168 168 0
-8.503213 0.111884 29.250819 171 171 171 0
-8.478499 0.113047 29.554680 176 176 176 0
-8.477051 0.114555 29.948951 176 176 176 0
-8.347618 0.114351 29.895670 176 176 176 0
-8.310224 0.115420 30.175105 180 180 180 0
-8.272221 0.116510 30.460171 180 180 180 0
-7.927266 0.113247 29.606968 123 123 123 0
-6.029784 0.087388 22.846581 75 75 75 0
-8.809512 0.133477 34.896066 73 73 73 0
-4.839559 0.074455 19.465297 71 71 71 0
-5.803083 0.090673 23.705406 115 115 115 0
-5.912676 0.093852 24.536472 196 196 196 0
-5.728004 0.092387 24.153506 201 201 201 0
-5.526865 0.090604 23.687408 202 202 202 0
-5.397801 0.089963 23.519830 202 202 202 0
-5.270085 0.089323 23.352543 202 202 202 0
-3.879458 0.066887 17.486850 203 203 203 0
-5.188431 0.091025 23.797411 202 202 202 0
-5.069214 0.090522 23.665799 202 202 202 0
-4.927400 0.089589 23.421986 202 202 202 0
-4.798830 0.088867 23.233262 202 202 202 0
-4.706890 0.088809 23.218105 203 203 203 0
-4.657238 0.089562 23.414975 203 203 203 0
-4.601855 0.090232 23.590181 203 203 203 0
-4.494826 0.089897 23.502356 203 203 203 0
-4.373051 0.089246 23.332270 203 203 203 0
-4.266813 0.088892 23.239725 203 203 203 0
-4.198544 0.089331 23.354440 203 203 203 0
-4.139481 0.089989 23.526460 203 203 203 0
-4.050671 0.090015 23.533308 204 204 204 0
-3.951532 0.089808 23.479097 204 204 204 0
-3.843053 0.089373 23.365577 204 204 204 0
-3.761110 0.089550 23.411830 203 203 203 0
-3.696730 0.090164 23.572327 204 204 204 0
-3.624335 0.090608 23.688467 204 204 204 0
-3.529731 0.090506 23.661682 204 204 204 0
-3.426639 0.090175 23.575086 205 205 205 0
-3.320063 0.089731 23.459198 205 205 205 0
-3.222253 0.089507 23.400532 205 205 205 0
-3.149296 0.089980 23.524153 205 205 205 0
-3.070472 0.090308 23.609936 204 204 204 0
-2.971149 0.090035 23.538516 205 205 205 0
-2.866837 0.089589 23.421869 205 205 205 0
-2.768357 0.089302 23.346888 205 205 205 0
-2.679113 0.089304 23.347386 206 206 206 0
-2.594861 0.089478 23.392935 206 206 206 0
-2.513351 0.089763 23.467325 205 205 205 0
-2.422540 0.089724 23.457182 205 205 205 0
-2.324159 0.089391 23.370124 206 206 206 0
-2.233104 0.089324 23.352723 206 206 206 0
-2.147695 0.089487 23.395372 206 206 206 0
-2.056229 0.089401 23.372876 206 206 206 0
-1.964270 0.089285 23.342483 206 206 206 0
-1.876638 0.089364 23.363059 206 206 206 0
-1.788996 0.089450 23.385571 206 206 206 0
-1.698369 0.089388 23.369370 206 206 206 0
-1.609505 0.089417 23.376974 206 206 206 0
-1.521324 0.089490 23.395983 207 207 207 0
-1.433733 0.089608 23.427002 207 207 207 0
-1.347211 0.089814 23.480804 207 207 207 0
-1.254905 0.089636 23.434260 206 206 206 0
-1.161825 0.089371 23.365007 207 207 207 0
-1.067881 0.088990 23.265391 206 206 206 0
-0.980583 0.089144 23.305588 207 207 207 0
-0.896459 0.089646 23.436830 207 207 207 0
-0.805225 0.089469 23.390701 207 207 207 0
-0.712512 0.089064 23.284705 207 207 207 0
-0.621342 0.088763 23.206044 208 208 208 0
-0.531546 0.088591 23.161036 208 208 208 0
-0.443822 0.088764 23.206397 208 208 208 0
-0.355647 0.088912 23.244897 207 207 207 0
-0.266774 0.088925 23.248262 208 208 208 0
-0.177363 0.088681 23.184681 208 208 208 0
-0.088455 0.088455 23.125588 207 207 207 0
0.000000 0.088454 23.125246 208 208 208 0
0.088418 0.088418 23.115876 208 208 208 0
0.177091 0.088546 23.149174 208 208 208 0
0.265814 0.088605 23.164588 207 207 207 0
0.353922 0.088480 23.132143 209 209 209 0
0.441339 0.088268 23.076551 208 208 208 0
0.529423 0.088237 23.068560 209 209 209 0
0.620452 0.088636 23.172824 208 208 208 0
0.709537 0.088692 23.187486 209 209 209 0
0.797610 0.088623 23.169505 209 209 209 0
0.882665 0.088267 23.076216 209 209 209 0
0.968550 0.088050 23.019607 209 209 209 0
1.058961 0.088247 23.071037 209 209 209 0
0.965201 0.074246 19.410780 209 209 209 0
1.237215 0.088372 23.103913 209 209 209 0
1.320527 0.088035 23.015717 209 209 209 0
1.403102 0.087694 22.926505 209 209 209 0
1.487046 0.087473 22.868830 209 209 209 0
1.574438 0.087469 22.867648 209 209 209 0
1.669017 0.087843 22.965493 210 210 210 0
1.753849 0.087692 22.926133 210 210 210 0
1.837011 0.087477 22.869728 210 210 210 0
1.921024 0.087319 22.828572 209 209 209 0
2.006963 0.087259 22.812875 209 209 209 0
2.095424 0.087309 22.825967 210 210 210 0
2.182251 0.087290 22.820930 210 210 210 0
2.268773 0.087261 22.813204 210 210 210 0
2.352976 0.087147 22.783593 210 210 210 0
2.438345 0.087084 22.766997 211 211 211 0
2.524419 0.087049 22.757893 210 210 210 0
2.613220 0.087107 22.773157 210 210 210 0
2.704612 0.087246 22.809290 210 210 210 0
2.790861 0.087214 22.801148 210 210 210 0
2.877241 0.087189 22.794542 210 210 210 0
2.957437 0.086983 22.740767 211 211 211 0
3.040201 0.086863 22.709253 211 211 211 0
3.124107 0.086781 22.687776 210 210 210 0
3.217177 0.086951 22.732218 211 211 211 0
3.293780 0.086678 22.661026 211 211 211 0
3.375844 0.086560 22.630090 211 211 211 0
3.457407 0.086435 22.597432 211 211 211 0
3.537215 0.086274 22.555174 211 211 211 0
3.619143 0.086170 22.528122 211 211 211 0
3.710181 0.086283 22.557717 211 211 211 0
3.795854 0.086269 22.554091 211 211 211 0
3.878882 0.086197 22.535261 211 211 211 0
3.960341 0.086094 22.508331 211 211 211 0
4.041046 0.085980 22.478354 212 212 212 0
4.125013 0.085938 22.467390 212 212 212 0
4.206624 0.085849 22.444307 212 212 212 0
4.292915 0.085858 22.446615 211 211 211 0
4.377734 0.085838 22.441285 211 211 211 0
4.460159 0.085772 22.424127 211 211 211 0
4.542859 0.085714 22.408975 212 212 212 0
4.626331 0.085673 22.398115 211 211 211 0
4.718962 0.085799 22.431194 212 212 212 0
4.804270 0.085791 22.428897 212 212 212 0
4.888359 0.085761 22.421093 212 212 212 0
4.961240 0.085539 22.363038 212 212 212 0
5.036967 0.085372 22.319562 212 212 212 0
5.115986 0.085266 22.291876 212 212 212 0
5.221250 0.085594 22.377585 213 213 213 0
5.293273 0.085375 22.320360 212 212 212 0
5.368199 0.085210 22.276997 212 212 212 0
5.436517 0.084946 22.207994 212 212 212 0
5.509374 0.084760 22.159372 212 212 212 0
5.586648 0.084646 22.129722 212 212 212 0
5.684939 0.084850 22.182964 212 212 212 0
5.771281 0.084872 22.188701 213 213 213 0
5.846864 0.084737 22.153506 212 212 212 0
5.916861 0.084527 22.098452 213 213 213 0
5.999708 0.084503 22.092268 213 213 213 0
6.083714 0.084496 22.090464 213 213 213 0
6.160005 0.084384 22.061078 213 213 213 0
6.237538 0.084291 22.036877 213 213 213 0
6.322278 0.084297 22.038442 214 214 214 0
6.398265 0.084188 22.009857 213 213 213 0
6.477654 0.084125 21.993564 213 213 213 0
6.562769 0.084138 21.996879 213 213 213 0
6.644979 0.084114 21.990499 213 213 213 0
-8.875698 0.221892 29.005547 162 162 162 0
-8.737307 0.221198 28.914725 166 166 166 0
-8.750794 0.224379 29.330632 169 169 169 0
-8.599565 0.223365 29.198081 168 168 168 0
-8.510099 0.223950 29.274508 173 173 173 0
-8.472737 0.225940 29.534594 174 174 174 0
-8.503615 0.229827 30.042801 176 176 176 0
-8.342379 0.228558 29.876907 176 176 176 0
-8.305758 0.230715 30.158887 180 180 180 0
-8.275956 0.233126 30.473925 180 180 180 0
-7.938927 0.226826 29.650519 138 138 138 0
-6.214019 0.180116 23.544638 71 71 71 0
-5.790896 0.180966 23.655623 108 108 108 0
-5.933291 0.188358 24.622020 194 194 194 0
-5.740602 0.185181 24.206629 202 202 202 0
-5.541793 0.181698 23.751389 202 202 202 0
-5.389646 0.179655 23.484296 202 202 202 0
-5.286267 0.179196 23.424249 202 202 202 0
-5.887277 0.203010 26.537197 202 202 202 0
-5.165276 0.181238 23.691211 202 202 202 0
-5.066259 0.180938 23.652004 203 203 203 0
-4.929214 0.179244 23.430606 202 202 202 0
-4.805573 0.177984 23.265906 203 203 203 0
-4.711145 0.177779 23.239092 203 203 203 0
-4.675123 0.179812 23.504892 203 203 203 0
-4.607704 0.180694 23.620165 203 203 203 0
-4.498636 0.179945 23.522282 203 203 203 0
-4.376498 0.178633 23.350661 203 203 203 0
-4.270564 0.177940 23.260155 203 203 203 0
-4.202683 0.178838 23.377459 203 203 203 0
-4.140975 0.180042 23.534955 203 203 203 0
-4.056144 0.180273 23.565108 204 204 204 0
-3.956951 0.179861 23.511297 203 203 203 0
-3.853932 0.179253 23.431716 204 204 204 0
-3.765546 0.179312 23.439439 204 204 204 0
-3.704184 0.180692 23.619855 204 204 204 0
-3.626986 0.181349 23.705793 205 205 205 0
-3.534958 0.181280 23.696719 204 204 204 0
-3.430039 0.180528 23.598478 205 205 205 0
-3.323804 0.179665 23.485634 204 204 204 0
-3.225065 0.179170 23.420952 204 204 204 0
-3.155025 0.180287 23.566950 205 205 205 0
-3.075614 0.180918 23.649476 205 205 205 0
-2.975329 0.180323 23.571631 205 205 205 0
-2.867157 0.179197 23.424488 205 205 205 0
-2.772040 0.178841 23.377945 205 205 205 0
-2.685740 0.179049 23.405143 205 205 205 0
-2.599469 0.179274 23.434471 205 205 205 0
-2.515914 0.179708 23.491263 205 205 205 0
-2.424157 0.179567 23.472838 205 205 205 0
-2.326253 0.178943 23.391186 206 206 206 0
-2.236134 0.178891 23.384413 206 206 206 0
-2.151052 0.179254 23.431938 206 206 206 0
-2.061266 0.179240 23.430130 205 205 205 0
-1.967974 0.178907 23.386500 205 205 205 0
-1.879740 0.179023 23.401679 207 207 207 0
-1.791149 0.179115 23.413715 207 207 207 0
-1.702142 0.179173 23.421289 206 206 206 0
-1.610726 0.178970 23.394713 206 206 206 0
-1.524501 0.179353 23.444841 207 207 207 0
-1.434437 0.179305 23.438518 207 207 207 0
-1.348161 0.179755 23.497360 207 207 207 0
-1.255850 0.179407 23.451909 207 207 207 0
-1.162794 0.178891 23.384500 207 207 207 0
-1.069453 0.178242 23.299639 207 207 207 0
-0.980594 0.178290 23.305855 207 207 207 0
-0.897540 0.179508 23.465095 207 207 207 0
-0.805605 0.179023 23.401753 208 208 208 0
-0.712799 0.178200 23.294093 207 207 207 0
-0.622349 0.177814 23.243646 207 207 207 0
-0.532210 0.177403 23.189980 207 207 207 0
-0.444552 0.177821 23.244571 207 207 207 0
-0.356372 0.178186 23.292297 207 207 207 0
-0.267148 0.178099 23.280894 208 208 208 0
-0.177679 0.177679 23.225994 208 208 208 0
-0.088585 0.177169 23.159356 208 208 208 0
0.000000 0.177117 23.152560 208 208 208 0
0.088584 0.177169 23.159299 209 209 209 0
0.177322 0.177322 23.179319 208 208 208 0
0.266192 0.177461 23.197580 208 208 208 0
0.354166 0.177083 23.148120 208 208 208 0
0.441903 0.176761 23.106044 209 209 209 0
0.530285 0.176762 23.106088 208 208 208 0
0.621086 0.177453 23.196504 209 209 209 0
0.710511 0.177628 23.219312 209 209 209 0
0.798370 0.177416 23.191584 209 209 209 0
0.883367 0.176673 23.094552 209 209 209 0
0.969839 0.176334 23.050254 209 209 209 0
1.059382 0.176564 23.080219 209 209 209 0
1.150992 0.177076 23.147153 209 209 209 0
1.236814 0.176688 23.096439 209 209 209 0
1.321211 0.176161 23.027635 209 209 209 0
1.404402 0.175550 22.947753 209 209 209 0
1.488602 0.175130 22.892758 209 209 209 0
1.575660 0.175073 22.885397 209 209 209 0
1.671195 0.175915 22.995462 209 209 209 0
1.756970 0.175697 22.966923 209 209 209 0
1.839723 0.175212 22.903497 210 210 210 0
1.923176 0.174834 22.854141 210 210 210 0
2.009729 0.174759 22.844316 210 210 210 0
2.097866 0.174822 22.852576 210 210 210 0
2.184764 0.174781 22.847206 210 210 210 0
2.271531 0.174733 22.840930 210 210 210 0
2.353884 0.174362 22.792392 209 209 209 0
2.439177 0.174227 22.774765 210 210 210 0
2.528888 0.174406 22.798175 210 210 210 0
2.618613 0.174574 22.820156 210 210 210 0
2.706875 0.174637 22.828380 210 210 210 0
2.793801 0.174613 22.825170 210 210 210 0
2.879099 0.174491 22.809265 210 210 210 0
2.959539 0.174091 22.756936 211 211 211 0
3.042750 0.173871 22.728295 211 211 211 0
3.127841 0.173769 22.714896 210 210 210 0
3.221675 0.174145 22.763999 210 210 210 0
3.299621 0.173664 22.701212 211 211 211 0
3.379447 0.173305 22.654246 211 211 211 0
3.461100 0.173055 22.621569 211 211 211 0
3.541299 0.172746 22.581215 210 210 210 0
3.621703 0.172462 22.544059 211 211 211 0
3.714363 0.172761 22.583148 212 212 212 0
3.801001 0.172773 22.584674 212 212 212 0
3.882923 0.172574 22.558737 211 211 211 0
3.965666 0.172420 22.538597 211 211 211 0
4.045800 0.172162 22.504799 212 212 212 0
4.130741 0.172114 22.498592 212 212 212 0
4.212446 0.171937 22.475371 212 212 212 0
4.299030 0.171961 22.478591 212 212 212 0
4.381511 0.171824 22.460650 212 212 212 0
4.462526 0.171636 22.436030 211 211 211 0
4.548494 0.171641 22.436768 212 212 212 0
4.634751 0.171657 22.438882 212 212 212 0
4.725694 0.171843 22.463193 212 212 212 0
4.813271 0.171903 22.470921 212 212 212 0
4.893872 0.171715 22.446381 212 212 212 0
4.966398 0.171255 22.386290 212 212 212 0
5.041746 0.170907 22.340736 212 212 212 0
5.124345 0.170812 22.328302 212 212 212 0
5.222887 0.171242 22.384601 212 212 212 0
5.295846 0.170834 22.331206 212 212 212 0
5.371618 0.170528 22.291183 213 213 213 0
5.441716 0.170054 22.229231 212 212 212 0
5.515653 0.169712 22.184628 213 213 213 0
5.592868 0.169481 22.154361 213 213 213 0
5.691050 0.169882 22.206810 213 213 213 0
5.776820 0.169906 22.209994 212 212 212 0
5.853623 0.169670 22.179116 213 213 213 0
5.924355 0.169267 22.126441 213 213 213 0
6.003250 0.169106 22.105313 213 213 213 0
6.090733 0.169187 22.115952 213 213 213 0
6.168039 0.168987 22.089851 213 213 213 0
6.246146 0.168815 22.067288 213 213 213 0
6.326605 0.168709 22.053526 213 213 213 0
6.401301 0.168455 22.020298 213 213 213 0
6.485636 0.168458 22.020663 213 213 213 0
6.569865 0.168458 22.020662 213 213 213 0
6.655737 0.168500 22.026102 213 213 213 0
-8.870960 0.332661 28.990066 163 163 163 0
-8.755253 0.332478 28.974115 166 166 166 0
-8.751745 0.336606 29.333819 169 169 169 0
-8.592971 0.334791 29.175692 169 169 169 0
-8.509027 0.335883 29.270817 173 173 173 0
-8.488058 0.339522 29.588003 176 176 176 0
-8.515113 0.345207 30.083425 176 176 176 0
-8.340472 0.342759 29.870078 177 177 177 0
-8.296967 0.345707 30.126967 181 181 181 0
-8.252810 0.348710 30.388696 181 181 181 0
-7.981923 0.342082 29.811105 148 148 148 0
-6.720519 0.292196 25.463744 73 73 73 0
-5.835592 0.257453 22.435957 71 71 71 0
-5.794112 0.271599 23.668759 91 91 91 0
-5.986192 0.285057 24.841549 192 192 192 0
-5.756156 0.278524 24.272215 202 202 202 0
-5.555680 0.273230 23.810909 202 202 202 0
-5.396621 0.269831 23.514689 201 201 201 0
-5.283750 0.268665 23.413093 202 202 202 0
-5.378978 0.278223 24.246015 202 202 202 0
-5.187763 0.273040 23.794351 203 203 203 0
-5.065470 0.271364 23.648320 203 203 203 0
-4.932915 0.269068 23.448202 202 202 202 0
-4.817331 0.267630 23.322833 203 203 203 0
-4.723205 0.267351 23.298580 203 203 203 0
-4.688942 0.270516 23.574368 203 203 203 0
-4.621777 0.271869 23.692310 203 203 203 0
-4.501942 0.270117 23.539565 204 204 204 0
-4.382428 0.268312 23.382302 203 203 203 0
-4.278534 0.267408 23.303563 203 203 203 0
-4.203223 0.268291 23.380462 204 204 204 0
-4.143470 0.270226 23.549133 204 204 204 0
-4.063833 0.270922 23.609776 204 204 204 0
-3.965555 0.270379 23.562415 204 204 204 0
-3.856193 0.269037 23.445465 204 204 204 0
-3.775563 0.269683 23.501792 204 204 204 0
-3.712558 0.271651 23.673254 204 204 204 0
-3.635011 0.272626 23.758240 204 204 204 0
-3.538993 0.272230 23.723767 204 204 204 0
-3.435772 0.271245 23.637926 204 204 204 0
-3.327817 0.269823 23.513988 204 204 204 0
-3.231940 0.269328 23.470877 205 205 205 0
-3.161551 0.270990 23.615693 205 205 205 0
-3.078169 0.271603 23.669118 205 205 205 0
-2.976411 0.270583 23.580204 205 205 205 0
-2.872535 0.269300 23.468425 205 205 205 0
-2.775083 0.268556 23.403609 205 205 205 0
-2.686514 0.268651 23.411891 205 205 205 0
-2.604379 0.269418 23.478735 205 205 205 0
-2.518043 0.269790 23.511137 205 205 205 0
-2.426747 0.269639 23.497917 206 206 206 0
-2.329860 0.268830 23.427449 205 205 205 0
-2.239768 0.268772 23.422410 205 205 205 0
-2.153270 0.269159 23.456098 206 206 206 0
-2.062479 0.269019 23.443923 206 206 206 0
-1.969868 0.268618 23.409013 206 206 206 0
-1.880237 0.268605 23.407868 206 206 206 0
-1.794142 0.269121 23.452841 205 205 205 0
-1.702927 0.268883 23.432092 206 206 206 0
-1.613524 0.268921 23.435358 206 206 206 0
-1.524910 0.269102 23.451131 207 207 207 0
-1.436392 0.269324 23.470465 206 206 206 0
-1.350159 0.270032 23.532183 207 207 207 0
-1.257809 0.269531 23.488498 207 207 207 0
-1.163280 0.268449 23.394259 207 207 207 0
-1.070563 0.267641 23.323809 206 206 206 0
-0.980160 0.267316 23.295534 207 207 207 0
-0.896965 0.269089 23.450056 208 208 208 0
-0.805964 0.268655 23.412181 207 207 207 0
-0.714119 0.267795 23.337225 208 208 208 0
-0.623003 0.267001 23.268086 207 207 207 0
-0.532690 0.266345 23.210909 208 208 208 0
-0.445530 0.267318 23.295709 208 208 208 0
-0.356909 0.267682 23.327396 207 207 207 0
-0.267368 0.267368 23.300031 208 208 208 0
-0.177776 0.266664 23.238690 208 208 208 0
-0.088649 0.265946 23.176129 208 208 208 0
0.000000 0.265831 23.166093 208 208 208 0
0.088648 0.265943 23.175822 208 208 208 0
0.177560 0.266340 23.210494 207 207 207 0
0.266482 0.266482 23.222818 207 207 207 0
0.354491 0.265868 23.169361 208 208 208 0
0.442710 0.265626 23.148237 208 208 208 0
0.531610 0.265805 23.163820 209 209 209 0
0.622158 0.266639 23.236512 208 208 208 0
0.711500 0.266812 23.251634 209 209 209 0
0.799530 0.266510 23.225275 208 208 208 0
0.884214 0.265264 23.116703 209 209 209 0
0.970207 0.264602 23.059000 208 208 208 0
1.060095 0.265024 23.095751 209 209 209 0
1.152793 0.266029 23.183366 210 210 210 0
1.237791 0.265241 23.114672 209 209 209 0
1.321908 0.264382 23.039793 209 209 209 0
1.405636 0.263557 22.967901 209 209 209 0
1.489849 0.262915 22.911944 210 210 210 0
1.577225 0.262871 22.908127 210 210 210 0
1.671806 0.263969 23.003869 210 210 210 0
1.759351 0.263903 22.998057 210 210 210 0
1.841750 0.263107 22.928731 210 210 210 0
1.924941 0.262492 22.875114 210 210 210 0
2.012125 0.262451 22.871553 210 210 210 0
2.101608 0.262701 22.893333 209 209 209 0
2.186559 0.262387 22.865977 210 210 210 0
2.274036 0.262389 22.866125 210 210 210 0
2.357156 0.261906 22.824068 210 210 210 0
2.442284 0.261673 22.803772 211 211 211 0
2.533209 0.262056 22.837130 210 210 210 0
2.622452 0.262245 22.853614 210 210 210 0
2.709986 0.262257 22.854611 210 210 210 0
2.798124 0.262324 22.860492 211 211 211 0
2.883434 0.262130 22.843601 211 211 211 0
2.962568 0.261403 22.780223 211 211 211 0
3.046101 0.261094 22.753325 210 210 210 0
3.132211 0.261018 22.746631 210 210 210 0
3.224945 0.261482 22.787104 211 211 211 0
3.301158 0.260618 22.711782 211 211 211 0
3.381726 0.260133 22.669525 211 211 211 0
3.464227 0.259817 22.642010 211 211 211 0
3.545404 0.259420 22.607391 211 211 211 0
3.625438 0.258960 22.567307 211 211 211 0
3.718791 0.259451 22.610069 211 211 211 0
3.806162 0.259511 22.615341 211 211 211 0
3.889262 0.259284 22.595565 211 211 211 0
3.970320 0.258934 22.565046 211 211 211 0
4.050087 0.258516 22.528641 212 212 212 0
4.134907 0.258432 22.521279 211 211 211 0
4.217162 0.258194 22.500529 212 212 212 0
4.307432 0.258446 22.522519 212 212 212 0
4.389982 0.258234 22.504071 212 212 212 0
4.468625 0.257805 22.466690 211 211 211 0
4.553318 0.257735 22.460564 212 212 212 0
4.640929 0.257829 22.468793 212 212 212 0
4.730048 0.258003 22.483890 212 212 212 0
4.822287 0.258337 22.513010 213 213 213 0
4.899290 0.257857 22.471230 212 212 212 0
4.970490 0.257094 22.404731 212 212 212 0
5.049688 0.256764 22.375931 212 212 212 0
5.130384 0.256519 22.354616 212 212 212 0
5.228826 0.257155 22.410054 212 212 212 0
5.299290 0.256417 22.345731 213 213 213 0
5.374489 0.255928 22.303099 213 213 213 0
5.446992 0.255328 22.250784 213 213 213 0
5.522423 0.254881 22.211858 213 213 213 0
5.598388 0.254472 22.176225 212 212 212 0
5.699968 0.255222 22.241608 212 212 212 0
5.784368 0.255193 22.239015 213 213 213 0
5.862305 0.254883 22.212010 213 213 213 0
5.931234 0.254196 22.152135 213 213 213 0
6.010637 0.253971 22.132513 213 213 213 0
6.099842 0.254160 22.149027 213 213 213 0
6.175956 0.253806 22.118204 213 213 213 0
6.254249 0.253551 22.095918 213 213 213 0
6.334200 0.253368 22.079999 213 213 213 0
6.408535 0.252968 22.045183 213 213 213 0
6.494619 0.253037 22.051163 214 214 214 0
6.582959 0.253191 22.064553 213 213 213 0
6.664309 0.253075 22.054467 213 213 213 0
-8.868194 0.443410 28.981026 163 163 163 0
-8.773932 0.444250 29.035930 166 166 166 0
-8.756238 0.449038 29.348878 169 169 169 0
-8.601953 0.446855 29.206190 169 169 169 0
-8.503619 0.447559 29.252216 172 172 172 0
-8.478468 0.452185 29.554574 176 176 176 0
-8.492078 0.459031 30.002042 176 176 176 0
-8.314442 0.455586 29.776852 178 178 178 0
-8.229558 0.457198 29.882201 181 181 181 0
-8.222687 0.463250 30.277775 182 182 182 0
-8.062036 0.460688 30.110311 159 159 159 0
-6.953444 0.403098 26.346287 74 74 74 0
-5.599200 0.349950 22.872548 85 85 85 0
-5.993012 0.380509 24.869851 189 189 189 0
-5.776084 0.372651 24.356245 201 201 201 0
-5.564863 0.364909 23.850263 202 202 202 0
-5.400591 0.360039 23.531989 201 201 201 0
-5.291162 0.358723 23.445936 202 202 202 0
-5.269672 0.363426 23.753311 202 202 202 0
-5.190661 0.364257 23.807639 202 202 202 0
-5.067197 0.361943 23.656383 202 202 202 0
-4.936633 0.359028 23.465875 203 203 203 0
-4.818946 0.356959 23.330651 203 203 203 0
-4.727272 0.356775 23.318644 203 203 203 0
-4.700074 0.361544 23.630339 202 202 202 0
-4.625271 0.362766 23.710218 202 202 202 0
-4.503489 0.360279 23.547652 203 203 203 0
-4.390930 0.358443 23.427662 203 203 203 0
-4.288997 0.357416 23.360551 203 203 203 0
-4.211003 0.358383 23.423742 204 204 204 0
-4.150176 0.360885 23.587247 203 203 203 0
-4.068988 0.361688 23.639725 204 204 204 0
-3.965266 0.360479 23.560700 203 203 203 0
-3.861164 0.359178 23.475686 204 204 204 0
-3.775835 0.359603 23.503483 203 203 203 0
-3.719118 0.362841 23.715085 204 204 204 0
-3.637488 0.363749 23.774433 204 204 204 0
-3.542499 0.363333 23.747267 204 204 204 0
-3.434842 0.361562 23.631526 205 205 205 0
-3.333786 0.360409 23.556165 204 204 204 0
-3.236389 0.359599 23.503190 204 204 204 0
-3.165673 0.361791 23.646482 205 205 205 0
-3.083708 0.362789 23.711711 204 204 204 0
-2.978602 0.361043 23.597556 205 205 205 0
-2.874893 0.359362 23.487686 205 205 205 0
-2.776503 0.358258 23.415587 205 205 205 0
-2.691589 0.358879 23.456117 205 205 205 0
-2.609639 0.359950 23.526158 205 205 205 0
-2.522299 0.360328 23.550877 206 206 206 0
-2.428489 0.359776 23.514785 206 206 206 0
-2.332311 0.358817 23.452100 205 205 205 0
-2.245160 0.359226 23.478802 205 205 205 0
-2.155624 0.359271 23.481746 206 206 206 0
-2.065145 0.359156 23.474231 205 205 205 0
-1.972622 0.358658 23.441730 206 206 206 0
-1.883002 0.358667 23.442290 206 206 206 0
-1.794779 0.358956 23.461168 206 206 206 0
-1.706779 0.359322 23.485092 206 206 206 0
-1.614625 0.358806 23.451342 206 206 206 0
-1.527355 0.359378 23.488728 206 206 206 0
-1.438374 0.359594 23.502849 206 206 206 0
-1.350693 0.360185 23.541486 206 206 206 0
-1.258902 0.359686 23.508899 206 206 206 0
-1.165659 0.358664 23.442107 207 207 207 0
-1.074484 0.358161 23.409242 207 207 207 0
-1.105883 0.402139 26.283614 206 206 206 0
-0.899925 0.359970 23.527462 207 207 207 0
-0.807706 0.358981 23.462782 207 207 207 0
-0.715000 0.357500 23.365999 207 207 207 0
-0.623725 0.356414 23.295057 207 207 207 0
-0.533404 0.355603 23.242022 207 207 207 0
-0.446204 0.356963 23.330945 207 207 207 0
-0.357392 0.357392 23.358976 207 207 207 0
-0.267738 0.356984 23.332265 208 208 208 0
-0.177966 0.355932 23.263526 208 208 208 0
-0.088710 0.354839 23.192119 208 208 208 0
0.000000 0.355048 23.205741 208 208 208 0
0.088856 0.355423 23.230248 207 207 207 0
0.177973 0.355945 23.264411 208 208 208 0
0.266803 0.355737 23.250764 209 209 209 0
0.354796 0.354796 23.189293 209 209 209 0
0.442998 0.354399 23.163316 208 208 208 0
0.532293 0.354862 23.193600 208 208 208 0
0.622943 0.355968 23.265850 208 208 208 0
0.712529 0.356264 23.285259 208 208 208 0
0.800215 0.355651 23.245161 208 208 208 0
0.884705 0.353882 23.129534 209 209 209 0
0.971660 0.353331 23.093521 208 208 208 0
1.061398 0.353799 23.124142 208 208 208 0
1.153657 0.354971 23.200735 209 209 209 0
1.239690 0.354197 23.150138 208 208 208 0
1.322943 0.352785 23.057823 209 209 209 0
1.405907 0.351477 22.972333 209 209 209 0
1.491286 0.350891 22.934045 210 210 210 0
1.579616 0.351026 22.942854 209 209 209 0
1.674675 0.352563 23.043340 210 210 210 0
1.761490 0.352298 23.026014 209 209 209 0
1.843758 0.351192 22.953728 209 209 209 0
1.927968 0.350540 22.911089 209 209 209 0
2.015584 0.350536 22.910872 210 210 210 0
2.104808 0.350801 22.928196 210 210 210 0
2.189572 0.350332 22.897487 210 210 210 0
2.275977 0.350150 22.885646 210 210 210 0
2.359078 0.349493 22.842682 210 210 210 0
2.445472 0.349353 22.833539 210 210 210 0
2.535850 0.349772 22.860938 210 210 210 0
2.626726 0.350230 22.890860 210 210 210 0
2.714269 0.350228 22.890737 211 211 211 0
2.802005 0.350251 22.892197 210 210 210 0
2.886075 0.349827 22.864529 210 210 210 0
2.966174 0.348962 22.807947 210 210 210 0
3.050582 0.348638 22.786793 210 210 210 0
3.135810 0.348423 22.772770 211 211 211 0
3.228488 0.349026 22.812136 211 211 211 0
3.306781 0.348082 22.750469 210 210 210 0
3.385391 0.347220 22.694089 210 210 210 0
3.467494 0.346749 22.663358 211 211 211 0
3.548579 0.346203 22.627634 211 211 211 0
3.630412 0.345754 22.598268 211 211 211 0
3.720960 0.346136 22.623257 211 211 211 0
3.807819 0.346165 22.625186 211 211 211 0
3.890971 0.345864 22.605495 211 211 211 0
3.975638 0.345708 22.595270 211 211 211 0
4.056314 0.345218 22.563280 211 211 211 0
4.139369 0.344947 22.545582 211 211 211 0
4.222783 0.344717 22.530522 211 211 211 0
4.314085 0.345127 22.557307 211 211 211 0
4.395617 0.344754 22.532961 212 212 212 0
4.476016 0.344309 22.503849 212 212 212 0
4.557081 0.343931 22.479126 211 211 211 0
4.647589 0.344266 22.501037 212 212 212 0
4.738644 0.344629 22.524748 212 212 212 0
4.826020 0.344716 22.530437 212 212 212 0
4.901836 0.343989 22.482910 211 211 211 0
4.975890 0.343165 22.429073 212 212 212 0
5.053764 0.342628 22.393993 212 212 212 0
5.138641 0.342576 22.390594 211 211 211 0
5.235718 0.343326 22.439593 212 212 212 0
5.308131 0.342460 22.383011 213 213 213 0
5.380234 0.341602 22.326940 212 212 212 0
5.452121 0.340758 22.271737 212 212 212 0
5.527308 0.340142 22.231504 212 212 212 0
5.605814 0.339746 22.205639 213 213 213 0
5.704902 0.340591 22.260861 213 213 213 0
5.790499 0.340618 22.262588 213 213 213 0
5.866007 0.340058 22.226037 213 213 213 0
5.938119 0.339321 22.177848 212 212 212 0
6.019529 0.339128 22.165253 213 213 213 0
6.109026 0.339390 22.182374 212 212 212 0
6.187274 0.339029 22.158739 213 213 213 0
6.264741 0.338635 22.132985 213 213 213 0
6.340589 0.338165 22.102271 212 212 212 0
6.416752 0.337724 22.073449 213 213 213 0
6.502098 0.337771 22.076559 214 214 214 0
6.589405 0.337918 22.086158 212 212 212 0
6.673755 0.337912 22.085728 214 214 214 0
-8.877838 0.554865 29.012542 164 164 164 0
-8.795560 0.556681 29.107503 167 167 167 0
-8.786780 0.563255 29.451248 169 169 169 0
-8.620738 0.559788 29.269969 170 170 170 0
-8.495476 0.558913 29.224203 172 172 172 0
