ply
    format ascii 1.0
    element vertex 15258
    property float x
    property float y
    property float z
    property uchar red
    property uchar green
    property uchar blue
    property uchar alpha
    end_header
2.038686 1.824088 28.052100 210 210 210 0
2.152647 1.829750 28.139173 210 210 210 0
2.259491 1.829112 28.129359 210 210 210 0
2.363262 1.826157 28.083921 210 210 210 0
2.470372 1.825927 28.080383 209 209 209 0
2.585060 1.831084 28.159695 209 209 209 0
2.699672 1.835777 28.231868 210 210 210 0
2.811654 1.838389 28.272032 210 210 210 0
2.919852 1.838426 28.272596 209 209 209 0
3.031816 1.840745 28.308271 210 210 210 0
3.153123 1.848383 28.425723 209 209 209 0
3.269439 1.852682 28.491847 210 210 210 0
3.375444 1.851050 28.466745 209 209 209 0
3.489126 1.853598 28.505933 208 208 208 0
3.622253 1.866009 28.696795 210 210 210 0
3.742289 1.871145 28.775773 209 209 209 0
3.848936 1.869483 28.750222 209 209 209 0
3.965808 1.872743 28.800349 208 208 208 0
4.108486 1.887683 29.030107 208 208 208 0
4.218347 1.887155 29.021997 208 208 208 0
4.320234 1.883179 28.960845 207 207 207 0
4.444479 1.888904 29.048884 206 206 206 0
4.595945 1.905636 29.306198 206 206 206 0
4.713375 1.907795 29.339401 205 205 205 0
4.832612 1.910568 29.382047 205 205 205 0
4.988929 1.927541 29.643070 204 204 204 0
5.131596 1.938603 29.813193 204 204 204 0
5.269507 1.947427 29.948889 202 202 202 0
5.431985 1.964760 30.215463 201 201 201 0
5.590703 1.980041 30.450450 200 200 200 0
5.748200 1.994273 30.669332 197 197 197 0
5.941173 2.019999 31.064954 194 194 194 0
6.118383 2.039461 31.364262 192 192 192 0
6.336375 2.071507 31.857090 185 185 185 0
6.472245 2.076003 31.926231 140 140 140 0
-10.713312 2.410495 35.010824 206 206 206 0
-10.579293 2.410472 35.010483 205 205 205 0
-5.963662 1.376230 19.988812 206 206 206 0
-5.907199 1.380904 20.056697 206 206 206 0
-5.800885 1.373894 19.954884 207 207 207 0
-5.716100 1.371864 19.925402 206 206 206 0
-5.648946 1.374068 19.957412 206 206 206 0
-5.572116 1.373947 19.955650 206 206 206 0
-5.547149 1.386787 20.142152 206 206 206 0
-5.514599 1.398067 20.305988 207 207 207 0
-5.444032 1.399894 20.332521 206 206 206 0
-5.377562 1.402842 20.375341 207 207 207 0
-5.289200 1.400082 20.335257 207 207 207 0
-5.239439 1.407610 20.444597 207 207 207 0
-5.184128 1.413853 20.535267 206 206 206 0
-5.148046 1.425613 20.706069 207 207 207 0
-5.078421 1.428306 20.745185 206 206 206 0
-5.006375 1.430393 20.775497 208 208 208 0
-4.922862 1.429218 20.758430 207 207 207 0
-4.861308 1.434484 20.834923 207 207 207 0
-4.817196 1.445159 20.989961 207 207 207 0
-4.786511 1.460291 21.209751 207 207 207 0
-4.714146 1.463011 21.249250 207 207 207 0
-4.600808 1.452887 21.102204 207 207 207 0
-4.491213 1.443604 20.967383 207 207 207 0
-4.436607 1.451981 21.089043 208 208 208 0
-4.410212 1.470071 21.351791 207 207 207 0
-4.342204 1.474711 21.419182 207 207 207 0
-4.246495 1.469941 21.349898 208 208 208 0
-4.136238 1.459849 21.203323 208 208 208 0
-4.034306 1.452350 21.094409 207 207 207 0
-3.962254 1.455522 21.140479 208 208 208 0
-3.934833 1.475562 21.431550 207 207 207 0
-3.869624 1.481984 21.524818 208 208 208 0
-3.775817 1.477493 21.459600 208 208 208 0
-3.689247 1.475699 21.433535 208 208 208 0
-3.599779 1.472637 21.389059 208 208 208 0
-3.541282 1.482397 21.530825 209 209 209 0
-3.482136 1.492344 21.675297 208 208 208 0
-3.402824 1.493923 21.698226 208 208 208 0
-3.312141 1.490463 21.647979 208 208 208 0
-3.224949 1.488438 21.618565 209 209 209 0
-3.150515 1.492349 21.675371 208 208 208 0
-3.099523 1.507876 21.900888 209 209 209 0
-3.033756 1.516878 22.031634 208 208 208 0
-4.684508 2.409175 34.991654 208 208 208 0
-4.550620 2.409152 34.991309 209 209 209 0
-4.416741 2.409131 34.991013 186 186 186 0
-3.897113 2.192126 31.839155 76 76 76 0
-2.869269 2.347584 34.097082 87 87 87 0
-2.678877 2.296181 33.350482 119 119 119 0
-2.480975 2.232877 32.431044 141 141 141 0
-2.291014 2.170434 31.524102 153 153 153 0
-2.128877 2.128877 30.920503 161 161 161 0
-1.988528 2.105500 30.580977 171 171 171 0
-1.857519 2.089708 30.351612 173 173 173 0
-1.733696 2.080435 30.216922 181 181 181 0
-1.617301 2.079387 30.201699 182 182 182 0
-1.490742 2.064105 29.979736 184 184 184 0
-1.366962 2.050443 29.781314 188 188 188 0
-1.243332 2.034543 29.550377 192 192 192 0
-1.121105 2.017989 29.309938 191 191 191 0
-1.004641 2.009283 29.183485 195 195 195 0
-0.892898 2.009020 29.179671 197 197 197 0
-0.780431 2.006823 29.147753 196 196 196 0
-0.665783 1.997349 29.010157 198 198 198 0
-0.550225 1.980810 28.769928 200 200 200 0
-0.437126 1.967069 28.570351 201 201 201 0
-0.326505 1.959027 28.453556 200 200 200 0
-0.216365 1.947284 28.282999 201 201 201 0
-0.109583 1.972499 28.649228 203 203 203 0
0.000000 1.961774 28.493455 204 204 204 0
0.108224 1.948024 28.293739 203 203 203 0
0.215430 1.938866 28.160722 202 202 202 0
0.323058 1.938349 28.153223 204 204 204 0
0.433007 1.948530 28.301095 206 206 206 0
0.540241 1.944867 28.247885 206 206 206 0
0.645109 1.935326 28.109306 206 206 206 0
0.750903 1.930893 28.044923 206 206 206 0
0.858421 1.931448 28.052980 206 206 206 0
0.966661 1.933322 28.080209 207 207 207 0
1.074507 1.934113 28.091687 208 208 208 0
1.180465 1.931670 28.056208 208 208 208 0
1.285875 1.928812 28.014699 208 208 208 0
1.394313 1.930587 28.040479 208 208 208 0
1.504909 1.934884 28.102883 208 208 208 0
1.614228 1.937074 28.134701 209 209 209 0
1.721191 1.936340 28.124038 209 209 209 0
1.827189 1.934670 28.099786 209 209 209 0
1.934072 1.934072 28.091095 209 209 209 0
2.043225 1.935686 28.114544 209 209 209 0
2.153614 1.938253 28.151823 210 210 210 0
2.257920 1.935360 28.109799 210 210 210 0
2.361248 1.931930 28.059983 210 210 210 0
2.468409 1.931799 28.058076 209 209 209 0
2.581889 1.936416 28.125148 210 210 210 0
2.695706 1.940908 28.190387 210 210 210 0
2.808948 1.944656 28.244827 209 209 209 0
2.916182 1.944121 28.237055 210 210 210 0
3.027649 1.946346 28.269363 209 209 209 0
3.145638 1.952465 28.358240 209 209 209 0
3.261436 1.956861 28.422099 210 210 210 0
3.370382 1.956996 28.424051 210 210 210 0
3.480401 1.957725 28.434646 209 209 209 0
3.616787 1.972793 28.653493 209 209 209 0
3.740249 1.980132 28.760082 209 209 209 0
3.844588 1.977217 28.717746 209 209 209 0
3.959998 1.979999 28.758156 208 208 208 0
4.096784 1.993030 28.947424 208 208 208 0
4.209945 1.994185 28.964192 208 208 208 0
4.316473 1.992218 28.935632 208 208 208 0
4.439292 1.997681 29.014980 207 207 207 0
4.591257 2.015674 29.276310 207 207 207 0
4.710366 2.018728 29.320671 206 206 206 0
4.829815 2.021783 29.365043 206 206 206 0
4.978415 2.036624 29.580600 204 204 204 0
5.119985 2.047994 29.745739 204 204 204 0
5.257065 2.057112 29.878175 203 203 203 0
5.417535 2.074800 30.135083 202 202 202 0
5.577159 2.091435 30.376685 200 200 200 0
5.736536 2.107299 30.607101 197 197 197 0
5.926429 2.133515 30.987866 196 196 196 0
6.098146 2.152287 31.260521 193 193 193 0
6.317784 2.186925 31.763618 187 187 187 0
6.460860 2.194254 31.870072 155 155 155 0
-10.713297 2.544408 35.010775 206 206 206 0
-10.579281 2.544384 35.010444 206 206 206 0
-5.946184 1.448429 19.930230 206 206 206 0
-5.887887 1.452855 19.991128 206 206 206 0
-5.779048 1.444762 19.879765 206 206 206 0
-5.704564 1.445156 19.885191 206 206 206 0
-5.630664 1.445711 19.892825 206 206 206 0
-5.560250 1.447188 19.913151 206 206 206 0
-5.527562 1.458662 20.071031 207 207 207 0
-5.491178 1.469470 20.219747 207 207 207 0
-5.434029 1.474951 20.295158 206 206 206 0
-5.367917 1.478122 20.338795 207 207 207 0
-5.286712 1.477169 20.325690 207 207 207 0
-5.229925 1.483113 20.407471 206 206 206 0
-5.173584 1.489365 20.493498 207 207 207 0
-5.133769 1.500640 20.648642 206 206 206 0
-5.079380 1.507941 20.749103 207 207 207 0
-4.989655 1.504817 20.706111 206 206 206 0
-4.919100 1.507466 20.742567 207 207 207 0
-4.851061 1.510986 20.791002 207 207 207 0
-4.806152 1.521948 20.941837 207 207 207 0
-4.777214 1.538425 21.168557 207 207 207 0
-4.706078 1.541646 21.212882 208 208 208 0
-4.589546 1.529849 21.050550 208 208 208 0
-4.488654 1.522936 20.955435 208 208 208 0
-4.425534 1.528821 21.036405 208 208 208 0
-4.395683 1.546629 21.281447 207 207 207 0
-4.328541 1.551741 21.351787 207 207 207 0
-4.242232 1.550046 21.328468 207 207 207 0
-4.129965 1.538615 21.171167 208 208 208 0
-4.031356 1.531915 21.078987 208 208 208 0
-3.950401 1.531788 21.077239 207 207 207 0
-3.922527 1.552667 21.364528 208 208 208 0
-3.864488 1.562240 21.496248 208 208 208 0
-3.763891 1.554651 21.391820 208 208 208 0
-3.679193 1.553437 21.375125 208 208 208 0
-3.589170 1.549869 21.326024 208 208 208 0
-3.526512 1.558226 21.441019 208 208 208 0
-3.467124 1.568461 21.581848 209 209 209 0
-3.394474 1.573049 21.644980 208 208 208 0
-3.302665 1.568766 21.586049 208 208 208 0
-3.217078 1.567295 21.565802 208 208 208 0
-3.139761 1.569881 21.601385 208 208 208 0
-3.088585 1.586030 21.823598 209 209 209 0
-3.028684 1.598472 21.994798 209 209 209 0
-2.962088 1.607991 22.125774 208 208 208 0
-4.550658 2.543015 34.991603 208 208 208 0
-2.818957 1.623036 22.332793 179 179 179 0
-3.750739 2.227001 30.643289 76 76 76 0
-2.875847 2.483686 34.175241 92 92 92 0
-2.676693 2.421770 33.323287 121 121 121 0
-2.475849 2.352056 32.364034 139 139 139 0
-2.286409 2.286409 31.460735 153 153 153 0
-2.131189 2.249589 30.954094 165 165 165 0
-1.994678 2.229346 30.675556 170 170 170 0
-1.863325 2.212699 30.446488 175 175 175 0
-1.740204 2.204258 30.330345 180 180 180 0
-1.621678 2.200849 30.283435 180 180 180 0
-1.492559 2.181432 30.016266 184 184 184 0
-1.370205 2.169491 29.851955 190 190 190 0
-1.241029 2.143596 29.495647 190 190 190 0
-1.119347 2.126758 29.263962 189 189 189 0
-1.002030 2.115397 29.107630 194 194 194 0
-0.891769 2.117952 29.142784 195 195 195 0
-0.779632 2.116143 29.117901 195 195 195 0
-0.665470 2.107323 28.996527 198 198 198 0
-0.549939 2.089767 28.754958 199 199 199 0
-0.436933 2.075432 28.557716 199 199 199 0
-0.326181 2.065813 28.425363 200 200 200 0
-0.217899 2.070039 28.483514 202 202 202 0
-0.109442 2.079391 28.612194 204 204 204 0
0.000000 2.067454 28.447934 203 203 203 0
0.108090 2.053701 28.258702 204 204 204 0
0.215188 2.044282 28.129102 203 203 203 0
0.322541 2.042759 28.108138 205 205 205 0
0.432422 2.054003 28.262858 205 205 205 0
0.539303 2.049352 28.198858 206 206 206 0
0.644136 2.039764 28.066934 207 207 207 0
0.750388 2.036767 28.025692 206 206 206 0
0.856566 2.034345 27.992367 206 206 206 0
0.966540 2.040473 28.076677 207 207 207 0
1.073588 2.039816 28.067648 208 208 208 0
1.178754 2.036030 28.015555 208 208 208 0
1.284581 2.033919 27.986505 208 208 208 0
1.392623 2.035371 28.006486 209 209 209 0
1.503418 2.040353 28.075039 208 208 208 0
1.612390 2.042361 28.102663 208 208 208 0
1.719684 2.042125 28.099413 209 209 209 0
1.825195 2.039924 28.069123 209 209 209 0
1.930993 2.038270 28.046373 209 209 209 0
2.038807 2.038807 28.053759 210 210 210 0
2.151304 2.043739 28.121625 210 210 210 0
2.255280 2.040492 28.076943 209 209 209 0
2.358887 2.037220 28.031930 210 210 210 0
2.466390 2.037453 28.035128 210 210 210 0
2.579493 2.042098 28.099048 210 210 210 0
2.695601 2.048657 28.189297 210 210 210 0
2.805549 2.050209 28.210649 210 210 210 0
2.913110 2.049966 28.207310 210 210 210 0
3.022185 2.050768 28.218348 210 210 210 0
3.135481 2.054281 28.266674 210 210 210 0
3.255692 2.061938 28.372040 210 210 210 0
3.366175 2.063140 28.388577 210 210 210 0
3.478059 2.065098 28.415517 209 209 209 0
3.607766 2.077198 28.582022 209 209 209 0
3.734110 2.086708 28.712877 210 210 210 0
3.840909 2.085065 28.690265 209 209 209 0
3.955391 2.087568 28.724700 209 209 209 0
4.097651 2.104199 28.953551 208 208 208 0
4.206420 2.103210 28.939938 208 208 208 0
4.312146 2.100789 28.906625 208 208 208 0
4.432340 2.105362 28.969545 207 207 207 0
4.584440 2.124496 29.232837 207 207 207 0
4.708572 2.130068 29.309502 206 206 206 0
4.832923 2.135478 29.383937 205 205 205 0
4.971148 2.146632 29.537419 205 205 205 0
5.111607 2.158234 29.697061 204 204 204 0
5.241227 2.164855 29.788162 203 203 203 0
5.404296 2.184715 30.061443 201 201 201 0
5.565465 2.202996 30.312989 200 200 200 0
5.718808 2.217497 30.512512 198 198 198 0
5.926062 2.251904 30.985947 197 197 197 0
6.085779 2.267251 31.197125 193 193 193 0
6.305407 2.303899 31.701392 189 189 189 0
6.449879 2.312221 31.815904 165 165 165 0
6.551693 2.305225 31.719649 80 80 80 0
-10.713267 2.678317 35.010677 205 205 205 0
-10.579262 2.678294 35.010380 206 206 206 0
-5.934034 1.521547 19.889507 206 206 206 0
-5.865489 1.523504 19.915081 206 206 206 0
-5.763675 1.516756 19.826882 207 207 207 0
-5.705700 1.521520 19.889151 206 206 206 0
-5.618039 1.518389 19.848222 207 207 207 0
-5.549454 1.520398 19.874489 205 205 205 0
-5.513189 1.531442 20.018843 206 206 206 0
-5.477009 1.542819 20.167573 207 207 207 0
-5.420037 1.548582 20.242901 207 207 207 0
-5.352519 1.551455 20.280456 206 206 206 0
-5.281728 1.553449 20.306529 206 206 206 0
-5.215307 1.556808 20.350432 206 206 206 0
-5.149820 1.560551 20.399365 207 207 207 0
-5.093334 1.567180 20.486009 207 207 207 0
-5.065810 1.583066 20.693668 207 207 207 0
-4.995172 1.585769 20.729006 207 207 207 0
-4.910188 1.583932 20.704989 207 207 207 0
-4.835388 1.585373 20.723833 207 207 207 0
-4.793910 1.597970 20.888496 207 207 207 0
-4.764894 1.615218 21.113966 207 207 207 0
-4.697994 1.619998 21.176445 207 207 207 0
-4.584700 1.608667 21.028325 207 207 207 0
-4.482728 1.600974 20.927769 207 207 207 0
-4.414413 1.605241 20.983545 208 208 208 0
-4.395965 1.628135 21.282815 207 207 207 0
-4.320259 1.630287 21.310935 208 208 208 0
-4.233330 1.628204 21.283711 207 207 207 0
-4.124210 1.617337 21.141665 208 208 208 0
-4.024346 1.609739 21.042333 208 208 208 0
-3.939565 1.607986 21.019420 207 207 207 0
-3.910314 1.629297 21.298005 208 208 208 0
-3.861502 1.643192 21.479638 208 208 208 0
-3.765478 1.637164 21.400841 208 208 208 0
-3.671093 1.631597 21.328064 208 208 208 0
-3.577184 1.625993 21.254809 208 208 208 0
-3.518152 1.636350 21.390196 208 208 208 0
-3.457895 1.646617 21.524404 209 209 209 0
-3.388597 1.652974 21.607505 208 208 208 0
-3.302847 1.651423 21.587234 209 209 209 0
-3.203228 1.642681 21.472955 209 209 209 0
-3.129598 1.647157 21.531461 208 208 208 0
-3.077551 1.663541 21.745633 208 208 208 0
-3.021654 1.678697 21.943746 209 209 209 0
-4.684667 2.676953 34.992848 209 209 209 0
-2.891277 1.700751 22.232042 208 208 208 0
-2.802836 1.698688 22.205075 172 172 172 0
-3.054142 2.655775 34.716016 73 73 73 0
-2.869481 2.608619 34.099593 88 88 88 0
-2.662323 2.535546 33.144387 127 127 127 0
-2.460218 2.460218 32.159718 143 143 143 0
-2.286405 2.406742 31.460684 152 152 152 0
-2.138925 2.376584 31.066455 164 164 164 0
-1.997447 2.349937 30.718132 168 168 168 0
-1.868214 2.335268 30.526376 174 174 174 0
-1.746024 2.328031 30.431784 179 179 179 0
-1.624249 2.320356 30.331451 181 181 181 0
-1.496631 2.302510 30.098169 187 187 187 0
-1.368506 2.280843 29.814947 188 188 188 0
-1.242213 2.258569 29.523782 190 190 190 0
-1.119450 2.238901 29.266680 192 192 192 0
-1.002686 2.228191 29.126675 194 194 194 0
-0.891596 2.228989 29.137112 195 195 195 0
-0.779767 2.227906 29.122950 197 197 197 0
-0.665277 2.217589 28.988096 198 198 198 0
-0.549771 2.199082 28.746175 198 198 198 0
-0.436566 2.182830 28.533719 200 200 200 0
-0.325976 2.173173 28.407484 201 201 201 0
-0.217660 2.176605 28.452347 202 202 202 0
-0.109331 2.186612 28.583168 203 203 203 0
0.000000 2.176007 28.444542 202 202 202 0
0.108069 2.161378 28.253304 203 203 203 0
0.215055 2.150554 28.111816 205 205 205 0
0.322350 2.149002 28.091526 205 205 205 0
0.431783 2.158915 28.221114 205 205 205 0
0.538655 2.154619 28.164955 205 205 205 0
0.643557 2.145190 28.041706 206 206 206 0
0.748820 2.139486 27.967141 206 206 206 0
0.855794 2.139486 27.967137 207 207 207 0
0.964441 2.143202 28.015717 208 208 208 0
1.072292 2.144583 28.033765 209 209 209 0
1.178913 2.143479 28.019332 208 208 208 0
1.283867 2.139779 27.970962 208 208 208 0
1.390128 2.138658 27.956320 208 208 208 0
1.501238 2.144626 28.034331 210 210 210 0
1.610541 2.147388 28.070437 209 209 209 0
1.718535 2.148168 28.080632 209 209 209 0
1.823676 2.145501 28.045762 209 209 209 0
1.928624 2.142916 28.011975 209 209 209 0
2.036150 2.143315 28.017194 209 209 209 0
2.149164 2.149164 28.093646 210 210 210 0
2.251564 2.144347 28.030675 210 210 210 0
2.357608 2.143280 28.016727 210 210 210 0
2.462532 2.141332 27.991269 210 210 210 0
2.575723 2.146436 28.057987 210 210 210 0
2.690990 2.152792 28.141068 211 211 211 0
2.802070 2.155439 28.175667 209 209 209 0
2.909853 2.155447 28.175778 210 210 210 0
3.018333 2.155952 28.182378 210 210 210 0
3.134264 2.161561 28.255706 210 210 210 0
3.252980 2.168653 28.348408 210 210 210 0
3.358229 2.166599 28.321560 209 209 209 0
3.474642 2.171651 28.387601 210 210 210 0
3.603581 2.183989 28.548872 209 209 209 0
3.725687 2.191580 28.648109 209 209 209 0
3.837845 2.193054 28.667375 209 209 209 0
3.950785 2.194881 28.691252 209 209 209 0
4.090883 2.211288 28.905724 209 209 209 0
4.203627 2.212435 28.920721 208 208 208 0
4.307598 2.209025 28.876138 208 208 208 0
4.425643 2.212822 28.925772 208 208 208 0
4.577934 2.233139 29.191356 206 206 206 0
4.705554 2.240740 29.290720 207 207 207 0
4.827237 2.245227 29.349366 206 206 206 0
4.963666 2.256212 29.492963 204 204 204 0
5.108009 2.270226 29.676160 204 204 204 0
5.232005 2.274785 29.735747 203 203 203 0
5.393862 2.295260 30.003403 202 202 202 0
5.559241 2.316350 30.279089 201 201 201 0
5.694929 2.324461 30.385110 199 199 199 0
6.060839 2.424336 31.690663 197 197 197 0
6.056528 2.375109 31.047178 194 194 194 0
6.285388 2.417457 31.600743 189 189 189 0
6.439334 2.429937 31.763885 173 173 173 0
6.541244 2.422683 31.669059 86 86 86 0
-10.713255 2.812229 35.010637 205 205 205 0
-10.579217 2.812197 35.010232 206 206 206 0
-5.924535 1.595067 19.857668 207 207 207 0
-5.848802 1.595128 19.858423 206 206 206 0
-5.757777 1.590965 19.806595 205 205 205 0
-5.681715 1.590880 19.805543 206 206 206 0
-5.605346 1.590706 19.803379 206 206 206 0
-5.539209 1.593471 19.837798 206 206 206 0
-5.493606 1.602302 19.947735 207 207 207 0
-5.471729 1.618399 20.148131 206 206 206 0
-5.407141 1.622142 20.194737 207 207 207 0
-5.341428 1.625652 20.238430 207 207 207 0
-5.267456 1.626714 20.251656 206 206 206 0
-5.208349 1.632468 20.323282 207 207 207 0
-5.136307 1.634280 20.345841 207 207 207 0
-5.076605 1.640134 20.418721 207 207 207 0
-5.052693 1.657915 20.640087 207 207 207 0
-4.974235 1.658078 20.642119 207 207 207 0
-4.893943 1.657626 20.636488 207 207 207 0
-4.821055 1.659707 20.662403 207 207 207 0
-4.778651 1.672528 20.822007 207 207 207 0
-4.754943 1.692437 21.069869 208 208 208 0
-4.690901 1.698430 21.144470 207 207 207 0
-4.580757 1.687647 21.010237 207 207 207 0
-4.481555 1.680583 20.922295 207 207 207 0
-4.404931 1.681883 20.938470 208 208 208 0
-5.162762 2.007741 24.995215 208 208 208 0
-4.311257 1.708234 21.266528 208 208 208 0
-4.219759 1.704133 21.215478 208 208 208 0
-4.116774 1.695142 21.103546 208 208 208 0
-4.009484 1.683983 20.964624 207 207 207 0
-3.928189 1.683510 20.958724 208 208 208 0
-3.894239 1.703730 21.210452 208 208 208 0
-3.848305 1.719455 21.406229 207 207 207 0
-3.755511 1.714472 21.344193 207 207 207 0
-3.663735 1.709743 21.285315 208 208 208 0
-3.570049 1.703887 21.212415 208 208 208 0
-3.509378 1.713882 21.336845 209 209 209 0
-3.451946 1.725973 21.487372 209 209 209 0
-3.375636 1.728984 21.524860 209 209 209 0
-3.292554 1.728591 21.519963 209 209 209 0
-3.196611 1.721252 21.428596 208 208 208 0
-3.123948 1.726392 21.492591 208 208 208 0
-3.070232 1.742564 21.693917 208 208 208 0
-3.010236 1.755971 21.860829 208 208 208 0
-2.954732 1.772839 22.070826 208 208 208 0
-2.890453 1.785280 22.225709 208 208 208 0
-2.775501 1.766228 21.988519 164 164 164 0
-2.224706 1.459964 18.175707 76 76 76 0
-3.044849 2.780080 34.610395 70 70 70 0
-2.844643 2.715341 33.804430 101 101 101 0
-2.641815 2.641815 32.889081 128 128 128 0
-2.443396 2.565566 31.939822 144 144 144 0
-2.289361 2.530346 31.501351 154 154 154 0
-2.139448 2.496023 31.074051 164 164 164 0
-2.000614 2.471347 30.766851 168 168 168 0
-1.872722 2.457947 30.600026 173 173 173 0
-1.751191 2.451667 30.521847 178 178 178 0
-1.626292 2.439438 30.369598 180 180 180 0
-1.494254 2.413795 30.050355 185 185 185 0
-1.367026 2.392295 29.782699 188 188 188 0
-1.235339 2.358374 29.360397 188 188 188 0
-1.117133 2.345980 29.206102 193 193 193 0
-1.002528 2.339232 29.122089 194 194 194 0
-0.890891 2.338589 29.114081 194 194 194 0
-0.779113 2.337339 29.098526 195 195 195 0
-0.664590 2.326064 28.958151 199 199 199 0
-0.549509 2.307938 28.732495 199 199 199 0
-0.436323 2.290693 28.517813 199 199 199 0
-0.325595 2.279165 28.374290 200 200 200 0
-0.217376 2.282451 28.415200 201 201 201 0
-0.109193 2.293047 28.547112 203 203 203 0
0.000000 2.283421 28.427282 203 203 203 0
0.107990 2.267795 28.232747 204 204 204 0
0.214961 2.257089 28.099463 204 204 204 0
0.322074 2.254517 28.067442 205 205 205 0
0.431566 2.265719 28.206901 205 205 205 0
0.538523 2.261796 28.158057 205 205 205 0
0.643252 2.251384 28.028429 206 206 206 0
0.748339 2.245018 27.949178 206 206 206 0
0.854104 2.242024 27.911907 207 207 207 0
0.963449 2.248049 27.986911 207 207 207 0
1.070741 2.248556 27.993233 207 207 207 0
1.176598 2.246232 27.964293 207 207 207 0
1.281683 2.242945 27.923374 208 208 208 0
1.388424 2.242838 27.922047 208 208 208 0
1.499235 2.248852 27.996917 208 208 208 0
1.608627 2.252078 28.037070 209 209 209 0
1.717021 2.253590 28.055900 209 209 209 0
1.820723 2.249129 28.000360 209 209 209 0
1.926682 2.247795 27.983759 209 209 209 0
2.035022 2.249235 28.001679 210 210 210 0
2.146707 2.254042 28.061524 209 209 209 0
2.250045 2.250045 28.011761 211 211 211 0
2.355223 2.248167 27.988385 210 210 210 0
2.462703 2.248555 27.993210 210 210 210 0
2.572011 2.250510 28.017553 211 211 211 0
2.686737 2.256859 28.096601 209 209 209 0
2.798296 2.260162 28.137721 210 210 210 0
2.909121 2.262650 28.168690 210 210 210 0
3.014614 2.260961 28.147659 210 210 210 0
3.128605 2.265541 28.204687 210 210 210 0
3.246141 2.272299 28.288809 210 210 210 0
3.356303 2.273625 28.305316 210 210 210 0
3.470933 2.277800 28.357297 210 210 210 0
3.597852 2.289542 28.503485 210 210 210 0
3.721555 2.298608 28.616343 209 209 209 0
3.834029 2.300417 28.638868 209 209 209 0
3.947999 2.302999 28.671017 209 209 209 0
4.086294 2.319248 28.873302 209 209 209 0
4.201295 2.321768 28.904678 208 208 208 0
4.307897 2.319637 28.878145 208 208 208 0
4.423447 2.322310 28.911417 207 207 207 0
4.574711 2.343145 29.170803 207 207 207 0
4.701743 2.350872 29.267000 206 206 206 0
4.826134 2.356949 29.342659 206 206 206 0
4.955711 2.365226 29.445698 205 205 205 0
5.099762 2.379889 29.628245 204 204 204 0
5.227950 2.386673 29.712700 204 204 204 0
5.385556 2.406312 29.957203 202 202 202 0
5.551471 2.428769 30.236769 201 201 201 0
5.688905 2.438102 30.352966 199 199 199 0
5.685452 2.387890 29.727856 197 197 197 0
6.041477 2.487667 30.970021 194 194 194 0
6.268120 2.531356 31.513929 191 191 191 0
6.432487 2.548721 31.730113 176 176 176 0
6.535632 2.541635 31.641889 91 91 91 0
-10.713247 2.946143 35.010610 207 207 207 0
-10.579219 2.946112 35.010239 206 206 206 0
-5.901138 1.664423 19.779245 206 206 206 0
-5.823271 1.663792 19.771738 206 206 206 0
-5.744831 1.662978 19.762062 207 207 207 0
-5.668946 1.662891 19.761033 206 206 206 0
-5.589751 1.661818 19.748281 207 207 207 0
-5.523852 1.664722 19.782797 206 206 206 0
-5.475316 1.673013 19.881323 206 206 206 0
-5.452467 1.689497 20.077205 207 207 207 0
-5.395088 1.695599 20.149722 207 207 207 0
-5.317781 1.695524 20.148834 207 207 207 0
-5.243070 1.696287 20.157902 206 206 206 0
-5.194682 1.705717 20.269953 207 207 207 0
-5.122379 1.707460 20.290668 207 207 207 0
-5.072091 1.716708 20.400569 207 207 207 0
-5.039875 1.732457 20.587725 206 206 206 0
-4.969761 1.735472 20.623553 207 207 207 0
-4.889525 1.734993 20.617858 207 207 207 0
-4.806530 1.733503 20.600149 208 208 208 0
-4.767586 1.748115 20.773795 207 207 207 0
-4.740235 1.767545 21.004696 207 207 207 0
-4.684060 1.776712 21.113636 207 207 207 0
-4.577641 1.766809 20.995947 208 208 208 0
-4.465060 1.754131 20.845285 207 207 207 0
-4.374100 1.749640 20.791919 207 207 207 0
-4.257123 1.734383 20.610617 207 207 207 0
-4.300914 1.785285 21.215508 207 207 207 0
-4.209402 1.780901 21.163409 208 208 208 0
-4.102542 1.769724 21.030589 208 208 208 0
-4.002373 1.761044 20.927442 208 208 208 0
-3.921510 1.760678 20.923089 207 207 207 0
-3.875677 1.776352 21.109351 208 208 208 0
-3.826861 1.791297 21.286948 208 208 208 0
-3.747243 1.792160 21.297204 207 207 207 0
-3.648293 1.783610 21.195600 208 208 208 0
-3.555765 1.777882 21.127539 208 208 208 0
-3.495352 1.788320 21.251570 208 208 208 0
-3.440229 1.802025 21.414437 209 209 209 0
-3.369287 1.807910 21.484376 208 208 208 0
-3.285059 1.806782 21.470973 209 209 209 0
-3.192742 1.801034 21.402664 209 209 209 0
-3.117413 1.804818 21.447627 209 209 209 0
-3.060236 1.819600 21.623292 208 208 208 0
-3.003940 1.835741 21.815109 209 209 209 0
-4.684883 2.944784 34.994459 209 209 209 0
-2.885225 1.866910 22.185504 207 207 207 0
-2.773078 1.848718 21.969322 157 157 157 0
-3.023877 2.892404 34.372005 78 78 78 0
-2.833002 2.833002 33.666097 98 98 98 0
-2.619572 2.744313 32.612162 127 127 127 0
-2.438705 2.682575 31.878495 146 146 146 0
-2.290853 2.652567 31.521891 152 152 152 0
-2.140385 2.616026 31.087649 164 164 164 0
-2.002263 2.591163 30.792198 167 167 167 0
-1.874294 2.577155 30.625726 177 177 177 0
-1.753058 2.571152 30.554389 177 177 177 0
-1.627475 2.557461 30.391695 180 180 180 0
-1.497073 2.533508 30.107053 186 186 186 0
-1.362656 2.498202 29.687489 186 186 186 0
-1.239249 2.478499 29.453340 187 187 187 0
-1.118675 2.461085 29.246408 193 193 193 0
-1.003221 2.452319 29.142235 195 195 195 0
-0.889927 2.447299 29.082579 194 194 194 0
-0.778279 2.446019 29.067368 196 196 196 0
-0.664628 2.436971 28.959845 197 197 197 0
-0.549546 2.418001 28.734418 198 198 198 0
-0.436266 2.399463 28.514121 199 199 199 0
-0.325426 2.386456 28.359546 200 200 200 0
-0.217297 2.390270 28.404869 202 202 202 0
-0.109131 2.400888 28.531046 202 202 202 0
0.000000 2.389378 28.394267 202 202 202 0
0.108008 2.376177 28.237395 203 203 203 0
0.214916 2.364078 28.093619 205 205 205 0
0.322014 2.361436 28.062226 203 203 203 0
0.431188 2.371532 28.182198 205 205 205 0
0.538125 2.367748 28.137235 204 204 204 0
0.643013 2.357714 28.017993 206 206 206 0
0.748311 2.351835 27.948132 207 207 207 0
0.853584 2.347357 27.894909 207 207 207 0
0.962735 2.353352 27.966156 207 207 207 0
1.069956 2.353903 27.972705 207 207 207 0
1.176744 2.353488 27.967772 207 207 207 0
1.281687 2.349759 27.923460 208 208 208 0
1.388298 2.349427 27.919516 208 208 208 0
1.497529 2.353261 27.965068 209 209 209 0
1.608420 2.359016 28.033460 209 209 209 0
1.716494 2.360179 28.047282 209 209 209 0
1.820323 2.355712 27.994200 210 210 210 0
1.925136 2.352943 27.961300 209 209 209 0
2.032378 2.353280 27.965303 209 209 209 0
2.145214 2.359735 28.042009 209 209 209 0
2.248171 2.355227 27.988436 209 209 209 0
2.353579 2.353579 27.968853 210 210 210 0
2.460121 2.353159 27.963862 210 210 210 0
2.568755 2.354692 27.982077 211 211 211 0
2.684719 2.362552 28.075488 211 211 211 0
2.794319 2.364424 28.097728 211 211 211 0
2.907527 2.369096 28.153253 210 210 210 0
3.013429 2.367694 28.136590 210 210 210 0
3.124600 2.370386 28.168583 210 210 210 0
3.243649 2.378676 28.267090 210 210 210 0
3.356227 2.381839 28.304679 210 210 210 0
3.469344 2.385174 28.344314 209 209 209 0
3.593143 2.395429 28.466174 209 209 209 0
3.719135 2.406499 28.597729 210 210 210 0
3.831807 2.408564 28.622275 209 209 209 0
3.942702 2.409429 28.632549 209 209 209 0
4.086263 2.429670 28.873086 209 209 209 0
4.198263 2.430573 28.883816 208 208 208 0
4.305467 2.428725 28.861855 208 208 208 0
4.420601 2.431330 28.892815 208 208 208 0
4.566673 2.450410 29.119547 207 207 207 0
4.697516 2.460603 29.240682 207 207 207 0
4.821029 2.466573 29.311620 206 206 206 0
4.948289 2.474145 29.401601 206 206 206 0
5.094188 2.490492 29.595866 204 204 204 0
5.222779 2.497851 29.683311 204 204 204 0
5.383603 2.519984 29.946336 202 202 202 0
5.549683 2.543605 30.227029 202 202 202 0
5.686952 2.553325 30.342545 199 199 199 0
5.855463 2.576404 30.616799 197 197 197 0
6.035356 2.603487 30.938642 195 195 195 0
6.246898 2.642918 31.407231 190 190 190 0
6.427847 2.668163 31.707225 178 178 178 0
6.533341 2.661732 31.630799 99 99 99 0
-10.713228 3.080053 35.010549 206 206 206 0
-10.579205 3.080022 35.010194 206 206 206 0
-5.999954 1.769217 20.110455 206 206 206 0
-5.814039 1.736661 19.740391 206 206 206 0
-5.734872 1.735553 19.727803 207 207 207 0
-5.648105 1.732086 19.688384 207 207 207 0
-5.569752 1.731139 19.677625 206 206 206 0
-5.507937 1.735377 19.725802 207 207 207 0
-5.462014 1.744810 19.833020 206 206 206 0
-5.440177 1.762311 20.031950 206 206 206 0
-5.389434 1.770814 20.128606 206 206 206 0
-5.306217 1.768739 20.105018 207 207 207 0
-5.242612 1.773236 20.156140 207 207 207 0
-5.179449 1.778020 20.210514 207 207 207 0
-5.117003 1.783198 20.269373 206 206 206 0
-5.061493 1.790990 20.357942 207 207 207 0
-5.033158 1.808791 20.560288 207 207 207 0
-4.964562 1.812459 20.601981 208 208 208 0
-4.875539 1.808668 20.558881 207 207 207 0
-4.794893 1.807911 20.550276 208 208 208 0
-4.756508 1.823328 20.725525 208 208 208 0
-4.730055 1.843920 20.959589 208 208 208 0
-4.669389 1.851654 21.047506 208 208 208 0
-4.561483 1.840598 20.921836 207 207 207 0
-4.461442 1.832378 20.828393 208 208 208 0
-4.373786 1.829038 20.790428 207 207 207 0
-4.325793 1.842467 20.943080 208 208 208 0
-4.295518 1.864093 21.188894 208 208 208 0
-4.200656 1.857982 21.119436 207 207 207 0
-4.095411 1.846950 20.994031 208 208 208 0
-3.998886 1.839488 20.909210 207 207 207 0
-3.909972 1.835293 20.861531 208 208 208 0
-3.854098 1.846755 20.991817 209 209 209 0
-3.812384 1.865635 21.206418 208 208 208 0
-3.739571 1.869785 21.253599 208 208 208 0
-3.642372 1.861657 21.161201 208 208 208 0
-3.552250 1.856858 21.106653 208 208 208 0
-3.487183 1.865237 21.201902 208 208 208 0
-3.434039 1.880545 21.375904 208 208 208 0
-3.358766 1.884186 21.417287 208 208 208 0
-3.281382 1.886795 21.446944 209 209 209 0
-3.189585 1.881037 21.381499 209 209 209 0
-3.114104 1.884853 21.424866 209 209 209 0
-3.046456 1.893743 21.525919 208 208 208 0
-2.994365 1.913067 21.745571 209 209 209 0
-4.685157 3.078818 34.996506 209 209 209 0
-2.882958 1.950236 22.168074 206 206 206 0
-2.758504 1.922594 21.853863 145 145 145 0
-3.013166 3.013166 34.250247 77 77 77 0
-2.822033 2.950307 33.535741 103 103 103 0
-2.606952 2.855233 32.455049 128 128 128 0
-2.431054 2.795712 31.778478 148 148 148 0
-2.289424 2.771409 31.502229 153 153 153 0
-2.142311 2.737398 31.115631 163 163 163 0
-2.003560 2.710699 30.812150 166 166 166 0
-1.874652 2.694812 30.631561 175 175 175 0
-1.752347 2.686932 30.541998 180 180 180 0
-1.625542 2.670533 30.355585 179 179 179 0
-1.495216 2.645382 30.069705 188 188 188 0
-1.362349 2.611170 29.680817 187 187 187 0
-1.238290 2.589151 29.430532 188 188 188 0
-1.118177 2.571806 29.233373 192 192 192 0
-1.001294 2.558863 29.086254 193 193 193 0
-0.887737 2.552244 29.011009 193 193 193 0
-0.777590 2.554940 29.041661 195 195 195 0
-0.664223 2.546189 28.942183 197 197 197 0
-0.549051 2.525633 28.708534 198 198 198 0
-0.436216 2.508244 28.510878 199 199 199 0
-0.325193 2.493147 28.339264 202 202 202 0
-0.217182 2.497594 28.389816 202 202 202 0
-0.109013 2.507305 28.500194 202 202 202 0
0.000000 2.498444 28.399482 202 202 202 0
0.107921 2.482186 28.214674 204 204 204 0
0.214686 2.468889 28.063530 204 204 204 0
0.321976 2.468481 28.058887 205 205 205 0
0.431061 2.478601 28.173930 205 205 205 0
0.537959 2.474613 28.128595 205 205 205 0
0.642818 2.464136 28.009503 206 206 206 0
0.747233 2.455193 27.907851 208 208 208 0
0.853525 2.453884 27.892971 207 207 207 0
0.962262 2.459115 27.952424 207 207 207 0
1.069421 2.459668 27.958715 207 207 207 0
1.176746 2.460469 27.967819 208 208 208 0
1.280687 2.454650 27.901674 208 208 208 0
1.387083 2.454069 27.895077 208 208 208 0
1.496724 2.458903 27.950022 208 208 208 0
1.606407 2.463157 27.998374 209 209 209 0
1.714392 2.464438 28.012940 210 210 210 0
1.818811 2.460744 27.970946 209 209 209 0
1.923215 2.457441 27.933399 209 209 209 0
2.031218 2.458842 27.949331 210 210 210 0
2.142770 2.464185 28.010063 210 210 210 0
2.248106 2.462211 27.987626 210 210 210 0
2.351682 2.458577 27.946315 209 209 209 0
2.458870 2.458870 27.949649 210 210 210 0
2.566620 2.459678 27.958827 210 210 210 0
2.682782 2.468160 28.055238 211 211 211 0
2.794990 2.472491 28.104470 210 210 210 0
2.906300 2.475737 28.141373 210 210 210 0
3.010459 2.472877 28.108861 210 210 210 0
3.122124 2.476168 28.146264 210 210 210 0
3.243745 2.486871 28.267929 210 210 210 0
3.354327 2.488695 28.288657 210 210 210 0
3.466781 2.491749 28.323371 210 210 210 0
3.589184 2.501552 28.434807 210 210 210 0
3.713886 2.512335 28.557369 209 209 209 0
3.831134 2.517602 28.617246 209 209 209 0
3.940128 2.517304 28.613856 209 209 209 0
4.108110 2.553690 29.027449 209 209 209 0
4.196784 2.540159 28.873644 208 208 208 0
4.304722 2.538682 28.856858 208 208 208 0
4.416331 2.539390 28.864908 208 208 208 0
4.564835 2.560761 29.107825 207 207 207 0
4.691282 2.569036 29.201882 206 206 206 0
4.815118 2.575528 29.275682 207 207 207 0
4.943143 2.583915 29.371020 206 206 206 0
5.090659 2.601893 29.575363 204 204 204 0
5.219601 2.609800 29.665250 203 203 203 0
5.379901 2.632718 29.925748 202 202 202 0
5.542004 2.655543 30.185205 201 201 201 0
5.679004 2.665655 30.300144 199 199 199 0
5.846809 2.689532 30.571550 197 197 197 0
6.032433 2.720509 30.923659 195 195 195 0
6.239798 2.759911 31.371533 192 192 192 0
6.427431 2.789262 31.705170 179 179 179 0
6.530570 2.781539 31.617381 103 103 103 0
-10.713247 3.213974 35.010611 206 206 206 0
-10.579199 3.213934 35.010173 206 206 206 0
-7.146306 2.198863 23.952759 207 207 207 0
-5.768768 1.798058 19.586683 206 206 206 0
-5.710159 1.803208 19.642790 206 206 206 0
-5.641290 1.805213 19.664626 207 207 207 0
-5.563698 1.804443 19.656238 206 206 206 0
-5.487011 1.803949 19.650857 206 206 206 0
-5.436948 1.812316 19.742003 207 207 207 0
-5.422455 1.832943 19.966695 206 206 206 0
-5.381025 1.844923 20.097200 207 207 207 0
-5.308383 1.846394 20.113225 207 207 207 0
-5.232905 1.846908 20.118818 207 207 207 0
-5.177151 1.854502 20.201545 206 206 206 0
-5.103589 1.855851 20.216237 207 207 207 0
-5.051905 1.865319 20.319377 207 207 207 0
-5.027755 1.885408 20.538216 207 207 207 0
-4.962042 1.890302 20.591521 208 208 208 0
-4.865130 1.883276 20.514992 207 207 207 0
-4.786029 1.883028 20.512287 207 207 207 0
-4.742844 1.897138 20.665986 208 208 208 0
-4.714150 1.917620 20.889109 208 208 208 0
-4.651870 1.924912 20.968539 207 207 207 0
-4.558206 1.919245 20.906804 207 207 207 0
-4.453049 1.908450 20.789211 208 208 208 0
-4.360642 1.902826 20.727949 208 208 208 0
-4.306147 1.913843 20.847966 208 208 208 0
-4.278642 1.937498 21.105646 208 208 208 0
-4.189769 1.933740 21.064703 208 208 208 0
-4.094013 1.926594 20.986865 208 208 208 0
-3.988463 1.914462 20.854708 208 208 208 0
-3.893637 1.907088 20.774376 209 209 209 0
-3.841481 1.920740 20.923098 208 208 208 0
-3.803997 1.942467 21.159768 208 208 208 0
-3.731846 1.947050 21.209697 208 208 208 0
-3.633507 1.937870 21.109700 209 209 209 0
-3.547324 1.934904 21.077383 208 208 208 0
-3.480794 1.942769 21.163060 208 208 208 0
-3.423379 1.956216 21.309547 208 208 208 0
-3.353136 1.962812 21.381389 209 209 209 0
-3.273421 1.964053 21.394910 209 209 209 0
-3.181823 1.958045 21.329467 208 208 208 0
-3.102514 1.959482 21.345123 208 208 208 0
-3.033997 1.967998 21.437887 208 208 208 0
-2.983555 1.989037 21.667068 208 208 208 0
-4.685346 3.212808 34.997913 209 209 209 0
-2.874186 2.028837 22.100624 206 206 206 0
-4.383780 3.188204 34.729888 138 138 138 0
-2.815803 3.071785 33.461711 104 104 104 0
-2.608804 2.981490 32.478107 128 128 128 0
-2.433913 2.920696 31.815859 147 147 147 0
-2.292709 2.896053 31.547418 155 155 155 0
-2.143918 2.858557 31.138962 164 164 164 0
-2.003914 2.829055 30.817589 168 168 168 0
-1.877143 2.815715 30.672274 175 175 175 0
-1.750639 2.801023 30.512235 177 177 177 0
-1.623325 2.782843 30.314190 179 179 179 0
-1.494489 2.759057 30.055086 187 187 187 0
-1.362227 2.724453 29.678142 186 186 186 0
-1.238773 2.702777 29.442011 188 188 188 0
-1.117747 2.682592 29.222140 192 192 192 0
-1.000743 2.668649 29.070249 192 192 192 0
-0.886871 2.660614 28.982719 193 193 193 0
-0.777616 2.666113 29.042623 196 196 196 0
-0.663646 2.654585 28.917049 198 198 198 0
-0.548613 2.633342 28.685646 197 197 197 0
-0.435799 2.614797 28.483626 197 197 197 0
-0.325243 2.601942 28.343596 200 200 200 0
-0.216954 2.603453 28.360050 201 201 201 0
-0.108987 2.615691 28.493365 201 201 201 0
0.000000 2.605910 28.386817 201 201 201 0
0.107894 2.589464 28.207671 203 203 203 0
0.214835 2.578022 28.083032 204 204 204 0
0.321965 2.575721 28.057960 204 204 204 0
0.430555 2.583331 28.140858 204 204 204 0
0.537422 2.579625 28.100489 205 205 205 0
0.643235 2.572939 28.027654 205 205 205 0
0.747895 2.564213 27.932602 206 206 206 0
0.853322 2.559966 27.886340 206 206 206 0
0.962138 2.565702 27.948827 206 206 206 0
1.069777 2.567464 27.968023 207 207 207 0
1.175967 2.565746 27.949305 208 208 208 0
1.280684 2.561369 27.901620 208 208 208 0
1.386784 2.560217 27.889074 208 208 208 0
1.496296 2.565079 27.942041 209 209 209 0
1.605839 2.569343 27.988483 209 209 209 0
1.714056 2.571083 28.007444 208 208 208 0
1.818614 2.567455 27.967922 210 210 210 0
1.923071 2.564094 27.931310 210 210 210 0
2.030734 2.565137 27.942672 210 210 210 0
2.141628 2.569953 27.995135 210 210 210 0
2.246051 2.566915 27.962036 210 210 210 0
2.350952 2.564675 27.937632 210 210 210 0
2.458008 2.564878 27.939844 210 210 210 0
2.564962 2.564962 27.940758 210 210 210 0
2.680223 2.573014 28.028471 210 210 210 0
2.793445 2.578564 28.088935 210 210 210 0
2.902815 2.580280 28.107628 210 210 210 0
3.010943 2.580808 28.113377 210 210 210 0
3.121493 2.583305 28.140574 210 210 210 0
3.240159 2.592127 28.236682 210 210 210 0
3.353769 2.596466 28.283944 210 210 210 0
3.466614 2.599960 28.322006 209 209 209 0
3.584949 2.607236 28.401261 210 210 210 0
3.711978 2.620220 28.542701 209 209 209 0
3.829435 2.625898 28.604556 209 209 209 0
3.939988 2.626659 28.612838 209 209 209 0
4.231783 2.744940 29.901310 209 209 209 0
4.192834 2.648106 28.846467 209 209 209 0
4.305386 2.649469 28.861314 208 208 208 0
4.415028 2.649017 28.856390 208 208 208 0
4.559014 2.668691 29.070710 208 208 208 0
4.689782 2.679876 29.192544 207 207 207 0
4.813849 2.686799 29.267967 206 206 206 0
4.941051 2.695118 29.358589 206 206 206 0
5.091147 2.715278 29.578194 205 205 205 0
5.219218 2.723070 29.663076 204 204 204 0
5.375942 2.745162 29.903723 203 203 203 0
5.542625 2.771312 30.188589 200 200 200 0
5.676684 2.780417 30.287763 200 200 200 0
5.841105 2.803731 30.541727 197 197 197 0
6.026455 2.835979 30.893017 195 195 195 0
6.237943 2.879051 31.362206 191 191 191 0
6.429625 2.911529 31.715997 180 180 180 0
6.530867 2.902608 31.618818 107 107 107 0
-10.713230 3.347884 35.010556 206 206 206 0
-10.579162 3.347836 35.010050 207 207 207 0
-10.442555 3.346973 35.001022 207 207 207 0
-5.775551 1.875179 19.609713 206 206 206 0
-5.713936 1.879584 19.655783 207 207 207 0
-5.625154 1.875051 19.608380 206 206 206 0
-5.541749 1.872212 19.578692 207 207 207 0
-5.476916 1.875656 19.614705 207 207 207 0
-5.413808 1.879795 19.657982 207 207 207 0
-5.392460 1.898753 19.856245 206 206 206 0
-5.360900 1.914607 20.022035 207 207 207 0
-5.278714 1.912578 20.000812 207 207 207 0
-5.227913 1.922027 20.099628 207 207 207 0
-5.161376 1.925887 20.139990 207 207 207 0
-5.087832 1.927209 20.153822 207 207 207 0
-5.031591 1.935227 20.237672 208 208 208 0
-5.007568 1.956081 20.455752 207 207 207 0
-4.941828 1.961043 20.507640 207 207 207 0
-4.865985 1.962091 20.518598 208 208 208 0
-4.773615 1.956400 20.459082 208 208 208 0
-4.731606 1.971503 20.617022 207 207 207 0
-4.693999 1.988983 20.799819 207 207 207 0
-4.648391 2.003617 20.952855 208 208 208 0
-4.549249 1.995285 20.865724 208 208 208 0
-4.444394 1.984104 20.748803 207 207 207 0
-4.348847 1.976749 20.671880 207 207 207 0
-4.289697 1.985971 20.768321 208 208 208 0
-4.268020 2.013217 21.053252 207 207 207 0
-4.175407 2.007407 20.992496 208 208 208 0
-4.083963 2.001943 20.935347 208 208 208 0
-3.983156 1.991578 20.826961 208 208 208 0
-3.889388 1.984382 20.751703 208 208 208 0
-3.823744 1.991533 20.826494 209 209 209 0
-3.792702 2.017395 21.096938 208 208 208 0
-3.727630 2.025886 21.185737 209 209 209 0
-3.626756 2.014864 21.070477 208 208 208 0
-3.538833 2.010701 21.026935 209 209 209 0
-3.469632 2.017228 21.095194 209 209 209 0
-3.412641 2.031334 21.242705 208 208 208 0
-3.344771 2.039494 21.328046 208 208 208 0
-3.265952 2.041220 21.346090 209 209 209 0
-3.172994 2.033970 21.270279 209 209 209 0
-3.095428 2.036466 21.296375 208 208 208 0
-3.025758 2.044431 21.379668 209 209 209 0
-2.978077 2.068109 21.627285 208 208 208 0
-4.680508 3.343220 34.961781 209 209 209 0
-4.551152 3.346435 34.995403 205 205 205 0
-4.364120 3.306152 34.574134 133 133 133 0
-3.027619 3.290890 34.414534 71 71 71 0
-2.821986 3.206803 33.535191 101 101 101 0
-2.611740 3.109214 32.514656 127 127 127 0
-2.431934 3.039918 31.789992 145 145 145 0
-2.290949 3.014406 31.523202 152 152 152 0
-2.142745 2.976035 31.121932 165 165 165 0
-2.001893 2.943960 30.786508 168 168 168 0
-1.875538 2.930528 30.646041 175 175 175 0
-1.749208 2.915347 30.487285 178 178 178 0
-1.620910 2.894482 30.269090 179 179 179 0
-1.491973 2.869179 30.004481 184 184 184 0
-1.361552 2.836567 29.663441 186 186 186 0
-1.237723 2.813007 29.417066 189 189 189 0
-1.116499 2.791247 29.189515 191 191 191 0
-1.001180 2.781055 29.082926 193 193 193 0
-0.886927 2.771647 28.984543 192 192 192 0
-0.777095 2.775340 29.023161 196 196 196 0
-0.663881 2.766170 28.927265 197 197 197 0
-0.548188 2.740938 28.663399 197 197 197 0
-0.435215 2.720097 28.445455 198 198 198 0
-0.324939 2.707824 28.317115 200 200 200 0
-0.216990 2.712373 28.364689 201 201 201 0
-0.108966 2.724153 28.487873 201 201 201 0
0.000000 2.712304 28.363961 202 202 202 0
0.107832 2.695795 28.191316 203 203 203 0
0.214715 2.683942 28.067371 203 203 203 0
0.321797 2.681642 28.043313 203 203 203 0
0.430185 2.688654 28.116645 204 204 204 0
0.537777 2.688883 28.119040 205 205 205 0
0.642753 2.678138 28.006677 206 206 206 0
0.747429 2.669389 27.915178 206 206 206 0
0.853040 2.665751 27.877132 206 206 206 0
0.961660 2.671279 27.934941 207 207 207 0
1.069432 2.673580 27.959002 208 208 208 0
1.175524 2.671646 27.938784 208 208 208 0
1.279243 2.665090 27.870225 208 208 208 0
1.387043 2.667391 27.894283 208 208 208 0
1.495240 2.670072 27.922321 208 208 208 0
1.605178 2.675297 27.976966 208 208 208 0
1.712735 2.676149 27.985872 209 209 209 0
1.816783 2.671739 27.939759 209 209 209 0
1.920799 2.667776 27.898311 210 210 210 0
2.029934 2.670965 27.931664 210 210 210 0
2.140628 2.675785 27.982070 209 209 209 0
2.244581 2.672120 27.943743 210 210 210 0
2.351013 2.671606 27.938363 211 211 211 0
2.455468 2.668987 27.910978 210 210 210 0
2.564073 2.670910 27.931080 210 210 210 0
2.679546 2.679546 28.021392 210 210 210 0
2.791791 2.684415 28.072310 210 210 210 0
2.899984 2.685170 28.080209 210 210 210 0
3.009156 2.686746 28.096695 210 210 210 0
3.121602 2.691036 28.141554 210 210 210 0
3.238451 2.698709 28.221795 210 210 210 0
3.354442 2.705195 28.289620 211 211 211 0
3.465434 2.707370 28.312369 210 210 210 0
3.583741 2.714955 28.391686 210 210 210 0
3.710957 2.728645 28.534846 210 210 210 0
3.830908 2.736363 28.615559 208 208 208 0
3.934926 2.732588 28.576081 209 209 209 0
3.557174 2.403496 25.134601 209 209 209 0
4.191038 2.757262 28.834110 209 209 209 0
4.304547 2.759325 28.855686 208 208 208 0
4.412613 2.757883 28.840606 208 208 208 0
4.556114 2.778119 29.052220 208 208 208 0
4.687951 2.790447 29.181147 206 206 206 0
4.809010 2.795936 29.238548 206 206 206 0
4.936108 2.804607 29.329221 205 205 205 0
5.086811 2.826006 29.553006 204 204 204 0
5.216311 2.834951 29.646551 204 204 204 0
5.375165 2.859130 29.899403 203 203 203 0
5.539392 2.885100 30.170978 201 201 201 0
5.674010 2.894903 30.273499 200 200 200 0
5.839667 2.919834 30.534209 197 197 197 0
6.025297 2.953577 30.887081 195 195 195 0
6.234154 2.997190 31.343160 191 191 191 0
6.425628 3.030957 31.696278 182 182 182 0
6.533277 3.024665 31.630486 107 107 107 0
-10.713192 3.481787 35.010431 206 206 206 0
-10.579114 3.481734 35.009893 206 206 206 0
-10.444888 3.481629 35.008841 207 207 207 0
-5.795950 1.957074 19.678976 206 206 206 0
-5.719709 1.956743 19.675643 207 207 207 0
-5.600382 1.941466 19.522030 207 207 207 0
-5.522339 1.940281 19.510119 207 207 207 0
-5.458540 1.944137 19.548894 207 207 207 0
-5.393423 1.947625 19.583963 207 207 207 0
-5.370242 1.966567 19.774433 207 207 207 0
-5.353822 1.988562 19.995600 207 207 207 0
-5.269343 1.985549 19.965304 207 207 207 0
-5.212365 1.992963 20.039849 207 207 207 0
-5.142792 1.995710 20.067473 207 207 207 0
-5.077572 2.000256 20.113179 207 207 207 0
-5.022308 2.008923 20.200332 207 207 207 0
-4.998163 2.030504 20.417332 208 208 208 0
-4.919106 2.030107 20.413345 208 208 208 0
-4.850993 2.034287 20.455378 208 208 208 0
-4.762567 2.029947 20.411732 208 208 208 0
-4.714136 2.042792 20.540896 207 207 207 0
-4.672675 2.059145 20.705329 208 208 208 0
-4.635177 2.077838 20.893291 208 208 208 0
-4.542564 2.072047 20.835060 207 207 207 0
-4.436399 2.059757 20.711480 207 207 207 0
-4.345242 2.054114 20.654745 208 208 208 0
-4.279197 2.060354 20.717489 207 207 207 0
-4.246528 2.083203 20.947236 208 208 208 0
-4.167696 2.083848 20.953725 208 208 208 0
-4.079303 2.079645 20.911461 208 208 208 0
-3.979645 2.069415 20.808602 208 208 208 0
-3.883596 2.060684 20.720802 208 208 208 0
-3.811462 2.064542 20.759598 208 208 208 0
-3.789616 2.096384 21.079774 208 208 208 0
-3.719540 2.102349 21.139754 208 208 208 0
-3.623424 2.093534 21.051123 208 208 208 0
-3.532766 2.087544 20.990888 209 209 209 0
-3.454076 2.088511 21.000614 208 208 208 0
-3.396544 2.102623 21.142511 209 209 209 0
-3.335525 2.115211 21.269091 208 208 208 0
-3.262960 2.120924 21.326534 208 208 208 0
-3.173142 2.115428 21.271270 209 209 209 0
-3.083829 2.109988 21.216574 209 209 209 0
-3.016473 2.119684 21.314064 209 209 209 0
-2.968019 2.143569 21.554238 209 209 209 0
-2.906063 2.158789 21.707284 209 209 209 0
-4.551436 3.480510 34.997585 204 204 204 0
-4.333822 3.414526 34.334101 118 118 118 0
-3.027403 3.422281 34.412079 72 72 72 0
-2.826703 3.340649 33.591240 101 101 101 0
-2.609420 3.230710 32.485772 128 128 128 0
-2.426347 3.154251 31.716953 145 145 145 0
-2.289977 3.133652 31.509828 153 153 153 0
-2.141328 3.093029 31.101344 163 163 163 0
-2.000492 3.059576 30.764969 166 166 166 0
-1.872608 3.042988 30.598172 175 175 175 0
-1.747013 3.028156 30.449031 176 176 176 0
-1.621129 3.010668 30.273185 180 180 180 0
-1.491196 2.982392 29.988858 185 185 185 0
-1.361217 2.949305 29.656154 184 184 184 0
-1.237013 2.923850 29.400199 188 188 188 0
-1.115352 2.899916 29.159532 191 191 191 0
-1.000080 2.889119 29.050971 193 193 193 0
-0.886220 2.880216 28.961446 192 192 192 0
-0.776798 2.885249 29.012053 195 195 195 0
-0.663573 2.875481 28.913838 196 196 196 0
-0.548500 2.852201 28.679746 196 196 196 0
-0.435328 2.829634 28.452834 198 198 198 0
-0.325009 2.816742 28.323196 201 201 201 0
-0.216962 2.820509 28.361079 200 200 200 0
-0.108898 2.831340 28.469982 201 201 201 0
0.000000 2.819558 28.351517 201 201 201 0
0.107773 2.802105 28.176020 204 204 204 0
0.214671 2.790722 28.061558 203 203 203 0
0.321600 2.787197 28.026112 205 205 205 0
0.430234 2.796523 28.119885 203 203 203 0
0.537540 2.795207 28.106660 205 205 205 0
0.642787 2.785412 28.008168 205 205 205 0
0.747885 2.777860 27.932226 206 206 206 0
0.852929 2.772020 27.873508 206 206 206 0
0.961378 2.777314 27.926733 206 206 206 0
