ply
    format ascii 1.0
    element vertex 25434
    property float x
    property float y
    property float z
    property uchar red
    property uchar green
    property uchar blue
    property uchar alpha
    end_header
-5.146080 -3.460295 23.196212 204 204 204 0
-5.132356 -3.511612 23.540218 204 204 204 0
-5.021380 -3.497032 23.442482 203 203 203 0
-4.906664 -3.479271 23.323417 204 204 204 0
-4.781765 -3.453497 23.150644 204 204 204 0
-4.679795 -3.443623 23.084451 204 204 204 0
-4.628227 -3.471170 23.269116 204 204 204 0
-4.586860 -3.507599 23.513315 204 204 204 0
-4.487427 -3.500193 23.463671 204 204 204 0
-4.365653 -3.474704 23.292802 205 205 205 0
-4.266160 -3.466255 23.236166 204 204 204 0
-4.191482 -3.478038 23.315154 205 205 205 0
-4.133499 -3.504488 23.492465 205 205 205 0
-4.051680 -3.511456 23.539172 205 205 205 0
-3.953683 -3.504400 23.491875 205 205 205 0
-3.843624 -3.486077 23.369044 205 205 205 0
-3.771113 -3.501748 23.474092 205 205 205 0
-3.699896 -3.519414 23.592516 205 205 205 0
-3.625130 -3.534502 23.693662 205 205 205 0
-3.533514 -3.533514 23.687042 206 206 206 0
-3.430745 -3.521028 23.603336 205 205 205 0
-3.324908 -3.504633 23.493433 206 206 206 0
-3.231124 -3.500384 23.464953 206 206 206 0
-3.157658 -3.518534 23.586617 205 205 205 0
-3.082642 -3.535972 23.703513 206 206 206 0
-2.978614 -3.520180 23.597654 206 206 206 0
-2.874176 -3.502902 23.481832 206 206 206 0
-2.778108 -3.495039 23.429121 206 206 206 0
-2.690085 -3.497111 23.443009 206 206 206 0
-2.606200 -3.504889 23.495151 207 207 207 0
-2.523834 -3.515341 23.565215 206 206 206 0
-2.430952 -3.511376 23.538633 207 207 207 0
-2.338633 -3.507950 23.515669 207 207 207 0
-2.251093 -3.511706 23.540845 206 206 206 0
-2.163150 -3.515119 23.563728 206 206 206 0
-2.073138 -3.515320 23.565078 207 207 207 0
-1.980477 -3.510845 23.535077 206 206 206 0
-1.894216 -3.517829 23.581894 207 207 207 0
-1.803524 -3.516872 23.575477 207 207 207 0
-1.715196 -3.520666 23.600910 207 207 207 0
-1.622927 -3.516342 23.571925 207 207 207 0
-1.535359 -3.522294 23.611827 207 207 207 0
-1.449376 -3.532854 23.682615 207 207 207 0
-1.358428 -3.531914 23.676312 208 208 208 0
-1.263885 -3.520823 23.601967 207 207 207 0
-1.170031 -3.510093 23.530037 207 207 207 0
-1.079907 -3.509698 23.527387 208 208 208 0
-0.992110 -3.517483 23.579571 208 208 208 0
-0.902147 -3.518374 23.585550 207 207 207 0
-0.811229 -3.515326 23.565113 208 208 208 0
-0.719132 -3.505769 23.501050 209 209 209 0
-0.627558 -3.496392 23.438192 209 209 209 0
-0.536641 -3.488168 23.383057 208 208 208 0
-0.449070 -3.502748 23.480800 209 209 209 0
-0.360358 -3.513491 23.552813 209 209 209 0
-0.269394 -3.502120 23.476585 209 209 209 0
-0.179205 -3.494491 23.425450 209 209 209 0
-0.089615 -3.494992 23.428803 209 209 209 0
0.000000 -3.499273 23.457501 208 208 208 0
0.089797 -3.502082 23.476334 208 208 208 0
0.179848 -3.507043 23.509589 209 209 209 0
0.269242 -3.500140 23.463318 209 209 209 0
0.358539 -3.495754 23.433914 209 209 209 0
0.448317 -3.496874 23.441419 210 210 210 0
0.540051 -3.510330 23.531624 209 209 209 0
0.631059 -3.515898 23.568949 209 209 209 0
0.720241 -3.511173 23.537272 210 210 210 0
0.806708 -3.495735 23.433787 210 210 210 0
0.893769 -3.485701 23.366521 209 209 209 0
0.985907 -3.495487 23.432122 210 210 210 0
1.080376 -3.511221 23.537594 210 210 210 0
1.168094 -3.504282 23.491082 210 210 210 0
1.253435 -3.491712 23.406816 211 211 211 0
1.338488 -3.480068 23.328760 210 210 210 0
1.426247 -3.476478 23.304694 210 210 210 0
1.518940 -3.484627 23.359320 210 210 210 0
1.611679 -3.491971 23.408556 210 210 210 0
1.699079 -3.487583 23.379140 210 210 210 0
1.784169 -3.479129 23.322470 210 210 210 0
1.872018 -3.476605 23.305546 210 210 210 0
1.964215 -3.482018 23.341832 210 210 210 0
2.053172 -3.481465 23.338128 210 210 210 0
2.141941 -3.480655 23.332694 210 210 210 0
2.230064 -3.478899 23.320928 211 211 211 0
2.318238 -3.477357 23.310586 210 210 210 0
2.407473 -3.477462 23.311290 211 211 211 0
2.497663 -3.478888 23.320854 211 211 211 0
2.589132 -3.481937 23.341289 210 210 210 0
2.678533 -3.482092 23.342333 211 211 211 0
2.766487 -3.480420 23.331118 211 211 211 0
2.852267 -3.476200 23.302831 211 211 211 0
2.936695 -3.470639 23.265554 211 211 211 0
3.024612 -3.469408 23.257302 211 211 211 0
3.116855 -3.473067 23.281828 212 212 212 0
3.201707 -3.468516 23.251325 211 211 211 0
3.284892 -3.462453 23.210682 212 212 212 0
3.370285 -3.458977 23.187377 212 212 212 0
3.453969 -3.453969 23.153804 211 211 211 0
3.542285 -3.453728 23.152188 211 211 211 0
3.634651 -3.457351 23.176480 211 211 211 0
3.723405 -3.457447 23.177123 211 211 211 0
3.808745 -3.454443 23.156985 212 212 212 0
3.893943 -3.451450 23.136917 211 211 211 0
3.981177 -3.450354 23.129571 212 212 212 0
4.069819 -3.450499 23.130544 211 211 211 0
4.157747 -3.450046 23.127505 212 212 212 0
4.247000 -3.450687 23.131806 211 211 211 0
4.331597 -3.447597 23.111094 212 212 212 0
4.419670 -3.447343 23.109388 211 211 211 0
4.505555 -3.445425 23.096529 212 212 212 0
4.598050 -3.448537 23.117395 212 212 212 0
4.693540 -3.453737 23.152253 213 213 213 0
4.772748 -3.446985 23.106989 211 211 211 0
4.852779 -3.441062 23.067282 211 211 211 0
4.927579 -3.431707 23.004572 213 213 213 0
5.017993 -3.433364 23.015677 213 213 213 0
5.124125 -3.445532 23.097251 212 212 212 0
5.202049 -3.438642 23.051063 212 212 212 0
5.276343 -3.429623 22.990600 213 213 213 0
5.354606 -3.423437 22.949131 213 213 213 0
5.432432 -3.417175 22.907157 213 213 213 0
5.530123 -3.423409 22.948947 213 213 213 0
5.625861 -3.428259 22.981457 212 212 212 0
5.706130 -3.423678 22.950750 212 212 212 0
5.785215 -3.418536 22.916279 213 213 213 0
5.863797 -3.413255 22.880877 213 213 213 0
5.955117 -3.415434 22.895488 213 213 213 0
6.047899 -3.418378 22.915219 213 213 213 0
6.125540 -3.412801 22.877833 212 212 212 0
6.210479 -3.411390 22.868374 212 212 212 0
6.292588 -3.408485 22.848903 213 213 213 0
6.384691 -3.410999 22.865758 213 213 213 0
6.473333 -3.411621 22.869926 213 213 213 0
6.564956 -3.413777 22.884378 213 213 213 0
6.652557 -3.413812 22.884614 213 213 213 0
6.732573 -3.410004 22.859087 213 213 213 0
6.820959 -3.410479 22.862271 214 214 214 0
6.879653 -3.396284 22.767114 213 213 213 0
-6.840561 -3.332581 22.927975 146 146 146 0
-6.652420 -3.283013 22.586946 200 200 200 0
-6.554349 -3.277174 22.546779 202 202 202 0
-6.440198 -3.263034 22.449493 202 202 202 0
-6.390059 -3.281382 22.575725 202 202 202 0
-6.306146 -3.282652 22.584462 203 203 203 0
-6.231288 -3.288735 22.626318 202 202 202 0
-6.138249 -3.285260 22.602407 202 202 202 0
-6.060076 -3.289756 22.633337 202 202 202 0
-5.978021 -3.292244 22.650455 202 202 202 0
-5.950322 -3.325180 22.877053 203 203 203 0
-5.911485 -3.352783 23.066960 202 202 202 0
-5.817680 -3.349574 23.044882 203 203 203 0
-5.709145 -3.337654 22.962878 204 204 204 0
-5.649026 -3.354109 23.076085 203 203 203 0
-5.606659 -3.381795 23.266560 203 203 203 0
-5.565457 -3.411087 23.468089 203 203 203 0
-5.441416 -3.389735 23.321189 203 203 203 0
-5.316410 -3.367059 23.165183 204 204 204 0
-5.200133 -3.349238 23.042576 204 204 204 0
-5.141704 -3.368703 23.176489 204 204 204 0
-5.120538 -3.413692 23.486013 204 204 204 0
-5.017015 -3.404403 23.422108 204 204 204 0
-4.900267 -3.385639 23.293011 204 204 204 0
-4.774317 -3.359705 23.114583 204 204 204 0
-4.674665 -3.351647 23.059144 204 204 204 0
-4.618866 -3.375325 23.222052 204 204 204 0
-4.579482 -3.412163 23.475493 204 204 204 0
-4.483110 -3.407164 23.441100 205 205 205 0
-4.361419 -3.382325 23.270211 205 205 205 0
-4.263113 -3.374964 23.219570 205 205 205 0
-4.191523 -3.388891 23.315384 204 204 204 0
-4.131447 -3.412934 23.480800 205 205 205 0
-4.054489 -3.423791 23.555494 205 205 205 0
-3.952845 -3.413821 23.486901 205 205 205 0
-3.844726 -3.397665 23.375747 205 205 205 0
-3.766174 -3.407491 23.443351 205 205 205 0
-3.700154 -3.429411 23.594159 205 205 205 0
-3.621131 -3.440074 23.667520 205 205 205 0
-3.531016 -3.440477 23.670292 206 206 206 0
-3.426472 -3.426472 23.573941 205 205 205 0
-3.321429 -3.411197 23.468847 205 205 205 0
-3.226828 -3.406096 23.433751 206 206 206 0
-3.155055 -3.425488 23.567171 206 206 206 0
-3.080053 -3.442412 23.683607 206 206 206 0
-2.978281 -3.429536 23.595020 207 207 207 0
-2.874739 -3.413753 23.486430 206 206 206 0
-2.778494 -3.405896 23.432375 206 206 206 0
-2.689006 -3.406074 23.433601 206 206 206 0
-2.604776 -3.413155 23.482319 206 206 206 0
-2.522617 -3.423551 23.553843 207 207 207 0
-2.430219 -3.420308 23.531532 207 207 207 0
-2.335834 -3.413911 23.487518 207 207 207 0
-2.250242 -3.420368 23.531943 206 206 206 0
-2.162807 -3.424444 23.559986 207 207 207 0
-2.070111 -3.420184 23.530677 207 207 207 0
-1.979107 -3.418458 23.518805 206 206 206 0
-1.893303 -3.425978 23.570537 207 207 207 0
-1.803703 -3.427035 23.577813 207 207 207 0
-1.713009 -3.426019 23.570819 208 208 208 0
-1.621137 -3.422401 23.545929 207 207 207 0
-1.534026 -3.429000 23.591329 208 208 208 0
-1.448619 -3.440470 23.670244 208 208 208 0
-1.358333 -3.441109 23.674644 208 208 208 0
-1.263494 -3.429483 23.594654 208 208 208 0
-1.169938 -3.419820 23.528170 208 208 208 0
-1.079045 -3.416976 23.508609 208 208 208 0
-0.991321 -3.424562 23.560796 208 208 208 0
-0.901537 -3.425842 23.569604 208 208 208 0
-0.810574 -3.422425 23.546093 208 208 208 0
-0.718489 -3.412822 23.480026 208 208 208 0
-0.627082 -3.404161 23.420442 209 209 209 0
-0.536525 -3.397990 23.377981 208 208 208 0
-0.448743 -3.410445 23.463677 209 209 209 0
-0.359904 -3.419083 23.523106 209 209 209 0
-0.269314 -3.411310 23.469622 209 209 209 0
-0.179096 -3.402820 23.411214 209 209 209 0
-0.089489 -3.400598 23.395929 210 210 210 0
0.000000 -3.404220 23.420845 209 209 209 0
0.089688 -3.408145 23.447847 209 209 209 0
0.179697 -3.414234 23.489743 209 209 209 0
0.269212 -3.410015 23.460718 209 209 209 0
0.357962 -3.400639 23.396207 209 209 209 0
0.447237 -3.399001 23.384941 209 209 209 0
0.538943 -3.413307 23.483363 210 210 210 0
0.630441 -3.422394 23.545883 210 210 210 0
0.719873 -3.419399 23.525276 209 209 209 0
0.806255 -3.404187 23.420616 209 209 209 0
0.893782 -3.396371 23.366844 210 210 210 0
0.985256 -3.403612 23.416664 210 210 210 0
1.079853 -3.419534 23.526203 209 209 209 0
1.166619 -3.410118 23.461423 210 210 210 0
1.252755 -3.400335 23.394114 209 209 209 0
1.337857 -3.389239 23.317776 210 210 210 0
1.424698 -3.383658 23.279383 211 211 211 0
1.515069 -3.386624 23.299789 210 210 210 0
1.609942 -3.398766 23.383321 210 210 210 0
1.697530 -3.395060 23.357829 210 210 210 0
1.783389 -3.388439 23.312275 210 210 210 0
1.872109 -3.387625 23.306674 211 211 211 0
1.960817 -3.386866 23.301450 210 210 210 0
2.050952 -3.388530 23.312898 210 210 210 0
2.139507 -3.387553 23.306181 210 210 210 0
2.228392 -3.387155 23.303443 211 211 211 0
2.314866 -3.383266 23.276684 210 210 210 0
2.403585 -3.382824 23.273642 210 210 210 0
2.492267 -3.382362 23.270465 211 211 211 0
2.586448 -3.389139 23.317088 211 211 211 0
2.678014 -3.392152 23.337817 211 211 211 0
2.765201 -3.389602 23.320272 212 212 212 0
2.848584 -3.382694 23.272747 211 211 211 0
2.933446 -3.377908 23.239821 211 211 211 0
3.023590 -3.379307 23.249445 211 211 211 0
3.114107 -3.381031 23.261307 211 211 211 0
3.198900 -3.376617 23.230936 211 211 211 0
3.283926 -3.372681 23.203857 211 211 211 0
3.368169 -3.368169 23.172815 211 211 211 0
3.451469 -3.362969 23.137044 211 211 211 0
3.537768 -3.360880 23.122668 211 211 211 0
3.629054 -3.363513 23.140785 212 212 212 0
3.719855 -3.365583 23.155026 211 211 211 0
3.803839 -3.361532 23.127155 211 211 211 0
3.891968 -3.361245 23.125178 211 211 211 0
3.978965 -3.360015 23.116717 212 212 212 0
4.065923 -3.358806 23.108401 212 212 212 0
4.151502 -3.356534 23.092768 212 212 212 0
4.242638 -3.358755 23.108048 212 212 212 0
4.327038 -3.355662 23.086773 212 212 212 0
4.416381 -3.356450 23.092191 212 212 212 0
4.499729 -3.352740 23.066664 212 212 212 0
4.592937 -3.356377 23.091690 212 212 212 0
4.688353 -3.361461 23.126665 212 212 212 0
4.772048 -3.358108 23.103597 212 212 212 0
4.847960 -3.349499 23.044371 212 212 212 0
4.923655 -3.341051 22.986250 211 211 211 0
5.013219 -3.342146 22.993782 213 213 213 0
5.118983 -3.353816 23.074071 212 212 212 0
5.198045 -3.347894 23.033324 213 213 213 0
5.271876 -3.338855 22.971135 212 212 212 0
5.348729 -3.331995 22.923945 213 213 213 0
5.427892 -3.326773 22.888013 212 212 212 0
5.522107 -3.330795 22.915685 213 213 213 0
5.616461 -3.334774 22.943061 213 213 213 0
5.703841 -3.334553 22.941544 213 213 213 0
5.780540 -3.328190 22.897764 212 212 212 0
5.861904 -3.324662 22.873491 213 213 213 0
5.949943 -3.324968 22.875599 213 213 213 0
6.042602 -3.327810 22.895150 213 213 213 0
6.121592 -3.323150 22.863088 213 213 213 0
6.205995 -3.321518 22.851863 213 213 213 0
6.287867 -3.318597 22.831762 213 213 213 0
6.377920 -3.320013 22.841507 213 213 213 0
6.466602 -3.320688 22.846148 213 213 213 0
6.561203 -3.324343 22.871295 213 213 213 0
6.648133 -3.324066 22.869394 213 213 213 0
6.725728 -3.319191 22.835848 214 214 214 0
6.809212 -3.317308 22.822899 213 213 213 0
6.877436 -3.308134 22.759778 213 213 213 0
-6.854087 -3.251298 22.973309 154 154 154 0
-6.634969 -3.188232 22.527695 201 201 201 0
-6.557808 -3.192617 22.558678 202 202 202 0
-6.424123 -3.169234 22.393456 201 201 201 0
-6.387155 -3.193578 22.565466 202 202 202 0
-6.318097 -3.202323 22.627263 202 202 202 0
-6.227680 -3.200336 22.613219 202 202 202 0
-6.143328 -3.201452 22.621108 202 202 202 0
-6.058568 -3.202386 22.627705 203 203 203 0
-5.971352 -3.202029 22.625184 202 202 202 0
-5.931782 -3.227587 22.805773 203 203 203 0
-5.896388 -3.256214 23.008051 202 202 202 0
-5.804714 -3.254158 22.993519 203 203 203 0
-5.705303 -3.247634 22.947421 203 203 203 0
-5.639079 -3.260092 23.035452 203 203 203 0
-5.601440 -3.289735 23.244903 203 203 203 0
-5.556820 -3.316167 23.431669 203 203 203 0
-5.450020 -3.305750 23.358062 203 203 203 0
-5.311053 -3.275150 23.141845 203 203 203 0
-5.190362 -3.254973 22.999278 204 204 204 0
-5.132409 -3.274123 23.134592 204 204 204 0
-5.115932 -3.320868 23.464888 203 203 203 0
-5.012594 -3.311893 23.401467 204 204 204 0
-4.898089 -3.295078 23.282657 204 204 204 0
-4.771668 -3.269476 23.101758 205 205 205 0
-4.669873 -3.260100 23.035507 204 204 204 0
-4.615435 -3.284059 23.204799 205 205 205 0
-4.575363 -3.319381 23.454381 204 204 204 0
-4.483851 -3.318050 23.444974 204 204 204 0
-4.358014 -3.290746 23.252044 205 205 205 0
-4.260997 -3.284518 23.208043 204 204 204 0
-4.186674 -3.295892 23.288409 205 205 205 0
-4.127525 -3.319966 23.458511 205 205 205 0
-4.049592 -3.329665 23.527044 205 205 205 0
-3.952811 -3.323955 23.486698 205 205 205 0
-3.841951 -3.305864 23.358872 206 206 206 0
-3.757108 -3.309833 23.386917 206 206 206 0
-3.694824 -3.334353 23.560171 205 205 205 0
-3.615416 -3.344260 23.630171 205 205 205 0
-3.527761 -3.346850 23.648472 206 206 206 0
-3.424780 -3.334654 23.562296 206 206 206 0
-3.315235 -3.315235 23.425083 205 205 205 0
-3.222187 -3.311692 23.400049 206 206 206 0
-3.150763 -3.330807 23.535112 206 206 206 0
-3.075416 -3.346776 23.647948 206 206 206 0
-2.974704 -3.335274 23.566679 206 206 206 0
-2.871427 -3.320088 23.459375 206 206 206 0
-2.775225 -3.312365 23.404807 206 206 206 0
-2.685229 -3.311783 23.400693 206 206 206 0
-2.602609 -3.320570 23.462782 206 206 206 0
-2.519239 -3.328994 23.522302 207 207 207 0
-2.428821 -3.328384 23.517995 207 207 207 0
-2.333411 -3.320624 23.463162 207 207 207 0
-2.245894 -3.323924 23.486478 206 206 206 0
-2.159061 -3.328553 23.519187 207 207 207 0
-2.069609 -3.329371 23.524969 207 207 207 0
-1.978041 -3.326706 23.506133 207 207 207 0
-1.888703 -3.327714 23.513261 207 207 207 0
-1.799376 -3.328845 23.521252 207 207 207 0
-1.712041 -3.333975 23.557502 207 207 207 0
-1.619281 -3.328523 23.518973 207 207 207 0
-1.532385 -3.335190 23.566087 207 207 207 0
-1.448150 -3.348847 23.662580 208 208 208 0
-1.356873 -3.346953 23.649196 207 207 207 0
-1.263033 -3.338017 23.586059 208 208 208 0
-1.169208 -3.327745 23.513480 207 207 207 0
-1.078418 -3.325122 23.494948 207 207 207 0
-0.990783 -3.332633 23.548014 208 208 208 0
-0.901398 -3.335171 23.565952 208 208 208 0
-0.810260 -3.331068 23.536960 208 208 208 0
-0.718401 -3.322604 23.477155 208 208 208 0
-0.626598 -3.312020 23.402365 208 208 208 0
-0.536194 -3.306532 23.363592 208 208 208 0
-0.448251 -3.317057 23.437957 209 209 209 0
-0.359515 -3.325518 23.497740 209 209 209 0
-0.268995 -3.317611 23.441869 209 209 209 0
-0.179065 -3.312704 23.407198 209 209 209 0
-0.089389 -3.307403 23.369742 209 209 209 0
0.000000 -3.310747 23.393371 209 209 209 0
0.089584 -3.314605 23.420633 209 209 209 0
0.179715 -3.324728 23.492159 210 210 210 0
0.268977 -3.317382 23.440252 209 209 209 0
0.357601 -3.307806 23.372590 209 209 209 0
0.446723 -3.305753 23.358085 210 210 210 0
0.538200 -3.318897 23.450960 209 209 209 0
0.630013 -3.330069 23.529899 210 210 210 0
0.719361 -3.327043 23.508518 210 210 210 0
0.805393 -3.311062 23.395598 210 210 210 0
0.892960 -3.303952 23.345359 209 209 209 0
0.983515 -3.308186 23.375274 209 209 209 0
1.078269 -3.324661 23.491689 210 210 210 0
1.166456 -3.319912 23.458134 210 210 210 0
1.251795 -3.308316 23.376194 210 210 210 0
1.336099 -3.295712 23.287134 210 210 210 0
1.423272 -3.291316 23.256073 210 210 210 0
1.513034 -3.293074 23.268494 211 211 211 0
1.608129 -3.305599 23.356997 210 210 210 0
1.696519 -3.303747 23.343908 211 211 211 0
1.782171 -3.297017 23.296356 210 210 210 0
1.867848 -3.290969 23.253626 211 211 211 0
1.959155 -3.294942 23.281695 211 211 211 0
2.050370 -3.298421 23.306277 210 210 210 0
2.138364 -3.296644 23.293723 211 211 211 0
2.227223 -3.296290 23.291217 211 211 211 0
2.313960 -3.292944 23.267576 211 211 211 0
2.400998 -3.290256 23.248588 210 210 210 0
2.489662 -3.289910 23.246142 211 211 211 0
2.583919 -3.296724 23.294284 211 211 211 0
2.674336 -3.298348 23.305764 211 211 211 0
2.763037 -3.297818 23.302016 211 211 211 0
2.846683 -3.291477 23.257212 210 210 210 0
2.932650 -3.288123 23.233513 211 211 211 0
3.021556 -3.288164 23.233801 211 211 211 0
3.111733 -3.289547 23.243573 211 211 211 0
3.197904 -3.286734 23.223702 211 211 211 0
3.280613 -3.280613 23.180451 212 212 212 0
3.365163 -3.276606 23.152139 212 212 212 0
3.448375 -3.271535 23.116307 211 211 211 0
3.532910 -3.267942 23.090917 211 211 211 0
3.627272 -3.273392 23.129424 211 211 211 0
3.718398 -3.275732 23.145959 212 212 212 0
3.802015 -3.271502 23.116069 211 211 211 0
3.887771 -3.269262 23.100245 211 211 211 0
3.974686 -3.268075 23.091859 212 212 212 0
4.061218 -3.266632 23.081657 211 211 211 0
4.148825 -3.266096 23.077875 212 212 212 0
4.238915 -3.267497 23.087771 212 212 212 0
4.324009 -3.265068 23.070607 212 212 212 0
4.408393 -3.262211 23.050420 212 212 212 0
4.494470 -3.260694 23.039704 211 211 211 0
4.588382 -3.264810 23.068787 211 211 211 0
4.683730 -3.269774 23.103861 212 212 212 0
4.769345 -3.267885 23.090511 212 212 212 0
4.844020 -3.258704 23.025643 212 212 212 0
4.919950 -3.250681 22.968953 212 212 212 0
5.011402 -3.253015 22.985446 212 212 212 0
5.111588 -3.260840 23.040738 212 212 212 0
5.193323 -3.256830 23.012398 212 212 212 0
5.270306 -3.250022 22.964296 213 213 213 0
5.343627 -3.241217 22.902078 213 213 213 0
5.422804 -3.236190 22.866558 213 213 213 0
5.513156 -3.237885 22.878537 212 212 212 0
5.610281 -3.243444 22.917814 212 212 212 0
5.699235 -3.244180 22.923016 213 213 213 0
5.775728 -3.237908 22.878699 213 213 213 0
5.858157 -3.235102 22.858872 213 213 213 0
5.946060 -3.235356 22.860669 213 213 213 0
6.038211 -3.237881 22.878511 214 214 214 0
6.117322 -3.233441 22.847140 213 213 213 0
6.204775 -3.233474 22.847373 213 213 213 0
6.283480 -3.229011 22.815833 213 213 213 0
6.371007 -3.229140 22.816748 214 214 214 0
6.453488 -3.226744 22.799816 213 213 213 0
6.551001 -3.231827 22.835732 213 213 213 0
6.641227 -3.233229 22.845638 213 213 213 0
6.722346 -3.230218 22.824366 213 213 213 0
6.805186 -3.228101 22.809404 213 213 213 0
6.873682 -3.219320 22.747356 213 213 213 0
-6.847406 -3.160341 22.950916 161 161 161 0
-6.619198 -3.094690 22.474145 201 201 201 0
-6.548752 -3.102040 22.527525 201 201 201 0
-6.409086 -3.076361 22.341040 202 202 202 0
-6.377921 -3.102773 22.532843 202 202 202 0
-6.313282 -3.113399 22.610016 202 202 202 0
-6.215815 -3.107908 22.570135 202 202 202 0
-6.133973 -3.110184 22.586664 203 203 203 0
-6.048246 -3.110527 22.589155 203 203 203 0
-5.966211 -3.112806 22.605707 203 203 203 0
-5.926463 -3.137539 22.785326 203 203 203 0
-5.892100 -3.165904 22.991317 203 203 203 0
-5.807123 -3.167522 23.003061 203 203 203 0
-5.698346 -3.156007 22.919442 203 203 203 0
-5.637998 -3.171374 23.031037 203 203 203 0
-5.603381 -3.201932 23.252955 203 203 203 0
-5.553325 -3.224511 23.416930 203 203 203 0
-5.440248 -3.210638 23.316179 203 203 203 0
-5.305658 -3.183395 23.118335 203 203 203 0
-5.192064 -3.168039 23.006820 203 203 203 0
-5.131990 -3.185373 23.132704 204 204 204 0
-5.110829 -3.227892 23.441483 204 204 204 0
-5.009746 -3.220551 23.388169 204 204 204 0
-4.894126 -3.203428 23.263819 204 204 204 0
-4.768366 -3.178910 23.085770 204 204 204 0
-4.665656 -3.169125 23.014706 204 204 204 0
-4.598652 -3.183682 23.120421 205 205 205 0
-4.567979 -3.224456 23.416526 204 204 204 0
-4.475383 -3.222276 23.400696 204 204 204 0
-4.355441 -3.199916 23.238313 204 204 204 0
-4.256854 -3.192641 23.185482 205 205 205 0
-4.180641 -3.202193 23.254850 205 205 205 0
-4.123339 -3.226961 23.434722 205 205 205 0
-4.040044 -3.232036 23.471572 205 205 205 0
-3.950845 -3.232510 23.475016 205 205 205 0
-3.841544 -3.216176 23.356398 205 205 205 0
-3.755495 -3.218995 23.376872 206 206 206 0
-3.689685 -3.239724 23.527404 206 206 206 0
-3.613232 -3.251908 23.615892 205 205 205 0
-3.524528 -3.253411 23.626802 205 205 205 0
-3.425179 -3.244907 23.565046 205 205 205 0
-3.314975 -3.225381 23.423247 206 206 206 0
-3.221590 -3.221590 23.395717 206 206 206 0
-3.147305 -3.237228 23.509281 206 206 206 0
-3.074132 -3.254963 23.638076 206 206 206 0
-2.973881 -3.244233 23.560156 205 205 205 0
-2.872827 -3.231931 23.470811 206 206 206 0
-2.773228 -3.220523 23.387969 206 206 206 0
-2.684030 -3.220836 23.390238 207 207 207 0
-2.599818 -3.227360 23.437621 207 207 207 0
-2.518687 -3.238312 23.517151 206 206 206 0
-2.427219 -3.236292 23.502480 207 207 207 0
-2.331637 -3.228421 23.445321 207 207 207 0
-2.242978 -3.229888 23.455980 207 207 207 0
-2.157223 -3.235834 23.499156 207 207 207 0
-2.067134 -3.235514 23.496833 208 208 208 0
-1.975028 -3.231865 23.470332 208 208 208 0
-1.887407 -3.235555 23.497129 207 207 207 0
-1.799810 -3.239659 23.526932 207 207 207 0
-1.709689 -3.239410 23.525126 207 207 207 0
-1.618239 -3.236478 23.503833 208 208 208 0
-1.532648 -3.245607 23.570129 208 208 208 0
-1.446943 -3.255622 23.642864 208 208 208 0
-1.355779 -3.253870 23.630136 208 208 208 0
-1.261572 -3.244043 23.558770 208 208 208 0
-1.168401 -3.235571 23.497247 208 208 208 0
-1.077395 -3.232185 23.472657 208 208 208 0
-0.989795 -3.239328 23.524530 208 208 208 0
-0.899531 -3.238313 23.517158 208 208 208 0
-0.809045 -3.236180 23.501669 208 208 208 0
-0.717851 -3.230328 23.459171 209 209 209 0
-0.626173 -3.220320 23.386496 208 208 208 0
-0.535583 -3.213497 23.336945 208 208 208 0
-0.448292 -3.227704 23.440115 208 208 208 0
-0.359421 -3.234789 23.491572 208 208 208 0
-0.268854 -3.226249 23.429553 209 209 209 0
-0.178910 -3.220381 23.386936 209 209 209 0
-0.089198 -3.211116 23.319649 209 209 209 0
0.000000 -3.214592 23.344896 210 210 210 0
0.089487 -3.221521 23.395212 209 209 209 0
0.179268 -3.226832 23.433782 209 209 209 0
0.268495 -3.221942 23.398272 209 209 209 0
0.357471 -3.217235 23.364086 209 209 209 0
0.446241 -3.212932 23.332840 209 209 209 0
0.537361 -3.224165 23.414415 210 210 210 0
0.629173 -3.235745 23.498509 209 209 209 0
0.719153 -3.236189 23.501733 210 210 210 0
0.805400 -3.221599 23.395782 210 210 210 0
0.892501 -3.213003 23.333356 210 210 210 0
0.984086 -3.220645 23.388856 209 209 209 0
1.078922 -3.236767 23.505931 210 210 210 0
1.165407 -3.227280 23.437036 209 209 209 0
1.250215 -3.214839 23.346689 210 210 210 0
1.334866 -3.203678 23.265636 210 210 210 0
1.421757 -3.198952 23.231317 211 211 211 0
1.509523 -3.196637 23.214500 210 210 210 0
1.607007 -3.214014 23.340697 210 210 210 0
1.695805 -3.213104 23.334091 211 211 211 0
1.782318 -3.208172 23.298271 210 210 210 0
1.869073 -3.204126 23.268888 210 210 210 0
1.956237 -3.201116 23.247029 211 211 211 0
2.046026 -3.202475 23.256898 211 211 211 0
2.137146 -3.205718 23.280453 210 210 210 0
2.224485 -3.203258 23.262585 210 210 210 0
2.311278 -3.200231 23.240603 211 211 211 0
2.398821 -3.198428 23.227506 211 211 211 0
2.488325 -3.199275 23.233662 211 211 211 0
2.579997 -3.202755 23.258930 211 211 211 0
2.673218 -3.207862 23.296021 211 211 211 0
2.761018 -3.206344 23.284993 210 210 210 0
2.845597 -3.201297 23.248343 211 211 211 0
2.927578 -3.193721 23.193327 211 211 211 0
3.016086 -3.193503 23.191740 212 212 212 0
3.107549 -3.196336 23.212315 211 211 211 0
3.194894 -3.194894 23.201843 211 211 211 0
3.277827 -3.189237 23.160765 212 212 212 0
3.361916 -3.184973 23.129798 211 211 211 0
3.444817 -3.179831 23.092456 212 212 212 0
3.532758 -3.179482 23.089924 211 211 211 0
3.624114 -3.182149 23.109289 212 212 212 0
3.713799 -3.183256 23.117330 212 212 212 0
3.797693 -3.179464 23.089788 212 212 212 0
3.884620 -3.178325 23.081520 212 212 212 0
3.970157 -3.176126 23.065546 212 212 212 0
4.058094 -3.175900 23.063904 212 212 212 0
4.144141 -3.174236 23.051822 212 212 212 0
4.236860 -3.177645 23.076582 212 212 212 0
4.319433 -3.173461 23.046194 212 212 212 0
4.405084 -3.171660 23.033119 212 212 212 0
4.487111 -3.167373 23.001980 212 212 212 0
4.581933 -3.172107 23.036364 212 212 212 0
4.677457 -3.177140 23.072915 212 212 212 0
4.766524 -3.177683 23.076853 213 213 213 0
4.841379 -3.168903 23.013091 212 212 212 0
4.917887 -3.161499 22.959324 213 213 213 0
5.005527 -3.161385 22.958500 212 212 212 0
5.108807 -3.170984 23.028204 212 212 212 0
5.189873 -3.166702 22.997109 212 212 212 0
5.266677 -3.160006 22.948483 212 212 212 0
5.339149 -3.150973 22.882883 213 213 213 0
5.416992 -3.145350 22.842051 213 213 213 0
5.503316 -3.144752 22.837705 213 213 213 0
5.603660 -3.152059 22.890769 213 213 213 0
5.694826 -3.154058 22.905285 213 213 213 0
5.771292 -3.147978 22.861130 213 213 213 0
5.855607 -3.146296 22.848919 213 213 213 0
5.940000 -3.144706 22.837372 212 212 212 0
6.028414 -3.145260 22.841392 213 213 213 0
6.112973 -3.143815 22.830899 213 213 213 0
6.197120 -3.142202 22.819184 213 213 213 0
6.278370 -3.139185 22.797277 213 213 213 0
6.362384 -3.137614 22.785866 213 213 213 0
6.446149 -3.135965 22.773890 213 213 213 0
6.543816 -3.141032 22.810688 213 213 213 0
6.634765 -3.142784 22.823410 213 213 213 0
6.716392 -3.140131 22.804150 213 213 213 0
6.794729 -3.136029 22.774356 214 214 214 0
6.871271 -3.131212 22.739375 213 213 213 0
-6.845494 -3.071696 22.944507 166 166 166 0
-6.624999 -3.011363 22.493841 201 201 201 0
-6.534627 -3.009368 22.478938 202 202 202 0
-6.404292 -2.988670 22.324330 203 203 203 0
-6.364189 -3.010090 22.484329 202 202 202 0
-6.289759 -3.015638 22.525773 202 202 202 0
-6.227364 -3.027191 22.612071 202 202 202 0
-6.116614 -3.015232 22.522743 203 203 203 0
-6.047098 -3.023549 22.584867 202 202 202 0
-5.963683 -3.025057 22.596130 203 203 203 0
-5.910033 -3.041929 22.722158 203 203 203 0
-5.881443 -3.072396 22.949734 203 203 203 0
-5.804641 -3.078219 22.993230 203 203 203 0
-5.702925 -3.070806 22.937860 203 203 203 0
-5.626374 -3.076923 22.983553 204 204 204 0
-5.583132 -3.101740 23.168927 203 203 203 0
-5.553905 -3.135269 23.419378 203 203 203 0
-5.430855 -3.116064 23.275923 203 203 203 0
-5.301315 -3.092433 23.099410 203 203 203 0
-5.187464 -3.077309 22.986437 204 204 204 0
-5.127951 -3.094453 23.114497 204 204 204 0
-5.098261 -3.130511 23.383839 204 204 204 0
-5.001965 -3.126228 23.351843 204 204 204 0
-4.888778 -3.111041 23.238399 204 204 204 0
-4.764388 -3.088029 23.066510 204 204 204 0
-4.664857 -3.080566 23.010765 204 204 204 0
-4.591372 -3.090346 23.083819 205 205 205 0
-4.563385 -3.131735 23.392975 204 204 204 0
-4.471620 -3.130134 23.381018 205 205 205 0
-4.354122 -3.110087 23.231279 205 205 205 0
-4.251962 -3.100389 23.158832 204 204 204 0
-4.177953 -3.111242 23.239902 204 204 204 0
-4.118928 -3.133967 23.409652 205 205 205 0
-4.035412 -3.138654 23.444659 205 205 205 0
-3.942229 -3.135864 23.423820 205 205 205 0
-3.838004 -3.123957 23.334878 206 206 206 0
-3.753536 -3.127946 23.364678 206 206 206 0
-3.685152 -3.145862 23.498501 205 205 205 0
-3.609633 -3.158429 23.592373 206 206 206 0
-3.519004 -3.158081 23.589771 205 205 205 0
-3.417780 -3.147955 23.514140 206 206 206 0
-3.312690 -3.133626 23.407102 206 206 206 0
-3.217624 -3.128245 23.366913 206 206 206 0
-3.146717 -3.146717 23.504886 205 205 205 0
-3.072894 -3.163274 23.628561 207 207 207 0
-2.970889 -3.150943 23.536454 206 206 206 0
-2.869720 -3.138757 23.445427 206 206 206 0
-2.771700 -3.129339 23.375079 206 206 206 0
-2.681561 -3.128487 23.368719 207 207 207 0
-2.595407 -3.132388 23.397857 207 207 207 0
-2.513833 -3.142291 23.471829 206 206 206 0
-2.425849 -3.144620 23.489222 206 206 206 0
-2.330618 -3.137371 23.435074 207 207 207 0
-2.245510 -3.143713 23.482453 207 207 207 0
-2.156390 -3.144736 23.490088 206 206 206 0
-2.065276 -3.142812 23.475720 207 207 207 0
-1.974411 -3.141108 23.462995 207 207 207 0
-1.885664 -3.142773 23.475428 207 207 207 0
-1.797925 -3.146369 23.502292 207 207 207 0
-1.708214 -3.146710 23.504839 207 207 207 0
-1.616517 -3.143227 23.478817 208 208 208 0
-1.529487 -3.148944 23.521520 208 208 208 0
-1.444883 -3.160682 23.609200 208 208 208 0
-1.355585 -3.163031 23.626750 208 208 208 0
-1.260767 -3.151918 23.543735 207 207 207 0
-1.167870 -3.144266 23.486584 208 208 208 0
-1.076729 -3.140461 23.458156 208 208 208 0
-0.989370 -3.147994 23.514427 208 208 208 0
-0.899157 -3.147049 23.507369 208 208 208 0
-0.808992 -3.146081 23.500140 208 208 208 0
-0.717597 -3.139488 23.450891 209 209 209 0
-0.625729 -3.128647 23.369909 208 208 208 0
-0.534935 -3.120457 23.308733 208 208 208 0
-0.447347 -3.131431 23.390711 209 209 209 0
-0.359115 -3.142255 23.471560 209 209 209 0
-0.268779 -3.135753 23.422989 209 209 209 0
-0.178774 -3.128552 23.369204 210 210 210 0
-0.089110 -3.118847 23.296712 209 209 209 0
0.000000 -3.121026 23.312987 209 209 209 0
0.089376 -3.128168 23.366337 209 209 209 0
0.179139 -3.134930 23.416845 209 209 209 0
0.268371 -3.130991 23.387418 210 210 210 0
0.357089 -3.124526 23.339131 209 209 209 0
0.445932 -3.121527 23.316726 209 209 209 0
0.536953 -3.132225 23.396637 210 210 210 0
0.628803 -3.144016 23.484717 210 210 210 0
0.718020 -3.141339 23.464720 210 210 210 0
0.804813 -3.129828 23.378732 210 210 210 0
0.891958 -3.121854 23.319171 209 209 209 0
0.982853 -3.127259 23.359545 210 210 210 0
1.107848 -3.231223 24.136118 210 210 210 0
1.162880 -3.130832 23.386234 210 210 210 0
1.250211 -3.125528 23.346618 209 209 209 0
1.334067 -3.112823 23.251710 211 211 211 0
1.420003 -3.106257 23.202665 210 210 210 0
1.508564 -3.105867 23.199755 210 210 210 0
1.604738 -3.120324 23.307745 210 210 210 0
1.694501 -3.121449 23.316149 211 211 211 0
1.779451 -3.114039 23.260792 210 210 210 0
1.866955 -3.111591 23.242509 211 211 211 0
1.955197 -3.110540 23.234659 211 211 211 0
2.045253 -3.112341 23.248111 210 210 210 0
2.134138 -3.112284 23.247688 211 211 211 0
2.222042 -3.110858 23.237036 210 210 210 0
2.310394 -3.110145 23.231711 211 211 211 0
2.397335 -3.107656 23.213118 212 212 212 0
2.486248 -3.107810 23.214269 211 211 211 0
2.578677 -3.112196 23.247031 210 210 210 0
2.670182 -3.115212 23.269557 212 212 212 0
2.758931 -3.114923 23.267396 211 211 211 0
2.842312 -3.108779 23.221506 211 211 211 0
2.926296 -3.103647 23.183173 211 211 211 0
3.011569 -3.100145 23.157011 212 212 212 0
3.113476 -3.113476 23.256588 212 212 212 0
3.191966 -3.103300 23.180580 211 211 211 0
3.276660 -3.099543 23.152516 211 211 211 0
3.358828 -3.093657 23.108549 211 211 211 0
3.443605 -3.090415 23.084329 211 211 211 0
3.527593 -3.086643 23.056160 211 211 211 0
3.622508 -3.092385 23.099047 211 211 211 0
3.709844 -3.091537 23.092712 211 211 211 0
3.795417 -3.089293 23.075953 212 212 212 0
3.883192 -3.088903 23.073036 211 211 211 0
3.964816 -3.083746 23.034515 212 212 212 0
4.050361 -3.081796 23.019955 212 212 212 0
4.140793 -3.083569 23.033195 212 212 212 0
4.233434 -3.086879 23.057917 212 212 212 0
4.317845 -3.084175 23.037724 213 213 213 0
4.400741 -3.080519 23.010412 212 212 212 0
4.483860 -3.077159 22.985313 212 212 212 0
4.575040 -3.079354 23.001710 212 212 212 0
4.670260 -3.084134 23.037416 212 212 212 0
4.763164 -3.087236 23.060585 212 212 212 0
4.838035 -3.078750 22.997196 212 212 212 0
4.912969 -3.070605 22.936362 213 213 213 0
5.001775 -3.071266 22.941293 212 212 212 0
5.108998 -3.083016 23.029065 212 212 212 0
5.185279 -3.076013 22.976754 213 213 213 0
5.261895 -3.069439 22.927646 212 212 212 0
5.335269 -3.061220 22.866255 213 213 213 0
5.412953 -3.055699 22.825017 213 213 213 0
5.497613 -3.054230 22.814040 213 213 213 0
5.598187 -3.061509 22.868411 213 213 213 0
5.691747 -3.064787 22.892897 213 213 213 0
5.766641 -3.058067 22.842707 213 213 213 0
5.849197 -3.055551 22.823908 213 213 213 0
5.933733 -3.054127 22.813277 213 213 213 0
6.019910 -3.053577 22.809168 213 213 213 0
6.106921 -3.053461 22.808295 213 213 213 0
6.191591 -3.052193 22.798825 213 213 213 0
6.270785 -3.048298 22.769737 213 213 213 0
6.354207 -3.046538 22.756583 213 213 213 0
6.439691 -3.045800 22.751073 213 213 213 0
6.536597 -3.050412 22.785525 213 213 213 0
6.627042 -3.051927 22.796841 213 213 213 0
6.713528 -3.051604 22.794426 213 213 213 0
6.790604 -3.047066 22.760531 213 213 213 0
6.865916 -3.041862 22.721655 214 214 214 0
-6.835978 -2.979785 22.912613 174 174 174 0
-6.607990 -2.917814 22.436091 201 201 201 0
-6.522344 -2.917891 22.436685 202 202 202 0
-6.407887 -2.904909 22.336861 202 202 202 0
-6.357145 -2.920850 22.459441 202 202 202 0
-6.305007 -2.936578 22.580380 202 202 202 0
-6.213388 -2.934100 22.561321 202 202 202 0
-6.119841 -2.930628 22.534625 202 202 202 0
-6.049713 -2.938432 22.594632 203 203 203 0
-5.958028 -2.935840 22.574701 203 203 203 0
-5.915233 -2.957616 22.742148 203 203 203 0
-5.877524 -2.982624 22.934440 203 203 203 0
-5.804484 -2.990189 22.992608 204 204 204 0
-5.692100 -2.977406 22.894320 203 203 203 0
-5.624014 -2.987757 22.973913 203 203 203 0
-5.577511 -3.010086 23.145602 204 204 204 0
-5.550087 -3.043596 23.403275 203 203 203 0
-5.431168 -3.027208 23.277264 204 204 204 0
-5.299523 -3.003063 23.091605 203 203 203 0
-5.188539 -2.990006 22.991201 204 204 204 0
-5.118944 -3.000760 23.073896 204 204 204 0
-5.089041 -3.035569 23.341550 204 204 204 0
-5.001634 -3.036707 23.350300 204 204 204 0
-4.888027 -3.021689 23.234827 204 204 204 0
-4.764629 -2.999951 23.067677 204 204 204 0
-4.659801 -2.989306 22.985825 205 205 205 0
-4.580956 -2.995240 23.031451 204 204 204 0
-4.556726 -3.037817 23.358840 204 204 204 0
-4.468281 -3.038431 23.363562 205 205 205 0
-4.347323 -3.016510 23.195000 205 205 205 0
-4.248309 -3.009219 23.138939 205 205 205 0
-4.173070 -3.018816 23.212737 205 205 205 0
-4.114332 -3.041028 23.383532 205 205 205 0
-4.030924 -3.045587 23.418588 205 205 205 0
-3.937152 -3.042345 23.393654 205 205 205 0
-3.832561 -3.030397 23.301786 205 205 205 0
-3.753355 -3.038430 23.363555 206 206 206 0
-3.678445 -3.050417 23.455728 205 205 205 0
-3.606552 -3.065570 23.572238 205 205 205 0
-3.517897 -3.066885 23.582353 206 206 206 0
-3.418319 -3.058496 23.517845 206 206 206 0
-3.310475 -3.042058 23.391451 206 206 206 0
-3.214215 -3.035648 23.342158 206 206 206 0
-3.145435 -3.055566 23.495314 206 206 206 0
-3.069161 -3.069161 23.599851 207 207 207 0
-2.971086 -3.061119 23.538016 206 206 206 0
-2.867222 -3.046424 23.425019 207 207 207 0
-2.769609 -3.037635 23.357442 206 206 206 0
-2.679259 -3.036493 23.348661 207 207 207 0
-2.592560 -3.039553 23.372187 207 207 207 0
-2.512744 -3.051189 23.461659 207 207 207 0
-2.426069 -3.055049 23.491345 207 207 207 0
-2.327602 -3.043787 23.404743 207 207 207 0
-2.244964 -3.053152 23.476752 207 207 207 0
-2.152738 -3.049713 23.450310 208 208 208 0
-2.063221 -3.049979 23.452359 208 208 208 0
-1.972548 -3.048484 23.440860 208 208 208 0
-1.885368 -3.052501 23.471747 208 208 208 0
-1.796884 -3.054703 23.488684 207 207 207 0
-1.707081 -3.054776 23.489242 208 208 208 0
-1.614990 -3.050536 23.456641 208 208 208 0
-1.528941 -3.057882 23.513128 207 207 207 0
-1.442844 -3.066042 23.575874 208 208 208 0
-1.354691 -3.070633 23.611173 208 208 208 0
-1.259927 -3.059823 23.528048 208 208 208 0
-1.166827 -3.051701 23.465600 208 208 208 0
-1.074512 -3.044451 23.409846 208 208 208 0
-0.988326 -3.054827 23.489637 208 208 208 0
-0.899260 -3.057484 23.510066 208 208 208 0
-0.808534 -3.054464 23.486841 209 209 209 0
-0.716776 -3.046296 23.424037 209 209 209 0
-0.624959 -3.035514 23.341130 208 208 208 0
-0.534806 -3.030568 23.303101 208 208 208 0
-0.447381 -3.042192 23.392483 209 209 209 0
-0.358689 -3.048853 23.443700 209 209 209 0
-0.268549 -3.043557 23.402972 209 209 209 0
-0.178619 -3.036531 23.348951 209 209 209 0
-0.089116 -3.029950 23.298348 209 209 209 0
0.000000 -3.030116 23.299624 209 209 209 0
0.089286 -3.035734 23.342820 209 209 209 0
0.178977 -3.042616 23.395742 209 209 209 0
0.268181 -3.039390 23.370934 209 209 209 0
0.356724 -3.032151 23.315268 210 210 210 0
0.445488 -3.029316 23.293471 210 210 210 0
0.536720 -3.041412 23.386485 209 209 209 0
0.628276 -3.051626 23.465019 210 210 210 0
0.717772 -3.050530 23.456591 210 210 210 0
0.804006 -3.037357 23.355298 209 209 209 0
0.890062 -3.026210 23.269588 210 210 210 0
0.977637 -3.021788 23.235587 210 210 210 0
1.011347 -2.865482 22.033696 210 210 210 0
1.163123 -3.042014 23.391113 210 210 210 0
1.248495 -3.032059 23.314564 210 210 210 0
1.332184 -3.019616 23.218888 210 210 210 0
1.418832 -3.015018 23.183532 211 211 211 0
1.507122 -3.014244 23.177575 211 211 211 0
1.603189 -3.028246 23.285242 211 211 211 0
1.692432 -3.028562 23.287674 211 211 211 0
1.777912 -3.022451 23.240682 210 210 210 0
1.865894 -3.020971 23.229307 210 210 210 0
1.953241 -3.018646 23.211425 212 212 212 0
2.042996 -3.020081 23.222460 210 210 210 0
2.132323 -3.020791 23.227918 211 211 211 0
2.220681 -3.020126 23.222806 211 211 211 0
2.306952 -3.016783 23.197100 211 211 211 0
2.394173 -3.014885 23.182506 211 211 211 0
2.483082 -3.015171 23.184705 211 211 211 0
2.576051 -3.020198 23.223363 211 211 211 0
2.667891 -3.023610 23.249595 212 212 212 0
2.756504 -3.023263 23.246926 211 211 211 0
2.840064 -3.017568 23.203134 211 211 211 0
2.921609 -3.010142 23.146040 211 211 211 0
3.006294 -3.006294 23.116446 212 212 212 0
2.832401 -2.751475 21.157054 211 211 211 0
3.190228 -3.012993 23.167960 212 212 212 0
3.273578 -3.008153 23.130741 212 212 212 0
3.357020 -3.003650 23.096115 212 212 212 0
3.439551 -2.998583 23.057155 211 211 211 0
3.524618 -2.995925 23.036716 212 212 212 0
3.617825 -3.000148 23.069187 212 212 212 0
3.705128 -2.999389 23.063356 212 212 212 0
3.788432 -2.995505 23.033485 213 213 213 0
3.879764 -2.998000 23.052670 211 211 211 0
3.962356 -2.993780 23.020224 212 212 212 0
4.047818 -2.991865 23.005501 212 212 212 0
4.133685 -2.990325 22.993660 212 212 212 0
4.226380 -2.993686 23.019501 212 212 212 0
4.312979 -2.992679 23.011760 212 212 212 0
4.399211 -2.991464 23.002411 212 212 212 0
4.479054 -2.986036 22.960677 212 212 212 0
4.571000 -2.988731 22.981396 212 212 212 0
4.668508 -2.994892 23.028772 212 212 212 0
4.757348 -2.995367 23.032429 212 212 212 0
4.837075 -2.990192 22.992632 213 213 213 0
4.911649 -2.982073 22.930201 213 213 213 0
4.997530 -2.980983 22.921820 212 212 212 0
5.337276 -3.128748 24.058038 212 212 212 0
5.182347 -2.986437 22.963764 212 212 212 0
5.259140 -2.980179 22.915641 213 213 213 0
5.331543 -2.971680 22.850288 213 213 213 0
5.407595 -2.965455 22.802426 213 213 213 0
5.492556 -2.964236 22.793053 212 212 212 0
5.592121 -2.970815 22.843634 212 212 212 0
5.687768 -2.975140 22.876894 212 212 212 0
5.764306 -2.969491 22.833456 213 213 213 0
5.841109 -2.964145 22.792349 213 213 213 0
5.925326 -2.962663 22.780954 214 214 214 0
6.013586 -2.963216 22.785207 213 213 213 0
6.099759 -2.962740 22.781546 212 212 212 0
6.185323 -2.961986 22.775744 213 213 213 0
6.266860 -2.959351 22.755483 213 213 213 0
6.346240 -2.955783 22.728050 212 212 212 0
6.432434 -2.955443 22.725433 213 213 213 0
6.531307 -2.960859 22.767084 213 213 213 0
6.621678 -2.962330 22.778391 213 213 213 0
6.706506 -2.961314 22.770584 213 213 213 0
6.781619 -2.956090 22.730415 213 213 213 0
6.861353 -2.952987 22.706554 214 214 214 0
-7.434876 -3.105708 24.604536 76 76 76 0
-6.783150 -2.869794 22.735546 179 179 179 0
-6.615360 -2.835154 22.461117 202 202 202 0
-6.519272 -2.830736 22.426115 202 202 202 0
-6.403014 -2.817326 22.319873 202 202 202 0
-6.350892 -2.832154 22.437349 202 202 202 0
-6.286348 -2.841774 22.513557 202 202 202 0
-6.202605 -2.842861 22.522167 203 203 203 0
-6.122522 -2.845679 22.544496 203 203 203 0
-6.042013 -2.848378 22.565875 203 203 203 0
-5.957880 -2.849421 22.574141 203 203 203 0
-5.910897 -2.868523 22.725477 204 204 204 0
-5.863592 -2.888038 22.880079 203 203 203 0
-5.800013 -2.900007 22.974899 203 203 203 0
-5.691139 -2.889347 22.890453 203 203 203 0
-5.618683 -2.897133 22.952136 204 204 204 0
-5.581770 -2.923784 23.163275 203 203 203 0
-5.539389 -2.948384 23.358164 204 204 204 0
-5.428417 -2.936685 23.265477 204 204 204 0
-5.293913 -2.911652 23.067157 203 203 203 0
-5.177452 -2.895863 22.942070 204 204 204 0
-5.109839 -2.907322 23.032855 204 204 204 0
-5.079880 -2.940983 23.299529 205 205 205 0
-4.993211 -2.942428 23.310977 204 204 204 0
-4.881837 -2.929102 23.205402 204 204 204 0
-4.761219 -2.909634 23.051167 204 204 204 0
-4.655295 -2.898580 22.963598 205 205 205 0
-4.576968 -2.904614 23.011404 205 205 205 0
-4.548151 -2.942921 23.314884 205 205 205 0
-4.466512 -2.947898 23.354309 205 205 205 0
-4.348598 -2.928648 23.201805 204 204 204 0
-4.245486 -2.918772 23.123565 205 205 205 0
-4.171695 -2.929063 23.205091 204 204 204 0
-4.109114 -2.947843 23.353876 205 205 205 0
-4.024245 -2.951113 23.379784 205 205 205 0
-3.936556 -2.952417 23.390111 205 205 205 0
-3.832601 -2.941299 23.302030 206 206 206 0
-3.743585 -2.941388 23.302737 205 205 205 0
-3.670807 -2.954552 23.407028 205 205 205 0
-3.600732 -2.970604 23.534196 205 205 205 0
-3.513124 -2.972644 23.550355 205 205 205 0
-3.415135 -2.965775 23.495942 206 206 206 0
-3.310126 -2.952275 23.388988 206 206 206 0
-3.214126 -2.946282 23.341508 206 206 206 0
-3.144138 -2.964473 23.485627 206 206 206 0
-3.068492 -2.978242 23.594706 206 206 206 0
-2.970132 -2.970132 23.530461 206 206 206 0
-2.867322 -2.956926 23.425835 207 207 207 0
-2.766646 -2.945139 23.332452 207 207 207 0
-2.676691 -2.944360 23.326279 207 207 207 0
-2.590167 -2.947432 23.350617 207 207 207 0
-2.510590 -2.958909 23.441548 207 207 207 0
-2.422631 -2.960993 23.458055 207 207 207 0
-2.325725 -2.951882 23.385872 207 207 207 0
-2.239193 -2.955735 23.416402 207 207 207 0
-2.153240 -2.960705 23.455777 206 206 206 0
-2.063298 -2.960385 23.453236 208 208 208 0
-1.971530 -2.957295 23.428760 207 207 207 0
-1.882028 -2.957473 23.430165 208 208 208 0
-1.792784 -2.958094 23.435085 207 207 207 0
-1.704650 -2.960708 23.455796 207 207 207 0
-1.613595 -2.958257 23.436381 207 207 207 0
-1.525304 -2.960884 23.457190 208 208 208 0
-1.440722 -2.971489 23.541210 208 208 208 0
-1.352346 -2.975161 23.570299 208 208 208 0
-1.259246 -2.968224 23.515341 207 207 207 0
-1.165662 -2.958987 23.442166 208 208 208 0
-1.072276 -2.948758 23.361129 208 208 208 0
-0.997650 -2.992950 23.711230 209 209 209 0
-0.897451 -2.961589 23.462779 208 208 208 0
-0.807881 -2.962229 23.467847 208 208 208 0
-0.715586 -2.951792 23.385164 208 208 208 0
-0.624339 -2.943311 23.317970 208 208 208 0
-0.534564 -2.940102 23.292551 209 209 209 0
-0.446851 -2.949218 23.364767 209 209 209 0
-0.358576 -2.958254 23.436357 209 209 209 0
-0.268256 -2.950814 23.377410 209 209 209 0
-0.178587 -2.946689 23.344730 209 209 209 0
-0.089009 -2.937290 23.270273 210 210 210 0
0.000000 -2.939109 23.284680 210 210 210 0
0.089200 -2.943589 23.320173 209 209 209 0
0.178983 -2.953213 23.396418 210 210 210 0
0.268024 -2.948266 23.357226 209 209 209 0
0.356693 -2.942718 23.313272 210 210 210 0
0.445089 -2.937584 23.272601 209 209 209 0
0.536328 -2.949805 23.369417 210 210 210 0
0.627602 -2.958695 23.439848 210 210 210 0
0.717135 -2.958181 23.435774 210 210 210 0
0.803409 -2.945832 23.337941 210 210 210 0
0.890229 -2.937755 23.273958 210 210 210 0
0.978042 -2.934125 23.245194 210 210 210 0
1.068237 -2.937653 23.273146 210 210 210 0
1.162199 -2.950198 23.372532 211 211 211 0
1.247537 -2.940623 23.296677 211 211 211 0
1.331058 -2.928327 23.199261 210 210 210 0
1.417284 -2.923148 23.158236 210 210 210 0
1.505748 -2.922923 23.156451 210 210 210 0
1.601803 -2.936638 23.265110 211 211 211 0
1.691128 -2.937223 23.269737 211 211 211 0
1.776861 -2.931820 23.226936 211 211 211 0
1.863385 -2.928177 23.198071 211 211 211 0
1.949343 -2.924014 23.165094 211 211 211 0
2.041405 -2.928973 23.204378 211 211 211 0
2.131375 -2.930641 23.217596 211 211 211 0
2.218344 -2.928214 23.198369 210 210 210 0
2.305716 -2.926486 23.184678 212 212 212 0
2.391931 -2.923471 23.160792 211 211 211 0
2.480933 -2.923957 23.164645 211 211 211 0
2.574451 -2.929548 23.208938 211 211 211 0
2.665559 -2.932115 23.229273 211 211 211 0
2.753900 -2.931571 23.224964 211 211 211 0
2.838730 -2.927441 23.192242 211 211 211 0
2.921216 -2.921216 23.142926 212 212 212 0
3.007283 -2.918833 23.124052 212 212 212 0
3.096344 -2.919410 23.128622 212 212 212 0
3.187417 -2.921799 23.147546 212 212 212 0
3.273079 -2.919233 23.127214 212 212 212 0
3.354904 -2.913469 23.081551 212 212 212 0
3.438532 -2.909527 23.050325 212 212 212 0
3.522165 -2.905786 23.020684 211 211 211 0
3.615075 -2.909695 23.051652 212 212 212 0
3.703314 -2.909747 23.052066 212 212 212 0
3.785253 -2.904962 23.014155 212 212 212 0
3.877269 -2.907952 23.037843 211 211 211 0
3.960052 -2.904038 23.006836 212 212 212 0
4.043197 -2.900554 22.979236 212 212 212 0
4.129689 -2.899569 22.971430 212 212 212 0
4.223141 -2.903409 23.001855 212 212 212 0
4.308737 -2.901802 22.989125 212 212 212 0
4.391802 -2.898589 22.963669 211 211 211 0
4.474943 -2.895551 22.939601 212 212 212 0
4.569613 -2.899947 22.974423 212 212 212 0
4.660288 -2.901688 22.988223 213 213 213 0
4.754369 -2.905448 23.018008 212 212 212 0
4.830076 -2.898046 22.959364 212 212 212 0
4.904821 -2.890341 22.898326 212 212 212 0
4.987487 -2.887492 22.875755 212 212 212 0
5.077069 -2.888677 22.885143 213 213 213 0
5.181044 -2.897872 22.957988 212 212 212 0
5.254012 -2.889707 22.893300 213 213 213 0
5.327135 -2.881893 22.831396 213 213 213 0
5.405400 -2.877067 22.793167 213 213 213 0
5.487144 -2.874218 22.770593 213 213 213 0
5.588978 -2.881817 22.830791 213 213 213 0
5.681164 -2.884283 22.850331 213 213 213 0
5.760257 -2.880129 22.817418 213 213 213 0
5.836564 -2.874726 22.774615 213 213 213 0
5.919106 -2.872508 22.757041 213 213 213 0
6.007924 -2.873355 22.763754 213 213 213 0
6.096047 -2.873851 22.767681 213 213 213 0
6.182649 -2.873626 22.765899 213 213 213 0
6.261139 -2.869689 22.734709 213 213 213 0
6.341642 -2.866769 22.711582 213 213 213 0
6.428413 -2.866725 22.711229 213 213 213 0
6.528027 -2.872332 22.755651 214 214 214 0
6.616138 -2.872797 22.759331 213 213 213 0
6.704152 -2.873208 22.762590 214 214 214 0
6.777629 -2.867458 22.717039 214 214 214 0
6.857597 -2.864566 22.694123 213 213 213 0
-7.384341 -2.991125 24.437298 80 80 80 0
-6.759599 -2.773169 22.656607 182 182 182 0
-6.577986 -2.733708 22.334219 203 203 203 0
-6.508469 -2.740408 22.388956 203 203 203 0
-6.392622 -2.727519 22.283648 202 202 202 0
-6.342289 -2.742612 22.406957 202 202 202 0
-6.288831 -2.756748 22.522448 202 202 202 0
-6.198889 -2.755062 22.508674 202 202 202 0
-6.121979 -2.759202 22.542497 202 202 202 0
-6.033333 -2.758095 22.533456 203 203 203 0
-5.949886 -2.759367 22.543851 203 203 203 0
