ply
    format ascii 1.0
    element vertex 16009
    property float x
    property float y
    property float z
    property uchar red
    property uchar green
    property uchar blue
    property uchar alpha
    end_header
-4.174862 2.131844 23.222704 210 210 210 0
-4.121781 2.150494 23.425864 209 209 209 0
-4.045904 2.157815 23.505614 210 210 210 0
-3.955271 2.157421 23.501313 209 209 209 0
-3.864186 2.156755 23.494060 209 209 209 0
-3.790132 2.165790 23.592483 209 209 209 0
-3.740714 2.189686 23.852793 209 209 209 0
-3.671741 2.203045 23.998310 210 210 210 0
-3.577115 2.201301 23.979318 209 209 209 0
-3.473323 2.193677 23.896269 209 209 209 0
-3.385571 2.196046 23.922068 209 209 209 0
-3.315998 2.210665 24.081321 209 209 209 0
-3.246698 2.226307 24.251711 209 209 209 0
-3.139269 2.215954 24.138938 209 209 209 0
-3.041950 2.212327 24.099424 209 209 209 0
-2.955680 2.216760 24.147711 209 209 209 0
-2.875006 2.225811 24.246305 209 209 209 0
-2.796749 2.237399 24.372538 209 209 209 0
-2.706880 2.240177 24.402797 209 209 209 0
-2.619068 2.244916 24.454420 210 210 210 0
-2.535069 2.253395 24.546783 210 210 210 0
-2.446204 2.258035 24.597328 210 210 210 0
-2.354765 2.260574 24.624994 209 209 209 0
-2.265656 2.265656 24.680354 209 209 209 0
-2.181591 2.276443 24.797849 209 209 209 0
-2.093017 2.283292 24.872459 210 210 210 0
-1.999857 2.285551 24.897066 209 209 209 0
-1.915966 2.299159 25.045307 209 209 209 0
-1.829497 2.310943 25.173676 210 210 210 0
-1.731738 2.308984 25.152335 209 209 209 0
-1.635141 2.308434 25.146337 210 210 210 0
-1.539848 2.309772 25.160910 209 209 209 0
-1.453746 2.325994 25.337622 210 210 210 0
-1.357302 2.326803 25.346441 209 209 209 0
-1.260799 2.327629 25.355439 210 210 210 0
-1.162319 2.324638 25.322859 209 209 209 0
-1.067425 2.328927 25.369577 209 209 209 0
-0.976266 2.343039 25.523305 210 210 210 0
-0.880807 2.348820 25.586272 209 209 209 0
-0.783324 2.349971 25.598814 210 210 210 0
-0.684929 2.348329 25.580921 210 210 210 0
-0.589385 2.357541 25.681272 210 210 210 0
-0.493507 2.368834 25.804295 210 210 210 0
-0.395759 2.374552 25.866577 209 209 209 0
-0.296697 2.373574 25.855927 209 209 209 0
-0.197925 2.375101 25.872561 209 209 209 0
-0.099976 2.399413 26.137401 209 209 209 0
0.000000 2.409877 26.251378 209 209 209 0
0.100084 2.402021 26.165809 209 209 209 0
0.200069 2.400825 26.152773 209 209 209 0
0.301382 2.411053 26.264191 210 210 210 0
0.404841 2.429043 26.460167 209 209 209 0
0.504427 2.421249 26.375258 209 209 209 0
0.604198 2.416792 26.326711 209 209 209 0
0.704811 2.416496 26.323491 209 209 209 0
0.811134 2.433402 26.507649 209 209 209 0
0.915332 2.440885 26.589166 209 209 209 0
1.016589 2.439812 26.577477 209 209 209 0
1.120486 2.444696 26.630676 210 210 210 0
1.227014 2.454027 26.732322 209 209 209 0
1.331851 2.458802 26.784338 209 209 209 0
1.435848 2.461453 26.813215 209 209 209 0
1.538716 2.461946 26.818579 210 210 210 0
1.649104 2.473656 26.946145 209 209 209 0
1.762234 2.487860 27.100867 210 210 210 0
1.870171 2.493561 27.162970 209 209 209 0
1.976743 2.496939 27.199769 209 209 209 0
2.082324 2.498789 27.219923 209 209 209 0
2.191291 2.504333 27.280313 209 209 209 0
2.307016 2.516745 27.415522 209 209 209 0
2.409998 2.514780 27.394119 209 209 209 0
2.513661 2.513661 27.381926 209 209 209 0
2.621576 2.516713 27.415176 209 209 209 0
2.738477 2.527825 27.536219 209 209 209 0
2.852204 2.535293 27.617567 209 209 209 0
2.965208 2.541607 27.686352 209 209 209 0
3.070240 2.540888 27.678522 209 209 209 0
3.183699 2.546959 27.744651 209 209 209 0
3.298488 2.553668 27.817733 209 209 209 0
3.417044 2.562783 27.917028 208 208 208 0
3.523682 2.562678 27.915884 209 209 209 0
3.633814 2.565045 27.941669 208 208 208 0
3.755691 2.575331 28.053717 208 208 208 0
3.874346 2.582897 28.136136 209 209 209 0
3.975783 2.578886 28.092441 209 209 209 0
4.103925 2.591952 28.234776 209 209 209 0
4.275833 2.631282 28.663204 208 208 208 0
4.674035 2.804421 30.549246 205 205 205 0
4.887160 2.860777 31.163145 204 204 204 0
5.026483 2.872276 31.288408 203 203 203 0
5.231618 2.919973 31.807982 202 202 202 0
5.363283 2.925427 31.867398 201 201 201 0
5.529090 2.948848 32.122529 200 200 200 0
5.705177 2.976614 32.424992 199 199 199 0
5.844715 2.984536 32.511281 196 196 196 0
6.006956 3.003478 32.717627 194 194 194 0
6.202391 3.037906 33.092654 191 191 191 0
6.402611 3.073253 33.477705 187 187 187 0
6.516691 3.066678 33.406081 171 171 171 0
6.506524 3.003011 32.712541 88 88 88 0
-10.713574 3.347992 35.011681 208 208 208 0
-6.320773 2.000245 20.917590 209 209 209 0
-6.230595 1.996985 20.883508 209 209 209 0
-6.127857 1.989564 20.805897 209 209 209 0
-6.046977 1.989137 20.801435 209 209 209 0
-5.994193 1.998064 20.894790 209 209 209 0
-5.923461 2.001169 20.927259 209 209 209 0
-5.899016 2.020211 21.126390 209 209 209 0
-5.884751 2.043316 21.368015 209 209 209 0
-5.811277 2.046224 21.398424 208 208 208 0
-5.754862 2.055308 21.493417 209 209 209 0
-5.696641 2.064000 21.584319 209 209 209 0
-5.629411 2.069637 21.643258 209 209 209 0
-5.557631 2.073743 21.686202 209 209 209 0
-5.542257 2.099340 21.953881 209 209 209 0
-5.480305 2.107810 22.042454 209 209 209 0
-5.405771 2.111629 22.082398 209 209 209 0
-5.330994 2.115474 22.122600 209 209 209 0
-5.315407 2.143309 22.413692 210 210 210 0
-5.283446 2.165347 22.644149 209 209 209 0
-5.183062 2.159609 22.584149 209 209 209 0
-5.081080 2.153000 22.515033 209 209 209 0
-4.978370 2.145849 22.440253 209 209 209 0
-4.939194 2.166313 22.654254 210 210 210 0
-4.926408 2.199289 22.999104 209 209 209 0
-4.820457 2.191117 22.913642 209 209 209 0
-4.703695 2.177636 22.772668 209 209 209 0
-4.597668 2.168711 22.679334 209 209 209 0
-4.524374 2.175180 22.746980 209 209 209 0
-4.497522 2.204668 23.055347 210 210 210 0
-4.436203 2.218101 23.195832 209 209 209 0
-4.334006 2.211227 23.123948 209 209 209 0
-4.244996 2.210935 23.120893 210 210 210 0
-4.169796 2.217977 23.194527 209 209 209 0
-4.120693 2.239507 23.419682 210 210 210 0
-4.043269 2.246260 23.490305 210 210 210 0
-3.953890 2.246529 23.493109 209 209 209 0
-3.859853 2.244101 23.467721 210 210 210 0
-3.787424 2.254419 23.575627 209 209 209 0
-3.734754 2.277289 23.814786 209 209 209 0
-3.664864 2.290540 23.953358 210 210 210 0
-3.571966 2.289722 23.944805 210 210 210 0
-3.466695 2.280720 23.850668 209 209 209 0
-3.377822 2.282312 23.867315 209 209 209 0
-3.309147 2.298019 24.031566 209 209 209 0
-3.238711 2.313365 24.192053 210 210 210 0
-3.135258 2.305337 24.108098 209 209 209 0
-3.037798 2.301362 24.066534 210 210 210 0
-2.948773 2.303729 24.091281 210 210 210 0
-2.867387 2.312409 24.182052 209 209 209 0
-2.792985 2.327488 24.339739 209 209 209 0
-2.705761 2.332553 24.392710 209 209 209 0
-2.614401 2.334287 24.410843 210 210 210 0
-2.529137 2.341793 24.489342 209 209 209 0
-2.444918 2.350883 24.584396 209 209 209 0
-2.351629 2.351629 24.592197 210 210 210 0
-2.262799 2.357082 24.649228 209 209 209 0
-2.177717 2.367083 24.753814 210 210 210 0
-2.089170 2.374056 24.826733 209 209 209 0
-1.996383 2.376647 24.853824 210 210 210 0
-1.912993 2.391241 25.006445 209 209 209 0
-1.826684 2.403532 25.134974 209 209 209 0
-1.729487 2.402066 25.119643 209 209 209 0
-1.633222 2.401797 25.116827 210 210 210 0
-1.537380 2.402156 25.120581 209 209 209 0
-1.451633 2.419389 25.300801 209 209 209 0
-1.354877 2.419424 25.301165 209 209 209 0
-1.258698 2.420574 25.313192 209 209 209 0
-1.160178 2.417038 25.276215 209 209 209 0
-1.064977 2.420402 25.311396 210 210 210 0
-0.974158 2.435396 25.468189 209 209 209 0
-0.880114 2.444762 25.566143 210 210 210 0
-0.782484 2.445263 25.571379 209 209 209 0
-0.683744 2.441942 25.536651 210 210 210 0
-0.588463 2.451931 25.641107 210 210 210 0
-0.492159 2.460794 25.733795 209 209 209 0
-0.394771 2.467320 25.802042 210 210 210 0
-0.295960 2.466333 25.791719 209 209 209 0
-0.197692 2.471155 25.842143 209 209 209 0
-0.099749 2.493725 26.078165 210 210 210 0
0.000000 2.506207 26.208706 209 209 209 0
0.099964 2.499102 26.134405 209 209 209 0
0.199613 2.495158 26.093159 209 209 209 0
0.300681 2.505676 26.203145 209 209 209 0
0.403863 2.524146 26.396303 209 209 209 0
0.503919 2.519594 26.348692 209 209 209 0
0.603281 2.513670 26.286740 209 209 209 0
0.703448 2.512313 26.272556 209 209 209 0
0.809137 2.528554 26.442392 209 209 209 0
0.913681 2.538004 26.541215 209 209 209 0
1.015137 2.537842 26.539526 210 210 210 0
1.118796 2.542719 26.590527 210 210 210 0
1.224552 2.551151 26.678701 209 209 209 0
1.329202 2.556158 26.731060 209 209 209 0
1.433851 2.560449 26.775934 209 209 209 0
1.537496 2.562494 26.797323 209 209 209 0
1.645910 2.571734 26.893952 210 210 210 0
1.758035 2.585346 27.036301 209 209 209 0
1.866592 2.592489 27.110997 210 210 210 0
1.973522 2.596740 27.155451 210 210 210 0
2.079448 2.599310 27.182328 209 209 209 0
2.187670 2.604369 27.235236 210 210 210 0
2.303608 2.617737 27.375023 209 209 209 0
2.405434 2.614603 27.342249 209 209 209 0
2.510131 2.614719 27.343471 210 210 210 0
2.617288 2.617288 27.370329 209 209 209 0
2.732987 2.627872 27.481012 209 209 209 0
2.846330 2.635490 27.560684 209 209 209 0
2.959041 2.642001 27.628769 209 209 209 0
3.067376 2.644290 27.652706 209 209 209 0
3.177055 2.647546 27.686753 209 209 209 0
3.293725 2.656230 27.777571 209 209 209 0
3.412196 2.665778 27.877418 209 209 209 0
3.518648 2.665643 27.876000 209 209 209 0
3.628154 2.667760 27.898145 209 209 209 0
3.751487 2.679634 28.022315 208 208 208 0
3.865430 2.684326 28.071385 209 209 209 0
3.967192 2.680535 28.031742 209 209 209 0
4.093803 2.693291 28.165137 209 209 209 0
4.270601 2.737565 28.628126 208 208 208 0
4.652461 2.907788 30.408244 205 205 205 0
4.884760 2.978512 31.147841 204 204 204 0
5.033366 2.996051 31.331254 202 202 202 0
5.232945 3.042410 31.816049 202 202 202 0
5.364884 3.048230 31.876913 201 201 201 0
5.526740 3.070411 32.108873 199 199 199 0
5.707058 3.101662 32.435678 198 198 198 0
5.845231 3.109165 32.514147 197 197 197 0
6.010255 3.130341 32.735596 194 194 194 0
6.198803 3.162655 33.073514 191 191 191 0
6.407669 3.203834 33.504152 187 187 187 0
6.516960 3.194588 33.407460 169 169 169 0
6.494550 3.122380 32.652337 84 84 84 0
-10.713555 3.481905 35.011617 209 209 209 0
-6.312919 2.077669 20.891598 209 209 209 0
-6.213436 2.071145 20.825997 209 209 209 0
-6.101590 2.060277 20.716714 208 208 208 0
-6.035813 2.064883 20.763030 209 209 209 0
-5.979025 2.072729 20.841917 209 209 209 0
-5.915031 2.078254 20.897476 209 209 209 0
-5.889839 2.097751 21.093524 209 209 209 0
-5.879150 2.123026 21.347675 209 209 209 0
-5.811241 2.128060 21.398291 210 210 210 0
-5.759631 2.139291 21.511225 209 209 209 0
-5.694524 2.145763 21.576298 209 209 209 0
-5.619460 2.148617 21.605000 209 209 209 0
-5.557659 2.156703 21.686308 210 210 210 0
-5.535381 2.180605 21.926642 209 209 209 0
-5.471100 2.188440 22.005428 209 209 209 0
-5.397395 2.192692 22.048184 210 210 210 0
-5.318275 2.194844 22.069821 210 210 210 0
-5.293965 2.220050 22.323276 209 209 209 0
-5.270743 2.246546 22.589705 210 210 210 0
-5.183777 2.246304 22.587265 209 209 209 0
-5.074188 2.236083 22.484491 209 209 209 0
-4.970404 2.228112 22.404347 209 209 209 0
-4.927250 2.247518 22.599474 209 209 209 0
-4.920109 2.284336 22.969696 209 209 209 0
-4.816750 2.277009 22.896018 209 209 209 0
-4.704110 2.264942 22.774680 209 209 209 0
-4.596865 2.255066 22.675372 209 209 209 0
-4.521155 2.260578 22.730796 209 209 209 0
-4.491364 2.289715 23.023783 209 209 209 0
-4.434916 2.306156 23.189103 209 209 209 0
-4.327175 2.296052 23.087504 209 209 209 0
-4.233800 2.293308 23.059911 209 209 209 0
-4.165052 2.304071 23.168136 209 209 209 0
-4.110699 2.323438 23.362881 209 209 209 0
-4.037320 2.332674 23.455744 209 209 209 0
-3.950956 2.334656 23.475672 209 209 209 0
-3.855393 2.331168 23.440604 210 210 210 0
-3.783683 2.342280 23.552338 210 210 210 0
-3.731130 2.366082 23.791678 209 209 209 0
-3.662034 2.380322 23.934865 209 209 209 0
-3.568620 2.379080 23.922371 209 209 209 0
-3.462395 2.369007 23.821088 210 210 210 0
-3.377538 2.373405 23.865307 210 210 210 0
-3.304597 2.386653 23.998527 209 209 209 0
-3.234711 2.402928 24.162175 209 209 209 0
-3.131686 2.394819 24.080630 210 210 210 0
-3.034958 2.391179 24.044029 210 210 210 0
-2.943985 2.391988 24.052164 210 210 210 0
-2.861403 2.399886 24.131588 209 209 209 0
-2.788172 2.416415 24.297792 209 209 209 0
-2.700219 2.420886 24.342746 210 210 210 0
-2.610562 2.424093 24.374997 210 210 210 0
-2.526550 2.432974 24.464297 209 209 209 0
-2.439829 2.439829 24.533219 209 209 209 0
-2.348797 2.442749 24.562583 210 210 210 0
-2.260418 2.448786 24.623293 209 209 209 0
-2.174605 2.458249 24.718438 210 210 210 0
-2.084697 2.463732 24.773578 210 210 210 0
-1.992109 2.466420 24.800606 210 210 210 0
-1.909609 2.482492 24.962213 210 210 210 0
-1.821987 2.493245 25.070337 209 209 209 0
-1.728570 2.496823 25.106317 209 209 209 0
-1.631109 2.494638 25.084343 209 209 209 0
-1.535906 2.495848 25.096511 210 210 210 0
-1.449755 2.512908 25.268055 210 210 210 0
-1.354381 2.515280 25.291904 210 210 210 0
-1.256940 2.513881 25.277836 210 210 210 0
-1.158457 2.509991 25.238722 209 209 209 0
-1.062354 2.511019 25.249059 210 210 210 0
-0.971967 2.527114 25.410899 210 210 210 0
-0.878793 2.538736 25.527760 210 210 210 0
-0.781549 2.540033 25.540801 209 209 209 0
-0.683136 2.537363 25.513957 209 209 209 0
-0.587667 2.546558 25.606416 209 209 209 0
-0.491637 2.556511 25.706499 209 209 209 0
-0.394333 2.563165 25.773403 210 210 210 0
-0.295823 2.563799 25.779782 210 210 210 0
-0.197429 2.566578 25.807725 210 210 210 0
-0.099558 2.588507 26.028226 209 209 209 0
0.000000 2.604411 26.188148 209 209 209 0
0.099849 2.596085 26.104422 209 209 209 0
0.199482 2.593269 26.076110 209 209 209 0
0.300063 2.600545 26.149275 210 210 210 0
0.403488 2.622671 26.371753 209 209 209 0
0.503321 2.617271 26.317456 209 209 209 0
0.602419 2.610480 26.249173 209 209 209 0
0.702350 2.608729 26.231563 209 209 209 0
0.806128 2.619915 26.344044 210 210 210 0
0.912404 2.635835 26.504120 209 209 209 0
1.013000 2.633800 26.483659 209 209 209 0
1.116737 2.639559 26.541573 210 210 210 0
1.223037 2.649913 26.645683 209 209 209 0
1.327415 2.654830 26.695126 209 209 209 0
1.431273 2.658078 26.727779 209 209 209 0
1.535498 2.661531 26.762500 209 209 209 0
1.643037 2.669935 26.847007 209 209 209 0
1.754483 2.683326 26.981662 209 209 209 0
1.863832 2.692201 27.070902 209 209 209 0
1.970264 2.696150 27.110610 209 209 209 0
2.076094 2.698923 27.138488 209 209 209 0
2.184739 2.704915 27.198740 209 209 209 0
2.298323 2.716200 27.312221 209 209 209 0
2.402734 2.716134 27.311555 208 208 208 0
2.506308 2.715167 27.301828 208 208 208 0
2.613535 2.718077 27.331087 209 209 209 0
2.725746 2.725746 27.408204 209 209 209 0
2.842010 2.736750 27.518858 209 209 209 0
2.953975 2.742977 27.581466 209 209 209 0
3.062034 2.745272 27.604545 209 209 209 0
3.174419 2.751163 27.663785 210 210 210 0
3.289697 2.759101 27.743596 209 209 209 0
3.407637 2.768705 27.840171 209 209 209 0
3.512156 2.767153 27.824569 209 209 209 0
3.620554 2.768659 27.839711 208 208 208 0
3.742903 2.780442 27.958191 210 210 210 0
3.862161 2.789339 28.047649 209 209 209 0
3.964419 2.785808 28.012149 209 209 209 0
4.084570 2.794706 28.101614 208 208 208 0
4.255038 2.836692 28.523804 208 208 208 0
4.637266 3.014223 30.308929 204 204 204 0
4.868695 3.087465 31.045401 205 205 205 0
5.037784 3.118628 31.358758 203 203 203 0
5.237823 3.167056 31.845710 202 202 202 0
5.364827 3.170125 31.876570 201 201 201 0
5.529689 3.194931 32.126006 199 199 199 0
5.708393 3.226483 32.443268 198 198 198 0
5.850041 3.236193 32.540901 196 196 196 0
6.013839 3.257496 32.755112 195 195 195 0
6.202652 3.291203 33.094047 191 191 191 0
6.407360 3.331827 33.502534 187 187 187 0
6.515724 3.321742 33.401123 164 164 164 0
6.465196 3.232598 32.504758 82 82 82 0
-10.713538 3.615819 35.011563 209 209 209 0
-6.318567 2.159510 20.910290 209 209 209 0
-6.202964 2.147180 20.790895 208 208 208 0
-6.098866 2.138563 20.707464 209 209 209 0
-6.031857 2.142897 20.749423 209 209 209 0
-5.970646 2.149433 20.812710 209 209 209 0
-5.899812 2.152634 20.843711 208 208 208 0
-5.881846 2.175477 21.064896 209 209 209 0
-5.869805 2.201177 21.313745 209 209 209 0
-5.803983 2.207148 21.371564 209 209 209 0
-5.747309 2.216819 21.465207 209 209 209 0
-5.681347 2.223136 21.526371 209 209 209 0
-5.610922 2.227866 21.572172 209 209 209 0
-5.541011 2.232945 21.621348 209 209 209 0
-5.533892 2.263865 21.920746 209 209 209 0
-5.465632 2.270339 21.983435 209 209 209 0
-5.388707 2.273361 22.012693 209 209 209 0
-5.309070 2.275316 22.031620 209 209 209 0
-5.284465 2.301299 22.283215 210 210 210 0
-5.262943 2.329499 22.556275 209 209 209 0
-5.171165 2.327024 22.532309 209 209 209 0
-5.062662 2.316812 22.433422 209 209 209 0
-4.950495 2.304541 22.314607 209 209 209 0
-4.903171 2.322555 22.489031 209 209 209 0
-4.907309 2.366024 22.909939 209 209 209 0
-4.808854 2.360710 22.858485 209 209 209 0
-4.699244 2.349622 22.751119 210 210 210 0
-4.587115 2.336832 22.627278 210 210 210 0
-4.509951 2.341705 22.674466 209 209 209 0
-4.491411 2.377806 23.024020 209 209 209 0
-4.430635 2.392543 23.166721 209 209 209 0
-4.322678 2.381884 23.063510 209 209 209 0
-4.236170 2.382846 23.072821 209 209 209 0
-4.159142 2.389294 23.135263 210 210 210 0
-4.105436 2.409712 23.332970 209 209 209 0
-4.027490 2.416494 23.398633 209 209 209 0
-3.945690 2.421219 23.444384 210 210 210 0
-3.851025 2.418086 23.414047 209 209 209 0
-3.780157 2.430101 23.530389 210 210 210 0
-3.722257 2.451242 23.735098 209 209 209 0
-3.656497 2.468136 23.898675 209 209 209 0
-3.563926 2.467333 23.890905 209 209 209 0
-3.460291 2.458628 23.806609 210 210 210 0
-3.372013 2.460658 23.826271 209 209 209 0
-3.298275 2.473707 23.952617 209 209 209 0
-3.229342 2.491207 24.122070 209 209 209 0
-3.128964 2.484766 24.059700 210 210 210 0
-3.029337 2.478548 23.999499 210 210 210 0
-2.939749 2.480414 24.017560 209 209 209 0
-2.860946 2.491792 24.127735 210 210 210 0
-2.785409 2.506868 24.273716 210 210 210 0
-2.696677 2.510699 24.310815 210 210 210 0
-2.606127 2.513051 24.333582 209 209 209 0
-2.524697 2.524697 24.446349 209 209 209 0
-2.435818 2.529504 24.492895 209 209 209 0
-2.345954 2.533630 24.532848 210 210 210 0
-2.259486 2.541921 24.613134 210 210 210 0
-2.171987 2.549724 24.688685 210 210 210 0
-2.081175 2.554169 24.731726 210 210 210 0
-1.987719 2.555639 24.745955 209 209 209 0
-1.905882 2.572941 24.913494 210 210 210 0
-1.820274 2.586706 25.046774 209 209 209 0
-1.727247 2.590871 25.087106 210 210 210 0
-1.630468 2.589567 25.074479 210 210 210 0
-1.533600 2.587950 25.058823 210 210 210 0
-1.447853 2.606135 25.234905 210 210 210 0
-1.351450 2.606367 25.237154 209 209 209 0
-1.255921 2.608451 25.257332 210 210 210 0
-1.156722 2.602624 25.200910 210 210 210 0
-1.060445 2.602910 25.203678 210 210 210 0
-0.970744 2.621008 25.378922 210 210 210 0
-0.878443 2.635329 25.517593 209 209 209 0
-0.780577 2.634446 25.509039 209 209 209 0
-0.682470 2.632385 25.489086 209 209 209 0
-0.586507 2.639279 25.555841 209 209 209 0
-0.490914 2.650936 25.668707 209 209 209 0
-0.393885 2.658722 25.744097 209 209 209 0
-0.295050 2.655453 25.712448 209 209 209 0
-0.197071 2.660456 25.760894 210 210 210 0
-0.099273 2.680383 25.953840 209 209 209 0
0.000000 2.699172 26.135776 210 210 210 0
0.099812 2.694927 26.094674 209 209 209 0
0.199222 2.689497 26.042087 210 210 210 0
0.299701 2.697305 26.117697 210 210 210 0
0.402802 2.718917 26.326959 210 210 210 0
0.502760 2.714905 26.288118 210 210 210 0
0.601764 2.707939 26.220659 209 209 209 0
0.701012 2.703902 26.181570 210 210 210 0
0.804262 2.714385 26.283078 209 209 209 0
0.910724 2.732173 26.455317 210 210 210 0
1.012304 2.733220 26.465454 210 210 210 0
1.114075 2.734548 26.478311 209 209 209 0
1.221144 2.747575 26.604452 210 210 210 0
1.326060 2.754124 26.667871 209 209 209 0
1.429829 2.757527 26.700818 209 209 209 0
1.534863 2.762754 26.751433 209 209 209 0
1.641168 2.769471 26.816473 209 209 209 0
1.750020 2.779443 26.913026 210 210 210 0
1.860507 2.790761 27.022620 209 209 209 0
1.967478 2.795890 27.072283 209 209 209 0
2.072615 2.798030 27.093004 209 209 209 0
2.180871 2.803977 27.150586 209 209 209 0
2.295281 2.816936 27.276068 210 210 210 0
2.398617 2.815768 27.264758 209 209 209 0
2.502555 2.815374 27.260947 209 209 209 0
2.609129 2.817859 27.285008 209 209 209 0
2.721116 2.825774 27.361647 209 209 209 0
2.837660 2.837660 27.476741 209 209 209 0
2.947312 2.842051 27.519255 209 209 209 0
3.058191 2.847281 27.569895 208 208 208 0
3.167926 2.851133 27.607199 210 210 210 0
3.283506 2.859828 27.691388 209 209 209 0
3.401237 2.869794 27.787882 209 209 209 0
3.507949 2.870140 27.791235 209 209 209 0
3.614390 2.870251 27.792313 209 209 209 0
3.738196 2.883751 27.923034 209 209 209 0
3.857326 2.892994 28.012534 209 209 209 0
3.958314 2.888499 27.969006 209 209 209 0
4.077254 2.896996 28.051282 209 209 209 0
4.244050 2.938189 28.450144 209 209 209 0
4.630228 3.125404 30.262931 205 205 205 0
4.874043 3.209735 31.079501 204 204 204 0
5.044765 3.243063 31.402208 203 203 203 0
5.240276 3.290406 31.860624 201 201 201 0
5.367775 3.293862 31.894091 201 201 201 0
5.535044 3.321026 32.157116 199 199 199 0
5.708827 3.350833 32.445733 199 199 199 0
5.851434 3.361462 32.548654 196 196 196 0
6.020038 3.386271 32.788877 194 194 194 0
6.209448 3.421532 33.130306 190 190 190 0
6.407802 3.460213 33.504849 185 185 185 0
6.521815 3.452726 33.432348 156 156 156 0
-10.713517 3.749731 35.011494 208 208 208 0
-6.334132 2.245009 20.961801 208 208 208 0
-6.193612 2.223348 20.759551 209 209 209 0
-6.103855 2.219584 20.724404 209 209 209 0
-6.029762 2.221491 20.742217 209 209 209 0
-5.966750 2.227587 20.799128 209 209 209 0
-5.896993 2.231295 20.833752 210 210 210 0
-5.865469 2.249769 21.006247 209 209 209 0
-5.846623 2.273687 21.229569 209 209 209 0
-5.804662 2.289162 21.374066 209 209 209 0
-5.737384 2.294953 21.428137 209 209 209 0
-5.676575 2.303538 21.508290 209 209 209 0
-5.606544 2.308577 21.555339 209 209 209 0
-5.537586 2.314215 21.607982 209 209 209 0
-5.512779 2.338755 21.837112 210 210 210 0
-5.454909 2.349807 21.940310 210 210 210 0
-5.376764 2.352334 21.963907 208 208 208 0
-5.288718 2.350541 21.947164 209 209 209 0
-5.264284 2.377419 22.198119 209 209 209 0
-5.242704 2.406487 22.469532 209 209 209 0
-5.177988 2.416394 22.562040 210 210 210 0
-5.057817 2.400320 22.411950 209 209 209 0
-4.947432 2.388416 22.300799 209 209 209 0
-4.896646 2.405370 22.459104 209 209 209 0
-4.894182 2.447091 22.848654 209 209 209 0
-4.800899 2.444094 22.820671 209 209 209 0
-4.692777 2.433292 22.719812 209 209 209 0
-4.580188 2.419722 22.593108 209 209 209 0
-4.498644 2.422347 22.617619 210 210 210 0
-4.482124 2.460774 22.976416 210 210 210 0
-4.424701 2.477833 23.135692 209 209 209 0
-4.318796 2.467883 23.042794 209 209 209 0
-4.230723 2.467922 23.043152 209 209 209 0
-4.147871 2.471072 23.072569 209 209 209 0
-4.095194 2.492727 23.274758 210 210 210 0
-4.025193 2.504564 23.385289 209 209 209 0
-3.944233 2.509967 23.435730 210 210 210 0
-3.846902 2.504960 23.388978 210 210 210 0
-3.778748 2.519166 23.521621 209 209 209 0
-3.716480 2.538084 23.698264 210 210 210 0
-3.651327 2.555929 23.864885 209 209 209 0
-3.560403 2.556187 23.867291 210 210 210 0
-3.461526 2.550598 23.815112 209 209 209 0
-3.369825 2.550138 23.810808 209 209 209 0
-3.299355 2.566165 23.960459 209 209 209 0
-3.225534 2.580427 24.093622 210 210 210 0
-3.124802 2.573367 24.027699 210 210 210 0
-3.024417 2.566172 23.960525 210 210 210 0
-2.934783 2.567935 23.976987 210 210 210 0
-2.851955 2.575959 24.051908 210 210 210 0
-2.779949 2.594619 24.226134 210 210 210 0
-2.694707 2.601786 24.293054 209 209 209 0
-2.600838 2.600838 24.284200 209 209 209 0
-2.519888 2.613217 24.399786 209 209 209 0
-2.431882 2.618950 24.453318 209 209 209 0
-2.342300 2.623376 24.494637 209 209 209 0
-2.252267 2.627645 24.534498 210 210 210 0
-2.168843 2.640330 24.652942 209 209 209 0
-2.077163 2.643662 24.684057 209 209 209 0
-1.985017 2.646689 24.712315 209 209 209 0
-1.899572 2.659400 24.831002 210 210 210 0
-1.816155 2.676439 24.990096 210 210 210 0
-1.724160 2.682026 25.042261 209 209 209 0
-1.627609 2.680768 25.030509 210 210 210 0
-1.531415 2.679976 25.023116 210 210 210 0
-1.445178 2.697665 25.188283 209 209 209 0
-1.350739 2.701478 25.223882 210 210 210 0
-1.253258 2.699324 25.203776 210 210 210 0
-1.155046 2.695107 25.164397 209 209 209 0
-1.058170 2.693522 25.149603 210 210 210 0
-0.968551 2.711942 25.321585 209 209 209 0
-0.876745 2.727652 25.468269 209 209 209 0
-0.779811 2.729339 25.484025 210 210 210 0
-0.681908 2.727632 25.468087 210 210 210 0
-0.585346 2.731614 25.505264 210 210 210 0
-0.489713 2.742390 25.605886 209 209 209 0
-0.393226 2.752580 25.701029 210 210 210 0
-0.294925 2.752630 25.701492 209 209 209 0
-0.196815 2.755412 25.727467 209 209 209 0
-0.099063 2.773763 25.898816 209 209 209 0
0.000000 2.793119 26.079544 210 210 210 0
0.099688 2.791273 26.062306 210 210 210 0
0.199081 2.787133 26.023650 209 209 209 0
0.299290 2.793371 26.081898 209 209 209 0
0.402232 2.815624 26.289669 209 209 209 0
0.502306 2.812915 26.264383 209 209 209 0
0.600954 2.804453 26.185365 209 209 209 0
0.700340 2.801359 26.156477 210 210 210 0
0.802156 2.807545 26.214243 210 210 210 0
0.909128 2.828399 26.408955 210 210 210 0
1.010718 2.830012 26.424012 209 209 209 0
1.112260 2.831207 26.435175 210 210 210 0
1.218600 2.843399 26.549009 209 209 209 0
1.323999 2.851691 26.626432 209 209 209 0
1.427834 2.855667 26.663559 209 209 209 0
1.532631 2.860911 26.712520 209 209 209 0
1.638184 2.866822 26.767715 209 209 209 0
1.747465 2.878178 26.873746 209 209 209 0
1.858444 2.890913 26.992649 210 210 210 0
1.964569 2.895154 27.032248 209 209 209 0
2.070418 2.898585 27.064290 210 210 210 0
2.178865 2.905153 27.125615 209 209 209 0
2.291292 2.916190 27.228665 209 209 209 0
2.395076 2.915744 27.224503 210 210 210 0
2.500704 2.917488 27.240784 209 209 209 0
2.605385 2.918031 27.245856 209 209 209 0
2.717138 2.926149 27.321654 209 209 209 0
2.831955 2.936842 27.421498 209 209 209 0
2.941909 2.941909 27.468805 209 209 209 0
3.051735 2.946503 27.511699 210 210 210 0
3.160328 2.949640 27.540987 209 209 209 0
3.275187 2.958233 27.621227 209 209 209 0
3.391685 2.967724 27.709842 209 209 209 0
3.501275 2.970779 27.738362 209 209 209 0
3.607687 2.971036 27.740770 209 209 209 0
3.730099 2.984079 27.862547 208 208 208 0
3.851645 2.995724 27.971276 209 209 209 0
3.952443 2.991038 27.927522 209 209 209 0
4.069705 2.998730 27.999347 208 208 208 0
4.231521 3.038015 28.366151 208 208 208 0
4.620502 3.234351 30.199359 206 206 206 0
4.880153 3.332787 31.118462 203 203 203 0
5.053572 3.369048 31.457030 202 202 202 0
5.248627 3.417711 31.911399 201 201 201 0
5.372003 3.418547 31.919208 201 201 201 0
5.544464 3.449889 32.211844 199 199 199 0
5.714343 3.478296 32.477083 198 198 198 0
5.857133 3.489356 32.580356 196 196 196 0
6.030607 3.517854 32.846444 194 194 194 0
6.222496 3.555712 33.199927 189 189 189 0
6.417958 3.594056 33.557948 184 184 184 0
6.527292 3.583611 33.460421 143 143 143 0
-10.713509 3.883647 35.011466 209 209 209 0
-6.335904 2.325838 20.967663 209 209 209 0
-6.185179 2.299618 20.731285 209 209 209 0
-6.090920 2.293983 20.680485 208 208 208 0
-6.012919 2.294403 20.684277 209 209 209 0
-5.958802 2.304070 20.771423 209 209 209 0
-5.878283 2.303651 20.767649 209 209 209 0
-5.868217 2.331209 21.016087 209 209 209 0
-5.851779 2.356967 21.248290 209 209 209 0
-5.789329 2.364656 21.317607 209 209 209 0
-5.739075 2.377617 21.434454 209 209 209 0
-5.669234 2.382722 21.480474 209 209 209 0
-5.597315 2.387090 21.519856 209 209 209 0
-5.521586 2.389940 21.545551 209 209 209 0
-5.516993 2.424133 21.853806 209 209 209 0
-5.443822 2.428782 21.895716 209 209 209 0
-5.369205 2.432921 21.933029 209 209 209 0
-5.278451 2.429763 21.904558 209 209 209 0
-5.255694 2.458309 22.161898 209 209 209 0
-5.235861 2.489180 22.440207 209 209 209 0
-5.160946 2.494457 22.487784 210 210 210 0
-5.040365 2.477468 22.334620 209 209 209 0
-4.939410 2.469705 22.264637 209 209 209 0
-4.887571 2.486659 22.417478 210 210 210 0
-4.882656 2.528519 22.794848 210 210 210 0
-4.793811 2.527646 22.786978 209 209 209 0
-4.688777 2.518047 22.700443 210 210 210 0
-4.578295 2.505105 22.583772 209 209 209 0
-4.493874 2.506199 22.593635 210 210 210 0
-4.479600 2.547224 22.963476 209 209 209 0
-4.420369 2.563814 23.113041 210 210 210 0
-4.312037 2.552022 23.006734 210 210 210 0
-4.223137 2.551478 23.001834 210 210 210 0
-4.135919 2.551950 23.006088 210 210 210 0
-4.087807 2.577096 23.232778 209 209 209 0
-4.015413 2.587711 23.328470 210 210 210 0
-3.936119 2.594260 23.387514 210 210 210 0
-3.839804 2.589635 23.345822 210 210 210 0
-3.770355 2.603340 23.469376 209 209 209 0
-3.707772 2.622571 23.642736 209 209 209 0
-3.643956 2.641868 23.816704 209 209 209 0
-3.556011 2.644213 23.837847 210 210 210 0
-3.455607 2.637174 23.774389 210 210 210 0
-3.365098 2.637509 23.777408 210 210 210 0
-3.295571 2.654765 23.932975 209 209 209 0
-3.222132 2.669766 24.068212 210 210 210 0
-3.123683 2.664318 24.019093 210 210 210 0
-3.019555 2.653548 23.922002 209 209 209 0
-2.930690 2.655938 23.943548 209 209 209 0
-2.849397 2.665565 24.030336 210 210 210 0
-2.777769 2.685177 24.207138 210 210 210 0
-2.690474 2.690474 24.254892 210 210 210 0
-2.596539 2.689273 24.244066 209 209 209 0
-2.512528 2.698641 24.328520 209 209 209 0
-2.428584 2.708805 24.420152 210 210 210 0
-2.339812 2.714182 24.468621 209 209 209 0
-2.251768 2.720887 24.529067 210 210 210 0
-2.163943 2.728450 24.597253 210 210 210 0
-2.075684 2.736129 24.666481 209 209 209 0
-1.982749 2.738083 24.684089 210 210 210 0
-1.896518 2.749951 24.791087 210 210 210 0
-1.812691 2.766739 24.942426 210 210 210 0
-1.721616 2.773715 25.005318 210 210 210 0
-1.625815 2.773449 25.002925 210 210 210 0
-1.530366 2.773788 25.005975 210 210 210 0
-1.443755 2.791260 25.163485 209 209 209 0
-1.347842 2.791958 25.169783 210 210 210 0
-1.252632 2.794332 25.191184 209 209 209 0
-1.154261 2.789464 25.147300 210 210 210 0
-1.057087 2.786865 25.123872 209 209 209 0
-0.967565 2.805940 25.295829 210 210 210 0
-0.875749 2.821859 25.439345 210 210 210 0
-0.778684 2.822729 25.447182 210 210 210 0
-0.680908 2.820906 25.430753 210 210 210 0
-0.584868 2.826862 25.484443 210 210 210 0
-0.489362 2.838301 25.587569 209 209 209 0
-0.392996 2.849222 25.686024 209 209 209 0
-0.294803 2.849763 25.690900 209 209 209 0
-0.196739 2.852721 25.717565 210 210 210 0
-0.098847 2.866561 25.842331 210 210 210 0
0.000000 2.889776 26.051624 209 209 209 0
0.099569 2.887508 26.031171 210 210 210 0
0.198816 2.882831 25.989015 209 209 209 0
0.298669 2.887129 26.027758 210 210 210 0
0.402370 2.917180 26.298669 210 210 210 0
0.501747 2.910130 26.235117 210 210 210 0
0.600652 2.903154 26.172220 209 209 209 0
0.699118 2.896348 26.110867 210 210 210 0
0.801079 2.903910 26.179043 209 209 209 0
0.907990 2.925745 26.375883 210 210 210 0
1.010134 2.929388 26.408726 209 209 209 0
1.110686 2.928172 26.397765 209 209 209 0
1.216362 2.939542 26.500270 209 209 209 0
1.323848 2.953200 26.623397 210 210 210 0
1.426763 2.955437 26.643562 210 210 210 0
1.530445 2.958860 26.674423 210 210 210 0
1.635885 2.965041 26.730146 210 210 210 0
1.744073 2.975183 26.821570 210 210 210 0
1.855239 2.988997 26.946105 209 209 209 0
1.962170 2.994891 26.999241 210 210 210 0
2.066220 2.996018 27.009406 209 209 209 0
2.175699 3.004537 27.086198 209 209 209 0
2.290158 3.018845 27.215193 209 209 209 0
2.390644 3.014290 27.174125 209 209 209 0
2.495176 3.015004 27.180564 209 209 209 0
2.600457 3.016530 27.194323 210 210 210 0
2.711147 3.023971 27.261403 210 210 210 0
2.825693 3.035003 27.360858 209 209 209 0
2.938367 3.043308 27.435731 209 209 209 0
3.048473 3.048473 27.482291 209 209 209 0
3.155064 3.049895 27.495114 210 210 210 0
3.266784 3.056023 27.550358 209 209 209 0
3.384391 3.067105 27.650257 208 208 208 0
3.493220 3.069800 27.674553 209 209 209 0
3.604849 3.074725 27.718950 209 209 209 0
3.723578 3.085250 27.813839 209 209 209 0
3.846347 3.098447 27.932807 209 209 209 0
3.950960 3.096699 27.917050 208 208 208 0
4.060020 3.098436 27.932711 209 209 209 0
4.258693 3.166720 28.548302 208 208 208 0
4.611870 3.343606 30.142941 206 206 206 0
4.890434 3.459087 31.184020 204 204 204 0
5.067478 3.498973 31.543589 202 202 202 0
5.254935 3.544026 31.949752 202 202 202 0
5.373919 3.541901 31.930592 200 200 200 0
5.546705 3.574543 32.224864 199 199 199 0
5.717635 3.604596 32.495793 198 198 198 0
5.865909 3.619391 32.629172 195 195 195 0
6.042380 3.650605 32.910566 193 193 193 0
6.228277 3.686123 33.230769 189 189 189 0
6.424613 3.726276 33.592749 182 182 182 0
6.530734 3.713555 33.478067 128 128 128 0
-10.713450 4.017544 35.011274 209 209 209 0
-6.356427 2.413833 21.035583 210 210 210 0
-6.176290 2.375496 20.701492 209 209 209 0
-6.085582 2.371006 20.662362 209 209 209 0
-5.999033 2.368039 20.636507 209 209 209 0
-5.941555 2.376622 20.711302 208 208 208 0
-5.876187 2.382238 20.760243 209 209 209 0
-5.874067 2.414000 21.037038 209 209 209 0
-5.847240 2.436350 21.231810 209 209 209 0
-5.775817 2.440486 21.267854 210 210 210 0
-5.727043 2.454447 21.389517 209 209 209 0
-5.658291 2.460127 21.439012 209 209 209 0
-5.583558 2.463334 21.466967 210 210 210 0
-5.519065 2.471223 21.535714 210 210 210 0
-5.512210 2.505550 21.834858 210 210 210 0
-5.444484 2.512839 21.898378 210 210 210 0
-5.361177 2.513052 21.900231 209 209 209 0
-5.268363 2.508745 21.862697 209 209 209 0
-5.243172 2.537019 22.109098 209 209 209 0
-5.226175 2.570250 22.398694 210 210 210 0
-5.158059 2.579030 22.475204 209 209 209 0
-5.039788 2.562604 22.332060 209 209 209 0
-4.932547 2.551318 22.233704 210 210 210 0
-4.874365 2.565455 22.356908 210 210 210 0
-4.874060 2.611104 22.754716 209 209 209 0
-4.793965 2.614890 22.787713 209 209 209 0
-4.681173 2.600652 22.663633 209 209 209 0
-4.572521 2.588219 22.555287 209 209 209 0
-4.487236 2.588790 22.560259 209 209 209 0
-4.470339 2.629611 22.916000 210 210 210 0
-4.408496 2.645098 23.050959 209 209 209 0
-4.305732 2.636163 22.973095 210 210 210 0
-4.218789 2.636743 22.978153 209 209 209 0
-4.133037 2.638109 22.990055 209 209 209 0
-4.074342 2.657179 23.156248 209 209 209 0
-4.006758 2.671172 23.278190 210 210 210 0
-3.927736 2.678002 23.337706 209 209 209 0
-3.832139 2.673585 23.299218 210 210 210 0
-3.762286 2.687347 23.419147 210 210 210 0
-3.698948 2.706547 23.586468 209 209 209 0
-3.638202 2.728651 23.779097 210 210 210 0
-3.551604 2.732003 23.808303 210 210 210 0
-3.449354 2.723175 23.731368 209 209 209 0
-3.361621 2.725639 23.752842 209 209 209 0
-3.284903 2.737419 23.855507 210 210 210 0
-3.216217 2.756757 24.024028 210 210 210 0
-3.118888 2.751960 23.982226 210 210 210 0
-3.021164 2.746513 23.934755 210 210 210 0
-2.927269 2.744314 23.915593 210 210 210 0
-2.846784 2.754952 24.008295 210 210 210 0
-2.771170 2.771170 24.149626 210 210 210 0
-2.684459 2.777027 24.200670 210 210 210 0
-2.592252 2.777412 24.204030 209 209 209 0
-2.505503 2.783893 24.260503 210 210 210 0
-2.421309 2.793818 24.347000 209 209 209 0
-2.336577 2.803893 24.434794 209 209 209 0
-2.246151 2.807688 24.467870 209 209 209 0
-2.161609 2.819490 24.570716 210 210 210 0
-2.072375 2.825967 24.627159 210 210 210 0
-1.981534 2.830763 24.668958 210 210 210 0
-1.893295 2.839943 24.748958 210 210 210 0
-1.809422 2.856982 24.897443 210 210 210 0
-1.718915 2.864859 24.966088 210 210 210 0
-1.622903 2.863947 24.958144 210 210 210 0
-1.527240 2.863575 24.954898 210 210 210 0
-1.570772 3.141544 27.377287 210 210 210 0
-1.347640 2.887800 25.166009 209 209 209 0
-1.251092 2.887136 25.160224 209 209 209 0
-1.152807 2.882017 25.115621 209 209 209 0
-1.055893 2.879708 25.095492 210 210 210 0
-0.965698 2.897095 25.247014 209 209 209 0
-0.874414 2.914712 25.400544 210 210 210 0
-0.777588 2.915953 25.411357 209 209 209 0
-0.679798 2.913420 25.389281 209 209 209 0
-0.583746 2.918729 25.435546 210 210 210 0
-0.488601 2.931608 25.547785 209 209 209 0
-0.392234 2.941756 25.636221 209 209 209 0
-0.294484 2.944840 25.663094 210 210 210 0
-0.196338 2.945075 25.665143 209 209 209 0
-0.098633 2.958978 25.786304 210 210 210 0
0.000000 2.983020 25.995815 210 210 210 0
0.099483 2.984489 26.008615 209 209 209 0
0.198659 2.979882 25.968466 210 210 210 0
0.297841 2.978413 25.955669 209 209 209 0
0.470584 3.529377 30.757098 209 209 209 0
0.501087 3.006519 26.200604 210 210 210 0
0.599695 2.998475 26.130497 209 209 209 0
0.698108 2.991893 26.073145 209 209 209 0
0.800234 3.000878 26.151440 210 210 210 0
0.906143 3.020476 26.322234 210 210 210 0
1.008535 3.025606 26.366941 210 210 210 0
1.108025 3.021886 26.334515 210 210 210 0
1.213635 3.034088 26.440850 210 210 210 0
1.320011 3.046179 26.546224 209 209 209 0
1.425140 3.053871 26.613254 210 210 210 0
1.528525 3.057049 26.640954 210 210 210 0
1.632833 3.061562 26.680277 209 209 209 0
1.739727 3.070106 26.754735 209 209 209 0
1.851976 3.086626 26.898702 209 209 209 0
1.958830 3.092889 26.953280 210 210 210 0
2.065467 3.098200 26.999564 209 209 209 0
2.175096 3.107280 27.078693 209 209 209 0
2.467181 3.364338 29.318849 210 210 210 0
2.388714 3.115714 27.152189 209 209 209 0
2.492087 3.115109 27.146916 209 209 209 0
2.596101 3.115321 27.148769 209 209 209 0
2.703695 3.119648 27.186477 209 209 209 0
2.821022 3.134469 27.315635 209 209 209 0
2.933172 3.142685 27.387229 209 209 209 0
3.044494 3.149477 27.446418 209 209 209 0
3.148634 3.148634 27.439077 209 209 209 0
3.260526 3.155348 27.497585 209 209 209 0
3.379897 3.168653 27.613535 209 209 209 0
3.487715 3.170650 27.630933 209 209 209 0
3.599763 3.176262 27.679842 209 209 209 0
3.719914 3.188498 27.786471 209 209 209 0
3.841380 3.201150 27.896730 208 208 208 0
3.945421 3.198990 27.877910 209 209 209 0
4.047017 3.195014 27.843255 209 209 209 0
4.543574 3.495057 30.458015 209 209 209 0
4.598725 3.449044 30.057029 205 205 205 0
4.900864 3.585998 31.250530 204 204 204 0
5.091767 3.636976 31.694784 202 202 202 0
5.259359 3.669320 31.976646 202 202 202 0
5.374843 3.664666 31.936087 200 200 200 0
5.552634 3.701756 32.259313 199 199 199 0
5.723526 3.732735 32.529278 197 197 197 0
5.877672 3.751706 32.694602 195 195 195 0
6.053941 3.783713 32.973533 192 192 192 0
6.238244 3.819333 33.283948 188 188 188 0
6.428712 3.857227 33.614182 177 177 177 0
6.533979 3.843517 33.494702 110 110 110 0
-10.713443 4.151459 35.011253 210 210 210 0
-6.459369 2.534689 21.376251 209 209 209 0
-6.168642 2.451640 20.675856 209 209 209 0
-6.080362 2.447938 20.644639 209 209 209 0
-5.993393 2.444674 20.617108 209 209 209 0
-5.946345 2.457823 20.728002 209 209 209 0
-5.878861 2.462766 20.769692 209 209 209 0
-5.867790 2.491801 21.014559 209 209 209 0
-5.839044 2.514033 21.202047 210 210 210 0
-5.769598 2.519120 21.244951 209 209 209 0
-5.722822 2.534393 21.373751 210 210 210 0
-5.644882 2.536107 21.388206 209 209 209 0
-5.573303 2.540771 21.427540 210 210 210 0
-5.504667 2.546935 21.479531 209 209 209 0
-5.490572 2.578905 21.749145 209 209 209 0
-5.431859 2.590579 21.847598 210 210 210 0
-5.356711 2.594657 21.881991 210 210 210 0
-5.256998 2.586777 21.815535 209 209 209 0
-5.229325 2.614663 22.050706 209 209 209 0
-5.215435 2.650467 22.352663 210 210 210 0
-5.152928 2.662346 22.452845 209 209 209 0
-5.033107 2.644514 22.302459 209 209 209 0
-4.927070 2.633434 22.209014 210 210 210 0
-4.867472 2.647221 22.325291 210 210 210 0
-4.859436 2.690045 22.686442 209 209 209 0
-4.782159 2.695399 22.731593 210 210 210 0
-4.675309 2.683974 22.635240 210 210 210 0
-4.567583 2.671605 22.530931 210 210 210 0
-4.483257 2.672711 22.540255 210 210 210 0
-4.463998 2.713410 22.883495 209 209 209 0
-4.405409 2.731353 23.034818 209 209 209 0
-4.300191 2.720529 22.943529 209 209 209 0
-4.211573 2.719974 22.938851 210 210 210 0
-4.122297 2.718962 22.930311 210 210 210 0
-4.066643 2.740564 23.112491 210 210 210 0
-4.000696 2.756035 23.242966 210 210 210 0
-3.923370 2.764193 23.311766 210 210 210 0
-3.829019 2.760455 23.280248 209 209 209 0
-3.752759 2.769894 23.359844 210 210 210 0
-3.685415 2.786533 23.500177 210 210 210 0
-3.630375 2.813541 23.727941 209 209 209 0
-3.546147 2.818732 23.771726 209 209 209 0
-3.448453 2.813212 23.725169 210 210 210 0
-3.354340 2.810393 23.701396 210 210 210 0
-3.280353 2.824749 23.822463 209 209 209 0
-3.213803 2.846511 24.005998 210 210 210 0
-3.113383 2.838673 23.939894 210 210 210 0
-3.017363 2.834493 23.904639 210 210 210 0
-2.925017 2.833610 23.897194 210 210 210 0
-2.840573 2.840573 23.955916 210 210 210 0
-2.767959 2.860224 24.121648 210 210 210 0
-2.680822 2.865706 24.167878 210 210 210 0
-2.587416 2.864639 24.158876 210 210 210 0
-2.500154 2.870547 24.208707 210 210 210 0
-2.418037 2.883044 24.314099 209 209 209 0
-2.332776 2.892642 24.395044 209 209 209 0
-2.242018 2.895940 24.422857 210 210 210 0
-2.157443 2.907858 24.523363 210 210 210 0
-2.067196 2.912866 24.565603 210 210 210 0
-1.979793 2.922552 24.647287 210 210 210 0
-1.891287 2.931495 24.722704 210 210 210 0
-1.803974 2.943326 24.822488 210 210 210 0
-1.716601 2.956369 24.932479 210 210 210 0
-1.619090 2.952458 24.899498 210 210 210 0
-1.522719 2.950267 24.881023 210 210 210 0
-1.420184 2.935046 24.752656 210 210 210 0
-1.345396 2.979091 25.124108 210 210 210 0
-1.249970 2.980697 25.137650 210 210 210 0
-1.151571 2.974893 25.088700 210 210 210 0
-1.054601 2.972058 25.064797 210 210 210 0
-0.963972 2.988315 25.201894 210 210 210 0
-0.872450 3.005104 25.343486 210 210 210 0
-0.776951 3.010685 25.390554 209 209 209 0
-0.679063 3.007281 25.361844 210 210 210 0
-0.582859 3.011440 25.396923 209 209 209 0
-0.488024 3.025751 25.517611 210 210 210 0
-0.391851 3.036849 25.611206 210 210 210 0
-0.294101 3.039044 25.629718 210 210 210 0
-0.196043 3.038661 25.626492 210 210 210 0
-0.098402 3.050471 25.726085 210 210 210 0
0.000000 3.077411 25.953283 210 210 210 0
0.099350 3.079850 25.973856 210 210 210 0
0.198193 3.071984 25.907521 209 209 209 0
0.297115 3.070193 25.892417 210 210 210 0
0.398291 3.086756 26.032098 210 210 210 0
0.500647 3.104011 26.177616 210 210 210 0
0.599511 3.097472 26.122468 209 209 209 0
0.697001 3.086719 26.031786 210 210 210 0
0.798182 3.092957 26.084392 209 209 209 0
0.904925 3.116965 26.286868 210 210 210 0
1.007043 3.121833 26.327920 210 210 210 0
1.106485 3.118275 26.297915 209 209 209 0
1.210962 3.128317 26.382604 210 210 210 0
1.318170 3.143330 26.509210 209 209 209 0
1.422613 3.150072 26.566072 210 210 210 0
1.525503 3.152707 26.588296 209 209 209 0
1.628324 3.154877 26.606594 210 210 210 0
1.736002 3.165650 26.697452 210 210 210 0
1.848973 3.184343 26.855097 210 210 210 0
1.956201 3.191696 26.917106 210 210 210 0
2.059466 3.192173 26.921128 210 210 210 0
2.166388 3.198001 26.970282 209 209 209 0
2.271751 3.201104 26.996448 209 209 209 0
2.385145 3.214761 27.111624 209 209 209 0
2.490105 3.216385 27.125323 209 209 209 0
2.591113 3.212980 27.096606 209 209 209 0
2.698225 3.217114 27.131470 210 210 210 0
2.815023 3.232064 27.257548 210 210 210 0
2.927713 3.241397 27.336258 209 209 209 0
3.038672 3.248235 27.393929 209 209 209 0
3.145483 3.250332 27.411615 210 210 210 0
3.255511 3.255511 27.455289 209 209 209 0
3.373738 3.268308 27.563216 209 209 209 0
3.485554 3.274308 27.613814 210 210 210 0
3.594950 3.277749 27.642833 209 209 209 0
3.712783 3.288465 27.733205 209 209 209 0
3.835978 3.303203 27.857503 209 209 209 0
3.946291 3.306352 27.884054 209 209 209 0
4.048515 3.302736 27.853563 208 208 208 0
4.030310 3.203580 27.017331 209 209 209 0
4.594669 3.560868 30.030515 206 206 206 0
4.911382 3.713484 31.317598 203 203 203 0
5.119405 3.778608 31.866821 201 201 201 0
5.263623 3.794705 32.002570 201 201 201 0
5.379553 3.790139 31.964068 199 199 199 0
5.555056 3.826816 32.273381 198 198 198 0
5.732004 3.862873 32.577462 197 197 197 0
5.887948 3.883540 32.751761 195 195 195 0
6.080530 3.927009 33.118356 191 191 191 0
6.256187 3.957996 33.379684 187 187 187 0
6.437653 3.991345 33.660932 170 170 170 0
6.528180 3.968110 33.464976 86 86 86 0
-10.713455 4.285382 35.011291 210 210 210 0
-7.018215 2.842821 23.225663 209 209 209 0
-6.149366 2.522817 20.611247 209 209 209 0
-6.075731 2.524979 20.628914 208 208 208 0
-6.005390 2.528585 20.658377 209 209 209 0
-5.933319 2.531550 20.682595 209 209 209 0
-5.872310 2.539377 20.746545 209 209 209 0
-5.855930 2.566983 20.972082 209 209 209 0
-5.837751 2.594556 21.197353 209 209 209 0
-5.765540 2.598553 21.230010 209 209 209 0
-5.715230 2.612677 21.345398 208 208 208 0
-5.637041 2.614280 21.358497 210 210 210 0
-5.565764 2.619183 21.398555 209 209 209 0
-5.504841 2.629178 21.480213 209 209 209 0
-5.486002 2.659880 21.731043 209 209 209 0
-5.421038 2.668819 21.804074 210 210 210 0
-5.344974 2.672487 21.834046 210 210 210 0
-5.254213 2.668807 21.803977 210 210 210 0
-5.213548 2.690863 21.984178 209 209 209 0
-5.204798 2.730386 22.307076 210 210 210 0
-5.142951 2.742907 22.409372 209 209 209 0
-5.030061 2.728168 22.288958 209 209 209 0
-4.925053 2.717270 22.199922 210 210 210 0
-4.861271 2.729135 22.296851 209 209 209 0
-4.860191 2.777252 22.689968 210 210 210 0
-4.777674 2.779737 22.710274 209 209 209 0
-4.678649 2.772533 22.651413 209 209 209 0
-4.561281 2.753981 22.499845 209 209 209 0
-4.475520 2.754166 22.501358 209 209 209 0
-4.448228 2.791045 22.802657 210 210 210 0
-4.395920 2.813389 22.985204 210 210 210 0
-4.296091 2.805611 22.921656 209 209 209 0
-4.202261 2.801507 22.888130 210 210 210 0
-4.112748 2.800169 22.877196 210 210 210 0
-4.061131 2.825135 23.081167 209 209 209 0
-3.994369 2.840440 23.206211 209 209 209 0
-3.920205 2.851059 23.292962 210 210 210 0
-3.824661 2.846260 23.253755 209 209 209 0
-3.746010 2.854103 23.317834 209 209 209 0
-3.675969 2.869049 23.439941 209 209 209 0
-3.623862 2.899090 23.685375 210 210 210 0
-3.540985 2.905424 23.737122 210 210 210 0
-3.439213 2.896179 23.661596 210 210 210 0
-3.348012 2.895578 23.656683 210 210 210 0
-3.276817 2.912726 23.796784 210 210 210 0
-3.714252 3.395888 27.744180 209 209 209 0
-3.111482 2.928454 23.925275 210 210 210 0
-3.010335 2.919113 23.848963 210 210 210 0
-2.918080 2.918080 23.840523 209 209 209 0
-2.836596 2.928099 23.922377 210 210 210 0
-2.761672 2.945784 24.066860 210 210 210 0
-2.674902 2.951616 24.114510 210 210 210 0
-2.582814 2.951787 24.115907 210 210 210 0
-2.495131 2.957193 24.160070 209 209 209 0
-2.414853 2.972126 24.282077 210 210 210 0
-2.326925 2.978464 24.333853 210 210 210 0
-2.235543 2.980723 24.352315 210 210 210 0
-2.153316 2.995917 24.476449 210 210 210 0
-2.065750 3.004727 24.548424 210 210 210 0
-1.976814 3.012289 24.610201 210 210 210 0
-1.888061 3.020897 24.680530 209 209 209 0
-1.801687 3.034420 24.791011 210 210 210 0
-1.713034 3.045393 24.880663 210 210 210 0
-1.617883 3.045426 24.880933 210 210 210 0
-1.522812 3.045624 24.882552 210 210 210 0
-1.431894 3.054707 24.956754 210 210 210 0
-1.344238 3.072544 25.102480 210 210 210 0
-1.249489 3.075664 25.127975 210 210 210 0
-1.149670 3.065786 25.047268 210 210 210 0
-1.053377 3.064368 25.035688 210 210 210 0
-0.962282 3.079303 25.157701 210 210 210 0
-0.871108 3.097274 25.304526 210 210 210 0
-0.775801 3.103202 25.352961 209 209 209 0
-0.678558 3.101977 25.342953 210 210 210 0
-0.581995 3.103973 25.359259 210 210 210 0
-0.486934 3.116376 25.460590 210 210 210 0
-0.391169 3.129350 25.566588 210 210 210 0
-0.293667 3.132449 25.591903 210 210 210 0
-0.195720 3.131527 25.584370 210 210 210 0
-0.098196 3.142266 25.672110 209 209 209 0
0.000000 3.170693 25.904353 210 210 210 0
0.099297 3.177515 25.960088 210 210 210 0
0.198048 3.168767 25.888621 210 210 210 0
0.296873 3.166647 25.871299 209 209 209 0
0.397848 3.182786 26.003154 209 209 209 0
0.500468 3.202998 26.168286 210 210 210 0
0.598419 3.191568 26.074903 209 209 209 0
0.696369 3.183400 26.008169 209 209 209 0
0.797402 3.189609 26.058899 210 210 210 0
0.903062 3.210887 26.232737 209 209 209 0
1.006286 3.220114 26.308124 210 210 210 0
1.104775 3.213891 26.257282 210 210 210 0
1.209285 3.224761 26.346087 210 210 210 0
1.315125 3.237231 26.447966 210 210 210 0
1.419314 3.244147 26.504469 209 209 209 0
