ply
    format ascii 1.0
    element vertex 21638
    property float x
    property float y
    property float z
    property uchar red
    property uchar green
    property uchar blue
    property uchar alpha
    end_header
-5.837277 1.250845 21.801220 183 183 183 0
-5.757412 1.251611 21.814578 187 187 187 0
-5.650444 1.246422 21.724123 189 189 189 0
-5.576734 1.248523 21.760741 190 190 190 0
-5.522112 1.255025 21.874082 190 190 190 0
-5.427442 1.252487 21.829833 190 190 190 0
-5.310405 1.244626 21.692832 191 191 191 0
-5.202304 1.238644 21.588563 195 195 195 0
-5.131382 1.241463 21.637704 196 196 196 0
-5.083466 1.250033 21.787063 196 196 196 0
-5.030935 1.257734 21.921286 197 197 197 0
-4.923036 1.251619 21.814716 197 197 197 0
-4.790051 1.238806 21.591394 197 197 197 0
-4.671988 1.229470 21.428678 199 199 199 0
-4.562955 1.222220 21.302312 201 201 201 0
-4.517834 1.232137 21.475148 201 201 201 0
-4.505473 1.251520 21.812992 201 201 201 0
-4.398534 1.244868 21.697045 202 202 202 0
-4.278576 1.234205 21.511191 201 201 201 0
-4.161964 1.224107 21.335197 202 202 202 0
-4.055373 1.216612 21.204567 203 203 203 0
-3.980923 1.218650 21.240087 205 205 205 0
-3.934879 1.229650 21.431802 205 205 205 0
-3.867341 1.234258 21.512117 204 204 204 0
-3.767128 1.228411 21.410219 205 205 205 0
-3.660695 1.220232 21.267655 205 205 205 0
-3.577333 1.219545 21.255690 206 206 206 0
-3.507167 1.223430 21.323404 205 205 205 0
-3.443994 1.229998 21.437869 207 207 207 0
-3.361588 1.229849 21.435282 208 208 208 0
-3.279471 1.229802 21.434450 208 208 208 0
-3.183678 1.224492 21.341903 208 208 208 0
-3.109721 1.227521 21.394707 208 208 208 0
-3.039660 1.232295 21.477902 208 208 208 0
-2.973239 1.238849 21.592148 209 209 209 0
-2.891683 1.239293 21.599872 208 208 208 0
-2.804160 1.237130 21.562171 209 209 209 0
-2.711316 1.232416 21.480024 209 209 209 0
-2.626609 1.231223 21.459226 210 210 210 0
-2.550857 1.234286 21.512602 210 210 210 0
-2.438004 1.219002 21.246223 211 211 211 0
-2.405404 1.244174 21.684959 211 211 211 0
-2.307851 1.236349 21.548565 210 210 210 0
-2.217559 1.231977 21.472367 212 212 212 0
-2.133738 1.231003 21.455389 212 212 212 0
-2.052973 1.231784 21.469000 212 212 212 0
-1.975802 1.234876 21.522898 212 212 212 0
-1.896594 1.236909 21.558334 212 212 212 0
-1.815235 1.237660 21.571419 212 212 212 0
-1.730493 1.236067 21.543643 212 212 212 0
-1.650828 1.238121 21.579447 212 212 212 0
-1.572706 1.241610 21.640260 213 213 213 0
-1.493021 1.244184 21.685132 213 213 213 0
-1.411013 1.245011 21.699542 213 213 213 0
-1.331894 1.248651 21.762973 213 213 213 0
-1.249274 1.249274 21.773846 213 213 213 0
-1.167995 1.251423 21.811295 213 213 213 0
-1.088245 1.255667 21.885262 213 213 213 0
-1.006820 1.258525 21.935071 214 214 214 0
-0.926720 1.263709 22.025434 213 213 213 0
-0.842480 1.263720 22.025628 214 214 214 0
-0.757516 1.262527 22.004825 214 214 214 0
-0.674110 1.263957 22.029745 214 214 214 0
-0.593685 1.272183 22.173127 215 215 215 0
-0.509118 1.272794 22.183771 215 215 215 0
-0.424006 1.272019 22.170273 215 215 215 0
-0.338566 1.269623 22.128498 215 215 215 0
-0.253342 1.266708 22.077693 215 215 215 0
-0.169102 1.268264 22.104821 216 216 216 0
-0.085045 1.275674 22.233966 216 216 216 0
0.000000 1.278665 22.286101 212 212 212 0
0.084991 1.274863 22.219836 204 204 204 0
0.168853 1.266399 22.072306 203 203 203 0
0.252578 1.262890 22.011156 202 202 202 0
0.336945 1.263542 22.022523 203 203 203 0
0.422212 1.266636 22.076438 203 203 203 0
0.507505 1.268762 22.113491 202 202 202 0
0.590938 1.266295 22.070502 204 204 204 0
0.672957 1.261794 21.992049 203 203 203 0
0.756103 1.260172 21.963786 205 205 205 0
0.841037 1.261555 21.987893 206 206 206 0
0.928983 1.266794 22.079205 206 206 206 0
1.014009 1.267512 22.091707 205 205 205 0
1.096161 1.264801 22.044455 207 207 207 0
1.175627 1.259600 21.953820 206 206 206 0
1.255649 1.255649 21.884955 206 206 206 0
1.339633 1.255906 21.889431 208 208 208 0
1.433230 1.264615 22.041220 207 207 207 0
1.513889 1.261574 21.988215 208 208 208 0
1.594751 1.259014 21.943598 208 208 208 0
1.672210 1.254157 21.858952 209 209 209 0
1.751936 1.251383 21.810598 208 208 208 0
1.835451 1.251444 21.811654 208 208 208 0
1.928643 1.257811 21.922624 209 209 209 0
2.013041 1.258151 21.928556 209 209 209 0
2.093232 1.255939 21.890013 209 209 209 0
2.173944 1.254198 21.859668 209 209 209 0
2.259498 1.255276 21.878457 210 210 210 0
2.348425 1.258085 21.927405 211 211 211 0
2.436787 1.260407 21.967883 209 209 209 0
2.521876 1.260938 21.977134 211 211 211 0
2.605712 1.260829 21.975225 210 210 210 0
2.694144 1.262880 22.010983 211 211 211 0
2.785242 1.266019 22.065690 210 210 210 0
2.878500 1.269926 22.133793 211 211 211 0
2.968802 1.272344 22.175927 211 211 211 0
3.054350 1.272646 22.181193 211 211 211 0
3.137105 1.271799 22.166438 211 211 211 0
3.220970 1.271436 22.160097 211 211 211 0
3.321063 1.277332 22.262864 211 211 211 0
3.410030 1.278761 22.287777 210 210 210 0
3.495510 1.278845 22.289240 210 210 210 0
3.578710 1.278111 22.276437 210 210 210 0
3.670979 1.280574 22.319376 211 211 211 0
3.774339 1.286707 22.426258 210 210 210 0
3.870394 1.290131 22.485949 211 211 211 0
3.965227 1.293009 22.536100 210 210 210 0
4.059009 1.295429 22.578275 211 211 211 0
4.158558 1.299549 22.650096 210 210 210 0
4.271494 1.307600 22.790418 210 210 210 0
4.368144 1.310443 22.839968 208 208 208 0
4.459561 1.311636 22.860753 209 209 209 0
4.564950 1.316812 22.950980 210 210 210 0
4.682039 1.325105 23.095519 209 209 209 0
4.785673 1.329354 23.169560 209 209 209 0
4.881903 1.331428 23.205717 208 208 208 0
4.754171 1.273439 22.195009 207 207 207 0
5.127490 1.349340 23.517900 207 207 207 0
5.227926 1.352050 23.565139 207 207 207 0
5.335221 1.356412 23.641171 207 207 207 0
5.487018 1.371755 23.908575 205 205 205 0
5.616186 1.381029 24.070227 204 204 204 0
5.750335 1.391210 24.247672 204 204 204 0
5.924299 1.410547 24.584702 202 202 202 0
6.069208 1.422471 24.792518 201 201 201 0
6.261437 1.444947 25.184260 199 199 199 0
6.163560 1.400809 24.414972 200 200 200 0
6.879972 1.540292 26.846051 211 211 211 0
7.111934 1.568809 27.343076 212 212 212 0
7.220374 1.569646 27.357673 211 211 211 0
7.346623 1.574276 27.438366 211 211 211 0
7.469418 1.578046 27.504072 211 211 211 0
7.587289 1.580685 27.550068 210 210 210 0
7.719959 1.586293 27.647807 210 210 210 0
7.862024 1.593653 27.776095 211 211 211 0
8.002663 1.600533 27.895993 210 210 210 0
8.114465 1.601539 27.913537 209 209 209 0
8.231042 1.603450 27.946837 210 210 210 0
8.383853 1.612279 28.100730 209 209 209 0
8.512860 1.616366 28.171954 209 209 209 0
-7.057281 1.411456 23.063011 158 158 158 0
-6.791524 1.375498 22.475465 160 160 160 0
-6.585943 1.350963 22.074553 162 162 162 0
-6.478919 1.346269 21.997857 171 171 171 0
-6.423119 1.352236 22.095354 173 173 173 0
-6.334455 1.351350 22.080889 173 173 173 0
-6.265112 1.354619 22.134295 176 176 176 0
-6.176602 1.353776 22.120519 181 181 181 0
-6.087196 1.352710 22.103110 182 182 182 0
-5.954587 1.341879 21.926122 182 182 182 0
-5.839381 1.334716 21.809081 183 183 183 0
-5.753963 1.334252 21.801507 186 186 186 0
-5.656179 1.330866 21.746171 190 190 190 0
-5.581069 1.332793 21.777659 190 190 190 0
-5.532412 1.341191 21.914883 191 191 191 0
-5.432239 1.337167 21.849128 191 191 191 0
-5.317855 1.329464 21.723265 191 191 191 0
-5.205960 1.322148 21.603733 195 195 195 0
-5.139092 1.326217 21.670216 196 196 196 0
-5.082956 1.333234 21.784876 196 196 196 0
-5.037088 1.343223 21.948095 197 197 197 0
-4.929206 1.336734 21.842054 196 196 196 0
-4.792933 1.322188 21.604385 197 197 197 0
-4.674489 1.312137 21.440153 199 199 199 0
-4.561161 1.303189 21.293934 200 200 200 0
-4.517090 1.314063 21.471610 201 201 201 0
-4.506668 1.335309 21.818775 201 201 201 0
-4.398596 1.327878 21.697356 201 201 201 0
-4.281058 1.317249 21.523672 201 201 201 0
-4.159859 1.305054 21.324406 201 201 201 0
-4.057506 1.298402 21.215720 202 202 202 0
-3.977962 1.298926 21.224286 204 204 204 0
-3.934405 1.311468 21.429220 204 204 204 0
-3.865556 1.315934 21.502186 205 205 205 0
-3.764045 1.309233 21.392698 205 205 205 0
-3.661725 1.301947 21.273637 205 205 205 0
-3.573750 1.299545 21.234403 206 206 206 0
-3.505965 1.304545 21.316098 205 205 205 0
-3.443991 1.311997 21.437852 206 206 206 0
-3.364184 1.312852 21.451835 208 208 208 0
-3.281741 1.312697 21.449289 208 208 208 0
-3.187332 1.307623 21.366396 208 208 208 0
-3.109529 1.309275 21.393385 208 208 208 0
-3.042984 1.315885 21.501386 208 208 208 0
-2.973243 1.321442 21.592182 208 208 208 0
-2.895627 1.323715 21.629336 209 209 209 0
-2.805806 1.320379 21.574821 208 208 208 0
-2.713983 1.315870 21.501151 209 209 209 0
-2.625720 1.312860 21.451959 211 211 211 0
-2.546873 1.314515 21.479004 211 211 211 0
-2.419703 1.290508 21.086738 211 211 211 0
-2.408343 1.328741 21.711457 210 210 210 0
-2.310545 1.320311 21.573715 211 211 211 0
-2.217598 1.314132 21.472751 211 211 211 0
-2.134893 1.313780 21.467000 211 211 211 0
-2.053712 1.314376 21.476728 211 211 211 0
-1.978075 1.318716 21.547653 212 212 212 0
-1.897127 1.319741 21.564393 212 212 212 0
-1.815881 1.320641 21.579095 211 211 211 0
-1.731203 1.319012 21.552478 212 212 212 0
-1.652217 1.321774 21.597611 212 212 212 0
-1.572795 1.324459 21.641482 213 213 213 0
-1.492316 1.326503 21.674886 214 214 214 0
-1.410498 1.327527 21.691624 213 213 213 0
-1.329331 1.329331 21.721103 212 212 212 0
-1.250774 1.334159 21.799991 213 213 213 0
-1.169294 1.336337 21.835565 213 213 213 0
-1.088247 1.339381 21.885311 214 214 214 0
-1.007558 1.343411 21.951156 213 213 213 0
-0.927245 1.348721 22.037920 213 213 213 0
-0.842605 1.348168 22.028883 215 215 215 0
-0.757384 1.346460 22.000987 214 214 214 0
-0.674084 1.348168 22.028894 215 215 215 0
-0.593578 1.356751 22.169128 215 215 215 0
-0.509101 1.357602 22.183033 215 215 215 0
-0.424276 1.357682 22.184340 214 214 214 0
-0.338606 1.354426 22.131137 215 215 215 0
-0.253570 1.352374 22.097617 215 215 215 0
-0.169507 1.356053 22.157722 215 215 215 0
-0.085192 1.363076 22.272491 216 216 216 0
0.000000 1.366737 22.332311 216 216 216 0
0.085255 1.364075 22.288807 210 210 210 0
0.169586 1.356686 22.168079 204 204 204 0
0.253979 1.354556 22.133272 203 203 203 0
0.338601 1.354406 22.130813 204 204 204 0
0.424087 1.357078 22.174475 203 203 203 0
0.508925 1.357133 22.175372 202 202 202 0
0.592023 1.353195 22.111029 203 203 203 0
0.674434 1.348869 22.040337 203 203 203 0
0.758474 1.348399 22.032656 204 204 204 0
0.845158 1.352253 22.095637 204 204 204 0
0.931537 1.354962 22.139909 204 204 204 0
1.018049 1.357399 22.179721 205 205 205 0
1.098516 1.352019 22.091819 206 206 206 0
1.178333 1.346666 22.004343 207 207 207 0
1.258675 1.342586 21.937684 206 206 206 0
1.345041 1.345041 21.977786 207 207 207 0
1.436536 1.352034 22.092060 208 208 208 0
1.517669 1.349039 22.043121 208 208 208 0
1.597436 1.345209 21.980546 208 208 208 0
1.675525 1.340420 21.902287 208 208 208 0
1.757382 1.338958 21.878391 208 208 208 0
1.842248 1.339817 21.892435 208 208 208 0
1.933704 1.345186 21.980156 209 209 209 0
2.016477 1.344318 21.965977 210 210 210 0
2.098680 1.343155 21.946985 209 209 209 0
2.182336 1.342976 21.944056 209 209 209 0
2.269603 1.344950 21.976304 209 209 209 0
2.356119 1.346354 21.999244 210 210 210 0
2.442539 1.347608 22.019738 210 210 210 0
2.529269 1.348944 22.041561 210 210 210 0
2.611243 1.347738 22.021870 210 210 210 0
2.703578 1.351789 22.088060 211 211 211 0
2.797269 1.356252 22.160975 210 210 210 0
2.885991 1.358113 22.191394 210 210 210 0
2.979183 1.361912 22.253465 211 211 211 0
3.059841 1.359930 22.221071 210 210 210 0
3.146008 1.360436 22.229342 209 209 209 0
3.234777 1.362011 22.255087 209 209 209 0
3.338585 1.369676 22.380322 210 210 210 0
3.419192 1.367677 22.347660 211 211 211 0
3.504421 1.367579 22.346060 210 210 210 0
3.590653 1.367868 22.350782 210 210 210 0
3.685811 1.371465 22.409552 211 211 211 0
3.787467 1.377261 22.504263 210 210 210 0
3.875676 1.378018 22.516635 211 211 211 0
3.980697 1.384590 22.624023 210 210 210 0
4.077577 1.388111 22.681556 210 210 210 0
4.180584 1.393528 22.770067 208 208 208 0
4.291477 1.401299 22.897036 209 209 209 0
4.382444 1.402382 22.914742 209 209 209 0
4.476879 1.404511 22.949525 209 209 209 0
4.591803 1.412862 23.085986 209 209 209 0
4.710309 1.421980 23.234967 208 208 208 0
4.802503 1.422964 23.251044 208 208 208 0
4.908924 1.428051 23.334161 207 207 207 0
5.041366 1.440390 23.535791 208 208 208 0
5.144635 1.444108 23.596535 207 207 207 0
5.248787 1.447941 23.659172 206 206 206 0
5.373681 1.457270 23.811593 204 204 204 0
5.522057 1.472548 24.061250 204 204 204 0
5.650241 1.482030 24.216185 205 205 205 0
5.789576 1.494084 24.413138 202 202 202 0
5.957131 1.512922 24.720950 201 201 201 0
6.122901 1.530725 25.011850 200 200 200 0
6.368127 1.567539 25.613383 199 199 199 0
6.732563 1.632137 26.668897 207 207 207 0
6.954484 1.660772 27.136802 212 212 212 0
7.069729 1.663466 27.180810 212 212 212 0
7.200675 1.669722 27.283036 211 211 211 0
7.341493 1.678055 27.419207 211 211 211 0
7.463869 1.681999 27.483640 211 211 211 0
7.580037 1.684453 27.523736 210 210 210 0
7.710692 1.690015 27.614619 210 210 210 0
7.852920 1.697929 27.743932 211 211 211 0
7.996486 1.705917 27.874461 210 210 210 0
8.112629 1.707922 27.907220 209 209 209 0
8.247238 1.713712 28.001827 209 209 209 0
8.391824 1.721400 28.127447 209 209 209 0
8.508320 1.723204 28.156930 209 209 209 0
-7.057893 1.499802 23.065011 157 157 157 0
-6.791827 1.461532 22.476468 161 161 161 0
-6.614119 1.441539 22.168993 162 162 162 0
-6.484571 1.431659 22.017049 170 170 170 0
-6.413323 1.434559 22.061655 173 173 173 0
-6.340998 1.437293 22.103697 173 173 173 0
-6.274211 1.441373 22.166441 174 174 174 0
-6.190963 1.441731 22.171950 181 181 181 0
-6.093919 1.438842 22.127519 183 183 183 0
-5.957816 1.426519 21.938012 183 183 183 0
-5.842441 1.418879 21.820508 183 183 183 0
-5.754209 1.417704 21.802442 185 185 185 0
-5.653839 1.413460 21.737176 190 190 190 0
-5.575882 1.414776 21.757417 190 190 190 0
-5.541124 1.427259 21.949390 191 191 191 0
-5.438739 1.422439 21.875268 191 191 191 0
-5.314716 1.411722 21.710443 191 191 191 0
-5.214924 1.407202 21.640933 194 194 194 0
-5.140278 1.409431 21.675219 196 196 196 0
-5.092638 1.419260 21.826373 196 196 196 0
-5.045899 1.429671 21.986489 196 196 196 0
-4.930427 1.420632 21.847467 196 196 196 0
-4.794539 1.405296 21.611627 197 197 197 0
-4.671688 1.393311 21.427306 198 198 198 0
-4.565054 1.385820 21.312108 200 200 200 0
-4.524236 1.398400 21.505577 201 201 201 0
-4.506691 1.418773 21.818887 201 201 201 0
-4.408370 1.414006 21.745569 201 201 201 0
-4.279232 1.398980 21.514492 201 201 201 0
-4.161025 1.387008 21.330385 202 202 202 0
-4.056149 1.379091 21.208622 202 202 202 0
-3.983731 1.382111 21.255067 205 205 205 0
-3.936888 1.394315 21.442748 205 205 205 0
-3.872001 1.400511 21.538041 205 205 205 0
-3.768794 1.392815 21.419687 205 205 205 0
-3.661522 1.383242 21.272461 206 206 206 0
-3.576580 1.381861 21.251221 206 206 206 0
-3.506286 1.386206 21.318047 206 206 206 0
-3.446544 1.395030 21.453747 206 206 206 0
-3.363763 1.394731 21.449149 207 207 207 0
-3.281021 1.394434 21.444579 207 207 207 0
-3.184399 1.388071 21.346732 208 208 208 0
-3.110976 1.391752 21.403342 208 208 208 0
-3.043578 1.398401 21.505584 208 208 208 0
-2.976224 1.405439 21.613826 209 209 209 0
-2.896258 1.406754 21.634048 209 209 209 0
-2.805566 1.402783 21.572977 209 209 209 0
-2.715278 1.398780 21.511412 209 209 209 0
-2.624053 1.394028 21.438342 209 209 209 0
-2.545750 1.396057 21.469537 211 211 211 0
-2.373798 1.345152 20.686689 211 211 211 0
-2.409914 1.412708 21.725614 211 211 211 0
-2.311536 1.403433 21.582973 210 210 210 0
-2.215584 1.394997 21.453243 211 211 211 0
-2.133185 1.394775 21.449821 211 211 211 0
-2.054816 1.397275 21.488268 211 211 211 0
-1.978082 1.401142 21.547738 212 212 212 0
-1.898820 1.403476 21.583631 212 212 212 0
-1.816828 1.403913 21.590356 211 211 211 0
-1.732598 1.402579 21.569844 213 213 213 0
-1.653011 1.405059 21.607988 212 212 212 0
-1.573706 1.408053 21.654021 213 213 213 0
-1.491851 1.408971 21.668140 213 213 213 0
-1.409383 1.409383 21.674486 213 213 213 0
-1.329484 1.412577 21.723591 214 214 214 0
-1.248738 1.415237 21.764501 213 213 213 0
-1.169842 1.420523 21.845790 213 213 213 0
-1.089475 1.424698 21.910011 214 214 214 0
-1.007919 1.427886 21.959024 214 214 214 0
-0.927454 1.433338 22.042878 213 213 213 0
-0.842650 1.432504 22.030056 214 214 214 0
-0.757298 1.430451 21.998476 214 214 214 0
-0.673990 1.432228 22.025806 214 214 214 0
-0.593847 1.442200 22.179155 214 214 214 0
-0.509066 1.442353 22.181521 215 215 215 0
-0.424179 1.442207 22.179274 214 214 214 0
-0.338725 1.439582 22.138906 214 214 214 0
-0.253717 1.437731 22.110437 215 215 215 0
-0.169701 1.442460 22.183158 215 215 215 0
-0.085248 1.449220 22.287115 216 216 216 0
0.000000 1.453503 22.352984 215 215 215 0
0.085464 1.452882 22.343441 214 214 214 0
0.170164 1.446398 22.243715 207 207 207 0
0.255360 1.447037 22.253555 204 204 204 0
0.340155 1.445660 22.232374 203 203 203 0
0.425591 1.447008 22.253103 203 203 203 0
0.510578 1.446638 22.247417 203 203 203 0
0.593099 1.440382 22.151210 202 202 202 0
0.675697 1.435856 22.081603 203 203 203 0
0.759720 1.435026 22.068842 203 203 203 0
0.847067 1.440013 22.145530 203 203 203 0
0.934754 1.444620 22.216376 204 204 204 0
1.019759 1.444659 22.216971 204 204 204 0
1.100822 1.439537 22.138209 204 204 204 0
1.180217 1.433121 22.039540 204 204 204 0
1.263117 1.431532 22.015104 206 206 206 0
1.350143 1.434526 22.061152 206 206 206 0
1.442681 1.442681 22.186553 207 207 207 0
1.522549 1.437963 22.114004 208 208 208 0
1.600017 1.431594 22.016053 208 208 208 0
1.679990 1.427991 21.960648 209 209 209 0
1.762184 1.426530 21.938181 208 208 208 0
1.849962 1.429516 21.984098 209 209 209 0
1.939661 1.433662 22.047864 208 208 208 0
2.024096 1.433735 22.048980 208 208 208 0
2.104375 1.430975 22.006537 209 209 209 0
2.188813 1.431147 22.009185 209 209 209 0
2.276226 1.433179 22.040432 209 209 209 0
2.365176 1.436000 22.083811 210 210 210 0
2.453732 1.438395 22.120642 210 210 210 0
2.537604 1.437976 22.114198 210 210 210 0
2.624593 1.439293 22.134456 210 210 210 0
2.711775 1.440631 22.155026 209 209 209 0
2.807351 1.446211 22.240846 209 209 209 0
2.897894 1.448947 22.282921 209 209 209 0
2.987225 1.450938 22.313538 209 209 209 0
3.067858 1.448711 22.279286 209 209 209 0
3.156728 1.450388 22.305089 210 210 210 0
3.250754 1.454285 22.365006 209 209 209 0
3.344805 1.457992 22.422022 210 210 210 0
3.429356 1.457476 22.414091 211 211 211 0
3.515090 1.457476 22.414091 210 210 210 0
3.602379 1.458106 22.423772 209 209 209 0
3.701307 1.463308 22.503768 211 211 211 0
3.802298 1.469070 22.592382 210 210 210 0
3.898127 1.472626 22.647071 210 210 210 0
3.996044 1.476799 22.711247 209 209 209 0
4.092603 1.480303 22.765139 209 209 209 0
4.201390 1.487992 22.883385 210 210 210 0
4.308162 1.494669 22.986061 209 209 209 0
4.401984 1.496675 23.016910 209 209 209 0
4.499001 1.499667 23.062932 209 209 209 0
4.619025 1.510066 23.222851 208 208 208 0
4.727273 1.516295 23.318650 207 207 207 0
4.830815 1.520812 23.388117 207 207 207 0
4.944900 1.528424 23.505171 207 207 207 0
5.067249 1.538272 23.656622 206 206 206 0
5.171529 1.542386 23.719890 205 205 205 0
5.274497 1.545973 23.775059 205 205 205 0
5.428050 1.564014 24.052509 205 205 205 0
5.560513 1.575479 24.228813 204 204 204 0
5.681863 1.583470 24.351711 202 202 202 0
5.848662 1.603665 24.662289 201 201 201 0
6.020497 1.624579 24.983908 199 199 199 0
6.249160 1.659933 25.527613 197 197 197 0
6.651275 1.739564 26.752237 206 206 206 0
6.755439 1.740037 26.759513 212 212 212 0
6.931099 1.758637 27.045554 212 212 212 0
7.059885 1.764971 27.142963 211 211 211 0
7.192789 1.772136 27.253155 211 211 211 0
7.333879 1.781085 27.390769 211 211 211 0
7.455520 1.785124 27.452894 210 210 210 0
7.578174 1.789291 27.516972 211 211 211 0
7.702906 1.793827 27.586735 211 211 211 0
7.843552 1.801897 27.710834 210 210 210 0
7.985464 1.810039 27.836041 210 210 210 0
8.101453 1.812167 27.868775 210 210 210 0
8.234796 1.818072 27.959584 209 209 209 0
8.382394 1.826932 28.095839 210 210 210 0
8.502552 1.829663 28.137841 210 210 210 0
-7.050111 1.586275 23.039578 155 155 155 0
-6.768876 1.542276 22.400516 160 160 160 0
-6.607606 1.524832 22.147163 161 161 161 0
-6.520522 1.524278 22.139113 169 169 169 0
-6.414629 1.519254 22.066146 173 173 173 0
-6.330369 1.519289 22.066646 173 173 173 0
-6.279321 1.527402 22.184494 173 173 173 0
-6.180748 1.524020 22.135367 181 181 181 0
-6.085637 1.521409 22.097447 182 182 182 0
-5.954930 1.509700 21.927385 182 182 182 0
-5.851930 1.504782 21.855947 183 183 183 0
-5.757051 1.501839 21.813208 185 185 185 0
-5.656130 1.497211 21.745981 190 190 190 0
-5.572593 1.497114 21.744582 190 190 190 0
-5.535732 1.509745 21.928033 190 190 190 0
-5.433183 1.504574 21.852925 191 191 191 0
-5.315239 1.494911 21.712579 191 191 191 0
-5.211473 1.488992 21.626613 194 194 194 0
-5.145616 1.493888 21.697726 196 196 196 0
-5.102145 1.505551 21.867119 196 196 196 0
-5.046301 1.513890 21.988238 196 196 196 0
-4.932205 1.504741 21.855346 196 196 196 0
-4.800522 1.489817 21.638593 196 196 196 0
-4.677858 1.477218 21.455602 197 197 197 0
-4.563772 1.466927 21.306124 200 200 200 0
-4.523351 1.480369 21.501372 201 201 201 0
-4.508169 1.502723 21.826044 201 201 201 0
-4.402049 1.495035 21.714386 201 201 201 0
-4.279466 1.481354 21.515665 202 202 202 0
-4.159667 1.468118 21.323424 202 202 202 0
-4.058641 1.461111 21.221650 201 201 201 0
-3.982069 1.462801 21.246198 204 204 204 0
-3.940283 1.477606 21.461234 205 205 205 0
-3.872004 1.482895 21.538057 205 205 205 0
-3.772301 1.476118 21.439619 205 205 205 0
-3.668777 1.467511 21.314607 205 205 205 0
-3.580970 1.464942 21.277303 205 205 205 0
-3.512906 1.470519 21.358300 206 206 206 0
-3.448625 1.477982 21.466697 206 206 206 0
-3.370413 1.479694 21.491556 207 207 207 0
-3.282742 1.477234 21.455833 208 208 208 0
-3.188465 1.471599 21.373991 209 209 209 0
-3.114825 1.475444 21.429827 208 208 208 0
-3.045797 1.481739 21.521262 209 209 209 0
-2.976513 1.488256 21.615923 208 208 208 0
-2.896217 1.489483 21.633741 208 208 208 0
-2.806147 1.485607 21.577451 210 210 210 0
-2.712877 1.479751 21.492389 209 209 209 0
-2.630950 1.479909 21.494688 209 209 209 0
-2.546661 1.478706 21.477217 210 210 210 0
-2.256776 1.354065 19.666891 210 210 210 0
-2.408195 1.494741 21.710116 210 210 210 0
-2.311486 1.485956 21.582507 211 211 211 0
-2.218260 1.478840 21.479158 211 211 211 0
-2.135790 1.478624 21.476013 211 211 211 0
-2.056135 1.480417 21.502062 212 212 212 0
-1.979998 1.484998 21.568605 211 211 211 0
-1.899437 1.486516 21.590646 212 212 212 0
-1.816131 1.485926 21.582070 212 212 212 0
-1.732879 1.485325 21.573352 212 212 212 0
-1.653186 1.487867 21.610268 213 213 213 0
-1.574225 1.491371 21.661159 212 212 212 0
-1.493238 1.493238 21.688278 213 213 213 0
-1.409844 1.492776 21.681570 213 213 213 0
-1.329945 1.496188 21.731127 213 213 213 0
-1.250398 1.500477 21.793422 213 213 213 0
-1.170463 1.504881 21.857388 213 213 213 0
-1.088907 1.507717 21.898578 214 214 214 0
-1.008452 1.512678 21.970627 213 213 213 0
-0.926840 1.516648 22.028293 214 214 214 0
-0.842491 1.516483 22.025896 213 213 213 0
-0.757422 1.514845 22.002100 214 214 214 0
-0.673801 1.516052 22.019641 215 215 215 0
-0.593159 1.525267 22.153474 214 214 214 0
-0.508986 1.526959 22.178047 214 214 214 0
-0.424072 1.526658 22.173679 214 214 214 0
-0.338967 1.525351 22.154703 214 214 214 0
-0.253852 1.523115 22.122220 214 214 214 0
-0.169959 1.529630 22.216850 215 215 215 0
-0.085350 1.536305 22.313798 215 215 215 0
0.000000 1.539560 22.361082 215 215 215 0
0.085553 1.539957 22.366838 215 215 215 0
0.170770 1.536928 22.322853 214 214 214 0
0.256275 1.537649 22.333316 207 207 207 0
0.341778 1.538001 22.338432 202 202 202 0
0.427398 1.538633 22.347605 203 203 203 0
0.512386 1.537157 22.326177 203 203 203 0
0.594464 1.528622 22.202208 203 203 203 0
0.677911 1.525299 22.153949 204 204 204 0
0.761731 1.523463 22.127272 203 203 203 0
0.849618 1.529313 22.212237 203 203 203 0
0.937924 1.534784 22.291705 204 204 204 0
1.022254 1.533382 22.271338 204 204 204 0
1.103307 1.527656 22.188177 204 204 204 0
1.182707 1.520623 22.086027 203 203 203 0
1.267592 1.521110 22.093098 205 205 205 0
1.331530 1.497971 21.757027 204 204 204 0
1.446789 1.531895 22.249741 205 205 205 0
1.527545 1.527545 22.186559 206 206 206 0
1.604223 1.519790 22.073935 205 205 205 0
1.685458 1.516912 22.032129 206 206 206 0
1.768672 1.516004 22.018943 208 208 208 0
1.861553 1.523089 22.121842 207 207 207 0
1.947390 1.524044 22.135722 207 207 207 0
2.028056 1.521042 22.092117 208 208 208 0
2.110418 1.519501 22.069735 209 209 209 0
2.194785 1.519467 22.069234 208 208 208 0
2.284598 1.523065 22.121502 208 208 208 0
2.373969 1.526123 22.165907 208 208 208 0
2.459752 1.526742 22.174906 207 207 207 0
2.543723 1.526234 22.167519 210 210 210 0
2.634341 1.529617 22.216666 209 209 209 0
2.720847 1.530477 22.229145 209 209 209 0
2.818836 1.537547 22.331838 209 209 209 0
2.908795 1.539950 22.366745 209 209 209 0
2.995458 1.540521 22.375034 209 209 209 0
3.078226 1.539113 22.354581 210 210 210 0
3.167919 1.541150 22.384165 209 209 209 0
3.310039 1.567913 22.772887 210 210 210 0
3.355987 1.548917 22.496977 210 210 210 0
3.442097 1.548944 22.497366 210 210 210 0
3.527251 1.548549 22.491639 211 211 211 0
3.615869 1.549658 22.507741 210 210 210 0
3.716411 1.555707 22.595600 209 209 209 0
3.817620 1.561754 22.683422 209 209 209 0
3.913911 1.565564 22.738769 209 209 209 0
4.011385 1.569672 22.798437 209 209 209 0
4.112488 1.574996 22.875752 209 209 209 0
4.221676 1.583129 22.993878 209 209 209 0
4.324366 1.588543 23.072517 209 209 209 0
4.420380 1.591337 23.113099 209 209 209 0
4.527489 1.597937 23.208964 208 208 208 0
4.645412 1.608027 23.355516 206 206 206 0
4.751455 1.613702 23.437932 207 207 207 0
4.850271 1.616757 23.482311 207 207 207 0
5.392897 1.764948 25.634686 207 207 207 0
5.095676 1.637896 23.789336 206 206 206 0
5.201441 1.642560 23.857083 204 204 204 0
5.336059 1.656018 24.052553 204 204 204 0
5.475828 1.670592 24.264219 204 204 204 0
5.593034 1.677910 24.370520 202 202 202 0
5.723564 1.688920 24.530436 201 201 201 0
5.886879 1.709094 24.823442 200 200 200 0
6.093490 1.740997 25.286813 198 198 198 0
6.083846 1.711082 24.852312 203 203 203 0
6.667656 1.846428 26.818122 212 212 212 0
6.779167 1.848864 26.853504 211 211 211 0
6.911287 1.856764 26.968245 213 213 213 0
7.041094 1.863819 27.070721 211 211 211 0
7.174661 1.871651 27.184469 211 211 211 0
7.315469 1.881121 27.322013 211 211 211 0
7.443388 1.887056 27.408221 211 211 211 0
7.573282 1.893320 27.499208 210 210 210 0
7.697546 1.898025 27.567538 211 211 211 0
7.835977 1.906048 27.684073 210 210 210 0
7.978982 1.914956 27.813444 210 210 210 0
8.095553 1.917368 27.848478 209 209 209 0
8.226721 1.923129 27.932164 209 209 209 0
8.377392 1.933244 28.079074 209 209 209 0
8.493786 1.935293 28.108831 210 210 210 0
-7.062120 1.677253 23.078823 153 153 153 0
-6.785764 1.632019 22.456405 160 160 160 0
-6.601082 1.607956 22.125297 161 161 161 0
-6.505497 1.605253 22.088099 168 168 168 0
-6.411185 1.602796 22.054300 173 173 173 0
-6.336115 1.605149 22.086676 173 173 173 0
-6.290651 1.615167 22.224522 174 174 174 0
-6.183381 1.609373 22.144799 180 180 180 0
-6.088933 1.606802 22.109416 183 183 183 0
-5.953674 1.593237 21.922761 183 183 183 0
-5.852324 1.588488 21.857420 183 183 183 0
-5.759568 1.585968 21.822746 184 184 184 0
-5.658658 1.581096 21.755702 189 189 189 0
-5.587891 1.584626 21.804277 190 190 190 0
-5.535971 1.593689 21.928982 190 190 190 0
-5.425457 1.585903 21.821850 190 190 190 0
-5.321466 1.579810 21.738013 191 191 191 0
-5.213201 1.572235 21.633785 192 192 192 0
-5.146680 1.577208 21.702212 196 196 196 0
-5.101627 1.589031 21.864898 196 196 196 0
-5.049992 1.599164 22.004324 196 196 196 0
-4.934986 1.589233 21.867669 197 197 197 0
-4.800396 1.572543 21.638025 197 197 197 0
-4.675272 1.558424 21.443743 198 198 198 0
-4.569717 1.550440 21.333878 200 200 200 0
-4.520089 1.561485 21.485867 201 201 201 0
-4.509531 1.586687 21.832638 201 201 201 0
-4.401834 1.578016 21.713326 201 201 201 0
-4.284881 1.565630 21.542890 201 201 201 0
-4.161476 1.550354 21.332697 202 202 202 0
-4.065632 1.544940 21.258208 202 202 202 0
-3.985087 1.545238 21.262301 202 202 202 0
-3.943905 1.561129 21.480964 205 205 205 0
-3.872192 1.565354 21.539102 205 205 205 0
-3.770265 1.557283 21.428046 205 205 205 0
-3.667993 1.548708 21.310052 205 205 205 0
-3.582641 1.547049 21.287230 205 205 205 0
-3.517741 1.554351 21.387695 205 205 205 0
-3.450011 1.560719 21.475324 206 206 206 0
-3.373487 1.563323 21.511158 206 206 206 0
-3.285862 1.560784 21.476221 208 208 208 0
-3.190944 1.554562 21.390606 208 208 208 0
-3.115352 1.557676 21.433451 208 208 208 0
-3.046620 1.564481 21.527080 208 208 208 0
-2.979665 1.572601 21.638818 209 209 209 0
-2.898105 1.573257 21.647845 209 209 209 0
-2.808206 1.569292 21.593280 209 209 209 0
-2.716763 1.564197 21.523180 209 209 209 0
-2.635781 1.564995 21.534161 209 209 209 0
-2.547557 1.561406 21.484773 210 210 210 0
-2.094932 1.326790 18.256484 210 210 210 0
-2.403346 1.574606 21.666409 210 210 210 0
-2.310168 1.567614 21.570193 210 210 210 0
-2.221083 1.562984 21.506490 210 210 210 0
-2.137435 1.561971 21.492555 211 211 211 0
-2.055244 1.561985 21.492748 211 211 211 0
-1.980711 1.568063 21.576372 211 211 211 0
-1.899853 1.569444 21.595378 212 212 212 0
-1.817374 1.569550 21.596842 212 212 212 0
-1.733587 1.568483 21.582156 212 212 212 0
-1.654213 1.571502 21.623694 213 213 213 0
-1.574890 1.574890 21.670313 212 212 212 0
-1.493202 1.576158 21.687756 213 213 213 0
-1.411371 1.577414 21.705049 212 212 212 0
-1.330170 1.579576 21.734798 212 212 212 0
-1.250892 1.584464 21.802045 213 213 213 0
-1.169685 1.587430 21.842866 213 213 213 0
-1.089173 1.591868 21.903933 213 213 213 0
-1.008677 1.597072 21.975530 214 214 214 0
-0.927347 1.601781 22.040324 214 214 214 0
-0.842601 1.600943 22.028796 213 213 213 0
-0.757434 1.599028 22.002453 214 214 214 0
-0.674184 1.601188 22.032173 214 214 214 0
-0.593037 1.609673 22.148922 214 214 214 0
-0.508984 1.611781 22.177934 214 214 214 0
-0.424070 1.611468 22.173616 215 215 215 0
-0.339060 1.610535 22.160788 214 214 214 0
-0.253950 1.608348 22.130686 216 216 216 0
-0.169997 1.614968 22.221787 215 215 215 0
-0.085391 1.622424 22.324370 215 215 215 0
0.000000 1.624915 22.358650 214 214 214 0
0.085595 1.626300 22.377710 215 215 215 0
0.171038 1.624858 22.357872 215 215 215 0
0.256643 1.625408 22.365436 214 214 214 0
0.342679 1.627723 22.397292 206 206 206 0
0.428433 1.628047 22.401745 202 202 202 0
0.513093 1.624794 22.356986 203 203 203 0
0.596451 1.618939 22.276420 203 203 203 0
0.679631 1.614123 22.210158 203 203 203 0
0.765436 1.615921 22.234892 202 202 202 0
0.852900 1.620510 22.298039 204 204 204 0
0.941169 1.625656 22.368852 203 203 203 0
1.025331 1.623442 22.338377 204 204 204 0
1.106019 1.616489 22.242712 205 205 205 0
1.186314 1.609997 22.153381 204 204 204 0
1.271653 1.610760 22.163879 204 204 204 0
1.365604 1.621655 22.313789 205 205 205 0
1.450330 1.620957 22.304184 205 205 205 0
1.530156 1.615164 22.224482 205 205 205 0
1.608444 1.608444 22.132006 206 206 206 0
1.690769 1.606231 22.101558 206 206 206 0
1.777520 1.608232 22.129095 206 206 206 0
1.871446 1.616249 22.239412 207 207 207 0
1.955144 1.615119 22.223854 206 206 206 0
2.034551 1.610686 22.162868 207 207 207 0
2.118763 1.610260 22.156997 208 208 208 0
2.203946 1.610576 22.161348 208 208 208 0
2.293719 1.614099 22.209823 208 208 208 0
2.382918 1.616980 22.249471 209 209 209 0
2.467833 1.616856 22.247758 208 208 208 0
2.551390 1.615881 22.234338 208 208 208 0
2.642915 1.619851 22.288971 209 209 209 0
2.735952 1.624471 22.352548 208 208 208 0
2.829412 1.629055 22.415622 210 210 210 0
2.922544 1.633186 22.472461 210 210 210 0
3.005742 1.631688 22.451853 209 209 209 0
3.088211 1.629889 22.427096 209 209 209 0
3.181375 1.633679 22.479244 209 209 209 0
3.283561 1.641780 22.590716 209 209 209 0
3.368046 1.640843 22.577817 210 210 210 0
3.452609 1.639989 22.566071 209 209 209 0
3.538513 1.639799 22.563451 210 210 210 0
3.631787 1.642951 22.606830 209 209 209 0
3.737409 1.651413 22.723265 208 208 208 0
3.831442 1.654487 22.765552 209 209 209 0
3.931587 1.660003 22.841462 209 209 209 0
4.025103 1.662542 22.876400 209 209 209 0
4.127454 1.668545 22.959000 208 208 208 0
4.238383 1.677693 23.084876 208 208 208 0
4.335569 1.681139 23.132288 209 209 209 0
4.444714 1.688991 23.240332 207 207 207 0
4.558986 1.698446 23.370426 206 206 206 0
4.674469 1.707979 23.501603 207 207 207 0
4.770342 1.710123 23.531099 207 207 207 0
4.877664 1.716215 23.614932 206 206 206 0
5.009724 1.730632 23.813306 205 205 205 0
5.113452 1.734921 23.872324 204 204 204 0
5.230027 1.743342 23.988198 204 204 204 0
5.382141 1.763115 24.260270 203 203 203 0
5.508897 1.774052 24.410754 202 202 202 0
5.628349 1.782310 24.524396 201 201 201 0
5.801020 1.806875 24.862403 200 200 200 0
6.009217 1.841534 25.339308 199 199 199 0
6.263624 1.889030 25.992839 203 203 203 0
6.552983 1.945417 26.768721 210 210 210 0
6.656963 1.945881 26.775115 212 212 212 0
6.770828 1.949178 26.820470 212 212 212 0
6.908751 1.959198 26.958350 212 212 212 0
7.030360 1.964365 27.029451 211 211 211 0
7.156895 1.970739 27.117156 212 212 212 0
7.292142 1.979296 27.234892 211 211 211 0
7.431015 1.988581 27.362663 210 210 210 0
7.566211 1.996639 27.473534 210 210 210 0
7.690119 2.001538 27.540939 210 210 210 0
7.825368 2.009216 27.646594 210 210 210 0
7.969090 2.018836 27.778963 210 210 210 0
8.088374 2.022093 27.823783 210 210 210 0
8.220971 2.028551 27.912642 210 210 210 0
8.373315 2.039654 28.065409 209 209 209 0
8.491698 2.042307 28.101921 209 209 209 0
-7.069273 1.767318 23.102200 151 151 151 0
-6.775261 1.715256 22.421646 160 160 160 0
-6.608854 1.694578 22.151344 160 160 160 0
-6.508489 1.690517 22.098257 166 166 166 0
-6.396636 1.683325 22.004253 173 173 173 0
-6.337638 1.690037 22.091984 173 173 173 0
-6.275100 1.695973 22.169583 174 174 174 0
-6.191312 1.696250 22.173201 177 177 177 0
-6.107187 1.696441 22.175698 182 182 182 0
-5.965174 1.680331 21.965106 183 183 183 0
-5.852329 1.672094 21.857440 183 183 183 0
-5.764697 1.670927 21.842180 184 184 184 0
-5.663672 1.665786 21.774977 187 187 187 0
-5.587071 1.667782 21.801077 190 190 190 0
-5.542674 1.679598 21.955530 191 191 191 0
-5.438252 1.673308 21.873310 191 191 191 0
-5.318819 1.662131 21.727201 191 191 191 0
-5.215804 1.655811 21.644586 192 192 192 0
-5.154529 1.662751 21.735311 196 196 196 0
-5.106393 1.674227 21.885325 196 196 196 0
-5.053265 1.684422 22.018584 196 196 196 0
-4.935453 1.673035 21.869736 197 197 197 0
-4.801268 1.655610 21.641955 197 197 197 0
-4.679440 1.641909 21.462860 196 196 196 0
-4.563803 1.629930 21.306269 199 199 199 0
-4.471461 1.625986 21.254715 201 201 201 0
-4.513811 1.671782 21.853356 201 201 201 0
-4.406251 1.662736 21.735115 201 201 201 0
-4.285213 1.648159 21.544559 201 201 201 0
-4.165961 1.633710 21.355687 201 201 201 0
-4.067152 1.626861 21.266152 202 202 202 0
-3.988498 1.627959 21.280504 202 202 202 0
-3.947645 1.644852 21.501336 204 204 204 0
-3.878131 1.650268 21.572136 205 205 205 0
-3.771075 1.639598 21.432649 205 205 205 0
-3.673074 1.632477 21.339572 205 205 205 0
-3.585207 1.629640 21.302478 206 206 206 0
-3.520261 1.637331 21.403015 205 205 205 0
-3.452868 1.644223 21.493111 206 206 206 0
-3.375544 1.646607 21.524272 206 206 206 0
-3.292055 1.646028 21.516701 207 207 207 0
-3.191093 1.636458 21.391606 208 208 208 0
-3.115664 1.639823 21.435595 208 208 208 0
-3.048586 1.647884 21.540973 209 209 209 0
-2.980273 1.655707 21.643231 209 209 209 0
-2.900476 1.657415 21.665551 209 209 209 0
-2.809926 1.652898 21.606507 209 209 209 0
-2.719115 1.647948 21.541809 208 208 208 0
-2.636528 1.647830 21.540265 209 209 209 0
-2.554113 1.647815 21.540064 209 209 209 0
-1.890271 1.260180 16.472946 210 210 210 0
-2.398443 1.654099 21.622207 210 210 210 0
-2.313574 1.652553 21.602000 210 210 210 0
-2.221390 1.645474 21.509466 211 211 211 0
-2.137958 1.644583 21.497816 211 211 211 0
-2.058279 1.646623 21.524489 211 211 211 0
-1.982233 1.651861 21.592951 211 211 211 0
-1.902229 1.654112 21.622383 211 211 211 0
-1.817958 1.652689 21.603776 212 212 212 0
-1.735207 1.652578 21.602326 212 212 212 0
-1.656655 1.656655 21.655619 212 212 212 0
-1.575521 1.658443 21.678997 213 213 213 0
-1.494389 1.660432 21.704990 212 212 212 0
-1.414095 1.663641 21.746942 213 213 213 0
-1.332044 1.665054 21.765417 213 213 213 0
-1.250131 1.666842 21.788778 213 213 213 0
-1.169849 1.671213 21.845918 213 213 213 0
-1.089702 1.676464 21.914562 213 213 213 0
-1.008547 1.680912 21.972702 213 213 213 0
-0.928067 1.687395 22.057454 214 214 214 0
-0.843434 1.686868 22.050563 214 214 214 0
-0.757684 1.683743 22.009706 213 213 213 0
-0.674314 1.685785 22.036410 214 214 214 0
-0.592979 1.694227 22.146757 214 214 214 0
-0.508925 1.696417 22.175382 214 214 214 0
-0.423999 1.695997 22.169898 214 214 214 0
-0.339026 1.695131 22.158581 214 214 214 0
-0.254051 1.693675 22.139544 214 214 214 0
-0.170100 1.701001 22.235303 214 214 214 0
-0.085407 1.708149 22.328745 214 214 214 0
0.000000 1.711474 22.372212 215 215 215 0
0.085645 1.712903 22.390891 215 215 215 0
0.171124 1.711241 22.369162 215 215 215 0
0.257198 1.714651 22.413735 215 215 215 0
0.343152 1.715761 22.428243 213 213 213 0
0.428908 1.715632 22.426558 205 205 205 0
0.513668 1.712227 22.382054 201 201 201 0
0.597316 1.706618 22.308732 201 201 201 0
0.682121 1.705302 22.291523 203 203 203 0
0.769439 1.709864 22.351160 202 202 202 0
0.856164 1.712328 22.383370 203 203 203 0
0.943249 1.714998 22.418279 204 204 204 0
1.026841 1.711401 22.371260 204 204 204 0
1.107981 1.704586 22.282164 205 205 205 0
1.190627 1.700896 22.233932 205 205 205 0
1.280129 1.706838 22.311610 205 205 205 0
1.372626 1.715783 22.428535 204 204 204 0
1.455208 1.712010 22.379214 204 204 204 0
1.534098 1.704553 22.281744 204 204 204 0
1.612812 1.697696 22.192109 206 206 206 0
1.696947 1.696947 22.182310 205 205 205 0
1.787901 1.702762 22.258332 206 206 206 0
1.877370 1.706700 22.309805 207 207 207 0
1.956700 1.701478 22.241546 208 208 208 0
2.042927 1.702439 22.254106 207 207 207 0
2.127962 1.702370 22.253199 208 208 208 0
2.216310 1.704854 22.285672 207 207 207 0
2.305512 1.707787 22.324012 208 208 208 0
2.393575 1.709697 22.348974 209 209 209 0
2.480779 1.710882 22.364474 209 209 209 0
2.564125 1.709417 22.345317 208 208 208 0
2.651132 1.710408 22.358273 207 207 207 0
2.747885 1.717428 22.450039 209 209 209 0
2.841795 1.722300 22.513725 209 209 209 0
2.931859 1.724623 22.544090 209 209 209 0
3.015135 1.722934 22.522017 209 209 209 0
3.104701 1.724834 22.546851 209 209 209 0
3.198969 1.729172 22.603561 209 209 209 0
3.294368 1.733878 22.665073 209 209 209 0
3.377181 1.731888 22.639053 209 209 209 0
3.462226 1.731113 22.628927 209 209 209 0
3.551565 1.732471 22.646679 208 208 208 0
3.654254 1.740121 22.746682 208 208 208 0
3.755591 1.746786 22.833808 209 209 209 0
3.853551 1.751614 22.896916 208 208 208 0
3.950975 1.755989 22.954103 209 209 209 0
4.040331 1.756666 22.962952 209 209 209 0
4.148517 1.765326 23.076162 209 209 209 0
4.259082 1.774617 23.197612 207 207 207 0
4.353521 1.776947 23.228072 207 207 207 0
4.462316 1.784926 23.332370 207 207 207 0
4.587024 1.798833 23.514156 207 207 207 0
4.694273 1.805490 23.601172 207 207 207 0
4.793498 1.808867 23.645322 207 207 207 0
4.885341 1.809386 23.652099 206 206 206 0
5.040124 1.832773 23.957811 203 203 203 0
5.146155 1.837912 24.024998 205 205 205 0
5.260170 1.845674 24.126455 204 204 204 0
5.423564 1.870194 24.446987 202 202 202 0
5.544366 1.879446 24.567923 201 201 201 0
5.683038 1.894346 24.762693 201 201 201 0
5.890311 1.931249 25.245091 198 198 198 0
6.174655 1.991824 26.036917 202 202 202 0
6.371035 2.022551 26.438572 211 211 211 0
6.550998 2.047187 26.760613 212 212 212 0
6.651158 2.046510 26.751765 212 212 212 0
6.757782 2.047813 26.768795 212 212 212 0
6.897914 2.059079 26.916064 212 212 212 0
7.018057 2.064135 26.982151 211 211 211 0
7.141463 2.069989 27.058683 211 211 211 0
7.275481 2.078709 27.172665 211 211 211 0
7.424103 2.091296 27.337209 210 210 210 0
7.554921 2.098589 27.432540 211 211 211 0
7.679313 2.103921 27.502238 210 210 210 0
7.814368 2.111991 27.607731 210 210 210 0
7.960147 2.122706 27.747788 210 210 210 0
8.084245 2.127433 27.809579 210 210 210 0
8.212552 2.133130 27.884057 210 210 210 0
8.363536 2.144496 28.032632 210 210 210 0
8.487749 2.148797 28.088853 209 209 209 0
-7.064043 1.854311 23.085109 148 148 148 0
-6.768849 1.799314 22.400427 160 160 160 0
-6.619671 1.782219 22.187601 161 161 161 0
-6.529908 1.780884 22.170980 164 164 164 0
-6.402997 1.769249 22.026135 172 172 172 0
-6.323892 1.770690 22.044068 173 173 173 0
-6.289952 1.784986 22.222052 173 173 173 0
-6.209006 1.786153 22.236571 176 176 176 0
-6.093996 1.777416 22.127800 183 183 183 0
-5.977805 1.768083 22.011619 182 182 182 0
-5.856970 1.757091 21.874773 183 183 183 0
-5.773992 1.757302 21.877396 183 183 183 0
-5.664148 1.749222 21.776809 186 186 186 0
-5.588212 1.751529 21.805529 190 190 190 0
-5.542361 1.763478 21.954290 191 191 191 0
-5.431706 1.754859 21.846983 191 191 191 0
-5.320647 1.745837 21.734667 191 191 191 0
-5.215514 1.738505 21.643382 191 191 191 0
-5.150789 1.744622 21.719541 195 195 195 0
-5.112726 1.760119 21.912466 196 196 196 0
-5.059165 1.770708 22.044294 197 197 197 0
-4.942071 1.759042 21.899064 197 197 197 0
-4.803901 1.739343 21.653823 197 197 197 0
-4.679691 1.724097 21.464012 197 197 197 0
-4.560185 1.710069 21.289379 198 198 198 0
-4.420211 1.687717 21.011104 201 201 201 0
-4.523514 1.759144 21.900334 201 201 201 0
-4.414211 1.749027 21.774377 201 201 201 0
-4.283901 1.730037 21.537963 201 201 201 0
-4.167248 1.715926 21.362288 202 202 202 0
-4.065480 1.707502 21.257413 201 201 201 0
-3.990654 1.710280 21.292007 203 203 203 0
-3.952431 1.729188 21.527400 204 204 204 0
-3.880372 1.733783 21.584604 204 204 204 0
-3.771777 1.721898 21.436640 205 205 205 0
-3.675911 1.715425 21.356057 206 206 206 0
-3.587968 1.712439 21.318885 205 205 205 0
-3.517502 1.717850 21.386239 206 206 206 0
-3.453708 1.726854 21.498337 206 206 206 0
-3.379514 1.730971 21.549587 206 206 206 0
-3.293451 1.729062 21.525824 207 207 207 0
-3.196848 1.721380 21.430188 207 207 207 0
-3.117853 1.723024 21.450654 208 208 208 0
-3.054039 1.733373 21.579501 209 209 209 0
-2.980967 1.738898 21.648275 208 208 208 0
-2.899204 1.739522 21.656051 209 209 209 0
-2.811461 1.736491 21.618311 209 209 209 0
-2.719796 1.730779 21.547202 209 209 209 0
-2.635236 1.729374 21.529708 209 209 209 0
-2.568310 1.739823 21.659790 210 210 210 0
-2.608528 1.825969 22.732267 209 209 209 0
-2.398903 1.737136 21.626348 210 210 210 0
-2.313215 1.734911 21.598642 211 211 211 0
-2.221635 1.727938 21.511834 211 211 211 0
-2.139080 1.727718 21.509097 211 211 211 0
-2.059294 1.729807 21.535098 211 211 211 0
-1.985635 1.737430 21.630009 211 211 211 0
-1.903624 1.738091 21.638234 211 211 211 0
-1.819248 1.736555 21.619104 211 211 211 0
-1.737482 1.737482 21.630648 212 212 212 0
-1.656815 1.739656 21.657712 212 212 212 0
-1.576699 1.742667 21.695200 212 212 212 0
-1.495632 1.744904 21.723053 213 213 213 0
-1.412318 1.744628 21.719614 213 213 213 0
-1.332784 1.749279 21.777511 213 213 213 0
-1.253420 1.754788 21.846095 213 213 213 0
-1.170783 1.756174 21.863358 213 213 213 0
-1.090503 1.761581 21.930671 213 213 213 0
-1.009518 1.766657 21.993864 214 214 214 0
-0.928457 1.772509 22.066714 213 213 213 0
-0.842516 1.769284 22.026573 214 214 214 0
-0.757980 1.768619 22.018287 213 213 213 0
-0.674278 1.769979 22.035217 213 213 213 0
-0.593011 1.779033 22.147942 214 214 214 0
-0.508927 1.781245 22.175480 214 214 214 0
-0.424139 1.781383 22.177190 215 215 215 0
-0.339106 1.780306 22.163788 213 213 213 0
-0.254221 1.779548 22.154350 214 214 214 0
-0.170361 1.788787 22.269365 214 214 214 0
-0.085507 1.795657 22.354897 214 214 214 0
0.000000 1.797850 22.382203 215 215 215 0
0.085655 1.798757 22.393491 215 215 215 0
0.171305 1.798707 22.392869 215 215 215 0
0.257386 1.801703 22.430167 215 215 215 0
0.343763 1.804756 22.468179 215 215 215 0
0.429850 1.805370 22.475822 212 212 212 0
0.515167 1.803086 22.447380 203 203 203 0
0.599117 1.797350 22.375971 202 202 202 0
0.683720 1.794765 22.343788 201 201 201 0
0.772815 1.803235 22.449240 201 201 201 0
0.860024 1.806051 22.484299 202 202 202 0
0.946682 1.807302 22.499874 202 202 202 0
1.029275 1.801231 22.424291 204 204 204 0
1.110608 1.794059 22.335000 203 203 203 0
1.195867 1.793801 22.331788 204 204 204 0
1.286764 1.801469 22.427252 205 205 205 0
1.376305 1.806400 22.488645 204 204 204 0
1.459830 1.803320 22.450291 204 204 204 0
1.538210 1.794578 22.341464 204 204 204 0
1.618664 1.789050 22.272640 206 206 206 0
1.703979 1.789177 22.274229 206 206 206 0
1.797025 1.797025 22.371920 207 207 207 0
1.885051 1.799367 22.401085 207 207 207 0
1.969786 1.798500 22.390287 207 207 207 0
2.051042 1.794662 22.342504 208 208 208 0
2.137967 1.795892 22.357822 206 206 206 0
2.226045 1.797959 22.383555 207 207 207 0
2.318464 1.803249 22.449418 208 208 208 0
2.405677 1.804258 22.461971 208 208 208 0
2.488764 1.802209 22.436461 208 208 208 0
2.578749 1.805124 22.472756 209 209 209 0
2.667298 1.806879 22.494607 208 208 208 0
2.762148 1.812659 22.566565 209 209 209 0
2.853698 1.815990 22.608025 210 210 210 0
2.940739 1.816339 22.612376 209 209 209 0
3.025153 1.815092 22.596844 208 208 208 0
3.120020 1.820011 22.658094 209 209 209 0
3.345335 1.898703 23.637764 208 208 208 0
3.305538 1.826745 22.741922 208 208 208 0
3.390842 1.825838 22.730631 208 208 208 0
3.477117 1.825486 22.726256 208 208 208 0
3.567465 1.827238 22.748064 208 208 208 0
3.674779 1.837390 22.874441 208 208 208 0
3.775834 1.844012 22.956885 209 209 209 0
3.872149 1.848071 23.007419 209 209 209 0
3.966979 1.851257 23.047083 209 209 209 0
4.064819 1.855678 23.102125 208 208 208 0
4.176144 1.865937 23.229839 207 207 207 0
4.274891 1.870265 23.283718 207 207 207 0
4.381999 1.878000 23.380015 207 207 207 0
4.494904 1.887860 23.502764 207 207 207 0
4.617905 1.901490 23.672461 207 207 207 0
4.718252 1.905448 23.721727 206 206 206 0
4.823393 1.911156 23.792790 204 204 204 0
4.963217 1.930140 24.029130 205 205 205 0
5.069406 1.935591 24.096996 204 204 204 0
5.176846 1.941317 24.168282 204 204 204 0
5.335583 1.965741 24.472347 202 202 202 0
5.466901 1.979395 24.642332 201 201 201 0
5.606240 1.995441 24.842094 201 201 201 0
5.787991 2.025797 25.220005 197 197 197 0
6.078865 2.092724 26.053210 201 201 201 0
6.265473 2.122176 26.419875 211 211 211 0
6.397952 2.132651 26.550272 213 213 213 0
6.536084 2.144653 26.699689 212 212 212 0
6.647741 2.147732 26.738021 212 212 212 0
6.751761 2.148287 26.744942 211 211 211 0
6.887507 2.158771 26.875453 211 211 211 0
7.013923 2.166065 26.966256 212 212 212 0
7.129306 2.169789 27.012620 211 211 211 0
7.265311 2.179593 27.134683 210 210 210 0
7.413698 2.192784 27.298896 211 211 211 0
7.549638 2.201978 27.413355 211 211 211 0
7.674978 2.207870 27.486714 210 210 210 0
7.804615 2.214823 27.573274 210 210 210 0
7.952491 2.226697 27.721100 210 210 210 0
8.077068 2.231821 27.784891 209 209 209 0
8.203197 2.237235 27.852294 209 209 209 0
8.355550 2.249571 28.005866 210 210 210 0
8.485161 2.255549 28.080286 210 210 210 0
-7.080115 1.947032 23.137631 146 146 146 0
-6.781774 1.888595 22.443201 158 158 158 0
-6.624582 1.868472 22.204061 160 160 160 0
-6.541736 1.869067 22.211140 162 162 162 0
-6.397156 1.851808 22.006039 172 172 172 0
-6.335716 1.858477 22.085283 173 173 173 0
-6.295755 1.871711 22.242555 173 173 173 0
-6.202676 1.869300 22.213898 175 175 175 0
-6.088508 1.860378 22.107873 181 181 181 0
-5.972367 1.850593 21.991593 183 183 183 0
-5.871877 1.845447 21.930445 183 183 183 0
-5.770697 1.839932 21.864912 184 184 184 0
-5.669508 1.834253 21.797417 185 185 185 0
-5.601129 1.839177 21.855931 190 190 190 0
