ply
    format ascii 1.0
    element vertex 18314
    property float x
    property float y
    property float z
    property uchar red
    property uchar green
    property uchar blue
    property uchar alpha
    end_header
-3.150089 2.128438 22.258178 171 171 171 0
-3.050763 2.118585 22.155139 172 172 172 0
-2.945497 2.103926 22.001843 173 173 173 0
-2.832175 2.082482 21.777587 173 173 173 0
-2.718688 2.059612 21.538428 179 179 179 0
-2.603765 2.034191 21.272587 184 184 184 0
-2.512803 2.026454 21.191679 183 183 183 0
-2.420399 2.016999 21.092804 184 184 184 0
-2.131571 1.837561 19.216329 183 183 183 0
-2.264036 2.021461 21.139458 186 186 186 0
-2.177398 2.016109 21.083493 191 191 191 0
-2.082073 2.001993 20.935876 192 192 192 0
-1.988606 1.988606 20.795875 192 192 192 0
-1.894705 1.973651 20.639483 192 192 192 0
-1.809789 1.967162 20.571627 193 193 193 0
-1.726508 1.961941 20.517027 192 192 192 0
-1.645327 1.958723 20.483373 196 196 196 0
-1.565562 1.956952 20.464862 198 198 198 0
-1.482935 1.951230 20.405022 198 198 198 0
-1.398171 1.941904 20.307489 198 198 198 0
-1.315271 1.934222 20.227161 199 199 199 0
-1.238346 1.934915 20.234404 199 199 199 0
-1.160807 1.934679 20.231935 199 199 199 0
-1.081562 1.931360 20.197227 201 201 201 0
-1.002326 1.927551 20.157391 203 203 203 0
-0.922683 1.922256 20.102021 203 203 203 0
-0.844887 1.920199 20.080510 204 204 204 0
-0.766316 1.915790 20.034400 204 204 204 0
-0.688112 1.911424 19.988743 204 204 204 0
-0.610671 1.908346 19.956554 204 204 204 0
-0.534243 1.908010 19.953049 204 204 204 0
-0.457813 1.907556 19.948300 206 206 206 0
-0.381706 1.908528 19.958460 207 207 207 0
-0.305165 1.907279 19.945402 208 208 208 0
-0.228109 1.900907 19.878764 208 208 208 0
-0.151567 1.894588 19.812681 208 208 208 0
-0.075603 1.890077 19.765512 208 208 208 0
0.000000 1.888148 19.745339 208 208 208 0
0.075743 1.893575 19.802087 208 208 208 0
0.151158 1.889470 19.759159 208 208 208 0
0.226164 1.884697 19.709252 210 210 210 0
0.300527 1.878295 19.642299 210 210 210 0
0.374524 1.872621 19.582970 211 211 211 0
0.448152 1.867300 19.527318 211 211 211 0
0.521856 1.863773 19.490433 211 211 211 0
0.597820 1.868188 19.536608 211 211 211 0
0.673273 1.870204 19.557689 211 211 211 0
0.746887 1.867216 19.526446 212 212 212 0
0.820128 1.863926 19.492040 212 212 212 0
0.893705 1.861885 19.470695 212 212 212 0
0.968829 1.863133 19.483742 214 214 214 0
1.044437 1.865066 19.503960 214 214 214 0
1.119195 1.865324 19.506660 213 213 213 0
1.193524 1.864882 19.502031 214 214 214 0
1.266336 1.862259 19.474602 213 213 213 0
1.339578 1.860525 19.456466 214 214 214 0
1.411541 1.857291 19.422651 214 214 214 0
1.488237 1.860296 19.454076 214 214 214 0
1.566230 1.864559 19.498660 215 215 215 0
1.641839 1.865727 19.510867 215 215 215 0
1.716235 1.865473 19.508218 215 215 215 0
1.786403 1.860836 19.459725 216 216 216 0
1.858842 1.858842 19.438875 216 216 216 0
1.932923 1.858580 19.436130 215 215 215 0
2.010611 1.861677 19.468515 216 216 216 0
2.092378 1.868194 19.536672 215 215 215 0
2.160801 1.862760 19.479841 216 216 216 0
2.228545 1.857121 19.420871 216 216 216 0
2.298458 1.853595 19.384003 217 217 217 0
2.373137 1.854013 19.388374 217 217 217 0
2.454803 1.859699 19.447834 216 216 216 0
2.533534 1.862893 19.481232 217 217 217 0
2.607891 1.862779 19.480042 216 216 216 0
2.679357 1.860664 19.457929 217 217 217 0
2.754135 1.860902 19.460411 217 217 217 0
2.835092 1.865192 19.505276 217 217 217 0
2.915166 1.868696 19.541923 217 217 217 0
2.988286 1.867679 19.531280 217 217 217 0
3.064857 1.868815 19.543163 218 218 218 0
3.141349 1.869851 19.553996 217 217 217 0
3.220091 1.872146 19.577999 217 217 217 0
3.299189 1.874539 19.603023 217 217 217 0
3.383883 1.879935 19.659450 217 217 217 0
3.464833 1.883061 19.692145 217 217 217 0
3.545896 1.886115 19.724076 218 218 218 0
3.617238 1.883978 19.701731 218 218 218 0
3.694803 1.885104 19.713504 218 218 218 0
3.775148 1.887574 19.739335 218 218 218 0
3.864909 1.894563 19.812424 217 217 217 0
3.934866 1.891763 19.783138 217 217 217 0
4.013326 1.893078 19.796895 218 218 218 0
4.091534 1.894229 19.808928 218 218 218 0
4.170124 1.895511 19.822334 218 218 218 0
4.258075 1.900927 19.878970 218 218 218 0
4.347341 1.906729 19.939646 218 218 218 0
4.433328 1.910917 19.983448 218 218 218 0
4.516769 1.913885 20.014487 217 217 217 0
4.599745 1.916560 20.042462 218 218 218 0
4.685250 1.920184 20.080360 217 217 217 0
4.774861 1.925347 20.134349 217 217 217 0
4.863052 1.929782 20.180731 218 218 218 0
4.952672 1.934638 20.231505 217 217 217 0
5.039751 1.938366 20.270492 217 217 217 0
5.148508 1.950193 20.394171 217 217 217 0
5.247170 1.957899 20.474763 216 216 216 0
5.324180 1.957419 20.469742 216 216 216 0
5.414111 1.961634 20.513824 217 217 217 0
5.527703 1.974180 20.645016 216 216 216 0
5.611917 1.976027 20.664334 216 216 216 0
5.696795 1.978054 20.685528 216 216 216 0
5.785479 1.981328 20.719774 216 216 216 0
5.889966 1.989853 20.808924 216 216 216 0
6.009226 2.003075 20.947193 216 216 216 0
6.097963 2.005909 20.976823 215 215 215 0
6.193330 2.010821 21.028197 215 215 215 0
6.309127 2.022156 21.146732 214 214 214 0
6.426367 2.033661 21.267038 213 213 213 0
-9.907356 3.219891 32.376981 186 186 186 0
-9.663217 3.180299 31.978877 187 187 187 0
-9.600509 3.200170 32.178679 187 187 187 0
-9.589627 3.238056 32.559638 186 186 186 0
-9.581780 3.277977 32.961059 188 188 188 0
-9.400707 3.258912 32.769348 188 188 188 0
-9.200387 3.232568 32.504458 188 188 188 0
-9.089854 3.237482 32.553868 188 188 188 0
-9.192494 3.319512 33.378699 188 188 188 0
-9.044351 3.312016 33.303325 189 189 189 0
-8.817741 3.275161 32.932738 189 189 189 0
-8.591190 3.237260 32.551632 189 189 189 0
-8.434100 3.224803 32.426374 189 189 189 0
-8.581248 3.330036 33.484529 190 190 190 0
-8.369294 3.296995 33.152284 190 190 190 0
-8.119727 3.247891 32.658529 189 189 189 0
-7.948203 3.228958 32.468151 190 190 190 0
-7.935793 3.275089 32.932018 190 190 190 0
-7.899870 3.312849 33.311702 191 191 191 0
-7.698556 3.281352 32.994990 191 191 191 0
-7.507802 3.253381 32.713736 191 191 191 0
-7.384957 3.254388 32.723860 190 190 190 0
-7.334276 3.287779 33.059615 191 191 191 0
-7.215824 3.291428 33.096314 191 191 191 0
-6.979777 3.240611 32.585325 182 182 182 0
-6.523120 3.083657 31.007108 100 100 100 0
-4.232604 2.292661 23.053401 69 69 69 0
-4.157988 2.350167 23.631646 74 74 74 0
-4.149478 2.397476 24.107350 100 100 100 0
-4.017908 2.374218 23.873485 113 113 113 0
-3.837015 2.320056 23.328864 136 136 136 0
-3.679990 2.278089 22.906877 138 138 138 0
-3.539483 2.244550 22.569636 147 147 147 0
-3.445828 2.239789 22.521755 157 157 157 0
-3.365424 2.243616 22.560244 159 159 159 0
-3.252679 2.225517 22.378252 160 160 160 0
-3.151570 2.214617 22.268643 170 170 170 0
-3.050042 2.202808 22.149904 172 172 172 0
-2.946134 2.188557 22.006602 173 173 173 0
-2.831940 2.165601 21.775781 174 174 174 0
-2.720512 2.143434 21.552880 178 178 178 0
-2.606209 2.117545 21.292557 183 183 183 0
-2.514369 2.108825 21.204881 183 183 183 0
-2.424816 2.101507 21.131290 183 183 183 0
-1.982683 1.777578 17.874083 185 185 185 0
-2.271523 2.109271 21.209362 185 185 185 0
-2.179485 2.098764 21.103707 190 190 190 0
-2.082731 2.082731 20.942495 191 191 191 0
-1.988874 2.068429 20.798686 192 192 192 0
-1.895271 2.053210 20.645655 192 192 192 0
-1.810977 2.047191 20.585129 192 192 192 0
-1.727754 2.041891 20.531836 193 193 193 0
-1.647154 2.039334 20.506119 196 196 196 0
-1.566869 2.036929 20.481943 198 198 198 0
-1.483414 2.029935 20.411611 198 198 198 0
-1.398391 2.019897 20.310684 198 198 198 0
-1.316123 2.012895 20.240268 198 198 198 0
-1.238378 2.012365 20.234938 199 199 199 0
-1.160506 2.011544 20.226686 200 200 200 0
-1.081490 2.008481 20.195889 201 201 201 0
-1.002269 2.004537 20.156233 204 204 204 0
-0.923256 2.000389 20.114519 203 203 203 0
-0.844845 1.996906 20.079495 204 204 204 0
-0.767414 1.995277 20.063113 204 204 204 0
-0.688363 1.988603 19.996009 204 204 204 0
-0.610917 1.985480 19.964601 204 204 204 0
-0.534391 1.984880 19.958569 204 204 204 0
-0.457842 1.983983 19.949552 205 205 205 0
-0.381958 1.986180 19.971647 207 207 207 0
-0.305227 1.983977 19.949489 208 208 208 0
-0.228269 1.978331 19.892719 208 208 208 0
-0.151507 1.969585 19.804779 208 208 208 0
-0.075627 1.966308 19.771825 208 208 208 0
0.000000 1.964558 19.754226 208 208 208 0
0.075770 1.970016 19.809113 208 208 208 0
0.151137 1.964782 19.756476 208 208 208 0
0.226125 1.959751 19.705892 210 210 210 0
0.300839 1.955456 19.662705 210 210 210 0
0.374645 1.948153 19.589275 210 210 210 0
0.448225 1.942310 19.530513 211 211 211 0
0.522395 1.940326 19.510565 211 211 211 0
0.597730 1.942623 19.533667 212 212 212 0
0.673564 1.945852 19.566138 211 211 211 0
0.746851 1.941812 19.525509 211 211 211 0
0.820439 1.939219 19.499440 212 212 212 0
0.893679 1.936304 19.470121 212 212 212 0
0.969146 1.938292 19.490120 213 213 213 0
1.044776 1.940299 19.510292 213 213 213 0
1.118973 1.939553 19.502798 213 213 213 0
1.193231 1.939000 19.497236 214 214 214 0
1.266212 1.936559 19.472689 213 213 213 0
1.339812 1.935284 19.459865 214 214 214 0
1.411956 1.932150 19.428359 214 214 214 0
1.489741 1.936663 19.473733 214 214 214 0
1.566588 1.939585 19.503119 214 214 214 0
1.641927 1.940459 19.511902 215 215 215 0
1.717386 1.941393 19.521298 214 214 214 0
1.786517 1.935394 19.460971 215 215 215 0
1.858816 1.933169 19.438598 216 216 216 0
1.932302 1.932302 19.429886 216 216 216 0
2.011562 1.937060 19.477727 216 216 216 0
2.092956 1.943460 19.542077 216 216 216 0
2.160974 1.937425 19.481400 216 216 216 0
2.228685 1.931527 19.422087 217 217 217 0
2.299912 1.928958 19.396261 217 217 217 0
2.373472 1.928446 19.391115 217 217 217 0
2.455091 1.934314 19.450116 216 216 216 0
2.533926 1.937708 19.484247 216 216 216 0
2.606787 1.936470 19.471800 217 217 217 0
2.680404 1.935847 19.465532 217 217 217 0
2.755956 1.936618 19.473282 217 217 217 0
2.837031 1.941127 19.518620 217 217 217 0
2.916181 1.944120 19.548722 217 217 217 0
2.989567 1.943218 19.539652 217 217 217 0
3.066113 1.944364 19.551172 217 217 217 0
3.142131 1.945129 19.558863 218 218 218 0
3.221886 1.948117 19.588912 218 218 218 0
3.299748 1.949851 19.606348 217 217 217 0
3.385678 1.956169 19.669879 217 217 217 0
3.466796 1.959493 19.703302 217 217 217 0
3.545525 1.961354 19.722014 217 217 217 0
3.619440 1.960530 19.713727 218 218 218 0
3.697854 1.962127 19.729781 218 218 218 0
3.777177 1.964132 19.749944 218 218 218 0
3.866266 1.971038 19.819383 218 218 218 0
3.937054 1.968527 19.794139 217 217 217 0
4.013315 1.968796 19.796843 218 218 218 0
4.093478 1.970934 19.818339 218 218 218 0
4.171498 1.971981 19.828866 218 218 218 0
4.260955 1.978301 19.892414 217 217 217 0
4.349332 1.983906 19.948776 217 217 217 0
4.434494 1.987877 19.988704 217 217 217 0
4.518926 1.991391 20.024044 217 217 217 0
4.601557 1.994008 20.050359 218 218 218 0
4.685008 1.996889 20.079325 218 218 218 0
4.775338 2.002561 20.136360 218 218 218 0
4.863769 2.007270 20.183707 217 217 217 0
4.952973 2.012145 20.232733 217 217 217 0
5.044249 2.017700 20.288585 217 217 217 0
5.152766 2.029877 20.411034 217 217 217 0
5.248365 2.036679 20.479427 217 217 217 0
5.326192 2.036485 20.477480 216 216 216 0
5.417569 2.041403 20.526925 216 216 216 0
5.529983 2.053994 20.653532 216 216 216 0
5.613789 2.055754 20.671228 216 216 216 0
5.699464 2.058140 20.695222 216 216 216 0
5.789603 2.062050 20.734543 215 215 215 0
5.894124 2.070908 20.823615 216 216 216 0
6.009538 2.083306 20.948280 216 216 216 0
6.102368 2.087652 20.991979 216 216 216 0
6.197964 2.092819 21.043932 215 215 215 0
6.312560 2.104187 21.158238 214 214 214 0
6.433070 2.117213 21.289221 214 214 214 0
-9.899997 3.341249 32.352931 187 187 187 0
-9.672564 3.305813 32.009808 187 187 187 0
-9.583074 3.317218 32.120242 187 187 187 0
-9.627639 3.375925 32.688698 187 187 187 0
-9.574563 3.401490 32.936235 187 187 187 0
-9.392017 3.381126 32.739058 188 188 188 0
-9.198702 3.356283 32.498505 187 187 187 0
-9.098977 3.365375 32.586543 188 188 188 0
-9.204564 3.451711 33.422526 189 189 189 0
-9.059000 3.444972 33.357267 188 188 188 0
-8.811114 3.398573 32.907991 189 189 189 0
-8.579115 3.357045 32.505883 189 189 189 0
-8.417167 3.342111 32.361274 189 189 189 0
-8.577303 3.456525 33.469137 189 189 189 0
-8.367702 3.423151 33.145976 189 189 189 0
-8.117767 3.371996 32.650646 190 190 190 0
-7.948667 3.353344 32.470044 190 190 190 0
-7.935114 3.400763 32.929201 190 190 190 0
-7.899511 3.440110 33.310186 191 191 191 0
-7.710238 3.412728 33.045058 190 190 190 0
-7.507015 3.378157 32.710305 190 190 190 0
-7.393071 3.383270 32.759813 191 191 191 0
-7.383517 3.437154 33.281572 191 191 191 0
-7.244620 3.431662 33.228389 191 191 191 0
-7.058987 3.403440 32.955124 189 189 189 0
-6.658996 3.268962 31.652981 133 133 133 0
-5.044239 2.619124 25.360678 73 73 73 0
-4.598475 2.483177 24.044314 71 71 71 0
-4.413047 2.431679 23.545669 69 69 69 0
-4.174537 2.450271 23.725698 77 77 77 0
-4.159053 2.495432 24.162982 97 97 97 0
-4.000114 2.454615 23.767761 109 109 109 0
-3.864668 2.426652 23.496996 133 133 133 0
-3.701158 2.379316 23.038642 138 138 138 0
-3.557631 2.342830 22.685359 145 145 145 0
-3.452423 2.330385 22.564854 157 157 157 0
-3.365709 2.330106 22.562153 158 158 158 0
-3.259235 2.315772 22.423355 159 159 159 0
-3.154414 2.301870 22.288742 168 168 168 0
-3.053802 2.290352 22.177214 172 172 172 0
-2.947570 2.273840 22.017329 172 172 172 0
-2.834025 2.250549 21.791810 174 174 174 0
-2.723440 2.228269 21.576071 177 177 177 0
-2.609259 2.201562 21.317476 183 183 183 0
-2.519650 2.194534 21.249424 184 184 184 0
-2.429784 2.186806 21.174591 184 184 184 0
-1.982683 1.845946 17.874083 184 184 184 0
-2.270214 2.189135 21.197143 184 184 184 0
-2.182817 2.182817 21.135969 190 190 190 0
-2.083012 2.163128 20.945324 192 192 192 0
-1.988711 2.147808 20.796980 192 192 192 0
-1.897089 2.134225 20.665456 192 192 192 0
-1.812003 2.127134 20.596794 192 192 192 0
-1.728280 2.121071 20.538085 193 193 193 0
-1.647827 2.118635 20.514496 195 195 195 0
-1.567826 2.116565 20.494455 198 198 198 0
-1.484397 2.109406 20.425141 198 198 198 0
-1.400046 2.100069 20.334725 198 198 198 0
-1.316963 2.091647 20.253176 199 199 199 0
-1.238234 2.089520 20.232587 199 199 199 0
-1.161383 2.090489 20.241967 199 199 199 0
-1.082012 2.086737 20.205631 200 200 200 0
-1.002808 2.082756 20.167083 203 203 203 0
-0.923212 2.077228 20.113561 204 204 204 0
-0.845421 2.075125 20.093194 204 204 204 0
-0.767473 2.072177 20.064653 204 204 204 0
-0.688558 2.065674 20.001684 204 204 204 0
-0.611300 2.063137 19.977117 204 204 204 0
-0.534639 2.062178 19.967830 204 204 204 0
-0.458073 2.061330 19.959620 204 204 204 0
-0.382350 2.064691 19.992167 207 207 207 0
-0.305548 2.062446 19.970426 207 207 207 0
-0.228271 2.054439 19.892901 207 207 207 0
-0.151539 2.045776 19.809015 208 208 208 0
-0.075610 2.041463 19.767251 208 208 208 0
0.000000 2.040558 19.758493 208 208 208 0
0.075773 2.045874 19.809967 208 208 208 0
0.151179 2.040914 19.761935 208 208 208 0
0.226151 2.035362 19.708182 209 209 209 0
0.300821 2.030539 19.661475 211 211 211 0
0.374698 2.023368 19.592039 211 211 211 0
0.448137 2.016614 19.526646 211 211 211 0
0.522391 2.014937 19.510404 212 212 212 0
0.597842 2.017717 19.537321 211 211 211 0
0.673645 2.020935 19.568486 211 211 211 0
0.747080 2.017115 19.531493 212 212 212 0
0.820613 2.014232 19.503580 211 211 211 0
0.893401 2.010152 19.464073 212 212 212 0
0.969404 2.013377 19.495300 213 213 213 0
1.044509 2.014411 19.505308 213 213 213 0
1.120166 2.016299 19.523594 213 213 213 0
1.193851 2.014623 19.507364 213 213 213 0
1.266598 2.011655 19.478626 214 214 214 0
1.339705 2.009557 19.458313 214 214 214 0
1.413222 2.008263 19.445778 214 214 214 0
1.490118 2.011659 19.478662 214 214 214 0
1.567786 2.015725 19.518036 214 214 214 0
1.643923 2.017542 19.535630 215 215 215 0
1.718179 2.016992 19.530306 214 214 214 0
1.787110 2.010499 19.467427 215 215 215 0
1.858988 2.007707 19.440398 215 215 215 0
1.932444 2.006769 19.431316 216 216 216 0
2.012448 2.012448 19.486303 216 216 216 0
2.092847 2.018102 19.541051 216 216 216 0
2.161573 2.012499 19.486794 215 215 215 0
2.229229 2.006306 19.426828 217 217 217 0
2.299573 2.002854 19.393402 217 217 217 0
2.375508 2.004335 19.407744 216 216 216 0
2.455697 2.009206 19.454915 217 217 217 0
2.534057 2.012339 19.485251 217 217 217 0
2.608121 2.011979 19.481765 217 217 217 0
2.681452 2.011089 19.473142 216 216 216 0
2.757523 2.012246 19.484351 217 217 217 0
2.837144 2.015865 19.519394 217 217 217 0
2.917292 2.019664 19.556173 217 217 217 0
2.990460 2.018561 19.545490 217 217 217 0
3.066410 2.019343 19.553068 217 217 217 0
3.144310 2.021342 19.572423 218 218 218 0
3.221759 2.022965 19.588140 217 217 217 0
3.301188 2.025729 19.614904 217 217 217 0
3.387517 2.032510 19.680564 217 217 217 0
3.467417 2.035223 19.706834 217 217 217 0
3.546366 2.037274 19.726691 218 218 218 0
3.622403 2.037601 19.729862 218 218 218 0
3.698503 2.037951 19.733242 218 218 218 0
3.778967 2.040642 19.759303 217 217 217 0
3.867934 2.047730 19.827930 218 218 218 0
3.939517 2.045519 19.806523 218 218 218 0
4.015301 2.045531 19.806640 218 218 218 0
4.093654 2.046827 19.819193 218 218 218 0
4.173112 2.048619 19.836539 218 218 218 0
4.261360 2.054584 19.894306 217 217 217 0
4.352288 2.061610 19.962334 217 217 217 0
4.436541 2.065286 19.997932 217 217 217 0
4.520464 2.068687 20.030858 217 217 217 0
4.605430 2.072444 20.067233 217 217 217 0
4.687933 2.074987 20.091860 217 217 217 0
4.776741 2.080194 20.142276 218 218 218 0
4.862769 2.084044 20.179560 217 217 217 0
4.956787 2.091144 20.248313 217 217 217 0
5.048174 2.096934 20.304368 217 217 217 0
5.155293 2.108983 20.421045 217 217 217 0
5.249027 2.115280 20.482010 217 217 217 0
5.327772 2.115439 20.483552 217 217 217 0
5.420185 2.120942 20.536840 217 217 217 0
5.531934 2.133746 20.660816 216 216 216 0
5.616449 2.135833 20.681024 217 217 217 0
5.701770 2.138164 20.703593 215 215 215 0
5.792894 2.142577 20.746330 216 216 216 0
5.898530 2.152166 20.839180 216 216 216 0
6.012374 2.164454 20.958165 216 216 216 0
6.104192 2.168595 20.998254 216 216 216 0
6.199922 2.173999 21.050581 214 214 214 0
6.320145 2.187743 21.183662 214 214 214 0
6.441789 2.201624 21.318075 214 214 214 0
-9.923160 3.473106 32.428628 186 186 186 0
-9.689723 3.434332 32.066594 186 186 186 0
-9.600147 3.446206 32.177465 187 187 187 0
-9.617829 3.497393 32.655392 188 188 188 0
-9.603571 3.538158 33.036020 188 188 188 0
-9.394694 3.507352 32.748389 187 187 187 0
-9.204635 3.482835 32.519468 188 188 188 0
-9.090725 3.486853 32.556988 189 189 189 0
-9.186756 3.572627 33.357866 188 188 188 0
-9.062474 3.573933 33.370060 188 188 188 0
-8.805017 3.522007 32.885219 189 189 189 0
-8.591929 3.486580 32.554435 188 188 188 0
-8.403344 3.460200 32.308127 188 188 188 0
-8.576716 3.584299 33.466845 189 189 189 0
-8.360137 3.546725 33.116013 190 190 190 0
-8.127094 3.500902 32.688160 190 190 190 0
-7.938297 3.473005 32.427685 189 189 189 0
-7.943783 3.530570 32.965173 190 190 190 0
-7.902674 3.568950 33.323526 191 191 191 0
-7.706694 3.537499 33.029867 190 190 190 0
-7.533276 3.515529 32.824734 191 191 191 0
-7.421739 3.522181 32.886848 190 190 190 0
-7.422182 3.583123 33.455860 191 191 191 0
-7.279927 3.576105 33.390332 191 191 191 0
-7.053987 3.526993 32.931779 191 191 191 0
-6.802317 3.462998 32.334246 153 153 153 0
-6.169676 3.199091 29.870131 70 70 70 0
-5.403320 2.854584 26.653445 78 78 78 0
-5.117461 2.755556 25.728813 73 73 73 0
-4.123101 2.456315 22.934785 71 71 71 0
-4.198888 2.555845 23.864096 71 71 71 0
-4.151287 2.583023 24.117862 94 94 94 0
-4.026336 2.562214 23.923565 107 107 107 0
-3.837716 2.498978 23.333129 131 131 131 0
-3.687351 2.458234 22.952697 137 137 137 0
-3.578535 2.443878 22.818654 144 144 144 0
-3.478069 2.434648 22.732477 156 156 156 0
-3.379638 2.426407 22.655525 158 158 158 0
-3.268823 2.408607 22.489324 158 158 158 0
-3.159641 2.391080 22.325676 167 167 167 0
-3.055962 2.376859 22.192894 172 172 172 0
-2.949928 2.359942 22.034943 173 173 173 0
-2.836973 2.336331 21.814478 173 173 173 0
-2.720536 2.308334 21.553068 175 175 175 0
-2.611528 2.285087 21.336016 183 183 183 0
-2.517691 2.274043 21.232898 184 184 184 0
-2.436079 2.273673 21.229443 184 184 184 0
-2.515998 2.429240 22.681976 183 183 183 0
-2.272167 2.272167 21.215374 184 184 184 0
-2.181927 2.262739 21.127348 189 189 189 0
-2.083576 2.243851 20.950993 191 191 191 0
-1.988849 2.227511 20.798423 192 192 192 0
-1.898056 2.214399 20.675995 192 192 192 0
-1.812215 2.206175 20.599206 192 192 192 0
-1.731319 2.203497 20.574199 192 192 192 0
-1.649209 2.198946 20.531704 194 194 194 0
-1.567783 2.194896 20.493894 198 198 198 0
-1.485030 2.188465 20.433845 199 199 199 0
-1.399290 2.176673 20.323747 198 198 198 0
-1.316621 2.168552 20.247921 199 199 199 0
-1.238846 2.167980 20.242575 199 199 199 0
-1.161990 2.169048 20.252547 198 198 198 0
-1.083099 2.166198 20.225943 200 200 200 0
-1.002882 2.160054 20.168571 203 203 203 0
-0.923990 2.155976 20.130492 203 203 203 0
-0.845575 2.152374 20.096858 204 204 204 0
-0.767080 2.147824 20.054375 203 203 203 0
-0.688844 2.143071 20.010004 204 204 204 0
-0.611909 2.141683 19.997037 204 204 204 0
-0.535196 2.140784 19.988642 205 205 205 0
-0.458409 2.139243 19.974258 205 205 205 0
-0.382351 2.141165 19.992205 206 206 206 0
-0.305479 2.138350 19.965918 208 208 208 0
-0.228260 2.130428 19.891955 208 208 208 0
-0.151599 2.122389 19.816889 207 207 207 0
-0.075625 2.117510 19.771332 207 207 207 0
0.000000 2.115263 19.750353 209 209 209 0
0.075792 2.122189 19.815019 208 208 208 0
0.151237 2.117322 19.769580 208 208 208 0
0.226359 2.112680 19.726240 209 209 209 0
0.300966 2.106761 19.670971 210 210 210 0
0.374527 2.097350 19.583101 211 211 211 0
0.448255 2.091856 19.531806 211 211 211 0
0.522560 2.090240 19.516709 211 211 211 0
0.598285 2.093999 19.551812 211 211 211 0
0.673831 2.096363 19.573882 211 211 211 0
0.747320 2.092497 19.537784 211 211 211 0
0.821111 2.090100 19.515404 212 212 212 0
0.893831 2.085605 19.473437 211 211 211 0
0.969452 2.088050 19.496264 212 212 212 0
1.045242 2.090485 19.518999 213 213 213 0
1.119599 2.089918 19.513703 214 214 214 0
1.193500 2.088625 19.501635 213 213 213 0
1.266231 2.085557 19.472990 213 213 213 0
1.341162 2.086252 19.479480 214 214 214 0
1.413404 2.082912 19.448289 213 213 213 0
1.490969 2.087356 19.489788 215 215 215 0
1.568831 2.091774 19.531041 214 214 214 0
1.645070 2.093725 19.549253 214 214 214 0
1.718307 2.091852 19.531765 215 215 215 0
1.788585 2.086683 19.483502 214 214 214 0
1.859344 2.082465 19.444117 215 215 215 0
1.932905 2.081589 19.435943 215 215 215 0
2.011176 2.085664 19.473983 215 215 215 0
2.094084 2.094084 19.552605 215 215 215 0
2.161405 2.086874 19.485281 216 216 216 0
2.229024 2.080422 19.425045 216 216 216 0
2.299526 2.076991 19.393011 216 216 216 0
2.375298 2.078386 19.406032 217 217 217 0
2.457849 2.085448 19.471968 217 217 217 0
2.533865 2.086712 19.483775 217 217 217 0
2.608945 2.087156 19.487918 216 216 216 0
2.683268 2.086986 19.486335 216 216 216 0
2.760243 2.088833 19.503573 217 217 217 0
2.838752 2.091712 19.530460 216 216 216 0
2.916781 2.094099 19.552746 217 217 217 0
2.991968 2.094377 19.555345 217 217 217 0
3.067031 2.094558 19.557031 217 217 217 0
3.145300 2.096866 19.578585 217 217 217 0
3.222888 2.098625 19.595002 217 217 217 0
3.303133 2.101994 19.626462 218 218 218 0
3.388893 2.108645 19.688558 218 218 218 0
3.469577 2.111916 19.719106 217 217 217 0
3.548972 2.114281 19.741185 218 218 218 0
3.625030 2.114601 19.744174 218 218 218 0
3.701547 2.115170 19.749483 217 217 217 0
3.781403 2.117586 19.772044 217 217 217 0
3.872286 2.125961 19.850241 218 218 218 0
3.940383 2.121744 19.810872 217 217 217 0
4.014965 2.121114 19.804984 218 218 218 0
4.094869 2.123266 19.825075 217 217 217 0
4.174648 2.125275 19.843840 217 217 217 0
4.264339 2.132169 19.908210 218 218 218 0
4.354343 2.138976 19.971762 218 218 218 0
4.439155 2.143040 20.009712 218 218 218 0
4.521342 2.145722 20.034751 217 217 217 0
4.607971 2.150386 20.078305 217 217 217 0
4.690043 2.152807 20.100902 217 217 217 0
4.781122 2.159217 20.160752 217 217 217 0
4.865842 2.162596 20.192309 217 217 217 0
4.958788 2.169470 20.256488 217 217 217 0
5.051283 2.175937 20.316875 217 217 217 0
5.158840 2.188599 20.435095 216 216 216 0
5.252410 2.195037 20.495209 217 217 217 0
5.330418 2.194878 20.493725 217 217 217 0
5.423357 2.200783 20.548858 217 217 217 0
5.531115 2.212446 20.657759 216 216 216 0
5.619900 2.216299 20.693732 216 216 216 0
5.705275 2.218718 20.716322 216 216 216 0
5.798791 2.224194 20.767448 216 216 216 0
5.906146 2.234758 20.866086 215 215 215 0
6.018899 2.247056 20.980912 216 216 216 0
6.109845 2.250996 21.017699 215 215 215 0
6.208938 2.257796 21.081192 214 214 214 0
6.326977 2.271222 21.206559 214 214 214 0
6.444981 2.284297 21.328637 214 214 214 0
-9.916009 3.594553 32.405258 187 187 187 0
-9.705855 3.562909 32.119980 187 187 187 0
-9.612240 3.573781 32.217998 188 188 188 0
-9.592675 3.612826 32.569986 186 186 186 0
-9.584194 3.657127 32.969365 188 188 188 0
-9.404119 3.636259 32.781241 188 188 188 0
-9.193483 3.602851 32.480066 188 188 188 0
-9.104782 3.616968 32.607331 187 187 187 0
-9.192961 3.702720 33.380395 188 188 188 0
-9.059112 3.700201 33.357680 189 189 189 0
-8.798216 3.644975 32.859816 188 188 188 0
-8.586997 3.609028 32.535748 188 188 188 0
-8.396838 3.581004 32.283112 189 189 189 0
-8.586587 3.716583 33.505365 190 190 190 0
-8.368312 3.676986 33.148394 190 190 190 0
-8.118002 3.621878 32.651590 190 190 190 0
-7.942711 3.599041 32.445716 189 189 189 0
-7.939158 3.654533 32.945980 189 189 189 0
-7.913835 3.701632 33.370588 190 190 190 0
-7.707788 3.664358 33.034558 191 191 191 0
-7.523027 3.636130 32.780073 191 191 191 0
-7.425647 3.649894 32.904161 190 190 190 0
-7.410920 3.705460 33.405094 190 190 190 0
-7.282101 3.704928 33.400300 191 191 191 0
-7.085828 3.669447 33.080430 192 192 192 0
-6.905128 3.640886 32.822951 170 170 170 0
-6.286002 3.375816 30.433316 78 78 78 0
-4.300284 2.598088 23.422028 79 79 79 0
-4.162702 2.568475 23.155063 73 73 73 0
-4.174321 2.631637 23.724471 73 73 73 0
-4.149122 2.673878 24.105282 86 86 86 0
-4.022142 2.650957 23.898644 105 105 105 0
-3.836940 2.587704 23.328407 127 127 127 0
-3.692128 2.549326 22.982431 137 137 137 0
-3.578620 2.531219 22.819191 140 140 140 0
-3.482622 2.524901 22.762233 155 155 155 0
-3.385569 2.517474 22.695285 158 158 158 0
-3.275035 2.499369 22.532062 159 159 159 0
-3.165949 2.481420 22.370248 165 165 165 0
-3.060364 2.465293 22.224867 172 172 172 0
-2.953145 2.446892 22.058975 173 173 173 0
-2.840953 2.423165 21.845080 173 173 173 0
-2.725037 2.394729 21.588726 174 174 174 0
-2.613182 2.368197 21.349529 181 181 181 0
-2.520614 2.357994 21.257553 184 184 184 0
-2.438729 2.357438 21.252541 184 184 184 0
-2.405564 2.405564 21.686398 184 184 184 0
-2.278972 2.360364 21.278914 184 184 184 0
-2.182981 2.344684 21.137558 187 187 187 0
-2.083291 2.323671 20.948128 191 191 191 0
-1.992276 2.311040 20.834260 191 191 191 0
-1.898459 2.293972 20.680383 192 192 192 0
-1.814293 2.287587 20.622829 192 192 192 0
-1.732651 2.283949 20.590028 192 192 192 0
-1.650714 2.279557 20.550433 194 194 194 0
-1.569514 2.275795 20.516522 198 198 198 0
-1.486209 2.268424 20.450070 198 198 198 0
-1.401627 2.258177 20.357688 198 198 198 0
-1.317494 2.247489 20.261340 199 199 199 0
-1.239625 2.246820 20.255305 199 199 199 0
-1.161812 2.246171 20.249453 199 199 199 0
-1.083552 2.244501 20.234398 200 200 200 0
-1.003280 2.238086 20.176567 202 202 202 0
-0.925737 2.237199 20.168572 204 204 204 0
-0.846634 2.232035 20.122016 203 203 203 0
-0.768200 2.227779 20.083653 204 204 204 0
-0.689618 2.222104 20.032489 204 204 204 0
-0.612238 2.219362 20.007775 204 204 204 0
-0.535993 2.220544 20.018424 205 205 205 0
-0.458792 2.217493 19.990919 204 204 204 0
-0.382670 2.219488 20.008909 206 206 206 0
-0.305591 2.215536 19.973276 207 207 207 0
-0.228356 2.207438 19.900275 207 207 207 0
-0.151684 2.199419 19.827980 208 208 208 0
-0.075691 2.195035 19.788464 208 208 208 0
0.000000 2.192389 19.764607 208 208 208 0
0.075878 2.200452 19.837296 209 209 209 0
0.151341 2.194449 19.783175 208 208 208 0
0.226356 2.188109 19.726023 208 208 208 0
0.300807 2.180849 19.660571 210 210 210 0
0.374816 2.173930 19.598199 211 211 211 0
0.448433 2.167428 19.539583 210 210 210 0
0.522593 2.165026 19.517927 211 211 211 0
0.598668 2.170173 19.564328 211 211 211 0
0.674605 2.173728 19.596373 212 212 212 0
0.747835 2.168723 19.551255 211 211 211 0
0.821393 2.165490 19.522110 211 211 211 0
0.894159 2.160883 19.480580 211 211 211 0
0.970181 2.164250 19.510927 212 212 212 0
1.045766 2.166229 19.528771 213 213 213 0
1.119521 2.164408 19.512357 214 214 214 0
1.194909 2.165773 19.524658 214 214 214 0
1.267993 2.163046 19.500079 214 214 214 0
1.340595 2.159847 19.471236 214 214 214 0
1.413945 2.158127 19.455727 214 214 214 0
1.490801 2.161661 19.487588 214 214 214 0
1.569704 2.167686 19.541910 214 214 214 0
1.646144 2.169917 19.562017 214 214 214 0
1.719564 2.168145 19.546047 214 214 214 0
1.788616 2.161244 19.483833 214 214 214 0
1.859276 2.156760 19.443406 215 215 215 0
1.934103 2.157269 19.447993 215 215 215 0
2.010205 2.159109 19.464588 215 215 215 0
2.095804 2.170654 19.568664 215 215 215 0
2.163128 2.163128 19.500819 216 216 216 0
2.231029 2.156661 19.442518 216 216 216 0
2.301659 2.153165 19.410995 216 216 216 0
2.375861 2.153124 19.410631 215 215 215 0
2.460023 2.161838 19.489188 216 216 216 0
2.535179 2.162359 19.493879 216 216 216 0
2.609512 2.162167 19.492150 217 217 217 0
2.683614 2.161800 19.488845 216 216 216 0
2.761503 2.164421 19.512474 216 216 216 0
2.840655 2.167868 19.543550 217 217 217 0
2.917463 2.169395 19.557317 216 216 216 0
2.992276 2.169400 19.557360 217 217 217 0
3.067683 2.169825 19.561187 217 217 217 0
3.144584 2.171261 19.574131 217 217 217 0
3.225401 2.175270 19.610280 217 217 217 0
3.304161 2.177742 19.632566 217 217 217 0
3.389128 2.184105 19.689926 217 217 217 0
3.469877 2.187531 19.720814 217 217 217 0
3.550574 2.190780 19.750100 217 217 217 0
3.626448 2.190979 19.751896 218 218 218 0
3.702720 2.191406 19.755742 217 217 217 0
3.783016 2.194149 19.780478 218 218 218 0
3.872100 2.201783 19.849291 217 217 217 0
3.941345 2.198058 19.815713 218 218 218 0
4.018935 2.199040 19.824568 217 217 217 0
4.095734 2.199561 19.829262 218 218 218 0
4.175961 2.201870 19.850081 218 218 218 0
4.266855 2.209621 19.919957 217 217 217 0
4.355364 2.215887 19.976445 218 218 218 0
4.441050 2.220525 20.018257 217 217 217 0
4.523384 2.223358 20.043796 217 217 217 0
4.610667 2.228489 20.090053 217 217 217 0
4.694479 2.231802 20.119915 217 217 217 0
4.781979 2.236732 20.164366 218 218 218 0
4.870597 2.242021 20.212044 218 218 218 0
4.960170 2.247577 20.262132 217 217 217 0
5.054483 2.255077 20.329747 217 217 217 0
5.162502 2.268372 20.449602 216 216 216 0
5.254885 2.274502 20.504867 217 217 217 0
5.332498 2.274154 20.501723 217 217 217 0
5.427086 2.280949 20.562984 217 217 217 0
5.536133 2.293541 20.676501 216 216 216 0
5.621914 2.296275 20.701147 216 216 216 0
5.708138 2.299111 20.726719 215 215 215 0
5.805033 2.306109 20.789803 216 216 216 0
5.911747 2.316766 20.885875 215 215 215 0
6.026144 2.330109 21.006165 215 215 215 0
6.113557 2.332805 21.030469 215 215 215 0
6.213545 2.340166 21.096834 215 215 215 0
6.330359 2.353595 21.217896 214 214 214 0
6.449715 2.367617 21.344302 214 214 214 0
-9.912915 3.717343 32.395148 186 186 186 0
-9.689745 3.679650 32.066667 188 188 188 0
-9.634591 3.705612 32.292913 187 187 187 0
-9.633891 3.753464 32.709927 187 187 187 0
-9.589598 3.785368 32.987953 188 188 188 0
-9.399270 3.759708 32.764341 187 187 187 0
-9.197357 3.728658 32.493755 188 188 188 0
-9.102265 3.740657 32.598318 188 188 188 0
-9.206663 3.836110 33.430149 188 188 188 0
-9.066184 3.830782 33.383720 189 189 189 0
-8.814413 3.777605 32.920308 189 189 189 0
-8.598511 3.738483 32.579373 189 189 189 0
-8.396324 3.704260 32.281136 190 190 190 0
-8.584852 3.843964 33.498595 190 190 190 0
-8.368917 3.804053 33.150789 190 190 190 0
-8.119286 3.747363 32.656756 190 190 190 0
-7.945769 3.724579 32.458205 190 190 190 0
-7.943853 3.782787 32.965467 189 189 189 0
-7.913352 3.829041 33.368553 190 190 190 0
-7.707722 3.790683 33.034274 190 190 190 0
-7.519380 3.759690 32.764183 190 190 190 0
-7.421711 3.773751 32.886722 190 190 190 0
-7.412207 3.833900 33.410893 191 191 191 0
-7.279607 3.831372 33.388866 191 191 191 0
-7.083247 3.794597 33.068380 191 191 191 0
-6.987718 3.811483 33.215534 185 185 185 0
-6.568262 3.649034 31.799864 109 109 109 0
-4.723911 2.834347 24.700190 70 70 70 0
-4.166275 2.717136 23.678743 75 75 75 0
-4.171572 2.781048 24.235712 85 85 85 0
-4.003469 2.729638 23.787695 106 106 106 0
-3.878895 2.706206 23.583493 124 124 124 0
-3.711614 2.651153 23.103729 137 137 137 0
-3.583904 2.622369 22.852887 139 139 139 0
-3.492499 2.619374 22.826793 154 154 154 0
-3.400158 2.615506 22.793083 158 158 158 0
-3.286390 2.594518 22.610182 158 158 158 0
-3.172969 2.572677 22.419847 163 163 163 0
-3.065683 2.554736 22.263495 172 172 172 0
-2.955178 2.533009 22.074155 173 173 173 0
-2.842272 2.507887 21.855229 173 173 173 0
-2.727378 2.479435 21.607273 174 174 174 0
-2.616530 2.452997 21.376879 181 181 181 0
-2.524111 2.442688 21.287043 183 183 183 0
-2.439717 2.439717 21.261153 184 184 184 0
-2.371786 2.453571 21.381886 184 184 184 0
-2.281388 2.444345 21.301479 184 184 184 0
-2.182789 2.425321 21.135695 187 187 187 0
-2.082944 2.403397 20.944633 191 191 191 0
-1.991037 2.389244 20.821301 192 192 192 0
-1.899393 2.374241 20.690550 192 192 192 0
-1.815411 2.367927 20.635530 193 193 193 0
-1.733063 2.363267 20.594920 193 193 193 0
-1.653135 2.361621 20.580573 193 193 193 0
-1.570694 2.356042 20.531954 197 197 197 0
-1.487672 2.348956 20.470205 199 199 199 0
-1.400912 2.334853 20.347299 199 199 199 0
-1.317852 2.325622 20.266858 199 199 199 0
-1.239886 2.324786 20.259575 199 199 199 0
-1.162623 2.325246 20.263580 199 199 199 0
-1.084424 2.323766 20.250685 199 199 199 0
-1.004518 2.318118 20.201466 201 201 201 0
-0.925102 2.312754 20.154720 203 203 203 0
-0.847107 2.310291 20.133253 204 204 204 0
-0.768912 2.306735 20.102266 203 203 203 0
-0.690436 2.301452 20.056229 204 204 204 0
-0.613008 2.298782 20.032955 204 204 204 0
-0.536107 2.297601 20.022665 204 204 204 0
-0.459018 2.295092 20.000798 204 204 204 0
-0.382748 2.296486 20.012948 205 205 205 0
-0.305746 2.293094 19.983393 207 207 207 0
-0.228456 2.284556 19.908988 208 208 208 0
-0.151700 2.275503 19.830095 208 208 208 0
-0.075693 2.270794 19.789056 208 208 208 0
0.000000 2.269158 19.774793 208 208 208 0
0.075888 2.276629 19.839902 208 208 208 0
0.151407 2.271109 19.791801 208 208 208 0
0.226403 2.264026 19.730078 208 208 208 0
0.300988 2.257413 19.672448 209 209 209 0
0.374900 2.249400 19.602614 211 211 211 0
0.448738 2.243691 19.552864 211 211 211 0
0.522923 2.241097 19.530257 211 211 211 0
0.599069 2.246507 19.577403 211 211 211 0
0.674497 2.248322 19.593220 211 211 211 0
0.748133 2.244400 19.559040 212 212 212 0
0.821687 2.240966 19.529114 212 212 212 0
0.894894 2.237236 19.496608 212 212 212 0
0.969892 2.238213 19.505121 212 212 212 0
1.045738 2.240868 19.528258 213 213 213 0
1.120555 2.241109 19.530363 214 214 214 0
1.194962 2.240554 19.525526 213 213 213 0
1.268243 2.238075 19.503924 213 213 213 0
1.341667 2.236111 19.486807 214 214 214 0
1.414824 2.233932 19.467820 215 215 215 0
1.492600 2.238900 19.511109 214 214 214 0
1.570245 2.243207 19.548647 214 214 214 0
1.647188 2.246166 19.574430 215 215 215 0
1.720031 2.243519 19.551362 214 214 214 0
1.790057 2.237572 19.499535 215 215 215 0
1.861734 2.234081 19.469116 215 215 215 0
1.936790 2.234758 19.475016 214 214 214 0
1.992728 2.214142 19.295357 214 214 214 0
2.095600 2.245285 19.566757 215 215 215 0
2.163018 2.237605 19.499826 215 215 215 0
2.232699 2.232699 19.457074 216 216 216 0
2.303426 2.229122 19.425899 216 216 216 0
2.378120 2.229487 19.429081 216 216 216 0
2.460525 2.236841 19.493165 216 216 216 0
2.536693 2.238259 19.505521 216 216 216 0
2.610248 2.237356 19.497653 217 217 217 0
2.685998 2.238332 19.506158 216 216 216 0
2.761924 2.239398 19.515452 217 217 217 0
2.840162 2.242234 19.540162 216 216 216 0
2.919312 2.245625 19.569713 217 217 217 0
2.994176 2.245632 19.569781 216 216 216 0
3.070852 2.246965 19.581396 218 218 218 0
3.147183 2.247988 19.590308 217 217 217 0
3.226489 2.251039 19.616899 218 218 218 0
3.306069 2.254138 19.643904 218 218 218 0
3.390700 2.260466 19.699053 218 218 218 0
3.471928 2.264301 19.732471 217 217 217 0
3.551261 2.266762 19.753921 218 218 218 0
3.627818 2.267386 19.759357 218 218 218 0
3.705752 2.268828 19.771922 218 218 218 0
3.782623 2.269574 19.778419 217 217 217 0
3.874763 2.279273 19.862941 217 217 217 0
3.943481 2.275085 19.826451 217 217 217 0
4.017692 2.274165 19.818435 218 218 218 0
4.097521 2.276401 19.837913 217 217 217 0
4.179880 2.279934 19.868710 218 218 218 0
4.268591 2.286745 19.928064 217 217 217 0
4.357419 2.293379 19.985870 217 217 217 0
4.444896 2.299084 20.035591 217 217 217 0
4.527268 2.302001 20.061007 217 217 217 0
4.612936 2.306468 20.099937 217 217 217 0
4.694223 2.308634 20.118815 218 218 218 0
4.785826 2.315722 20.180588 217 217 217 0
4.871975 2.319988 20.217760 217 217 217 0
4.963233 2.326516 20.274645 217 217 217 0
5.061174 2.335926 20.356658 217 217 217 0
5.166086 2.348221 20.463798 217 217 217 0
5.255809 2.353347 20.508473 217 217 217 0
5.335032 2.353691 20.511466 216 216 216 0
5.430289 2.360995 20.575121 217 217 217 0
5.540307 2.374417 20.692089 216 216 216 0
5.625197 2.376844 20.713235 215 215 215 0
5.714631 2.381096 20.750293 216 216 216 0
5.807143 2.386497 20.797360 215 215 215 0
5.918728 2.399484 20.910539 216 216 216 0
6.028490 2.411396 21.014344 216 216 216 0
6.117252 2.414705 21.043179 215 215 215 0
6.219955 2.423359 21.118596 214 214 214 0
6.337651 2.437558 21.242335 214 214 214 0
6.451697 2.450011 21.350861 214 214 214 0
-9.916635 3.842696 32.407303 187 187 187 0
-9.685040 3.800459 32.051097 187 187 187 0
-9.634756 3.829198 32.293466 187 187 187 0
-9.628376 3.876359 32.691203 187 187 187 0
-9.604519 3.917633 33.039280 187 187 187 0
-9.399859 3.885275 32.766392 188 188 188 0
-9.224112 3.864155 32.588279 188 188 188 0
-9.108804 3.868122 32.621735 188 188 188 0
-9.198835 3.960609 33.401723 189 189 189 0
-9.067130 3.958888 33.387205 188 188 188 0
-8.809807 3.901486 32.903106 189 189 189 0
-8.591873 3.860117 32.554221 189 189 189 0
-8.383354 3.821823 32.231274 189 189 189 0
-8.578932 3.969356 33.475492 189 189 189 0
-8.370435 3.931568 33.156802 189 189 189 0
-8.124478 3.874751 32.677640 190 190 190 0
-7.953945 3.852692 32.491607 190 190 190 0
-7.945890 3.909882 32.973918 190 190 190 0
-7.919611 3.959806 33.394945 190 190 190 0
-7.711381 3.918898 33.049956 191 191 191 0
-7.527851 3.889390 32.801093 190 190 190 0
-7.417640 3.897404 32.868684 191 191 191 0
-7.413691 3.962490 33.417586 191 191 191 0
-7.273395 3.955706 33.360371 191 191 191 0
-7.084482 3.921767 33.074145 191 191 191 0
-6.952828 3.918867 33.049687 190 190 190 0
-6.803548 3.905740 32.938986 138 138 138 0
-4.157703 2.742315 23.127259 77 77 77 0
-4.142582 2.791740 23.544086 73 73 73 0
-4.153822 2.861521 24.132587 85 85 85 0
-4.040966 2.847044 24.010494 106 106 106 0
-3.843500 2.770895 23.368293 114 114 114 0
-3.730606 2.753543 23.221948 137 137 137 0
-3.602993 2.724214 22.974607 139 139 139 0
-3.510099 2.720327 22.941824 150 150 150 0
-3.408859 2.709606 22.851407 158 158 158 0
-3.297482 2.690051 22.686492 159 159 159 0
-3.178998 2.663485 22.462446 161 161 161 0
-3.072606 2.645855 22.313770 171 171 171 0
-2.960607 2.622252 22.114710 173 173 173 0
-2.846151 2.595020 21.885055 173 173 173 0
-2.732377 2.566778 21.646874 173 173 173 0
-2.622056 2.540117 21.422024 179 179 179 0
-2.531572 2.531572 21.349968 184 184 184 0
-2.445347 2.526858 21.310212 184 184 184 0
-2.375655 2.539493 21.416766 184 184 184 0
-2.285387 2.530250 21.338813 184 184 184 0
-2.183514 2.506998 21.142721 186 186 186 0
-2.087178 2.488559 20.987214 190 190 190 0
-1.991476 2.469430 20.825894 192 192 192 0
-1.900050 2.454231 20.697712 192 192 192 0
-1.817532 2.449717 20.659640 193 193 193 0
-1.733668 2.442896 20.602120 192 192 192 0
-1.655262 2.443483 20.607064 193 193 193 0
-1.572642 2.437595 20.557409 196 196 196 0
-1.487695 2.427293 20.470526 198 198 198 0
-1.401907 2.414396 20.361763 199 199 199 0
-1.318715 2.404716 20.280129 199 199 199 0
-1.240148 2.402786 20.263850 199 199 199 0
-1.162638 2.402785 20.263845 199 199 199 0
-1.084290 2.400927 20.248174 199 199 199 0
-1.005075 2.396717 20.212671 200 200 200 0
-0.926133 2.392509 20.177183 204 204 204 0
-0.847927 2.389614 20.152762 204 204 204 0
-0.769287 2.384789 20.112072 203 203 203 0
-0.690741 2.379218 20.065088 204 204 204 0
-0.613416 2.376989 20.046287 204 204 204 0
-0.536596 2.376353 20.040931 204 204 204 0
-0.459394 2.373534 20.017151 204 204 204 0
-0.383405 2.377114 20.047343 205 205 205 0
-0.305940 2.371036 19.996083 207 207 207 0
-0.228680 2.363025 19.928528 208 208 208 0
-0.151799 2.352889 19.843046 208 208 208 0
-0.075735 2.347790 19.800043 208 208 208 0
0.000000 2.348023 19.802006 208 208 208 0
0.075995 2.355831 19.867857 208 208 208 0
0.151586 2.349583 19.815163 208 208 208 0
0.226565 2.341170 19.744214 209 209 209 0
0.301283 2.334947 19.691727 209 209 209 0
0.375227 2.326410 19.619737 211 211 211 0
0.448956 2.319607 19.562360 211 211 211 0
0.523061 2.316411 19.535411 211 211 211 0
0.599186 2.321844 19.581230 211 211 211 0
0.675171 2.325588 19.612799 212 212 212 0
0.748393 2.320018 19.565829 211 211 211 0
0.822126 2.316900 19.539535 211 211 211 0
0.894979 2.312029 19.498450 212 212 212 0
0.970427 2.314094 19.515870 211 211 211 0
1.045978 2.316093 19.532730 212 212 212 0
1.120825 2.316371 19.535075 213 213 213 0
1.195565 2.316407 19.535377 214 214 214 0
1.269026 2.314106 19.515966 214 214 214 0
1.342854 2.312693 19.504051 214 214 214 0
1.415773 2.309946 19.480886 214 214 214 0
1.494200 2.316010 19.532023 214 214 214 0
1.571553 2.319911 19.564924 214 214 214 0
1.648380 2.322717 19.588591 214 214 214 0
1.721371 2.320109 19.566593 215 215 215 0
1.790651 2.312925 19.506006 214 214 214 0
1.863096 2.310239 19.483353 214 214 214 0
1.940167 2.313276 19.508967 215 215 215 0
2.166697 2.487689 20.979874 215 215 215 0
2.093604 2.317919 19.548127 215 215 215 0
2.163059 2.312235 19.500192 215 215 215 0
2.234305 2.308782 19.471069 216 216 216 0
2.303948 2.303948 19.430299 216 216 216 0
2.379701 2.305335 19.442000 216 216 216 0
2.463431 2.314132 19.516187 216 216 216 0
2.538808 2.314796 19.521784 216 216 216 0
2.611646 2.313172 19.508093 216 216 216 0
2.685956 2.312907 19.505855 216 216 216 0
2.763621 2.315466 19.527440 217 217 217 0
2.843117 2.319385 19.560492 216 216 216 0
2.920288 2.321255 19.576259 217 217 217 0
2.996130 2.322001 19.582552 217 217 217 0
3.072296 2.322956 19.590602 217 217 217 0
3.148264 2.323718 19.597035 217 217 217 0
3.227410 2.326737 19.622494 217 217 217 0
3.308705 2.331133 19.659565 217 217 217 0
3.392891 2.337325 19.711784 217 217 217 0
3.475672 2.342301 19.753748 218 218 218 0
3.553122 2.343549 19.764275 218 218 218 0
3.630206 2.344508 19.772363 218 218 218 0
3.706973 2.345228 19.778436 218 218 218 0
3.785910 2.347264 19.795608 218 218 218 0
3.876906 2.356551 19.873927 217 217 217 0
3.945146 2.351914 19.834824 218 218 218 0
4.020085 2.351370 19.830238 218 218 218 0
4.098772 2.352999 19.843972 217 217 217 0
4.181480 2.356834 19.876316 218 218 218 0
4.271840 2.364769 19.943230 217 217 217 0
4.360921 2.371729 20.001931 217 217 217 0
4.446624 2.376644 20.043381 217 217 217 0
4.528130 2.379187 20.064826 217 217 217 0
4.615710 2.384783 20.112025 218 218 218 0
4.698561 2.387793 20.137410 218 218 218 0
4.789981 2.394991 20.198108 217 217 217 0
4.874199 2.398416 20.226992 217 217 217 0
4.967235 2.406004 20.290993 217 217 217 0
5.067498 2.416807 20.382093 216 216 216 0
5.171910 2.429230 20.486868 216 216 216 0
5.261172 2.434274 20.529400 217 217 217 0
5.338584 2.433766 20.525121 217 217 217 0
5.434183 2.441445 20.589877 217 217 217 0
5.545755 2.455977 20.712436 216 216 216 0
5.631027 2.458617 20.734702 216 216 216 0
5.717557 2.461726 20.760918 215 215 215 0
5.813936 2.468932 20.821690 216 216 216 0
5.926938 2.482906 20.939544 215 215 215 0
6.032401 2.493392 21.027978 215 215 215 0
6.125114 2.498402 21.070222 215 215 215 0
6.225177 2.506240 21.136329 213 213 213 0
6.343755 2.521236 21.262794 214 214 214 0
6.457360 2.533901 21.369604 213 213 213 0
-9.912462 3.964985 32.393666 187 187 187 0
-9.672638 3.918031 32.010055 186 186 186 0
-9.620918 3.947043 32.247084 187 187 187 0
-9.622127 3.998806 32.669985 186 186 186 0
-9.608425 4.045653 33.052718 187 187 187 0
-9.394716 4.008412 32.748464 188 188 188 0
-9.201445 3.979003 32.508197 188 188 188 0
-9.105643 3.991515 32.610413 188 188 188 0
-9.198896 4.088398 33.401945 188 188 188 0
-9.053820 4.080595 33.338195 188 188 188 0
-8.812150 4.028412 32.911859 188 188 188 0
-8.599062 3.987971 32.581462 189 189 189 0
-8.377256 3.942238 32.207828 189 189 189 0
-8.596852 4.105959 33.545416 189 189 189 0
-8.379774 4.062921 33.193796 189 189 189 0
-8.125896 4.000441 32.683342 189 189 189 0
-7.944314 3.972157 32.452261 190 190 190 0
-7.959893 4.043120 33.032030 190 190 190 0
-7.923469 4.089532 33.411211 190 190 190 0
-7.721613 4.050682 33.093808 191 191 191 0
-7.527916 4.014889 32.801378 190 190 190 0
-7.425913 4.027614 32.905342 190 190 190 0
-7.414882 4.090969 33.422950 191 191 191 0
-7.263807 4.077927 33.316394 191 191 191 0
-7.084724 4.048414 33.075275 191 191 191 0
-6.945750 4.041163 33.016041 191 191 191 0
-6.850346 4.059464 33.165557 170 170 170 0
-6.241640 3.768538 30.788706 77 77 77 0
-4.089616 2.844950 23.243058 77 77 77 0
-3.998450 2.907964 23.757875 98 98 98 0
-3.861316 2.873537 23.476611 112 112 112 0
-3.740557 2.849948 23.283890 134 134 134 0
-3.620485 2.825744 23.086146 138 138 138 0
-3.532901 2.826321 23.090859 147 147 147 0
-3.420207 2.806324 22.927484 158 158 158 0
-3.303101 2.781559 22.725151 159 159 159 0
-3.187541 2.756792 22.522811 160 160 160 0
-3.080708 2.738407 22.372605 169 169 169 0
-2.963591 2.709569 22.137003 172 172 172 0
-2.850136 2.682481 21.915696 173 173 173 0
-2.733484 2.650652 21.655650 174 174 174 0
-2.626157 2.626157 21.455530 176 176 176 0
-2.530912 2.612554 21.344397 183 183 183 0
-2.447862 2.611053 21.332128 184 184 184 0
-2.378629 2.624694 21.443575 184 184 184 0
-2.287783 2.614609 21.361187 184 184 184 0
-2.183572 2.587937 21.143275 184 184 184 0
-2.087128 2.568773 20.986705 190 190 190 0
-1.990899 2.548350 20.819854 192 192 192 0
-1.901395 2.535193 20.712363 192 192 192 0
-1.818956 2.530722 20.675833 192 192 192 0
-1.736224 2.525417 20.632493 193 193 193 0
-1.657721 2.526052 20.637677 192 192 192 0
-1.575469 2.520750 20.594364 194 194 194 0
-1.489207 2.508137 20.491319 198 198 198 0
-1.403040 2.494293 20.378210 198 198 198 0
-1.319786 2.484303 20.296596 199 199 199 0
-1.241967 2.483934 20.293580 199 199 199 0
-1.163464 2.482056 20.278233 199 199 199 0
-1.084450 2.478743 20.251172 200 200 200 0
-1.006145 2.476665 20.234189 200 200 200 0
-0.925942 2.469178 20.173021 203 203 203 0
-0.848724 2.469016 20.171696 204 204 204 0
-0.769736 2.463154 20.123811 204 204 204 0
-0.691656 2.459221 20.091677 204 204 204 0
-0.613968 2.455873 20.064322 204 204 204 0
-0.537261 2.456049 20.065762 204 204 204 0
-0.459826 2.452403 20.035971 205 205 205 0
-0.383332 2.453327 20.043522 204 204 204 0
-0.305969 2.447756 19.998004 206 206 206 0
-0.228601 2.438414 19.921683 208 208 208 0
-0.151964 2.431432 19.864638 208 208 208 0
-0.075816 2.426116 19.821207 208 208 208 0
0.000000 2.424939 19.811596 208 208 208 0
0.076046 2.433463 19.881236 208 208 208 0
0.151722 2.427549 19.832913 208 208 208 0
0.226974 2.421060 19.779899 208 208 208 0
0.301416 2.411326 19.700373 208 208 208 0
0.375271 2.401733 19.622001 209 209 209 0
0.449247 2.395983 19.575027 211 211 211 0
0.523475 2.393030 19.550896 211 211 211 0
0.599766 2.399066 19.600211 211 211 211 0
