ply
    format ascii 1.0
    element vertex 8203
    property float x
    property float y
    property float z
    property uchar red
    property uchar green
    property uchar blue
    property uchar alpha
    end_header
-5.368737 -3.280895 25.992434 203 203 203 0
-5.225507 -3.253618 25.776334 203 203 203 0
-5.114757 -3.245903 25.715218 203 203 203 0
-5.034874 -3.257860 25.809940 204 204 204 0
-4.974052 -3.282874 26.008115 204 204 204 0
-4.887355 -3.291484 26.076326 203 203 203 0
-4.771553 -3.280443 25.988851 203 203 203 0
-4.651540 -3.265975 25.874231 203 203 203 0
-4.563264 -3.273646 25.935005 203 203 203 0
-4.507858 -3.305763 26.189446 204 204 204 0
-4.423534 -3.317651 26.283627 204 204 204 0
-4.312524 -3.309611 26.219936 204 204 204 0
-4.189969 -3.292119 26.081353 204 204 204 0
-4.093525 -3.294788 26.102502 204 204 204 0
-4.014367 -3.311853 26.237693 204 204 204 0
-3.930843 -3.326098 26.350548 204 204 204 0
-3.808648 -3.307510 26.203286 205 205 205 0
-3.689042 -3.290227 26.066364 204 204 204 0
-3.582159 -3.283646 26.014228 205 205 205 0
-3.491051 -3.291562 26.076945 205 205 205 0
-3.400605 -3.300587 26.148440 204 204 204 0
-3.304593 -3.304593 26.180180 205 205 205 0
-3.200636 -3.300656 26.148985 205 205 205 0
-3.094428 -3.294068 26.096797 206 206 206 0
-2.999383 -3.299322 26.138417 205 205 205 0
-2.902484 -3.302827 26.166189 205 205 205 0
-2.799782 -3.299744 26.141760 206 206 206 0
-2.706706 -3.308196 26.208724 205 205 205 0
-2.609069 -3.311510 26.234980 205 205 205 0
-2.509757 -3.312879 26.245824 206 206 206 0
-2.409908 -3.313624 26.251726 205 205 205 0
-2.314393 -3.320651 26.307393 206 206 206 0
-2.219780 -3.329669 26.378842 205 205 205 0
-2.120649 -3.332448 26.400855 206 206 206 0
-2.011563 -3.319079 26.294942 205 205 205 0
-1.905011 -3.308704 26.212745 206 206 206 0
-1.805870 -3.310761 26.229047 206 206 206 0
-1.717697 -3.334352 26.415941 206 206 206 0
-1.611290 -3.323286 26.328271 206 206 206 0
-1.505599 -3.312318 26.241382 207 207 207 0
-1.401652 -3.303893 26.174632 206 206 206 0
-1.299259 -3.298120 26.128897 206 206 206 0
-1.205057 -3.313907 26.253964 206 206 206 0
-1.108543 -3.325629 26.346836 207 207 207 0
-1.005330 -3.317589 26.283137 206 206 206 0
-0.901849 -3.306781 26.197512 207 207 207 0
-0.800685 -3.302825 26.166173 206 206 206 0
-0.701696 -3.307996 26.207137 206 206 206 0
-0.603952 -3.321734 26.315976 207 207 207 0
-0.502934 -3.319364 26.297201 207 207 207 0
-0.401000 -3.308253 26.209175 207 207 207 0
-0.300213 -3.302340 26.162330 207 207 207 0
-0.201012 -3.316703 26.276121 208 208 208 0
-0.100835 -3.327546 26.362021 208 208 208 0
0.000000 -3.326391 26.352873 208 208 208 0
0.100273 -3.308995 26.215052 207 207 207 0
0.199919 -3.298655 26.133138 208 208 208 0
0.300788 -3.308670 26.212481 208 208 208 0
0.402773 -3.322877 26.325034 207 207 207 0
0.502253 -3.314868 26.261582 208 208 208 0
0.600293 -3.301609 26.156538 208 208 208 0
0.698481 -3.292839 26.087061 208 208 208 0
0.798772 -3.294934 26.103653 208 208 208 0
0.901856 -3.306806 26.197714 203 203 203 0
1.004278 -3.314119 26.255646 114 114 114 0
-7.549032 -3.019613 24.670039 200 200 200 0
-7.436695 -3.012332 24.610557 200 200 200 0
-7.312799 -3.000123 24.510807 200 200 200 0
-7.287440 -3.028547 24.743027 201 201 201 0
-7.259563 -3.056658 24.972697 201 201 201 0
-7.173710 -3.060783 25.006395 200 200 200 0
-7.093203 -3.067331 25.059892 201 201 201 0
-7.009552 -3.072681 25.103599 201 201 201 0
-6.906130 -3.069391 25.076723 201 201 201 0
-6.857871 -3.090872 25.252219 201 201 201 0
-6.813603 -3.114790 25.447629 201 201 201 0
-6.706762 -3.110382 25.411619 201 201 201 0
-6.589777 -3.101072 25.335552 201 201 201 0
-6.521718 -3.114850 25.448125 202 202 202 0
-6.491451 -3.147370 25.713811 202 202 202 0
-6.466168 -3.183344 26.007716 202 202 202 0
-6.316308 -3.158154 25.801911 202 202 202 0
-6.179457 -3.138772 25.643562 201 201 201 0
-6.095687 -3.146161 25.703929 202 202 202 0
-6.575073 -3.449219 28.179892 202 202 202 0
-5.954498 -3.175732 25.945526 202 202 202 0
-5.861945 -3.179360 25.975164 202 202 202 0
-5.705539 -3.147883 25.718001 203 203 203 0
-5.579493 -3.132347 25.591068 202 202 202 0
-5.480464 -3.131694 25.585734 202 202 202 0
-5.460837 -3.177214 25.957633 203 203 203 0
-5.370549 -3.182548 26.001205 203 203 203 0
-5.234205 -3.160275 25.819238 203 203 203 0
-5.124916 -3.153794 25.766293 203 203 203 0
-5.044892 -3.165423 25.861296 203 203 203 0
-4.981687 -3.188280 26.048036 203 203 203 0
-4.895016 -3.196745 26.117200 203 203 203 0
-4.774626 -3.183084 26.005589 203 203 203 0
-4.658422 -3.171692 25.912513 204 204 204 0
-4.567795 -3.177596 25.960753 203 203 203 0
-4.514243 -3.210128 26.226538 204 204 204 0
-4.431578 -3.222966 26.331421 204 204 204 0
-4.320115 -3.214969 26.266089 203 203 203 0
-4.197562 -3.198142 26.128612 204 204 204 0
-4.097110 -3.197744 26.125362 205 205 205 0
-4.019569 -3.215655 26.271695 204 204 204 0
-3.933684 -3.227638 26.369594 205 205 205 0
-3.814252 -3.212002 26.241842 204 204 204 0
-3.688737 -3.190259 26.064206 204 204 204 0
-3.586366 -3.187881 26.044781 205 205 205 0
-3.493845 -3.194372 26.097814 205 205 205 0
-3.408764 -3.208249 26.211181 205 205 205 0
-3.308248 -3.207998 26.209131 205 205 205 0
-3.200847 -3.200847 26.150707 205 205 205 0
-3.096195 -3.196072 26.111698 205 205 205 0
-3.003553 -3.203789 26.174751 205 205 205 0
-2.906304 -3.206956 26.200621 205 205 205 0
-2.804625 -3.205285 26.186972 205 205 205 0
-2.705583 -3.206617 26.197852 205 205 205 0
-2.612333 -3.215179 26.267805 205 205 205 0
-2.514135 -3.218093 26.291612 205 205 205 0
-2.410216 -3.213621 26.255071 206 206 206 0
-2.316969 -3.223608 26.336670 205 205 205 0
-2.220072 -3.229196 26.382318 206 206 206 0
-2.120897 -3.231843 26.403948 206 206 206 0
-2.014072 -3.222516 26.327742 206 206 206 0
-1.907137 -3.212020 26.241990 206 206 206 0
-1.807705 -3.213698 26.255700 206 206 206 0
-1.719289 -3.236308 26.440426 206 206 206 0
-1.612501 -3.225002 26.348058 206 206 206 0
-1.507526 -3.216055 26.274962 206 206 206 0
-1.402952 -3.206748 26.198920 206 206 206 0
-1.301154 -3.202840 26.166994 206 206 206 0
-1.206258 -3.216688 26.280128 206 206 206 0
-1.109419 -3.227399 26.367642 207 207 207 0
-1.005673 -3.218154 26.292109 207 207 207 0
-0.902542 -3.209037 26.217620 206 206 206 0
-0.801561 -3.206243 26.194796 207 207 207 0
-0.702479 -3.211332 26.236376 207 207 207 0
-0.604503 -3.224016 26.340001 207 207 207 0
-0.503230 -3.220673 26.312690 206 206 206 0
-0.401222 -3.209773 26.223635 207 207 207 0
-0.300375 -3.204004 26.176501 207 207 207 0
-0.201112 -3.217798 26.289202 207 207 207 0
-0.100960 -3.230712 26.394709 207 207 207 0
0.000000 -3.227041 26.364710 207 207 207 0
0.100441 -3.214118 26.259136 207 207 207 0
0.200038 -3.200612 26.148788 208 208 208 0
0.300971 -3.210357 26.228404 208 208 208 0
0.402875 -3.223004 26.331732 208 208 208 0
0.502596 -3.216617 26.279553 208 208 208 0
0.600787 -3.204198 26.178091 208 208 208 0
0.698899 -3.194968 26.102678 208 208 208 0
0.800500 -3.202002 26.160145 208 208 208 0
0.903877 -3.213784 26.256409 202 202 202 0
1.004411 -3.214117 26.259122 111 111 111 0
-7.551175 -2.926080 24.677044 200 200 200 0
-7.439480 -2.919290 24.619774 200 200 200 0
-7.326451 -2.911795 24.556565 200 200 200 0
-7.291531 -2.935551 24.756916 201 201 201 0
-7.265704 -2.963642 24.993820 200 200 200 0
-7.176668 -2.966356 25.016708 201 201 201 0
-7.104070 -2.976029 25.098287 201 201 201 0
-7.006381 -2.975312 25.092239 201 201 201 0
-6.915529 -2.977520 25.110854 201 201 201 0
-6.860836 -2.995576 25.263134 201 201 201 0
-6.831241 -3.025264 25.513504 201 201 201 0
-6.717278 -3.017908 25.451467 201 201 201 0
-6.598662 -3.008214 25.369713 201 201 201 0
-6.518240 -3.015902 25.434551 201 201 201 0
-6.508904 -3.057212 25.782943 202 202 202 0
-6.469349 -3.085382 26.020509 202 202 202 0
-6.320294 -3.061393 25.818195 202 202 202 0
-6.170693 -3.036373 25.607190 201 201 201 0
-6.074939 -3.037470 25.616442 202 202 202 0
-6.152689 -3.126776 26.369608 202 202 202 0
-5.983904 -3.091684 26.073656 202 202 202 0
-5.862361 -3.080223 25.977005 202 202 202 0
-5.703743 -3.048553 25.709909 202 202 202 0
-5.572450 -3.030631 25.558765 203 203 203 0
-5.497004 -3.042984 25.662950 203 203 203 0
-5.468268 -3.082115 25.992955 203 203 203 0
-5.376822 -3.086694 26.031577 202 202 202 0
-5.243283 -3.066826 25.864020 203 203 203 0
-5.124407 -3.054935 25.763737 203 203 203 0
-5.047889 -3.068325 25.876656 203 203 203 0
-4.981087 -3.088274 26.044897 203 203 203 0
-4.900778 -3.100492 26.147944 204 204 204 0
-4.778826 -3.086325 26.028464 203 203 203 0
-4.666791 -3.078096 25.959067 203 203 203 0
-4.562442 -3.074689 25.930332 204 204 204 0
-4.515935 -3.110977 26.236366 203 203 203 0
-4.433336 -3.123487 26.341868 204 204 204 0
-4.324256 -3.117487 26.291265 204 204 204 0
-4.200745 -3.100550 26.148429 204 204 204 0
-4.100535 -3.100404 26.147199 204 204 204 0
-4.019590 -3.115182 26.271829 203 203 203 0
-3.940472 -3.132170 26.415096 204 204 204 0
-3.811280 -3.109202 26.221396 205 205 205 0
-3.694363 -3.095277 26.103963 204 204 204 0
-3.588385 -3.089998 26.059440 205 205 205 0
-3.498045 -3.098269 26.129189 205 205 205 0
-3.413244 -3.112075 26.245628 205 205 205 0
-3.309971 -3.109367 26.222784 205 205 205 0
-3.205803 -3.105621 26.191198 204 204 204 0
-3.100932 -3.100932 26.151647 205 205 205 0
-3.009724 -3.110048 26.228531 205 205 205 0
-2.911924 -3.112746 26.251286 205 205 205 0
-2.805374 -3.105950 26.193973 205 205 205 0
-2.711520 -3.113227 26.255339 205 205 205 0
-2.617644 -3.121037 26.321208 206 206 206 0
-2.518945 -3.123492 26.341911 205 205 205 0
-2.415104 -3.119510 26.308324 206 206 206 0
-2.317416 -3.123474 26.341758 205 205 205 0
-2.223817 -3.133561 26.426826 205 205 205 0
-2.122641 -3.133423 26.425664 206 206 206 0
-2.015165 -3.123506 26.342026 206 206 206 0
-1.909402 -3.115340 26.273159 206 206 206 0
-1.807264 -3.112511 26.249300 207 207 207 0
-1.719722 -3.135964 26.447096 207 207 207 0
-1.614183 -3.127479 26.375532 206 206 206 0
-1.507934 -3.116398 26.282081 206 206 206 0
-1.404012 -3.108883 26.218706 206 206 206 0
-1.301259 -3.103002 26.169112 206 206 206 0
-1.207625 -3.119699 26.309924 206 206 206 0
-1.110036 -3.128282 26.382309 206 206 206 0
-1.006676 -3.120697 26.318337 206 206 206 0
-0.902515 -3.108664 26.216855 207 207 207 0
-0.802506 -3.109711 26.225687 207 207 207 0
-0.703359 -3.114878 26.269261 206 206 206 0
-0.605031 -3.125995 26.363022 207 207 207 0
-0.503681 -3.122820 26.336241 207 207 207 0
-0.401750 -3.113561 26.258156 207 207 207 0
-0.300673 -3.106958 26.202468 207 207 207 0
-0.201358 -3.121042 26.321252 207 207 207 0
-0.101072 -3.133232 26.424050 208 208 208 0
0.000000 -3.128472 26.383909 207 207 207 0
0.100459 -3.114226 26.263769 207 207 207 0
0.200377 -3.105836 26.193008 208 208 208 0
0.301591 -3.116439 26.282430 208 208 208 0
0.403696 -3.128648 26.385390 208 208 208 0
0.503273 -3.120293 26.314935 207 207 207 0
0.601622 -3.108382 26.214484 208 208 208 0
0.699757 -3.098924 26.134713 207 207 207 0
0.801774 -3.106873 26.201755 207 207 207 0
0.905153 -3.117748 26.293472 202 202 202 0
1.004528 -3.114037 26.262172 121 121 121 0
-7.560304 -2.835114 24.706877 199 199 199 0
-7.440254 -2.825413 24.622335 200 200 200 0
-7.329934 -2.819205 24.568237 200 200 200 0
-7.309363 -2.847804 24.817461 200 200 200 0
-7.271454 -2.870311 25.013603 201 201 201 0
-7.184991 -2.873996 25.045721 200 200 200 0
-7.103568 -2.879825 25.096513 200 200 200 0
-7.025647 -2.887252 25.161238 201 201 201 0
-6.919393 -2.883081 25.124885 201 201 201 0
-6.876356 -2.905503 25.320285 202 202 202 0
-6.827707 -2.926160 25.500305 201 201 201 0
-6.731085 -2.926559 25.503779 201 201 201 0
-6.603246 -2.913197 25.387335 202 202 202 0
-6.534538 -2.925913 25.498149 202 202 202 0
-6.514475 -2.961125 25.805011 202 202 202 0
-6.479788 -2.990671 26.062496 202 202 202 0
-6.322643 -2.963739 25.827790 202 202 202 0
-6.173377 -2.939703 25.618330 202 202 202 0
-6.078708 -2.941310 25.632333 202 202 202 0
-6.056855 -2.978781 25.958879 202 202 202 0
-5.980812 -2.990406 26.060183 203 203 203 0
-5.859642 -2.979479 25.964960 202 202 202 0
-5.706853 -2.951821 25.723927 202 202 202 0
-5.578266 -2.935929 25.585442 202 202 202 0
-5.491333 -2.941785 25.636473 202 202 202 0
-5.475994 -2.986906 26.029681 202 202 202 0
-5.380549 -2.989194 26.049622 202 202 202 0
-5.244408 -2.968533 25.869565 203 203 203 0
-5.133280 -2.961508 25.808346 202 202 202 0
-5.052981 -2.972342 25.902760 203 203 203 0
-4.990682 -2.994409 26.095069 203 203 203 0
-4.905509 -3.003373 26.173182 203 203 203 0
-4.785429 -2.990893 26.064429 204 204 204 0
-4.665939 -2.978259 25.954325 203 203 203 0
-4.570917 -2.981033 25.978498 203 203 203 0
-4.516615 -3.011077 26.240321 204 204 204 0
-4.439526 -3.026949 26.378643 204 204 204 0
-4.324932 -3.017394 26.295375 203 203 203 0
-4.202304 -3.001645 26.158131 204 204 204 0
-4.108341 -3.006103 26.196980 204 204 204 0
-4.025745 -3.019308 26.312056 204 204 204 0
-3.941798 -3.032152 26.423983 204 204 204 0
-3.816423 -3.012966 26.256782 204 204 204 0
-3.696301 -2.997001 26.117656 204 204 204 0
-3.589938 -2.991615 26.070722 204 204 204 0
-3.501129 -3.000968 26.152225 204 204 204 0
-3.418272 -3.016123 26.284293 205 205 205 0
-3.315536 -3.014124 26.266875 204 204 204 0
-3.206506 -3.006099 26.196941 205 205 205 0
-3.106356 -3.006151 26.197394 205 205 205 0
-3.013241 -3.013241 26.259184 205 205 205 0
-2.911945 -3.012357 26.251473 206 206 206 0
-2.812269 -3.013145 26.258344 206 206 206 0
-2.713184 -3.014649 26.271453 205 205 205 0
-2.620070 -3.023158 26.345603 205 205 205 0
-2.520536 -3.024643 26.358548 205 205 205 0
-2.416514 -3.020642 26.323680 205 205 205 0
-2.320634 -3.026914 26.378335 206 206 206 0
-2.224858 -3.033897 26.439190 206 206 206 0
-2.125614 -3.036591 26.462670 206 206 206 0
-2.018261 -3.027392 26.382503 206 206 206 0
-1.913112 -3.020704 26.324217 206 206 206 0
-1.677211 -2.795352 24.360368 206 206 206 0
-1.721673 -3.038246 26.477091 206 206 206 0
-1.615043 -3.028206 26.389597 207 207 207 0
-1.509112 -3.018225 26.302612 206 206 206 0
-1.404945 -3.010596 26.236131 206 206 206 0
-1.303097 -3.007147 26.206076 206 206 206 0
-1.208623 -3.021556 26.331646 207 207 207 0
-1.111070 -3.030191 26.406894 207 207 207 0
-1.007267 -3.021802 26.333785 207 207 207 0
-0.903501 -3.011670 26.245489 206 206 206 0
-0.802739 -3.010271 26.233301 206 206 206 0
-0.704240 -3.018169 26.302129 208 208 208 0
-0.605687 -3.028433 26.391573 207 207 207 0
-0.504016 -3.024095 26.353770 207 207 207 0
-0.402087 -3.015654 26.280211 207 207 207 0
-0.300918 -3.009179 26.223778 207 207 207 0
-0.201565 -3.023476 26.348371 207 207 207 0
-0.101127 -3.033814 26.438467 207 207 207 0
0.000000 -3.029732 26.402892 207 207 207 0
0.100592 -3.017758 26.298545 207 207 207 0
0.200558 -3.008365 26.216687 208 208 208 0
0.302059 -3.020591 26.323229 207 207 207 0
0.404431 -3.033231 26.433388 208 208 208 0
0.503717 -3.022302 26.338146 207 207 207 0
0.602081 -3.010407 26.234481 208 208 208 0
0.700990 -3.004242 26.180757 208 208 208 0
0.802846 -3.010673 26.236804 208 208 208 0
0.906660 -3.022200 26.337257 203 203 203 0
1.005956 -3.017868 26.299508 142 142 142 0
-7.581423 -2.748266 24.775892 200 200 200 0
-7.441226 -2.731589 24.625552 200 200 200 0
-7.338208 -2.728308 24.595972 200 200 200 0
-7.328550 -2.760103 24.882607 201 201 201 0
-7.272709 -2.775113 25.017918 200 200 200 0
-7.199195 -2.783689 25.095232 201 201 201 0
-7.114418 -2.788083 25.134847 201 201 201 0
-7.024573 -2.790584 25.157392 201 201 201 0
-6.927134 -2.790096 25.152991 201 201 201 0
-6.874810 -2.808021 25.314593 201 201 201 0
-6.831176 -2.830059 25.513263 201 201 201 0
-6.731338 -2.829113 25.504739 201 201 201 0
-6.613340 -2.820395 25.426145 201 201 201 0
-6.537060 -2.829474 25.507990 202 202 202 0
-6.520975 -2.865277 25.830760 201 201 201 0
-6.487381 -2.894370 26.093035 202 202 202 0
-6.325291 -2.866147 25.838606 202 202 202 0
-6.178496 -2.844069 25.639571 202 202 202 0
-6.081133 -2.844401 25.642561 202 202 202 0
-6.067306 -2.884457 26.003669 202 202 202 0
-5.987086 -2.893758 26.087520 203 203 203 0
-5.859994 -2.880336 25.966520 202 202 202 0
-5.710619 -2.855310 25.740903 203 203 203 0
-5.580622 -2.839264 25.596247 203 203 203 0
-5.506620 -2.851642 25.707842 203 203 203 0
-5.480175 -2.889547 26.049554 203 203 203 0
-5.385017 -2.891954 26.071252 203 203 203 0
-5.244125 -2.869427 25.868169 202 202 202 0
-5.128525 -2.860139 25.784441 203 203 203 0
-5.060735 -2.877673 25.942511 203 203 203 0
-4.996327 -2.897870 26.124588 203 203 203 0
-4.912292 -2.907275 26.209374 203 203 203 0
-4.790086 -2.894010 26.089792 203 203 203 0
-4.675094 -2.884632 26.005251 203 203 203 0
-4.572276 -2.882522 25.986222 204 204 204 0
-4.522782 -2.914682 26.276149 203 203 203 0
-4.446461 -2.930622 26.419850 204 204 204 0
-4.331526 -2.921262 26.335466 204 204 204 0
-4.204837 -2.903340 26.173899 204 204 204 0
-4.106187 -2.904376 26.183243 204 204 204 0
-4.024490 -2.917755 26.303855 204 204 204 0
-3.943291 -2.932191 26.433996 204 204 204 0
-3.815972 -2.912189 26.253676 204 204 204 0
-3.696304 -2.897103 26.117678 204 204 204 0
-3.594553 -2.895612 26.104234 204 204 204 0
-3.499320 -2.899436 26.138709 204 204 204 0
-3.420953 -2.917872 26.304909 205 205 205 0
-3.317022 -2.914958 26.278642 205 205 205 0
-3.208874 -2.908042 26.216294 205 205 205 0
-3.112402 -2.911602 26.248381 205 205 205 0
-3.015242 -2.914734 26.276616 205 205 205 0
-2.915079 -2.915079 26.279730 205 205 205 0
-2.813503 -2.913986 26.269874 205 205 205 0
-2.717203 -2.918477 26.310363 205 205 205 0
-2.620657 -2.923041 26.351508 205 205 205 0
-2.522705 -2.926338 26.381228 205 205 205 0
-2.419553 -2.923627 26.356792 206 206 206 0
-2.324266 -2.930597 26.419623 205 205 205 0
-2.227403 -2.936122 26.469435 205 205 205 0
-2.127386 -2.937819 26.484731 206 206 206 0
-2.020812 -2.930177 26.415841 206 206 206 0
-1.918731 -2.928589 26.401523 206 206 206 0
-1.908445 -3.074717 27.718878 206 206 206 0
-1.719460 -2.933197 26.443068 206 206 206 0
-1.616925 -2.930677 26.420344 206 206 206 0
-1.511344 -2.921932 26.341506 206 206 206 0
-1.406127 -2.912692 26.258212 206 206 206 0
-1.305699 -2.912713 26.258403 206 206 206 0
-1.210192 -2.924630 26.365837 206 206 206 0
-1.111682 -2.930799 26.421448 207 207 207 0
-1.008263 -2.923964 26.359825 207 207 207 0
-0.903805 -2.912261 26.254324 207 207 207 0
-0.803572 -2.912949 26.260525 207 207 207 0
-0.704303 -2.917828 26.304514 207 207 207 0
-0.606201 -2.929970 26.413973 207 207 207 0
-0.504334 -2.925135 26.370389 206 206 206 0
-0.402392 -2.917339 26.300103 207 207 207 0
-0.301220 -2.911791 26.250084 207 207 207 0
-0.202019 -2.929275 26.407704 207 207 207 0
-0.101305 -2.937848 26.484994 207 207 207 0
0.000000 -2.931513 26.427882 207 207 207 0
0.100688 -2.919964 26.323769 208 208 208 0
0.200794 -2.911511 26.247560 207 207 207 0
0.302297 -2.922201 26.343933 208 208 208 0
0.404911 -2.935603 26.464756 207 207 207 0
0.504233 -2.924554 26.365150 208 208 208 0
0.603021 -2.914599 26.275407 208 208 208 0
0.701556 -2.906448 26.201917 207 207 207 0
0.803538 -2.912827 26.259426 207 207 207 0
0.908042 -2.925914 26.377405 204 204 204 0
1.006865 -2.919910 26.323280 162 162 162 0
1.105825 -2.915356 26.282226 81 81 81 0
-7.571507 -2.650027 24.743486 200 200 200 0
-7.455428 -2.642430 24.672550 200 200 200 0
-7.337849 -2.634100 24.594769 200 200 200 0
-7.316988 -2.660723 24.843353 201 201 201 0
-7.309389 -2.692933 25.144098 200 200 200 0
-7.210524 -2.691929 25.134722 200 200 200 0
-7.115802 -2.692466 25.139736 201 201 201 0
-7.021740 -2.693270 25.147246 200 200 200 0
-6.931306 -2.695508 25.168143 201 201 201 0
-6.896486 -2.719741 25.394408 201 201 201 0
-6.824589 -2.729836 25.488661 201 201 201 0
-6.724853 -2.728926 25.480165 200 200 200 0
-6.601375 -2.718213 25.380142 201 201 201 0
-6.539735 -2.733024 25.518429 201 201 201 0
-6.532498 -2.771363 25.876405 201 201 201 0
-6.485511 -2.793759 26.085514 202 202 202 0
-6.326971 -2.768050 25.845468 201 201 201 0
-6.178626 -2.746056 25.640111 202 202 202 0
-6.086746 -2.748853 25.666228 202 202 202 0
-6.080916 -2.791240 26.062001 201 201 201 0
-5.990258 -2.795454 26.101341 202 202 202 0
-5.860940 -2.781463 25.970711 202 202 202 0
-5.708437 -2.755797 25.731068 202 202 202 0
-5.589270 -2.745606 25.635914 202 202 202 0
-5.506263 -2.753131 25.706174 202 202 202 0
-5.484754 -2.792239 26.071321 203 203 203 0
-5.389451 -2.794530 26.092716 203 203 203 0
-5.251913 -2.774596 25.906590 202 202 202 0
-5.139731 -2.767547 25.840779 203 203 203 0
-5.061931 -2.779100 25.948642 203 203 203 0
-4.997839 -2.798790 26.132489 203 203 203 0
-4.912768 -2.807296 26.211915 203 203 203 0
-4.798432 -2.799085 26.135249 203 203 203 0
-4.679741 -2.787931 26.031103 203 203 203 0
-4.577102 -2.786062 26.013649 204 204 204 0
-4.532032 -2.819931 26.329889 204 204 204 0
-4.443594 -2.827742 26.402819 204 204 204 0
-4.334305 -2.822338 26.352365 204 204 204 0
-4.212032 -2.808021 26.218686 204 204 204 0
-4.111425 -2.807802 26.216643 204 204 204 0
-4.032061 -2.822443 26.353343 204 204 204 0
-3.947297 -2.833957 26.460847 204 204 204 0
-3.818702 -2.813781 26.272460 204 204 204 0
-3.700639 -2.800483 26.148305 204 204 204 0
-3.595147 -2.796225 26.108548 205 205 205 0
-3.507556 -2.806045 26.200233 204 204 204 0
-3.425531 -2.821025 26.340104 205 205 205 0
-3.320850 -2.817691 26.308970 204 204 204 0
-3.210876 -2.809517 26.232649 204 204 204 0
-3.111688 -2.810557 26.242362 205 205 205 0
-3.015631 -2.814589 26.280006 205 205 205 0
-2.919859 -2.819174 26.322820 205 205 205 0
-2.814488 -2.814488 26.279066 205 205 205 0
-2.719164 -2.819874 26.329357 205 205 205 0
-2.622821 -2.824577 26.373266 206 206 206 0
-2.523704 -2.826548 26.391671 205 205 205 0
-2.423753 -2.827712 26.402540 205 205 205 0
-2.325074 -2.830525 26.428806 205 205 205 0
-2.231502 -2.840093 26.518141 206 206 206 0
-2.128489 -2.837986 26.498469 206 206 206 0
-2.021321 -2.829849 26.422495 206 206 206 0
-1.918188 -2.826804 26.394062 206 206 206 0
-1.827703 -2.843094 26.546164 206 206 206 0
-1.723626 -2.838914 26.507134 206 206 206 0
-1.618317 -2.832055 26.443094 206 206 206 0
-1.511583 -2.821621 26.345667 206 206 206 0
-1.407057 -2.814113 26.275566 206 206 206 0
-1.307774 -2.816744 26.300135 206 206 206 0
-1.212075 -2.828174 26.406852 206 206 206 0
-1.111929 -2.830364 26.427305 207 207 207 0
-1.008921 -2.824980 26.377028 207 207 207 0
-0.905439 -2.816920 26.301775 206 206 206 0
-0.804566 -2.815982 26.293017 207 207 207 0
-0.705218 -2.820871 26.338669 207 207 207 0
-0.606604 -2.830819 26.431554 207 207 207 0
-0.504965 -2.827803 26.403391 207 207 207 0
-0.402934 -2.820537 26.335546 208 208 208 0
-0.301808 -2.816873 26.301335 207 207 207 0
-0.202400 -2.833602 26.457531 207 207 207 0
-0.101432 -2.840084 26.518055 207 207 207 0
0.000000 -2.832672 26.448851 208 208 208 0
0.100777 -2.821761 26.346973 207 207 207 0
0.201102 -2.815425 26.287820 208 208 208 0
0.302424 -2.822622 26.355013 208 208 208 0
0.405261 -2.836825 26.487631 207 207 207 0
0.504480 -2.825090 26.378056 208 208 208 0
0.603044 -2.814207 26.276441 207 207 207 0
0.702222 -2.808889 26.226788 207 207 207 0
0.805083 -2.817790 26.309900 208 208 208 0
0.908830 -2.827470 26.400283 204 204 204 0
1.007937 -2.822224 26.351293 172 172 172 0
1.107505 -2.819103 26.322161 102 102 102 0
-7.602851 -2.565962 24.845919 200 200 200 0
-7.475326 -2.554858 24.738400 200 200 200 0
-7.345485 -2.542668 24.620361 200 200 200 0
-7.338782 -2.573339 24.917348 201 201 201 0
-7.301907 -2.594099 25.118361 200 200 200 0
-7.209768 -2.595516 25.132088 201 201 201 0
-7.115730 -2.596280 25.139481 201 201 201 0
-7.030129 -2.600185 25.177289 200 200 200 0
-6.941764 -2.603161 25.206114 201 201 201 0
-6.887404 -2.619153 25.360963 201 201 201 0
-6.851998 -2.642914 25.591029 201 201 201 0
-6.740720 -2.637673 25.540284 201 201 201 0
-6.612455 -2.625533 25.422740 201 201 201 0
-6.555011 -2.641571 25.578034 202 202 202 0
-6.537598 -2.674472 25.896604 202 202 202 0
-6.482921 -2.692906 26.075096 202 202 202 0
-6.338974 -2.674255 25.894500 202 202 202 0
-6.187611 -2.651833 25.677399 202 202 202 0
-6.091963 -2.652952 25.688228 202 202 202 0
-6.070169 -2.686796 26.015938 203 203 203 0
-5.995954 -2.698179 26.126162 203 203 203 0
-5.865247 -2.684096 25.989796 203 203 203 0
-5.711753 -2.658919 25.746012 202 202 202 0
-5.591952 -2.648819 25.648215 202 202 202 0
-5.517853 -2.660394 25.760287 203 203 203 0
-5.496036 -2.698054 26.124947 203 203 203 0
-5.392889 -2.696445 26.109365 203 203 203 0
-5.254568 -2.676856 25.919686 203 203 203 0
-5.138886 -2.668268 25.836533 203 203 203 0
-5.066987 -2.682522 25.974557 203 203 203 0
-5.003646 -2.701969 26.162855 203 203 203 0
-4.921699 -2.711957 26.259567 203 203 203 0
-4.800821 -2.700462 26.148261 204 204 204 0
-4.683506 -2.690525 26.052043 203 203 203 0
-4.583346 -2.690225 26.049139 204 204 204 0
-4.542568 -2.725541 26.391099 204 204 204 0
-4.452374 -2.732139 26.454985 204 204 204 0
-4.335727 -2.722433 26.361008 203 203 203 0
-4.212476 -2.708021 26.221453 203 203 203 0
-4.114215 -2.709361 26.234436 204 204 204 0
-4.035815 -2.724175 26.377873 204 204 204 0
-3.948009 -2.733237 26.465619 204 204 204 0
-3.823747 -2.716873 26.307172 205 205 205 0
-3.701080 -2.700788 26.151421 205 205 205 0
-3.603299 -2.702474 26.167748 204 204 204 0
-3.510465 -2.708073 26.221961 205 205 205 0
-3.424206 -2.719223 26.329921 205 205 205 0
-3.322602 -2.718492 26.322851 204 204 204 0
-3.216152 -2.713628 26.275749 205 205 205 0
-3.117065 -2.714863 26.287710 205 205 205 0
-3.019745 -2.717771 26.315862 205 205 205 0
-2.921455 -2.719975 26.337209 205 205 205 0
-2.816721 -2.716124 26.299914 205 205 205 0
-2.723397 -2.723397 26.370340 205 205 205 0
-2.627100 -2.728143 26.416293 205 205 205 0
-2.526482 -2.728601 26.420727 205 205 205 0
-2.426181 -2.729454 26.428992 205 205 205 0
-2.328555 -2.733521 26.468376 206 206 206 0
-2.234928 -2.742866 26.558858 206 206 206 0
-2.130482 -2.739191 26.523274 206 206 206 0
-2.022321 -2.730134 26.435573 206 206 206 0
-1.920984 -2.729819 26.432523 206 206 206 0
-1.826454 -2.739681 26.528013 206 206 206 0
-1.725107 -2.739875 26.529897 206 206 206 0
-1.619124 -2.732272 26.456275 206 206 206 0
-1.513212 -2.723781 26.374061 206 206 206 0
-1.408408 -2.716216 26.300807 206 206 206 0
-1.308886 -2.718456 26.322497 206 206 206 0
-1.213812 -2.731077 26.444704 206 206 206 0
-1.113333 -2.732727 26.460685 206 206 206 0
-1.010510 -2.728376 26.418551 206 206 206 0
-0.906705 -2.720114 26.338552 207 207 207 0
-0.806234 -2.721039 26.347512 206 206 206 0
-0.706094 -2.723505 26.371384 207 207 207 0
-0.607578 -2.734100 26.473979 207 207 207 0
-0.505326 -2.728762 26.422287 207 207 207 0
-0.403384 -2.722841 26.364957 207 207 207 0
-0.302278 -2.720506 26.342343 207 207 207 0
-0.202962 -2.739983 26.530943 207 207 207 0
-0.101537 -2.741499 26.545621 207 207 207 0
0.000000 -2.732288 26.456429 207 207 207 0
0.100886 -2.723929 26.375492 207 207 207 0
0.201080 -2.714577 26.284934 207 207 207 0
0.302483 -2.722346 26.360165 208 208 208 0
0.405762 -2.738893 26.520388 207 207 207 0
0.505110 -2.727595 26.410991 207 207 207 0
0.603505 -2.715773 26.296519 208 208 208 0
0.703196 -2.712326 26.263139 208 208 208 0
0.806107 -2.720611 26.343366 208 208 208 0
0.909586 -2.728757 26.422243 204 204 204 0
1.008522 -2.723009 26.366585 177 177 177 0
1.108902 -2.721851 26.355369 125 125 125 0
-7.610335 -2.473359 24.870377 200 200 200 0
-7.472112 -2.459176 24.727765 201 201 201 0
-7.365857 -2.455286 24.688645 201 201 201 0
-7.337129 -2.477472 24.911735 201 201 201 0
-7.302029 -2.498063 25.118780 201 201 201 0
-7.212791 -2.500434 25.142628 200 200 200 0
-7.129174 -2.504845 25.186979 201 201 201 0
-7.026754 -2.502680 25.165204 201 201 201 0
-6.939692 -2.506000 25.198591 201 201 201 0
-6.903876 -2.528180 25.421617 201 201 201 0
-6.873189 -2.552899 25.670175 202 202 202 0
-6.756637 -2.545979 25.600595 201 201 201 0
-6.617268 -2.530132 25.441245 201 201 201 0
-6.558054 -2.544916 25.589909 201 201 201 0
-6.542640 -2.577403 25.916576 201 201 201 0
-6.496941 -2.598776 26.131487 202 202 202 0
-6.335512 -2.573802 25.880359 202 202 202 0
-6.193292 -2.555962 25.700973 202 202 202 0
-6.106204 -2.560666 25.748277 202 202 202 0
-6.078585 -2.590872 26.052009 202 202 202 0
-6.001715 -2.600743 26.151262 202 202 202 0
-5.864702 -2.584445 25.987379 202 202 202 0
-5.715418 -2.562084 25.762531 202 202 202 0
-5.591216 -2.550379 25.644837 203 203 203 0
-5.521328 -2.563474 25.776507 202 202 202 0
-5.499616 -2.599818 26.141965 202 202 202 0
-5.400772 -2.600372 26.147529 203 203 203 0
-5.259483 -2.580124 25.943928 203 203 203 0
-5.143999 -2.571999 25.862236 203 203 203 0
-5.072838 -2.586153 26.004551 203 203 203 0
-5.004075 -2.602119 26.165099 204 204 204 0
-4.924012 -2.612741 26.271906 204 204 204 0
-4.804196 -2.602273 26.166646 204 204 204 0
-4.686924 -2.592766 26.071054 203 203 203 0
-4.591816 -2.595374 26.097278 204 204 204 0
-4.553536 -2.630932 26.454822 204 204 204 0
-4.456772 -2.633547 26.481116 204 204 204 0
-4.334937 -2.621125 26.356208 204 204 204 0
-4.214576 -2.609023 26.234520 204 204 204 0
-4.115015 -2.609522 26.239533 204 204 204 0
-4.033579 -2.621826 26.363262 204 204 204 0
-3.956093 -2.637396 26.519814 204 204 204 0
-3.826494 -2.618127 26.326067 204 204 204 0
-3.705734 -2.604029 26.184309 204 204 204 0
-3.606458 -2.604664 26.190691 204 204 204 0
-3.511007 -2.608177 26.226011 204 204 204 0
-3.428514 -2.621805 26.363045 204 204 204 0
-3.326872 -2.621172 26.356678 205 205 205 0
-3.219098 -2.615517 26.299816 205 205 205 0
-3.118450 -2.615475 26.299392 205 205 205 0
-3.025017 -2.621682 26.361806 205 205 205 0
-2.924886 -2.622312 26.368142 205 205 205 0
-2.823765 -2.622068 26.365690 205 205 205 0
-2.727701 -2.626675 26.412020 206 206 206 0
-2.630655 -2.630655 26.452032 206 206 206 0
-2.530126 -2.631331 26.458830 205 205 205 0
-2.429858 -2.632347 26.469046 205 205 205 0
-2.331288 -2.635369 26.499440 205 205 205 0
-2.237194 -2.643957 26.585790 205 205 205 0
-2.133358 -2.641300 26.559074 206 206 206 0
-2.024151 -2.631396 26.459484 205 205 205 0
-1.922235 -2.630427 26.449746 206 206 206 0
-1.827284 -2.639410 26.540070 206 206 206 0
-1.725912 -2.639630 26.542281 206 206 206 0
-1.619874 -2.632295 26.468528 207 207 207 0
-1.513790 -2.623903 26.384144 206 206 206 0
-1.410016 -2.618601 26.330828 206 206 206 0
-1.312216 -2.624432 26.389460 207 207 207 0
-1.215259 -2.633060 26.476221 207 207 207 0
-1.114800 -2.634981 26.495533 207 207 207 0
-1.011191 -2.629096 26.436364 206 206 206 0
-0.906991 -2.620195 26.346859 207 207 207 0
-0.806945 -2.622573 26.370767 207 207 207 0
-0.707320 -2.627188 26.417173 207 207 207 0
-0.608098 -2.635092 26.496651 207 207 207 0
-0.505754 -2.629920 26.444644 207 207 207 0
-0.403779 -2.624562 26.390770 207 207 207 0
-0.302725 -2.623615 26.381242 207 207 207 0
-0.203151 -2.640967 26.555724 207 207 207 0
-0.101594 -2.641442 26.560504 208 208 208 0
0.000000 -2.634117 26.486844 208 208 208 0
0.100902 -2.623444 26.379524 207 207 207 0
0.201387 -2.618033 26.325117 208 208 208 0
0.300681 -2.605904 26.203155 207 207 207 0
0.406111 -2.639719 26.543182 208 208 208 0
0.505292 -2.627521 26.420522 208 208 208 0
0.603770 -2.616335 26.308048 207 207 207 0
0.703289 -2.612218 26.266648 208 208 208 0
0.806696 -2.621762 26.362610 209 209 209 0
0.910999 -2.631773 26.463283 204 204 204 0
1.007816 -2.620322 26.348133 180 180 180 0
1.111028 -2.626066 26.405897 145 145 145 0
-7.601550 -2.375485 24.841668 199 199 199 0
-7.483347 -2.368148 24.764943 200 200 200 0
-7.380172 -2.365440 24.736624 200 200 200 0
-7.359074 -2.389310 24.986244 200 200 200 0
-7.304363 -2.402751 25.126809 200 200 200 0
-7.215442 -2.405147 25.151868 200 200 200 0
-7.134126 -2.410178 25.204472 201 201 201 0
-7.044245 -2.412413 25.227846 200 200 200 0
-6.954056 -2.414603 25.250750 201 201 201 0
-6.923039 -2.437690 25.492182 201 201 201 0
-6.875648 -2.455588 25.679356 202 202 202 0
-6.764736 -2.450991 25.631281 201 201 201 0
-6.611524 -2.430707 25.419163 201 201 201 0
-6.562104 -2.448546 25.605712 202 202 202 0
-6.549556 -2.480892 25.943971 201 201 201 0
-6.503356 -2.501291 26.157289 201 201 201 0
-6.341353 -2.477091 25.904218 202 202 202 0
-6.193128 -2.457591 25.700293 202 202 202 0
-6.113608 -2.465165 25.779499 202 202 202 0
-6.088459 -2.495270 26.094329 202 202 202 0
-6.005469 -2.502279 26.167621 202 202 202 0
-5.873335 -2.488701 26.025633 202 202 202 0
-5.719408 -2.465262 25.780517 202 202 202 0
-5.601398 -2.456753 25.691539 202 202 202 0
-5.528174 -2.467935 25.808469 202 202 202 0
-5.506396 -2.502907 26.174191 203 203 203 0
-5.404434 -2.502053 26.165260 203 203 203 0
-5.258696 -2.480517 25.940049 203 203 203 0
-5.146457 -2.474258 25.874598 203 203 203 0
-5.079887 -2.490141 26.040688 203 203 203 0
-5.009050 -2.504525 26.191111 203 203 203 0
-4.924368 -2.512433 26.273804 202 202 202 0
-4.802830 -2.501474 26.159206 203 203 203 0
-4.685854 -2.492475 26.065103 203 203 203 0
-4.596163 -2.497915 26.121983 204 204 204 0
-4.556886 -2.531603 26.474283 203 203 203 0
-4.456781 -2.532262 26.481169 204 204 204 0
-4.338021 -2.522106 26.374960 204 204 204 0
-4.219048 -2.511338 26.262357 203 203 203 0
-4.121901 -2.513354 26.283441 204 204 204 0
-4.040202 -2.525126 26.406547 204 204 204 0
-3.958355 -2.537407 26.534973 204 204 204 0
-3.830483 -2.520055 26.353514 204 204 204 0
-3.709338 -2.506309 26.209772 204 204 204 0
-3.610815 -2.507510 26.222329 204 204 204 0
-3.515056 -2.510754 26.256252 204 204 204 0
-3.431038 -2.522822 26.382452 204 204 204 0
-3.330267 -2.522930 26.383579 204 204 204 0
-3.221446 -2.516755 26.319007 205 205 205 0
-3.120686 -2.516683 26.318249 205 205 205 0
-3.027758 -2.523132 26.385694 205 205 205 0
-2.927568 -2.523766 26.392319 205 205 205 0
-2.824605 -2.521969 26.373533 205 205 205 0
-2.729102 -2.526946 26.425584 206 206 206 0
-2.630285 -2.529121 26.448320 205 205 205 0
-2.531986 -2.531986 26.478280 205 205 205 0
-2.430970 -2.532261 26.481156 205 205 205 0
-2.333328 -2.536226 26.522629 205 205 205 0
-2.239362 -2.544729 26.611549 206 206 206 0
-2.134475 -2.541042 26.572989 206 206 206 0
-2.024710 -2.530888 26.466802 205 205 205 0
-1.922206 -2.529219 26.449345 206 206 206 0
-1.829478 -2.540941 26.571937 206 206 206 0
-1.727002 -2.539709 26.559051 205 205 205 0
-1.622720 -2.535499 26.515025 206 206 206 0
-1.515020 -2.525033 26.405575 206 206 206 0
-1.411322 -2.520218 26.355223 206 206 206 0
-1.313630 -2.526211 26.417897 206 206 206 0
-1.217999 -2.537497 26.535918 207 207 207 0
-1.115624 -2.535510 26.515135 206 206 206 0
-1.012745 -2.531863 26.476996 207 207 207 0
-0.908133 -2.522592 26.380049 206 206 206 0
-0.807754 -2.524230 26.397175 206 206 206 0
-0.709087 -2.532454 26.483182 207 207 207 0
-0.608961 -2.537337 26.534241 207 207 207 0
-0.506002 -2.530009 26.457613 206 206 206 0
-0.404331 -2.527070 26.426877 207 207 207 0
-0.303267 -2.527221 26.428460 206 206 206 0
-0.203376 -2.542203 26.585127 207 207 207 0
-0.101804 -2.545090 26.615317 207 207 207 0
0.000000 -2.534686 26.506520 207 207 207 0
0.101086 -2.527143 26.427636 207 207 207 0
0.201903 -2.523784 26.392517 207 207 207 0
0.275938 -2.299482 24.046874 208 208 208 0
0.406773 -2.542334 26.586497 207 207 207 0
0.505842 -2.529211 26.449268 208 208 208 0
0.604230 -2.517625 26.328103 207 207 207 0
0.704083 -2.514582 26.296279 208 208 208 0
0.807945 -2.524828 26.403433 208 208 208 0
0.910479 -2.529109 26.448194 204 204 204 0
1.006222 -2.515555 26.306459 182 182 182 0
1.115679 -2.535633 26.516424 158 158 158 0
1.207912 -2.516483 26.316165 83 83 83 0
-7.623896 -2.287169 24.914692 200 200 200 0
-7.497410 -2.277694 24.811485 200 200 200 0
-7.384881 -2.272271 24.752409 200 200 200 0
-7.356276 -2.292865 24.976746 200 200 200 0
-7.330372 -2.314854 25.216278 201 201 201 0
-7.239551 -2.316656 25.235908 200 200 200 0
-7.144106 -2.317007 25.239731 200 200 200 0
-7.049897 -2.317775 25.248088 201 201 201 0
-6.958111 -2.319370 25.265472 201 201 201 0
-6.936579 -2.344759 25.542040 201 201 201 0
-6.890646 -2.362507 25.735371 201 201 201 0
-6.768864 -2.354388 25.646923 201 201 201 0
-6.624175 -2.337944 25.467800 201 201 201 0
-6.567366 -2.352489 25.626244 201 201 201 0
-6.559831 -2.385393 25.984674 202 202 202 0
-6.503222 -2.401190 26.156749 202 202 202 0
-6.343480 -2.378805 25.912910 201 201 201 0
-6.201623 -2.362523 25.735544 202 202 202 0
-6.110866 -2.365497 25.767936 201 201 201 0
-6.100030 -2.400012 26.143919 202 202 202 0
-6.013077 -2.405231 26.200771 202 202 202 0
-5.880023 -2.391874 26.055269 202 202 202 0
-5.729335 -2.370759 25.825263 202 202 202 0
-5.606821 -2.360767 25.716412 202 202 202 0
-5.547189 -2.377367 25.897239 202 202 202 0
-5.519879 -2.408675 26.238285 202 202 202 0
-5.405603 -2.402490 26.170918 202 202 202 0
-5.273121 -2.387829 26.011205 203 203 203 0
-5.162102 -2.382509 25.953254 203 203 203 0
-5.086991 -2.393878 26.077106 202 202 202 0
-5.018239 -2.408755 26.239156 203 203 203 0
-4.928809 -2.414110 26.297500 204 204 204 0
-4.806842 -2.403421 26.181056 203 203 203 0
-4.692966 -2.396408 26.104666 203 203 203 0
-4.607377 -2.403849 26.185717 203 203 203 0
-4.561987 -2.433060 26.503921 203 203 203 0
-4.457088 -2.431139 26.482997 204 204 204 0
-4.340945 -2.422853 26.392734 204 204 204 0
-4.223504 -2.413431 26.290094 204 204 204 0
-4.127633 -2.416176 26.319996 204 204 204 0
-4.044741 -2.426845 26.436217 204 204 204 0
-3.962003 -2.438156 26.559429 204 204 204 0
-3.835218 -2.422243 26.386089 204 204 204 0
-3.713333 -2.408649 26.238003 204 204 204 0
-3.615444 -2.410296 26.255948 204 204 204 0
-3.518441 -2.412645 26.281537 204 204 204 0
-3.433902 -2.423931 26.404476 205 205 205 0
-3.332837 -2.423881 26.403934 205 205 205 0
-3.221789 -2.416342 26.321807 205 205 205 0
-3.122959 -2.417775 26.337416 205 205 205 0
-3.028701 -2.422961 26.393909 205 205 205 0
-2.929850 -2.424703 26.412888 205 205 205 0
-2.829084 -2.424929 26.415350 205 205 205 0
-2.731742 -2.428215 26.451147 205 205 205 0
-2.631622 -2.429190 26.461761 205 205 205 0
-2.533384 -2.432049 26.492905 205 205 205 0
-2.432616 -2.432616 26.499083 206 206 206 0
-2.336546 -2.438135 26.559200 205 205 205 0
-2.241436 -2.445203 26.636194 206 206 206 0
-2.134942 -2.439933 26.578794 205 205 205 0
-2.026973 -2.432368 26.496382 205 205 205 0
-1.924401 -2.430823 26.479549 206 206 206 0
-1.831585 -2.442113 26.602539 206 206 206 0
-1.730111 -2.442510 26.606858 206 206 206 0
-1.623073 -2.434610 26.520805 206 206 206 0
-1.517635 -2.428217 26.451161 206 206 206 0
-1.411496 -2.419707 26.358467 206 206 206 0
-1.316351 -2.430187 26.472625 206 206 206 0
-1.219487 -2.438974 26.568348 206 206 206 0
-1.116902 -2.436877 26.545500 206 206 206 0
-1.013153 -2.431566 26.487650 206 206 206 0
-0.909446 -2.425190 26.418193 206 206 206 0
-0.809125 -2.427374 26.441981 206 206 206 0
-0.709608 -2.432941 26.502628 207 207 207 0
-0.609634 -2.438537 26.563580 207 207 207 0
-0.506417 -2.430802 26.479329 206 206 206 0
-0.404703 -2.428218 26.451178 206 206 206 0
-0.303926 -2.431405 26.485892 207 207 207 0
-0.203653 -2.443836 26.621303 207 207 207 0
-0.101947 -2.446740 26.652937 207 207 207 0
0.000000 -2.436005 26.535998 207 207 207 0
0.101127 -2.427039 26.438330 207 207 207 0
0.202012 -2.424140 26.406758 207 207 207 0
0.325993 -2.607941 28.408938 207 207 207 0
0.406395 -2.438369 26.561754 208 208 208 0
0.505775 -2.427721 26.445767 207 207 207 0
0.604428 -2.417713 26.336739 208 208 208 0
0.704793 -2.416432 26.322785 207 207 207 0
0.808599 -2.425796 26.424792 207 207 207 0
0.910864 -2.428971 26.459382 204 204 204 0
1.005731 -2.413754 26.293615 182 182 182 0
1.115775 -2.434419 26.518725 165 165 165 0
1.215853 -2.431707 26.489178 92 92 92 0
-7.624798 -2.192129 24.917641 199 199 199 0
-7.509524 -2.186317 24.851573 200 200 200 0
-7.407320 -2.184210 24.827618 200 200 200 0
-7.388080 -2.206829 25.084729 201 201 201 0
-7.332087 -2.218921 25.222176 201 201 201 0
-7.230006 -2.217202 25.202636 201 201 201 0
-7.142209 -2.219876 25.233031 200 200 200 0
-7.057631 -2.223637 25.275784 201 201 201 0
-6.976418 -2.228578 25.331946 200 200 200 0
-6.943933 -2.249443 25.569118 201 201 201 0
-6.895590 -2.265694 25.753839 201 201 201 0
-6.767630 -2.255877 25.642246 201 201 201 0
-6.628830 -2.242104 25.485697 201 201 201 0
-6.578439 -2.258270 25.669455 202 202 202 0
-6.579696 -2.292924 26.063364 201 201 201 0
-6.521138 -2.307480 26.228812 201 201 201 0
-6.348792 -2.281597 25.934606 201 201 201 0
-6.203574 -2.264797 25.743640 202 202 202 0
-6.120515 -2.270514 25.808623 202 202 202 0
-6.101803 -2.300680 26.151519 202 202 202 0
-6.015971 -2.306122 26.213380 202 202 202 0
-5.883834 -2.293698 26.072156 202 202 202 0
-5.733093 -2.273468 25.842202 202 202 202 0
-5.611996 -2.264490 25.740149 202 202 202 0
-5.566287 -2.286153 25.986399 203 203 203 0
-5.523154 -2.309682 26.253850 202 202 202 0
-5.409544 -2.304065 26.189998 202 202 202 0
-5.279155 -2.290954 26.040965 202 202 202 0
-5.162387 -2.283363 25.954685 202 202 202 0
-5.091649 -2.296234 26.100982 203 203 203 0
-5.024352 -2.311202 26.271123 203 203 203 0
-4.935232 -2.316538 26.331771 203 203 203 0
-4.812319 -2.305903 26.210889 203 203 203 0
-4.705876 -2.302876 26.176477 202 202 202 0
-4.615655 -2.307828 26.232766 203 203 203 0
-4.567781 -2.334644 26.537581 203 203 203 0
-4.462991 -2.332927 26.518071 204 204 204 0
-4.347273 -2.325286 26.431210 203 203 203 0
-4.224420 -2.313373 26.295798 204 204 204 0
-4.128996 -2.316266 26.328685 204 204 204 0
-4.047661 -2.327405 26.455299 204 204 204 0
-3.967041 -2.339537 26.593204 204 204 204 0
-3.835627 -2.321564 26.388902 204 204 204 0
-3.717493 -2.310874 26.267397 204 204 204 0
-3.620008 -2.312783 26.289095 204 204 204 0
-3.524334 -2.315991 26.325560 204 204 204 0
-3.436752 -2.324862 26.426389 204 204 204 0
-3.335347 -2.324636 26.423824 204 204 204 0
-3.225912 -2.318624 26.355491 204 204 204 0
-3.129080 -2.321575 26.389036 204 204 204 0
-3.032819 -2.325161 26.429795 205 205 205 0
-2.931133 -2.324692 26.424458 205 205 205 0
-2.830589 -2.325127 26.429401 205 205 205 0
-2.734352 -2.329262 26.476413 205 205 205 0
-2.633881 -2.329972 26.484478 205 205 205 0
-2.536011 -2.333130 26.520376 205 205 205 0
-2.434329 -2.332899 26.517747 205 205 205 0
-2.339967 -2.339967 26.598091 205 205 205 0
-2.243594 -2.345576 26.661844 205 205 205 0
-2.137909 -2.341520 26.615741 206 206 206 0
-2.027039 -2.331095 26.497243 206 206 206 0
-1.926680 -2.332297 26.510904 206 206 206 0
-1.831681 -2.340481 26.603936 206 206 206 0
-1.731414 -2.342502 26.626901 206 206 206 0
-1.625143 -2.336143 26.554622 206 206 206 0
-1.518187 -2.327887 26.460777 206 206 206 0
-1.413007 -2.321369 26.386694 205 205 205 0
-1.317970 -2.331793 26.505181 206 206 206 0
-1.220821 -2.339907 26.597405 206 206 206 0
-1.117510 -2.336613 26.559960 206 206 206 0
-1.013819 -2.331785 26.505084 206 206 206 0
-0.909287 -2.323734 26.413568 206 206 206 0
-0.809676 -2.327817 26.459985 206 206 206 0
-0.711309 -2.337158 26.566157 206 206 206 0
-0.609934 -2.338081 26.576657 207 207 207 0
-0.507072 -2.332530 26.513551 206 206 206 0
-0.405012 -2.328822 26.471401 207 207 207 0
-0.304364 -2.333456 26.524076 206 206 206 0
-0.204035 -2.346400 26.671211 206 206 206 0
-0.101980 -2.345541 26.661445 207 207 207 0
0.000000 -2.334355 26.534295 207 207 207 0
0.101132 -2.326043 26.439818 208 208 208 0
0.201931 -2.322204 26.396176 207 207 207 0
0.311762 -2.390175 27.168802 207 207 207 0
0.406578 -2.337825 26.573739 207 207 207 0
0.505827 -2.326803 26.448459 207 207 207 0
0.604812 -2.318448 26.353483 208 208 208 0
0.705521 -2.318139 26.349977 207 207 207 0
0.808851 -2.325447 26.433047 207 207 207 0
0.909924 -2.325360 26.432060 204 204 204 0
1.002754 -2.306335 26.215794 183 183 183 0
1.111188 -2.323393 26.409690 170 170 170 0
1.218105 -2.334701 26.538227 103 103 103 0
-7.612159 -2.093344 24.876336 200 200 200 0
-7.512762 -2.092161 24.862287 200 200 200 0
-7.419173 -2.092587 24.867346 200 200 200 0
-7.395759 -2.113074 25.110803 200 200 200 0
-7.327878 -2.121228 25.207698 200 200 200 0
-7.242606 -2.124498 25.246556 200 200 200 0
-7.156309 -2.127551 25.282844 200 200 200 0
-7.066423 -2.129607 25.307272 201 201 201 0
-6.969887 -2.129688 25.308231 201 201 201 0
-6.949058 -2.153229 25.587987 201 201 201 0
-6.910384 -2.171835 25.809090 201 201 201 0
-6.777826 -2.161046 25.680879 200 200 200 0
-6.639860 -2.148190 25.528106 202 202 202 0
-6.576986 -2.159607 25.663784 201 201 201 0
-6.582149 -2.194050 26.073079 202 202 202 0
-6.523897 -2.208088 26.239907 201 201 201 0
-6.355499 -2.184703 25.962006 201 201 201 0
-6.214970 -2.170307 25.790933 202 202 202 0
-6.120073 -2.171639 25.806757 202 202 202 0
-6.105988 -2.202160 26.169455 202 202 202 0
-6.019141 -2.207019 26.227196 202 202 202 0
-5.881782 -2.193207 26.063063 202 202 202 0
-5.732307 -2.174323 25.838661 202 202 202 0
-5.617589 -2.168192 25.765800 202 202 202 0
-5.579840 -2.192080 26.049674 203 203 203 0
-5.534774 -2.213910 26.309088 202 202 202 0
-5.417440 -2.207105 26.228225 203 203 203 0
-5.280889 -2.192067 26.049519 202 202 202 0
-5.169122 -2.186936 25.988545 203 203 203 0
-5.105720 -2.202467 26.173112 203 203 203 0
-5.030355 -2.213356 26.302508 202 202 202 0
-4.942057 -2.218883 26.368184 203 203 203 0
-4.818791 -2.208612 26.246136 203 203 203 0
-4.709321 -2.204363 26.195638 204 204 204 0
-4.621548 -2.210306 26.266257 203 203 203 0
-4.569564 -2.234009 26.547937 203 203 203 0
-4.466461 -2.233231 26.538689 204 204 204 0
-4.346538 -2.223810 26.426740 204 204 204 0
-4.233422 -2.217507 26.351830 204 204 204 0
-4.133679 -2.218072 26.358547 203 203 203 0
-4.052596 -2.228928 26.487556 203 203 203 0
-3.974012 -2.241751 26.639936 204 204 204 0
-3.842248 -2.224459 26.434456 204 204 204 0
-3.723930 -2.214228 26.312875 204 204 204 0
-3.621542 -2.213165 26.300233 204 204 204 0
-3.526859 -2.216883 26.344420 204 204 204 0
-3.440957 -2.226501 26.458720 205 205 205 0
-3.340525 -2.227016 26.464842 205 205 205 0
-3.229403 -2.220215 26.384012 205 205 205 0
-3.134826 -2.224716 26.437499 204 204 204 0
-3.037743 -2.227679 26.472710 204 204 204 0
-2.932118 -2.224365 26.433338 205 205 205 0
-2.833218 -2.226100 26.453949 205 205 205 0
-2.736509 -2.229748 26.497302 205 205 205 0
-2.637347 -2.231601 26.519326 206 206 206 0
-2.536389 -2.232023 26.524332 204 204 204 0
-2.437285 -2.234178 26.549943 206 206 206 0
-2.341587 -2.239779 26.616510 206 206 206 0
-2.244655 -2.244655 26.674445 206 206 206 0
-2.139400 -2.241276 26.634301 205 205 205 0
-2.028689 -2.231558 26.518807 205 205 205 0
-1.928459 -2.232952 26.535377 206 206 206 0
-1.835272 -2.243110 26.656090 206 206 206 0
-1.731905 -2.241289 26.634447 205 205 205 0
-1.626100 -2.235888 26.570265 206 206 206 0
-1.520097 -2.229475 26.494057 205 205 205 0
-1.414395 -2.222620 26.412599 206 206 206 0
-1.319483 -2.232972 26.535616 207 207 207 0
-1.221964 -2.240267 26.622307 207 207 207 0
-1.117477 -2.234953 26.559158 206 206 206 0
-1.013997 -2.230793 26.509726 206 206 206 0
-0.910612 -2.225941 26.452067 206 206 206 0
-0.810291 -2.228300 26.480091 207 207 207 0
-0.711821 -2.237153 26.585303 207 207 207 0
-0.611145 -2.240866 26.629419 207 207 207 0
-0.507499 -2.232996 26.535895 206 206 206 0
-0.405583 -2.230708 26.508715 207 207 207 0
-0.304777 -2.235032 26.560092 206 206 206 0
-0.204192 -2.246109 26.691729 208 208 208 0
-0.102045 -2.244980 26.678311 207 207 207 0
0.000000 -2.236168 26.573593 207 207 207 0
0.101278 -2.228123 26.477993 208 208 208 0
0.201975 -2.221729 26.402009 207 207 207 0
0.308561 -2.262783 26.889880 207 207 207 0
0.406661 -2.236633 26.579118 208 208 208 0
0.505907 -2.225991 26.452652 208 208 208 0
0.604842 -2.217755 26.354779 208 208 208 0
0.705753 -2.218079 26.358639 207 207 207 0
0.809047 -2.224879 26.439442 207 207 207 0
0.908009 -2.219577 26.376439 204 204 204 0
1.000222 -2.200488 26.149594 184 184 184 0
1.106266 -2.212531 26.292704 173 173 173 0
1.216925 -2.231030 26.512536 117 117 117 0
-7.627229 -2.002148 24.925585 200 200 200 0
-7.521108 -1.999282 24.889909 200 200 200 0
-7.432716 -2.001116 24.912740 200 200 200 0
-7.385126 -2.014125 25.074698 200 200 200 0
-7.345943 -2.029800 25.269843 200 200 200 0
-7.246859 -2.029121 25.261382 200 200 200 0
-7.160106 -2.031922 25.296260 200 200 200 0
-7.080694 -2.036912 25.358380 200 200 200 0
-6.971223 -2.033273 25.313083 200 200 200 0
-6.959008 -2.058298 25.624628 201 201 201 0
-6.910743 -2.073223 25.810431 200 200 200 0
