ply
    format ascii 1.0
    element vertex 16581
    property float x
    property float y
    property float z
    property uchar red
    property uchar green
    property uchar blue
    property uchar alpha
    end_header
2.054324 0.000000 25.575154 200 200 200 0
2.163483 0.000000 25.709835 199 199 199 0
2.273708 0.000000 25.844930 199 199 199 0
2.381073 0.000000 25.937616 200 200 200 0
2.538930 0.000000 26.550897 199 199 199 0
2.611383 0.000000 26.258249 196 196 196 0
2.720468 0.000000 26.341979 195 195 195 0
2.837531 0.000000 26.494216 196 196 196 0
2.966129 0.000000 26.739953 194 194 194 0
3.092319 0.000000 26.948315 191 191 191 0
3.217125 0.000000 27.131561 190 190 190 0
3.358485 0.000000 27.438605 188 188 188 0
3.513278 0.000000 27.833454 184 184 184 0
3.716161 0.000000 28.574860 181 181 181 0
3.865783 0.000000 28.876062 167 167 167 0
4.446056 0.000000 32.287988 109 109 109 0
-7.562079 0.094526 24.712676 201 201 201 0
-7.518348 0.095169 24.880773 203 203 203 0
-7.512300 0.096312 25.179489 202 202 202 0
-7.452610 0.096787 25.303827 202 202 202 0
-7.362267 0.096872 25.325994 202 202 202 0
-7.235755 0.096477 25.222677 203 203 203 0
-7.194658 0.097225 25.418331 203 203 203 0
-7.066319 0.096799 25.306898 202 202 202 0
-6.955760 0.096608 25.256936 202 202 202 0
-6.919014 0.097451 25.477361 202 202 202 0
-6.838442 0.097692 25.540399 201 201 201 0
-6.739230 0.097670 25.534641 188 188 188 0
-6.521794 0.095909 25.074180 169 169 169 0
-6.329300 0.094467 24.697296 167 167 167 0
-6.337889 0.096029 25.105523 171 171 171 0
-6.327546 0.097347 25.450159 173 173 173 0
-6.242045 0.097532 25.498550 175 175 175 0
-6.084171 0.096574 25.248142 178 178 178 0
-5.944676 0.095882 25.067157 179 179 179 0
-5.835994 0.095672 25.012296 181 181 181 0
-5.858326 0.097639 25.526476 187 187 187 0
-5.753346 0.097514 25.493943 189 189 189 0
-5.609675 0.096719 25.285893 190 190 190 0
-5.473767 0.096031 25.106143 189 189 189 0
-5.368920 0.095874 25.064987 189 189 189 0
-5.308415 0.096517 25.233110 191 191 191 0
-5.264827 0.097497 25.489359 192 192 192 0
-5.158787 0.097336 25.447216 194 194 194 0
-4.972602 0.095627 25.000511 196 196 196 0
-4.942438 0.096911 25.336093 193 193 193 0
-4.860122 0.097202 25.412402 198 198 198 0
-4.800877 0.097977 25.614924 198 198 198 0
-4.716279 0.098256 25.687795 199 199 199 0
-4.578939 0.097424 25.470391 196 196 196 0
-4.451024 0.096761 25.297095 189 189 189 0
-4.365462 0.097010 25.362159 188 188 188 0
-4.288431 0.097464 25.480876 188 188 188 0
-4.148465 0.096476 25.222462 184 184 184 0
-3.981395 0.094795 24.783041 180 180 180 0
-3.833717 0.093505 24.445831 177 177 177 0
-3.682408 0.092060 24.068029 178 178 178 0
-3.508295 0.089956 23.517979 175 175 175 0
-3.351954 0.088209 23.061257 181 181 181 0
-3.215573 0.086907 22.720884 185 185 185 0
-3.080991 0.085583 22.374659 188 188 188 0
-2.997827 0.085652 22.392730 197 197 197 0
-2.875949 0.084587 22.114179 201 201 201 0
-2.765215 0.083794 21.907030 206 206 206 0
-2.661021 0.083157 21.740364 207 207 207 0
-2.583351 0.083334 21.786640 210 210 210 0
-2.514254 0.083808 21.910709 211 211 211 0
-2.429362 0.083771 21.900942 211 211 211 0
-2.352698 0.084025 21.967302 211 211 211 0
-2.269512 0.084056 21.975423 212 212 212 0
-2.198483 0.084557 22.106419 212 212 212 0
-2.130563 0.085223 22.280399 212 212 212 0
-2.057130 0.085714 22.408819 212 212 212 0
-2.000384 0.086973 22.738093 211 211 211 0
-1.949190 0.088600 23.163284 202 202 202 0
-1.890546 0.090026 23.536211 200 200 200 0
-1.821506 0.091075 23.810531 201 201 201 0
-1.734212 0.091274 23.862561 201 201 201 0
-1.650424 0.091690 23.971300 200 200 200 0
-1.568164 0.092245 24.116327 200 200 200 0
-1.477434 0.092340 24.141083 201 201 201 0
-1.378620 0.091908 24.028239 202 202 202 0
-1.284931 0.091781 23.994978 201 201 201 0
-1.191552 0.091658 23.962845 201 201 201 0
-1.112311 0.092693 24.233348 200 200 200 0
-1.018559 0.092596 24.208179 201 201 201 0
-0.922026 0.092203 24.105261 201 201 201 0
-0.827672 0.091964 24.042766 201 201 201 0
-0.735268 0.091908 24.028350 201 201 201 0
-0.646365 0.092338 24.140626 202 202 202 0
-0.555893 0.092649 24.221902 203 203 203 0
-0.463561 0.092712 24.238464 203 203 203 0
-0.369982 0.092495 24.181816 202 202 202 0
-0.277228 0.092409 24.159318 203 203 203 0
-0.185174 0.092587 24.205741 203 203 203 0
-0.092962 0.092962 24.303767 203 203 203 0
0.000000 0.093146 24.351790 203 203 203 0
0.092962 0.092962 24.303810 203 203 203 0
0.185869 0.092934 24.296536 203 203 203 0
0.280887 0.093629 24.478159 203 203 203 0
0.376575 0.094144 24.612741 205 205 205 0
0.470475 0.094095 24.599996 204 204 204 0
0.562976 0.093829 24.530554 204 204 204 0
0.657525 0.093932 24.557428 203 203 203 0
0.758110 0.094764 24.774835 204 204 204 0
0.854249 0.094917 24.814775 204 204 204 0
0.946480 0.094648 24.744573 203 203 203 0
1.039121 0.094466 24.696873 202 202 202 0
1.139580 0.094965 24.827445 202 202 202 0
1.244163 0.095705 25.020877 202 202 202 0
1.340652 0.095761 25.035516 202 202 202 0
1.438958 0.095931 25.079886 202 202 202 0
1.541665 0.096354 25.190601 203 203 203 0
1.645910 0.096818 25.311956 202 202 202 0
1.748496 0.097139 25.395730 200 200 200 0
1.847925 0.097259 25.427247 200 200 200 0
1.954624 0.097731 25.550642 200 200 200 0
2.067162 0.098436 25.734982 200 200 200 0
2.176724 0.098942 25.867195 199 199 199 0
2.283317 0.099275 25.954163 198 198 198 0
2.395803 0.099825 26.098067 197 197 197 0
2.517238 0.100690 26.324056 196 196 196 0
2.625912 0.100997 26.404342 196 196 196 0
2.736534 0.101353 26.497550 196 196 196 0
2.865020 0.102322 26.750891 195 195 195 0
2.990370 0.103116 26.958487 191 191 191 0
3.120088 0.104003 27.190312 190 190 190 0
3.255426 0.105014 27.454576 188 188 188 0
3.405389 0.106418 27.821807 185 185 185 0
3.581420 0.108528 28.373303 181 181 181 0
3.766643 0.110784 28.963039 170 170 170 0
3.877492 0.110785 28.963526 115 115 115 0
-7.541368 0.188534 24.644993 201 201 201 0
-7.503167 0.189954 24.830535 202 202 202 0
-7.496159 0.192209 25.125385 202 202 202 0
-7.485810 0.194437 25.416551 202 202 202 0
-7.388559 0.194436 25.416439 201 201 201 0
-7.294497 0.194520 25.427439 201 201 201 0
-7.187051 0.194245 25.391455 203 203 203 0
-7.061006 0.193452 25.287870 202 202 202 0
-6.942781 0.192855 25.209806 203 203 203 0
-6.895792 0.194248 25.391850 202 202 202 0
-6.843075 0.195516 25.557705 188 188 188 0
-6.682085 0.193684 25.318119 172 172 172 0
-6.491850 0.190937 24.959052 167 167 167 0
-6.372534 0.190225 24.865999 174 174 174 0
-6.332597 0.191897 25.084560 176 176 176 0
-6.305806 0.194025 25.362718 177 177 177 0
-6.213022 0.194157 25.379990 177 177 177 0
-6.046687 0.191958 25.092590 180 180 180 0
-5.900792 0.190348 24.882109 184 184 184 0
-5.804228 0.190303 24.876152 187 187 187 0
-5.886903 0.196230 25.650994 187 187 187 0
-5.756532 0.195137 25.508062 187 187 187 0
-5.615993 0.193655 25.314372 188 188 188 0
-5.457587 0.191494 25.031930 192 192 192 0
-5.325131 0.190183 24.860555 194 194 194 0
-5.252679 0.191007 24.968172 192 192 192 0
-5.232327 0.193790 25.332010 196 196 196 0
-5.138896 0.193921 25.349098 197 197 197 0
-5.019624 0.193062 25.236925 197 197 197 0
-4.920754 0.192971 25.224932 199 199 199 0
-4.837923 0.193517 25.296331 199 199 199 0
-4.760689 0.194314 25.400499 197 197 197 0
-4.687151 0.195298 25.529146 201 201 201 0
-4.545796 0.193438 25.286031 204 204 204 0
-4.419490 0.192152 25.117872 203 203 203 0
-4.320916 0.192041 25.103358 200 200 200 0
-4.267025 0.193956 25.353684 192 192 192 0
-4.155936 0.193299 25.267892 189 189 189 0
-4.025977 0.191713 25.060547 193 193 193 0
-3.902029 0.190343 24.881420 190 190 190 0
-3.781076 0.189054 24.712914 191 191 191 0
-3.645686 0.186958 24.438987 193 193 193 0
-3.525885 0.185573 24.257895 191 191 191 0
-3.394426 0.183482 23.984637 191 191 191 0
-3.675053 0.204170 26.688835 189 189 189 0
-3.376745 0.192957 25.223120 187 187 187 0
-3.359552 0.197621 25.832775 184 184 184 0
-3.043604 0.184461 24.112528 185 185 185 0
-2.907454 0.181716 23.753707 183 183 183 0
-2.839837 0.183215 23.949713 183 183 183 0
-2.601349 0.173423 22.669704 189 189 189 0
-2.496712 0.172187 22.508107 194 194 194 0
-2.381769 0.170126 22.238740 199 199 199 0
-2.288402 0.169511 22.158337 206 206 206 0
-2.202550 0.169427 22.147306 210 210 210 0
-2.137930 0.171034 22.357442 211 211 211 0
-2.077209 0.173101 22.627548 212 212 212 0
-2.040545 0.177439 23.194599 209 209 209 0
-1.978920 0.179902 23.516583 201 201 201 0
-1.912929 0.182184 23.814865 199 199 199 0
-1.832388 0.183239 23.952790 201 201 201 0
-1.744289 0.183609 24.001222 201 201 201 0
-1.661736 0.184637 24.135603 200 200 200 0
-1.576745 0.185499 24.248284 200 200 200 0
-1.483201 0.185400 24.235312 201 201 201 0
-1.384360 0.184581 24.128270 201 201 201 0
-1.288817 0.184117 24.067544 201 201 201 0
-1.087848 0.167361 21.877291 200 200 200 0
-1.115547 0.185924 24.303853 201 201 201 0
-1.022764 0.185957 24.308116 201 201 201 0
-0.925304 0.185061 24.190966 202 202 202 0
-0.830797 0.184622 24.133538 202 202 202 0
-0.738736 0.184684 24.141685 202 202 202 0
-0.650524 0.185864 24.295930 201 201 201 0
-0.557133 0.185711 24.275948 202 202 202 0
-0.464547 0.185819 24.290038 202 202 202 0
-0.371260 0.185630 24.265390 202 202 202 0
-0.278540 0.185693 24.273604 202 202 202 0
-0.186336 0.186336 24.357592 202 202 202 0
-0.093399 0.186797 24.417949 203 203 203 0
0.000000 0.186837 24.423089 204 204 204 0
0.093378 0.186755 24.412438 204 204 204 0
0.186964 0.186964 24.439708 203 203 203 0
0.282656 0.188437 24.632334 203 203 203 0
0.378131 0.189066 24.714454 203 203 203 0
0.471727 0.188691 24.665475 204 204 204 0
0.565360 0.188453 24.634427 202 202 202 0
0.661810 0.189089 24.717464 203 203 203 0
0.763744 0.190936 24.958950 202 202 202 0
0.857058 0.190457 24.896372 202 202 202 0
0.949025 0.189805 24.811115 202 202 202 0
1.044923 0.189986 24.834775 202 202 202 0
1.147902 0.191317 25.008751 202 202 202 0
1.250015 0.192310 25.138556 201 201 201 0
1.345816 0.192259 25.131948 202 202 202 0
1.446894 0.192919 25.218199 202 202 202 0
1.549785 0.193723 25.323287 201 201 201 0
1.653909 0.194578 25.434969 199 199 199 0
1.756800 0.195200 25.516336 199 199 199 0
1.858891 0.195673 25.578142 199 199 199 0
1.968049 0.196805 25.726124 199 199 199 0
2.081225 0.198212 25.910050 199 199 199 0
2.190231 0.199112 26.027696 199 199 199 0
2.297733 0.199803 26.118024 196 196 196 0
2.416929 0.201411 26.328203 196 196 196 0
2.529086 0.202327 26.447955 194 194 194 0
2.642196 0.203246 26.568084 196 196 196 0
2.754805 0.204060 26.674461 193 193 193 0
2.889359 0.206383 26.978142 191 191 191 0
3.013702 0.207842 27.168825 190 190 190 0
3.143253 0.209550 27.392183 188 188 188 0
3.295448 0.212610 27.792097 184 184 184 0
3.456704 0.216044 28.241044 181 181 181 0
3.648204 0.221103 28.902389 171 171 171 0
3.781704 0.222453 29.078849 122 122 122 0
3.754465 0.214541 28.044555 75 75 75 0
-7.554655 0.283300 24.688416 203 203 203 0
-7.492179 0.284513 24.794172 203 203 203 0
-7.472184 0.287392 25.045027 202 202 202 0
-7.460246 0.290659 25.329756 202 202 202 0
-7.395225 0.291917 25.439372 203 203 203 0
-7.319682 0.292787 25.515233 201 201 201 0
-7.187093 0.291369 25.391603 203 203 203 0
-7.039396 0.289290 25.210479 203 203 203 0
-6.918819 0.288284 25.122799 204 204 204 0
-6.833926 0.288757 25.164047 190 190 190 0
-6.772174 0.290236 25.292899 171 171 171 0
-6.638037 0.288610 25.151224 170 170 170 0
-6.483138 0.286021 24.925559 176 176 176 0
-6.308185 0.282456 24.614906 175 175 175 0
-6.236412 0.283473 24.703554 175 175 175 0
-6.238161 0.287915 25.090641 179 179 179 0
-6.187652 0.290046 25.276357 183 183 183 0
-6.043034 0.287764 25.077432 184 184 184 0
-5.886501 0.284831 24.821848 186 186 186 0
-5.778158 0.284172 24.764417 183 183 183 0
-6.605651 0.330283 28.782793 187 187 187 0
-5.708061 0.290240 25.293280 188 188 188 0
-5.605924 0.289962 25.268982 189 189 189 0
-5.436654 0.286140 24.935918 195 195 195 0
-5.306160 0.284259 24.771989 194 194 194 0
-5.217827 0.284609 24.802505 195 195 195 0
-5.217738 0.289874 25.261380 196 196 196 0
-5.126549 0.290182 25.288195 196 196 196 0
-5.003138 0.288643 25.154037 197 197 197 0
-4.893084 0.287828 25.083093 198 198 198 0
-4.802571 0.288154 25.111480 200 200 200 0
-4.735269 0.289914 25.264875 201 201 201 0
-4.668679 0.291792 25.428536 202 202 202 0
-4.546481 0.290201 25.289838 203 203 203 0
-4.435852 0.289295 25.210865 205 205 205 0
-4.335537 0.289036 25.188304 208 208 208 0
-4.297357 0.293002 25.533908 207 207 207 0
-4.192452 0.292497 25.489902 199 199 199 0
-4.067645 0.290546 25.319921 195 195 195 0
-3.935332 0.287951 25.093778 194 194 194 0
-3.812357 0.285927 24.917367 193 193 193 0
-3.693641 0.284126 24.760456 193 193 193 0
-3.592341 0.283606 24.715109 192 192 192 0
-3.041032 0.246570 21.487595 192 192 192 0
-3.414164 0.284514 24.794222 193 193 193 0
-3.308318 0.283570 24.711990 194 194 194 0
-3.183598 0.280906 24.479801 195 195 195 0
-3.092954 0.281178 24.503498 197 197 197 0
-3.028125 0.283887 24.739582 195 195 195 0
-2.900845 0.280727 24.464223 196 196 196 0
-2.770569 0.277057 24.144388 195 195 195 0
-2.655240 0.274680 23.937254 194 194 194 0
-2.524393 0.270471 23.570427 192 192 192 0
-2.418075 0.268675 23.413939 196 196 196 0
-2.323450 0.268090 23.363001 198 198 198 0
-2.243119 0.269174 23.457455 198 198 198 0
-2.166023 0.270753 23.595020 203 203 203 0
-2.089188 0.272503 23.747517 202 202 202 0
-2.008442 0.273878 23.867398 200 200 200 0
-1.935953 0.276565 24.101506 200 200 200 0
-1.842534 0.276380 24.085417 201 201 201 0
-1.754990 0.277104 24.148471 199 199 199 0
-1.673415 0.278902 24.305224 200 200 200 0
-1.584401 0.279600 24.366023 201 201 201 0
-1.488138 0.279026 24.315981 200 200 200 0
-1.390697 0.278139 24.238731 201 201 201 0
-1.295403 0.277586 24.190526 201 201 201 0
-1.211939 0.279678 24.372831 201 201 201 0
-1.118828 0.279707 24.375331 200 200 200 0
-1.025687 0.279733 24.377577 202 202 202 0
-0.928375 0.278513 24.271249 202 202 202 0
-0.834429 0.278143 24.239047 201 201 201 0
-0.743539 0.278827 24.298664 203 203 203 0
-0.654350 0.280436 24.438846 202 202 202 0
-0.561693 0.280846 24.474621 202 202 202 0
-0.467238 0.280343 24.430741 202 202 202 0
-0.372506 0.279380 24.346799 203 203 203 0
-0.279494 0.279494 24.356791 202 202 202 0
-0.187189 0.280783 24.469150 203 203 203 0
-0.093821 0.281462 24.528274 203 203 203 0
0.000000 0.281131 24.499472 203 203 203 0
0.093646 0.280938 24.482629 203 203 203 0
0.188255 0.282383 24.608530 202 202 202 0
0.284267 0.284267 24.772718 201 201 201 0
0.379712 0.284784 24.817789 202 202 202 0
0.473553 0.284132 24.760949 201 201 201 0
0.568030 0.284015 24.750747 202 202 202 0
0.668205 0.286373 24.956293 201 201 201 0
0.766451 0.287419 25.047409 201 201 201 0
0.860257 0.286752 24.989313 201 201 201 0
0.953477 0.286043 24.927500 202 202 202 0
1.050429 0.286481 24.965625 201 201 201 0
1.155325 0.288831 25.170471 202 202 202 0
1.254618 0.289527 25.231139 202 202 202 0
1.351942 0.289702 25.246355 201 201 201 0
1.453881 0.290776 25.339967 200 200 200 0
1.558523 0.292223 25.466062 198 198 198 0
1.664160 0.293675 25.592621 199 199 199 0
1.766794 0.294466 25.661492 199 199 199 0
1.870977 0.295417 25.744437 199 199 199 0
1.984983 0.297747 25.947492 199 199 199 0
2.096082 0.299440 26.095013 198 198 198 0
2.203459 0.300472 26.184892 196 196 196 0
2.314162 0.301847 26.304763 195 195 195 0
2.435920 0.304490 26.535075 194 194 194 0
2.544541 0.305345 26.609575 194 194 194 0
2.657045 0.306582 26.717393 193 193 193 0
2.780878 0.308986 26.926925 190 190 190 0
2.915457 0.312370 27.221819 190 190 190 0
3.051926 0.315716 27.513415 188 188 188 0
3.181773 0.318177 27.727870 183 183 183 0
3.348096 0.324009 28.236106 181 181 181 0
3.520073 0.330007 28.758767 172 172 172 0
3.679338 0.334485 29.149044 130 130 130 0
-7.538161 0.376908 24.634512 203 203 203 0
-7.472885 0.378374 24.730321 202 202 202 0
-7.432340 0.381146 24.911480 202 202 202 0
-7.432600 0.386109 25.235887 203 203 203 0
-7.370276 0.387909 25.353547 203 203 203 0
-7.297114 0.389179 25.436562 202 202 202 0
-7.165466 0.387322 25.315196 204 204 204 0
-7.042012 0.385864 25.219848 203 203 203 0
-6.899939 0.383330 25.054243 195 195 195 0
-6.793699 0.382744 25.015922 171 171 171 0
-6.727497 0.384428 25.126040 169 169 169 0
-6.586649 0.381835 24.956519 174 174 174 0
-6.458798 0.379929 24.831979 177 177 177 0
-6.286429 0.375309 24.530013 176 176 176 0
-6.200271 0.375774 24.560391 178 178 178 0
-6.208571 0.382066 24.971628 183 183 183 0
-6.166002 0.385375 25.187915 184 184 184 0
-6.018741 0.382142 24.976620 186 186 186 0
-5.869206 0.378658 24.748920 184 184 184 0
-5.726077 0.375480 24.541205 189 189 189 0
-4.414917 0.294328 19.237110 189 189 189 0
-5.701608 0.386550 25.264686 193 193 193 0
-5.594660 0.385839 25.218208 194 194 194 0
-5.423754 0.380614 24.876751 193 193 193 0
-5.286360 0.377597 24.679552 193 193 193 0
-5.178379 0.376609 24.614994 196 196 196 0
-5.182895 0.383918 25.092688 197 197 197 0
-5.106093 0.385365 25.187286 197 197 197 0
-4.991112 0.383932 25.093577 197 197 197 0
-4.865987 0.381646 24.944184 197 197 197 0
-4.766383 0.381311 24.922262 201 201 201 0
-4.714916 0.384891 25.156282 199 199 199 0
-4.650605 0.387550 25.330094 201 201 201 0
-4.542106 0.386562 25.265506 203 203 203 0
-4.428395 0.385078 25.168483 204 204 204 0
-4.344551 0.386182 25.240677 206 206 206 0
-4.302353 0.391123 25.563596 207 207 207 0
-4.204356 0.391103 25.562280 208 208 208 0
-4.086975 0.389236 25.440245 207 207 207 0
-3.961861 0.386523 25.262942 200 200 200 0
-3.845534 0.384553 25.134212 199 199 199 0
-3.740184 0.383609 25.072460 195 195 195 0
-3.634819 0.382613 25.007357 199 199 199 0
-3.960508 0.428163 27.984514 193 193 193 0
-3.445527 0.382836 25.021980 194 194 194 0
-3.326526 0.380174 24.847999 192 192 192 0
-3.220406 0.378871 24.762833 194 194 194 0
-3.126884 0.379016 24.772302 195 195 195 0
-3.026102 0.378263 24.723055 197 197 197 0
-2.927394 0.377728 24.688121 195 195 195 0
-2.819342 0.375912 24.569432 198 198 198 0
-2.709905 0.373780 24.430062 197 197 197 0
-2.595832 0.370833 24.237464 197 197 197 0
-2.485424 0.368211 24.066079 196 196 196 0
-2.402635 0.369636 24.159224 196 196 196 0
-2.297149 0.367544 24.022473 196 196 196 0
-2.207028 0.367838 24.041703 197 197 197 0
-2.121339 0.368928 24.112974 197 197 197 0
-2.028604 0.368837 24.106998 197 197 197 0
-1.947826 0.371014 24.249311 198 198 198 0
-1.851617 0.370323 24.204145 200 200 200 0
-1.765737 0.371734 24.296342 200 200 200 0
-1.683007 0.374002 24.444551 200 200 200 0
-1.591608 0.374496 24.476861 200 200 200 0
-1.491712 0.372928 24.374375 200 200 200 0
-1.394143 0.371772 24.298796 200 200 200 0
-1.302327 0.372094 24.319841 201 201 201 0
-1.218690 0.374982 24.508600 201 201 201 0
-1.124904 0.374968 24.507710 201 201 201 0
-1.027745 0.373725 24.426501 201 201 201 0
-0.932025 0.372810 24.366662 202 202 202 0
-0.837662 0.372294 24.332951 202 202 202 0
-0.748464 0.374232 24.459622 201 201 201 0
-0.657421 0.375669 24.553536 200 200 200 0
-0.564306 0.376204 24.588488 202 202 202 0
-0.469207 0.375366 24.533714 202 202 202 0
-0.374402 0.374402 24.470714 201 201 201 0
-0.281125 0.374833 24.498921 202 202 202 0
-0.188415 0.376830 24.629440 203 203 203 0
-0.094208 0.376831 24.629492 201 201 201 0
0.000000 0.376221 24.589624 202 202 202 0
0.094083 0.376331 24.596829 200 200 200 0
0.189403 0.378806 24.758589 202 202 202 0
0.285735 0.380979 24.900620 200 200 200 0
0.381175 0.381175 24.913383 201 201 201 0
0.475495 0.380396 24.862509 201 201 201 0
0.571259 0.380839 24.891447 200 200 200 0
0.682897 0.390227 25.505010 201 201 201 0
0.769662 0.384831 25.152363 200 200 200 0
0.863605 0.383825 25.086571 201 201 201 0
0.957470 0.382988 25.031901 202 202 202 0
1.058527 0.384919 25.158091 201 201 201 0
1.161986 0.387329 25.315607 200 200 200 0
1.258244 0.387152 25.304053 200 200 200 0
1.358327 0.388093 25.365584 197 197 197 0
1.462751 0.390067 25.494576 199 199 199 0
1.568977 0.392244 25.636877 198 198 198 0
1.674901 0.394094 25.757795 199 199 199 0
1.775407 0.394535 25.786589 198 198 198 0
1.886964 0.397255 25.964410 198 198 198 0
1.998189 0.399638 26.120115 196 196 196 0
2.108669 0.401651 26.251718 195 195 195 0
2.220287 0.403689 26.384873 194 194 194 0
2.330003 0.405218 26.484826 195 195 195 0
2.456107 0.409351 26.754976 194 194 194 0
2.563196 0.410111 26.804659 191 191 191 0
2.679502 0.412231 26.943207 189 189 189 0
2.813450 0.416807 27.242317 189 189 189 0
2.952001 0.421714 27.563039 187 187 187 0
3.089933 0.426198 27.856058 183 183 183 0
3.234163 0.431222 28.184428 179 179 179 0
3.402798 0.439071 28.697436 171 171 171 0
3.548121 0.443515 28.987915 130 130 130 0
-7.531552 0.470722 24.612915 202 202 202 0
-7.441425 0.470976 24.626209 202 202 202 0
-7.400739 0.474406 24.805561 203 203 203 0
-7.401492 0.480616 25.130268 203 203 203 0
-7.351862 0.483675 25.290201 203 203 203 0
-7.286701 0.485780 25.400265 203 203 203 0
-7.153943 0.483375 25.274485 201 201 201 0
-7.010900 0.480199 25.108426 201 201 201 0
-6.857205 0.476195 24.899074 180 180 180 0
-6.738173 0.474519 24.811461 168 168 168 0
-6.692311 0.478022 24.994625 174 174 174 0
-6.548486 0.474528 24.811921 173 173 173 0
-6.403879 0.470873 24.620835 174 174 174 0
-6.262193 0.467328 24.435441 178 178 178 0
-6.182336 0.468359 24.489348 183 183 183 0
-6.174577 0.474967 24.834898 182 182 182 0
-6.146592 0.480202 25.108627 185 185 185 0
-5.993605 0.475683 24.872312 187 187 187 0
-5.838936 0.470882 24.621278 190 190 190 0
-5.718100 0.468697 24.507020 191 191 191 0
-5.595626 0.466302 24.381815 192 192 192 0
-5.666258 0.480191 25.108045 190 190 190 0
-5.574833 0.480589 25.128839 195 195 195 0
-5.408462 0.474427 24.806616 194 194 194 0
-5.263772 0.469980 24.574101 195 195 195 0
-5.182689 0.471154 24.635480 197 197 197 0
-5.167596 0.478481 25.018619 195 195 195 0
-5.095088 0.480669 25.133004 199 199 199 0
-4.978312 0.478684 25.029220 197 197 197 0
-4.857903 0.476265 24.902746 200 200 200 0
-4.755479 0.475548 24.865252 201 201 201 0
-4.706913 0.480297 25.113583 200 200 200 0
-4.631360 0.482433 25.225272 201 201 201 0
-4.535056 0.482453 25.226290 202 202 202 0
-4.413435 0.479721 25.083459 204 204 204 0
-4.343781 0.482642 25.236200 206 206 206 0
-4.282997 0.486704 25.448587 207 207 207 0
-4.202846 0.488703 25.553097 208 208 208 0
-4.092624 0.487217 25.475406 209 209 209 0
-3.972841 0.484493 25.332957 210 210 210 0
-3.858193 0.482274 25.216946 210 210 210 0
-3.763891 0.482550 25.231377 204 204 204 0
-3.645385 0.479656 25.080049 198 198 198 0
-3.593759 0.485643 25.393104 196 196 196 0
-3.463202 0.481000 25.150338 195 195 195 0
-3.349274 0.478468 25.017917 195 195 195 0
-3.236952 0.476022 24.890056 194 194 194 0
-3.130728 0.474353 24.802755 194 194 194 0
-3.028831 0.473255 24.745348 195 195 195 0
-2.927301 0.472145 24.687337 197 197 197 0
-2.817036 0.469506 24.549335 197 197 197 0
-2.713104 0.467777 24.458906 197 197 197 0
-2.601116 0.464485 24.286794 198 198 198 0
-2.503305 0.463575 24.239215 197 197 197 0
-2.418012 0.465002 24.313846 197 197 197 0
-2.322076 0.464415 24.283147 197 197 197 0
-2.231587 0.464914 24.309225 198 198 198 0
-2.139662 0.465144 24.321256 196 196 196 0
-2.042832 0.464280 24.276081 196 196 196 0
-1.950799 0.464476 24.286320 196 196 196 0
-1.861056 0.465264 24.327531 198 198 198 0
-1.776261 0.467437 24.441152 197 197 197 0
-1.691657 0.469905 24.570177 197 197 197 0
-1.598288 0.470085 24.579600 197 197 197 0
-1.496098 0.467531 24.446047 198 198 198 0
-1.400901 0.466967 24.416572 200 200 200 0
-1.306540 0.466622 24.398515 199 199 199 0
-1.225204 0.471232 24.639595 200 200 200 0
-1.130787 0.471161 24.635876 200 200 200 0
-1.032218 0.469190 24.532820 200 200 200 0
-0.935255 0.467627 24.451109 200 200 200 0
-0.842144 0.467858 24.463137 200 200 200 0
-0.752861 0.470538 24.603304 199 199 199 0
-0.660588 0.471849 24.671832 200 200 200 0
-0.565787 0.471489 24.653024 200 200 200 0
-0.470000 0.470000 24.575165 199 199 199 0
-0.376269 0.470336 24.592714 200 200 200 0
-0.283358 0.472263 24.693465 200 200 200 0
-0.189373 0.473433 24.754647 200 200 200 0
-0.094648 0.473240 24.744571 200 200 200 0
0.000000 0.472773 24.720143 201 201 201 0
0.094457 0.472286 24.694679 200 200 200 0
0.190649 0.476622 24.921427 200 200 200 0
0.287459 0.479098 25.050894 200 200 200 0
0.382607 0.478258 25.006967 201 201 201 0
0.477363 0.477363 24.960180 201 201 201 0
0.574827 0.479023 25.046943 201 201 201 0
0.677550 0.483965 25.305336 201 201 201 0
0.773082 0.483176 25.264113 201 201 201 0
0.866805 0.481558 25.179516 200 200 200 0
0.962445 0.481223 25.161964 200 200 200 0
1.066309 0.484686 25.343060 199 199 199 0
1.169606 0.487336 25.481618 198 198 198 0
1.266468 0.487103 25.469445 198 198 198 0
1.366992 0.488211 25.527397 197 197 197 0
1.471877 0.490626 25.653626 197 197 197 0
1.578945 0.493420 25.799749 198 198 198 0
1.682881 0.494965 25.880518 198 198 198 0
1.788437 0.496788 25.975849 197 197 197 0
1.900375 0.500099 26.148947 195 195 195 0
2.013996 0.503499 26.326743 193 193 193 0
2.124406 0.505811 26.447636 194 194 194 0
2.233449 0.507602 26.541283 195 195 195 0
2.151279 0.467669 24.453299 193 193 193 0
2.470661 0.514721 26.913523 190 190 190 0
2.585635 0.517127 27.039317 189 189 189 0
2.713419 0.521811 27.284258 188 188 188 0
2.846871 0.527198 27.565921 185 185 185 0
2.993459 0.534546 27.950126 183 183 183 0
3.138105 0.541053 28.290331 179 179 179 0
3.289232 0.548205 28.664329 168 168 168 0
3.427621 0.552842 28.906775 128 128 128 0
-7.480330 0.561025 24.445522 202 202 202 0
-7.382079 0.560664 24.429812 204 204 204 0
-7.369678 0.566898 24.701450 202 202 202 0
-7.337004 0.571715 24.911312 204 204 204 0
-7.334429 0.579034 25.230234 204 204 204 0
-7.230754 0.578460 25.205243 204 204 204 0
-7.154846 0.580123 25.277675 201 201 201 0
-6.997387 0.575128 25.060030 185 185 185 0
-6.841613 0.570134 24.842459 170 170 170 0
-6.699008 0.566113 24.667250 175 175 175 0
-6.637903 0.568963 24.791420 175 175 175 0
-6.526951 0.567561 24.730325 179 179 179 0
-6.383054 0.563211 24.540768 183 183 183 0
-6.243609 0.559129 24.362927 182 182 182 0
-6.176598 0.561509 24.466617 183 183 183 0
-6.157602 0.568394 24.766626 185 185 185 0
-6.121878 0.573926 25.007670 187 187 187 0
-5.972380 0.568798 24.784231 192 192 192 0
-5.832379 0.564424 24.593628 190 190 190 0
-5.709392 0.561580 24.469696 191 191 191 0
-5.638584 0.563858 24.568994 192 192 192 0
-5.675584 0.577178 25.149369 193 193 193 0
-5.565965 0.575790 25.088868 194 194 194 0
-5.391805 0.567558 24.730214 196 196 196 0
-5.249682 0.562466 24.508318 197 197 197 0
-5.148409 0.561645 24.472532 196 196 196 0
-5.116091 0.568455 24.769260 200 200 200 0
-5.084549 0.575609 25.081014 199 199 199 0
-4.957000 0.571962 24.922070 200 200 200 0
-4.842644 0.569723 24.824523 201 201 201 0
-4.742069 0.569048 24.795132 201 201 201 0
-4.686029 0.573799 25.002153 202 202 202 0
-4.624117 0.578015 25.185820 203 203 203 0
-4.526437 0.577843 25.178344 204 204 204 0
-4.409709 0.575179 25.062284 203 203 203 0
-4.325312 0.576708 25.128901 206 206 206 0
-4.254707 0.580187 25.280494 207 207 207 0
-4.186026 0.584097 25.450837 209 209 209 0
-4.082743 0.583249 25.413903 210 210 210 0
-3.971519 0.581198 25.324527 210 210 210 0
-3.855310 0.578297 25.198107 210 210 210 0
-3.757197 0.578030 25.186505 211 211 211 0
-3.666346 0.578897 25.224259 209 209 209 0
-3.600212 0.583818 25.438699 204 204 204 0
-3.486958 0.581160 25.322864 200 200 200 0
-3.360114 0.576019 25.098887 197 197 197 0
-3.251424 0.573781 25.001337 196 196 196 0
-3.144320 0.571695 24.910438 196 196 196 0
-3.042518 0.570472 24.857175 196 196 196 0
-2.941322 0.569288 24.805584 195 195 195 0
-2.836633 0.567327 24.720109 196 196 196 0
-2.709805 0.560649 24.429167 198 198 198 0
-2.617578 0.560910 24.440505 197 197 197 0
-2.529041 0.562009 24.488416 195 195 195 0
-2.432702 0.561393 24.461558 197 197 197 0
-2.339645 0.561515 24.466878 197 197 197 0
-2.249588 0.562397 24.505311 196 196 196 0
-2.154748 0.562108 24.492735 198 198 198 0
-2.051448 0.559486 24.378470 197 197 197 0
-1.959888 0.559968 24.399482 195 195 195 0
-1.872217 0.561665 24.473427 197 197 197 0
-1.788113 0.564667 24.604245 198 198 198 0
-1.702414 0.567471 24.726425 197 197 197 0
-1.604127 0.566163 24.669391 198 198 198 0
-1.504807 0.564302 24.588342 198 198 198 0
-1.408047 0.563219 24.541122 199 199 199 0
-1.371238 0.587673 25.606685 197 197 197 0
-1.231885 0.568562 24.773965 198 198 198 0
-1.135791 0.567895 24.744899 198 198 198 0
-1.036093 0.565142 24.624915 199 199 199 0
-0.940335 0.564201 24.583923 198 198 198 0
-0.847330 0.564887 24.613796 199 199 199 0
-0.756893 0.567670 24.735076 200 200 200 0
-0.663114 0.568383 24.766157 199 199 199 0
-0.567179 0.567179 24.713688 199 199 199 0
-0.471585 0.565902 24.658057 200 200 200 0
-0.378118 0.567178 24.713625 198 198 198 0
-0.285296 0.570592 24.862380 201 201 201 0
-0.190432 0.571297 24.893120 200 200 200 0
-0.094936 0.569617 24.819932 200 200 200 0
0.000000 0.569600 24.819154 199 199 199 0
0.095233 0.571396 24.897414 200 200 200 0
0.191923 0.575769 25.087987 199 199 199 0
0.288636 0.577272 25.153485 200 200 200 0
0.383947 0.575920 25.094545 200 200 200 0
0.480188 0.576226 25.107878 201 201 201 0
0.580694 0.580694 25.302569 201 201 201 0
0.680084 0.582929 25.399964 200 200 200 0
0.775905 0.581929 25.356362 199 199 199 0
0.870079 0.580053 25.274619 198 198 198 0
0.969167 0.581500 25.337689 197 197 197 0
1.074838 0.586275 25.545764 198 198 198 0
1.176134 0.588067 25.623828 198 198 198 0
1.271413 0.586806 25.568886 198 198 198 0
1.378096 0.590613 25.734756 196 196 196 0
1.483825 0.593530 25.861880 198 198 198 0
1.590107 0.596290 25.982139 197 197 197 0
1.692941 0.597509 26.035235 195 195 195 0
1.804012 0.601337 26.202069 194 194 194 0
1.916609 0.605245 26.372329 194 194 194 0
2.030504 0.609151 26.542532 194 194 194 0
2.140782 0.611652 26.651500 193 193 193 0
2.253423 0.614570 26.778643 192 192 192 0
2.372156 0.618823 26.963976 190 190 190 0
2.490057 0.622514 27.124801 188 188 188 0
2.611061 0.626655 27.305217 188 188 188 0
2.752647 0.635226 27.678702 183 183 183 0
2.893941 0.643098 28.021704 181 181 181 0
3.032833 0.649893 28.317768 178 178 178 0
3.183591 0.658674 28.700389 166 166 166 0
3.330577 0.666115 29.024634 122 122 122 0
3.413759 0.660728 28.789876 75 75 75 0
-7.472682 0.653860 24.420528 202 202 202 0
-7.359369 0.652096 24.354657 202 202 202 0
-7.313556 0.656345 24.513344 202 202 202 0
-7.360797 0.669163 24.992094 203 203 203 0
-7.354150 0.677356 25.298074 204 204 204 0
-7.301441 0.681468 25.451646 202 202 202 0
-7.142133 0.675607 25.232761 195 195 195 0
-6.962449 0.667632 24.934907 172 172 172 0
-6.789134 0.660055 24.651903 176 176 176 0
-6.644509 0.655092 24.466570 175 175 175 0
-6.587153 0.658715 24.601877 178 178 178 0
-6.500561 0.659477 24.630336 181 181 181 0
-6.358000 0.654500 24.444443 183 183 183 0
-6.241487 0.652096 24.354645 183 183 183 0
-6.144099 0.651647 24.337885 186 186 186 0
-6.126809 0.659810 24.642773 186 186 186 0
-6.103422 0.667562 24.932280 189 189 189 0
-5.972270 0.663586 24.783773 191 191 191 0
-5.820687 0.657174 24.544326 191 191 191 0
-5.697398 0.653800 24.418292 192 192 192 0
-5.612212 0.654758 24.454082 195 195 195 0
-5.638661 0.668994 24.985759 194 194 194 0
-5.538975 0.668497 24.967209 198 198 198 0
-5.383014 0.661072 24.689892 198 198 198 0
-5.234415 0.654302 24.437046 199 199 199 0
-5.132259 0.653197 24.395763 198 198 198 0
-5.101851 0.661351 24.700317 201 201 201 0
-5.056662 0.667861 24.943455 200 200 200 0
-4.941946 0.665262 24.846384 201 201 201 0
-4.826970 0.662525 24.744174 201 201 201 0
-4.720735 0.660903 24.683580 200 200 200 0
-4.661825 0.665975 24.873017 201 201 201 0
-4.601302 0.671023 25.061556 204 204 204 0
-4.516483 0.672668 25.122978 203 203 203 0
-4.400525 0.669645 25.010088 205 205 205 0
-4.309806 0.670414 25.038818 207 207 207 0
-4.230165 0.672981 25.134669 206 206 206 0
-4.169971 0.678833 25.353221 206 206 206 0
-4.076997 0.679499 25.378132 208 208 208 0
-3.957720 0.675708 25.236534 209 209 209 0
-3.849228 0.673615 25.158352 210 210 210 0
-3.750666 0.673196 25.142725 211 211 211 0
-3.671068 0.676249 25.256749 212 212 212 0
-3.601789 0.681420 25.449844 211 211 211 0
-3.492868 0.679169 25.365783 210 210 210 0
-3.370249 0.674050 25.174594 205 205 205 0
-3.259541 0.671082 25.063753 203 203 203 0
-3.161039 0.670523 25.042890 200 200 200 0
-3.065054 0.670481 25.041291 195 195 195 0
-2.954568 0.667160 24.917291 198 198 198 0
-2.846624 0.664212 24.807184 197 197 197 0
-2.739460 0.661249 24.696506 198 198 198 0
-2.619311 0.654828 24.456684 195 195 195 0
-2.541111 0.658807 24.605287 196 196 196 0
-2.447257 0.658877 24.607918 197 197 197 0
-2.351998 0.658559 24.596058 198 198 198 0
-2.262035 0.659760 24.640899 198 198 198 0
-2.170340 0.660538 24.669969 198 198 198 0
-2.071970 0.659263 24.622339 197 197 197 0
-1.973190 0.657730 24.565085 197 197 197 0
-1.887265 0.660543 24.670129 198 198 198 0
-1.802751 0.664171 24.805654 198 198 198 0
-1.714356 0.666694 24.899876 197 197 197 0
-1.613001 0.664177 24.805863 197 197 197 0
-1.510671 0.660919 24.684169 197 197 197 0
-1.416145 0.660868 24.682268 198 198 198 0
-1.333066 0.666533 24.893858 199 199 199 0
-1.240069 0.667729 24.938540 199 199 199 0
-1.140103 0.665060 24.838840 199 199 199 0
-1.040514 0.662145 24.729987 199 199 199 0
-0.945262 0.661684 24.712736 198 198 198 0
-0.853593 0.663906 24.795741 199 199 199 0
-0.761632 0.666428 24.889935 198 198 198 0
-0.665284 0.665284 24.847199 199 199 199 0
-0.570001 0.665001 24.836627 199 199 199 0
-0.473205 0.662487 24.742761 200 200 200 0
-0.379498 0.664122 24.803816 200 200 200 0
-0.286182 0.667757 24.939571 199 199 199 0
-0.191105 0.668869 24.981109 199 199 199 0
-0.095311 0.667175 24.917831 199 199 199 0
0.000000 0.666617 24.897006 200 200 200 0
0.095972 0.671807 25.090835 199 199 199 0
0.193280 0.676481 25.265411 201 201 201 0
0.289986 0.676634 25.271106 199 199 199 0
0.385761 0.675081 25.213123 200 200 200 0
0.483669 0.677137 25.289887 199 199 199 0
0.593102 0.691952 25.843211 198 198 198 0
0.684056 0.684056 25.548294 197 197 197 0
0.778918 0.681553 25.454835 198 198 198 0
0.874717 0.680335 25.409352 197 197 197 0
0.977418 0.684193 25.553412 197 197 197 0
1.083686 0.689618 25.756054 197 197 197 0
1.182187 0.689609 25.755707 197 197 197 0
1.283116 0.690908 25.804238 197 197 197 0
1.389105 0.694552 25.940327 197 197 197 0
1.496173 0.698214 26.077092 194 194 194 0
1.602302 0.701007 26.181406 193 193 193 0
1.705432 0.702237 26.227322 194 194 194 0
1.820685 0.708044 26.444229 194 194 194 0
1.934329 0.712648 26.616157 193 193 193 0
2.044041 0.715414 26.719489 191 191 191 0
2.157508 0.719169 26.859738 190 190 190 0
2.234579 0.711003 26.554715 189 189 189 0
2.396467 0.729359 27.240315 188 188 188 0
2.521652 0.735482 27.468973 186 186 186 0
2.651267 0.742355 27.725669 183 183 183 0
2.795770 0.752707 28.112319 179 179 179 0
2.939520 0.762098 28.463032 174 174 174 0
3.079951 0.769988 28.757716 161 161 161 0
3.217594 0.776661 29.006933 114 114 114 0
-7.465858 0.746586 24.398229 203 203 203 0
-7.348973 0.744200 24.320255 203 203 203 0
-7.289396 0.747630 24.432364 202 202 202 0
-7.297504 0.758182 24.777196 204 204 204 0
-7.291886 0.767567 25.083887 203 203 203 0
-7.229190 0.771114 25.199792 202 202 202 0
-7.082447 0.765670 25.021894 182 182 182 0
-6.912268 0.757509 24.755191 172 172 172 0
-6.771541 0.752393 24.588019 172 172 172 0
-6.640721 0.748250 24.452624 180 180 180 0
-6.557537 0.749433 24.491266 181 181 181 0
-6.481158 0.751439 24.556819 182 182 182 0
-6.344992 0.746470 24.394431 183 183 183 0
-6.242668 0.745393 24.359254 189 189 189 0
-6.127008 0.742668 24.270185 188 188 188 0
-6.102462 0.751072 24.544846 189 189 189 0
-6.088880 0.761110 24.872874 190 190 190 0
-5.958240 0.756602 24.725554 189 189 189 0
-5.806828 0.749268 24.485885 193 193 193 0
-5.676551 0.744466 24.328942 192 192 192 0
-5.592944 0.745726 24.370127 195 195 195 0
-5.605377 0.760051 24.838273 198 198 198 0
-5.518517 0.761175 24.874993 196 196 196 0
-5.372768 0.754073 24.642899 198 198 198 0
-5.225863 0.746552 24.397122 199 199 199 0
-5.107867 0.742962 24.279820 199 199 199 0
-5.059134 0.749501 24.493510 200 200 200 0
-5.041889 0.761040 24.870584 202 202 202 0
-4.925517 0.757772 24.763786 201 201 201 0
-4.802412 0.753319 24.618284 201 201 201 0
-4.698444 0.751751 24.567030 203 203 203 0
-4.638375 0.757286 24.747902 203 203 203 0
-4.574484 0.762414 24.915489 204 204 204 0
-4.506701 0.767098 25.068566 205 205 205 0
-4.391981 0.763823 24.961529 206 206 206 0
-4.296996 0.763910 24.964393 207 207 207 0
-4.199317 0.763512 24.951377 206 206 206 0
-4.154741 0.772975 25.260625 207 207 207 0
-4.064206 0.774134 25.298512 208 208 208 0
-3.949494 0.770633 25.184087 210 210 210 0
-3.842757 0.768551 25.116058 210 210 210 0
-3.747995 0.768819 25.124817 210 210 210 0
-3.669423 0.772510 25.245431 210 210 210 0
-3.606163 0.779711 25.480749 210 210 210 0
-3.492518 0.776115 25.363238 213 213 213 0
-3.371508 0.770630 25.183998 212 212 212 0
-3.269435 0.769279 25.139833 212 212 212 0
-3.178787 0.770615 25.183500 207 207 207 0
-3.087511 0.771878 25.224763 200 200 200 0
-2.978171 0.768560 25.116348 200 200 200 0
-2.873183 0.766182 25.038629 200 200 200 0
-2.758456 0.760953 24.867761 197 197 197 0
-2.655282 0.758652 24.792551 196 196 196 0
-2.557213 0.757693 24.761200 195 195 195 0
-2.459134 0.756657 24.727339 196 196 196 0
-2.367738 0.757676 24.760658 196 196 196 0
-2.279383 0.759794 24.829877 196 196 196 0
-2.176316 0.756979 24.737892 196 196 196 0
-2.081545 0.756925 24.736121 197 197 197 0
-1.990121 0.758141 24.775856 198 198 198 0
-1.904310 0.761724 24.892939 200 200 200 0
-1.815658 0.764487 24.983251 197 197 197 0
-1.722163 0.765406 25.013267 199 199 199 0
-1.618760 0.761769 24.894426 199 199 199 0
-1.518615 0.759307 24.813970 199 199 199 0
-1.422166 0.758489 24.787207 198 198 198 0
-1.341662 0.766664 25.054377 199 199 199 0
-1.244979 0.766141 25.037277 197 197 197 0
-1.144560 0.763040 24.935949 199 199 199 0
-1.045638 0.760464 24.851756 198 198 198 0
-0.950770 0.760616 24.856741 200 200 200 0
-0.860810 0.765164 25.005369 198 198 198 0
-0.766240 0.766240 25.040527 198 198 198 0
-0.670055 0.765777 25.025396 199 199 199 0
-0.571957 0.762609 24.921860 200 200 200 0
-0.476530 0.762448 24.916614 200 200 200 0
-0.381829 0.763657 24.956125 200 200 200 0
-0.288010 0.768025 25.098870 199 199 199 0
-0.192035 0.768139 25.102590 199 199 199 0
-0.095854 0.766832 25.059884 199 199 199 0
0.000000 0.766434 25.046870 199 199 199 0
0.096832 0.774658 25.315635 198 198 198 0
0.194513 0.778053 25.426581 198 198 198 0
0.290892 0.775711 25.350034 198 198 198 0
0.387431 0.774861 25.322258 198 198 198 0
0.486850 0.778960 25.456212 198 198 198 0
0.590202 0.786936 25.716877 196 196 196 0
0.686564 0.784644 25.641962 197 197 197 0
0.782991 0.782991 25.587956 196 196 196 0
0.880643 0.782793 25.581485 197 197 197 0
0.987395 0.789916 25.814261 196 196 196 0
1.090569 0.793141 25.919648 197 197 197 0
1.188512 0.792342 25.893514 196 196 196 0
1.293132 0.795773 26.005667 194 194 194 0
1.399854 0.799917 26.141071 193 193 193 0
1.506315 0.803368 26.253852 192 192 192 0
1.612919 0.806459 26.354880 193 193 193 0
1.724795 0.811668 26.525111 194 194 194 0
1.838876 0.817278 26.708443 193 193 193 0
1.952530 0.822118 26.866596 191 191 191 0
2.065049 0.826020 26.994106 188 188 188 0
2.178523 0.829913 27.121351 188 188 188 0
2.304722 0.838081 27.388256 187 187 187 0
2.421910 0.842404 27.529531 186 186 186 0
2.553214 0.851071 27.812790 181 181 181 0
2.696008 0.862723 28.193550 179 179 179 0
2.848393 0.876429 28.641459 173 173 173 0
2.991265 0.886301 28.964074 155 155 155 0
3.127511 0.893575 29.201784 106 106 106 0
-7.467775 0.840125 24.404494 203 203 203 0
-7.361011 0.838596 24.360092 202 202 202 0
-7.282517 0.840290 24.409308 202 202 202 0
-7.292583 0.852380 24.760488 205 205 205 0
-7.249061 0.858441 24.936571 204 204 204 0
-7.239556 0.868747 25.235925 192 192 192 0
-7.008912 0.852435 24.762099 174 174 174 0
-6.880770 0.848314 24.642386 173 173 173 0
-6.731027 0.841378 24.440913 178 178 178 0
-6.607313 0.837547 24.329606 181 181 181 0
-6.556462 0.842974 24.487253 183 183 183 0
-6.486141 0.846018 24.575698 183 183 183 0
-6.349485 0.840373 24.411707 187 187 187 0
-6.208904 0.834032 24.227506 188 188 188 0
-6.099863 0.831799 24.162656 187 187 187 0
-6.072173 0.840762 24.423020 191 191 191 0
-6.058450 0.851970 24.748570 190 190 190 0
-5.948953 0.849850 24.687013 190 190 190 0
-5.794008 0.841066 24.431827 196 196 196 0
-5.661620 0.835321 24.264953 195 195 195 0
-5.562493 0.834374 24.237444 196 196 196 0
-5.581316 0.851387 24.731652 197 197 197 0
-5.497238 0.853020 24.779077 197 197 197 0
-5.355687 0.845635 24.564557 197 197 197 0
-5.206890 0.836822 24.308541 197 197 197 0
-5.095873 0.833870 24.222806 199 199 199 0
-5.035926 0.839321 24.381149 200 200 200 0
-5.015025 0.851608 24.738067 201 201 201 0
-4.925524 0.852494 24.763819 201 201 201 0
-4.793743 0.845955 24.573846 202 202 202 0
-4.685736 0.843433 24.500583 204 204 204 0
-4.618681 0.848329 24.642823 204 204 204 0
-4.559729 0.854949 24.835127 204 204 204 0
-4.482579 0.858366 24.934383 205 205 205 0
-4.368992 0.854803 24.830874 205 205 205 0
-4.265946 0.853189 24.783998 206 206 206 0
-4.175938 0.854169 24.812467 207 207 207 0
-4.128620 0.864130 25.101809 206 206 206 0
-4.048829 0.867606 25.202793 208 208 208 0
-3.940046 0.864888 25.123839 208 208 208 0
-3.832794 0.862379 25.050942 210 210 210 0
-3.739208 0.862894 25.065914 210 210 210 0
-3.663107 0.867578 25.201974 211 211 211 0
-3.600942 0.875905 25.443857 212 212 212 0
-3.487777 0.871944 25.328809 214 214 214 0
-3.372441 0.867199 25.190971 213 213 213 0
-3.275936 0.867160 25.189823 213 213 213 0
-3.183196 0.868144 25.218424 213 213 213 0
-3.106700 0.873759 25.381533 213 213 213 0
-3.012691 0.874652 25.407475 208 208 208 0
-2.898441 0.869532 25.258742 203 203 203 0
-2.771431 0.860099 24.984728 199 199 199 0
-2.680283 0.861520 25.025986 200 200 200 0
-2.578808 0.859603 24.970302 197 197 197 0
-2.481607 0.859018 24.953310 199 199 199 0
-2.385848 0.858905 24.950042 197 197 197 0
-2.290269 0.858851 24.948469 197 197 197 0
-2.190352 0.857094 24.897440 197 197 197 0
-2.093050 0.856248 24.872847 195 195 195 0
-2.005211 0.859376 24.963725 198 198 198 0
-1.922388 0.865074 25.129251 199 199 199 0
-1.828116 0.865950 25.154672 196 196 196 0
-1.730049 0.865025 25.127804 195 195 195 0
-1.628530 0.862163 25.044675 198 198 198 0
-1.529888 0.860562 24.998168 198 198 198 0
-1.508424 0.905054 26.290614 197 197 197 0
-1.350606 0.868246 25.221393 197 197 197 0
-1.250454 0.865699 25.147393 197 197 197 0
-1.148983 0.861738 25.032319 198 198 198 0
-1.050850 0.859786 24.975633 198 198 198 0
-0.957452 0.861706 25.031415 200 200 200 0
-0.866245 0.866245 25.163265 198 198 198 0
-0.770059 0.866316 25.165314 199 199 199 0
-0.673314 0.865690 25.147130 199 199 199 0
-0.574773 0.862159 25.044565 198 198 198 0
-0.479726 0.863506 25.083694 198 198 198 0
-0.385440 0.867240 25.192159 198 198 198 0
-0.290434 0.871302 25.310147 198 198 198 0
-0.192887 0.867990 25.213946 196 196 196 0
-0.096414 0.867728 25.206333 196 196 196 0
0.000000 0.872603 25.347943 197 197 197 0
0.097608 0.878476 25.518549 197 197 197 0
0.195528 0.879876 25.559228 197 197 197 0
0.292350 0.877050 25.477110 197 197 197 0
0.389839 0.877137 25.479650 197 197 197 0
0.490379 0.882682 25.640734 196 196 196 0
0.591720 0.887580 25.783013 197 197 197 0
0.689832 0.886927 25.764029 197 197 197 0
0.786141 0.884409 25.690896 197 197 197 0
0.887221 0.887221 25.772578 197 197 197 0
0.995223 0.895701 26.018899 195 195 195 0
1.097052 0.897588 26.073730 193 193 193 0
1.196817 0.897613 26.074450 193 193 193 0
1.302165 0.901499 26.187326 192 192 192 0
1.412189 0.907836 26.371409 192 192 192 0
1.517787 0.910672 26.453809 191 191 191 0
1.621789 0.912256 26.499822 192 192 192 0
1.737401 0.919801 26.718971 191 191 191 0
1.854165 0.927082 26.930497 189 189 189 0
1.966335 0.931422 27.056554 187 187 187 0
2.082291 0.937031 27.219497 188 188 188 0
2.142966 0.918414 26.678690 185 185 185 0
2.328065 0.952390 27.665657 183 183 183 0
2.457840 0.961763 27.937935 180 180 180 0
2.594815 0.973056 28.265964 177 177 177 0
2.743820 0.987775 28.693544 169 169 169 0
2.891939 1.001056 29.079325 141 141 141 0
3.025944 1.008648 29.299866 87 87 87 0
-7.472705 0.934088 24.420604 204 204 204 0
-7.327838 0.927574 24.250310 204 204 204 0
-7.270577 0.932125 24.369289 203 203 203 0
-7.252382 0.941868 24.623993 204 204 204 0
-7.239223 0.952529 24.902728 200 200 200 0
-7.156997 0.954266 24.948137 179 179 179 0
-6.999151 0.945831 24.727614 173 173 173 0
-6.816323 0.933743 24.411580 178 178 178 0
-6.697286 0.930179 24.318394 179 179 179 0
-6.581985 0.927040 24.236344 181 181 181 0
-6.489642 0.927092 24.237691 182 182 182 0
-6.445081 0.934070 24.420123 186 186 186 0
-6.311206 0.928118 24.264536 185 185 185 0
-6.181678 0.922639 24.121268 187 187 187 0
-6.074660 0.920403 24.062823 188 188 188 0
-6.051698 0.931030 24.340666 193 193 193 0
-6.045571 0.944620 24.695958 192 192 192 0
-5.939314 0.942748 24.647015 195 195 195 0
-5.773947 0.931282 24.347237 197 197 197 0
-5.640377 0.924652 24.173909 196 196 196 0
-5.539339 0.923223 24.136553 197 197 197 0
-5.549928 0.940666 24.592570 199 199 199 0
-5.475481 0.944049 24.681007 198 198 198 0
-5.352648 0.939061 24.550616 197 197 197 0
-5.195736 0.927810 24.256469 200 200 200 0
-5.078463 0.923357 24.140048 200 200 200 0
-5.013096 0.928351 24.270616 202 202 202 0
-4.981577 0.939920 24.573075 205 205 205 0
-4.909596 0.944153 24.683739 203 203 203 0
-4.779773 0.937210 24.502233 204 204 204 0
-4.679898 0.935980 24.470057 205 205 205 0
-4.604159 0.939624 24.565342 204 204 204 0
-4.547275 0.947349 24.767292 205 205 205 0
-4.478402 0.952851 24.911150 208 208 208 0
-4.358437 0.947486 24.770882 206 206 206 0
-4.240779 0.942395 24.637787 206 206 206 0
-4.142062 0.941378 24.611181 207 207 207 0
-4.105677 0.954809 24.962318 208 208 208 0
-4.033591 0.960379 25.107940 209 209 209 0
-3.930052 0.958549 25.060114 208 208 208 0
-3.820983 0.955246 24.973742 208 208 208 0
-3.731597 0.956820 25.014897 209 209 209 0
-3.656852 0.962329 25.158938 209 209 209 0
-3.592294 0.970890 25.382752 212 212 212 0
-3.483253 0.967570 25.295952 211 211 211 0
-3.367826 0.962236 25.156497 211 211 211 0
-3.272492 0.962498 25.163337 213 213 213 0
-3.183606 0.964729 25.221672 214 214 214 0
-3.100076 0.968774 25.327416 215 215 215 0
-3.018856 0.973824 25.459462 214 214 214 0
-2.918456 0.972819 25.433166 211 211 211 0
-2.823053 0.973467 25.450107 209 209 209 0
-2.708224 0.967223 25.286868 201 201 201 0
-2.602891 0.964034 25.203498 201 201 201 0
-2.501039 0.961938 25.148712 199 199 199 0
-2.403824 0.961530 25.138029 199 199 199 0
-2.304621 0.960259 25.104800 199 199 199 0
-2.207589 0.959821 25.093369 197 197 197 0
-2.106271 0.957396 25.029961 199 199 199 0
-2.018055 0.960978 25.123620 197 197 197 0
-1.933184 0.966592 25.270385 197 197 197 0
-1.839119 0.967958 25.306081 196 196 196 0
-1.736486 0.964715 25.221297 196 196 196 0
-1.634883 0.961696 25.142371 197 197 197 0
-1.537145 0.960716 25.116754 197 197 197 0
-1.456473 0.970982 25.385145 196 196 196 0
-1.358204 0.970146 25.363284 196 196 196 0
-1.255654 0.965887 25.251958 196 196 196 0
-1.153777 0.961481 25.136750 197 197 197 0
-1.056957 0.960870 25.120789 198 198 198 0
-0.966221 0.966221 25.260671 197 197 197 0
-0.872724 0.969693 25.351464 196 196 196 0
-0.772347 0.965434 25.240107 198 198 198 0
-0.675113 0.964447 25.214290 196 196 196 0
-0.578794 0.964656 25.219775 195 195 195 0
-0.482486 0.964971 25.228003 196 196 196 0
-0.389052 0.972629 25.428216 197 197 197 0
-0.291814 0.972712 25.430384 196 196 196 0
-0.194208 0.971038 25.386612 195 195 195 0
-0.096892 0.968922 25.331297 195 195 195 0
0.000000 0.977676 25.560161 196 196 196 0
0.098368 0.983682 25.717167 196 196 196 0
0.196469 0.982344 25.682202 196 196 196 0
0.294285 0.980950 25.645753 197 197 197 0
0.392792 0.981981 25.672706 196 196 196 0
0.496606 0.993211 25.966305 196 196 196 0
0.595080 0.991800 25.929399 197 197 197 0
0.692347 0.989067 25.857967 195 195 195 0
0.790833 0.988541 25.844221 194 194 194 0
0.896445 0.996050 26.040524 194 194 194 0
1.002053 1.002053 26.197472 192 192 192 0
1.101785 1.001623 26.186220 192 192 192 0
