ply
    format ascii 1.0
    element vertex 12266
    property float x
    property float y
    property float z
    property uchar red
    property uchar green
    property uchar blue
    property uchar alpha
    end_header
-1.828883 -1.393434 22.768534 164 164 164 0
-1.731905 -1.385524 22.639284 165 165 165 0
-1.637765 -1.379171 22.535472 171 171 171 0
-1.542341 -1.370970 22.401471 177 177 177 0
-1.445099 -1.360093 22.223741 177 177 177 0
-1.350596 -1.350596 22.068565 178 178 178 0
-1.258033 -1.341902 21.926495 178 178 178 0
-1.167985 -1.334840 21.811104 182 182 182 0
-1.081727 -1.331357 21.754194 187 187 187 0
-0.993931 -1.325242 21.654280 188 188 188 0
-0.908981 -1.322154 21.603819 188 188 188 0
-0.824302 -1.318884 21.550387 188 188 188 0
-0.738713 -1.313268 21.458633 189 189 189 0
-0.652400 -1.304801 21.320273 191 191 191 0
-0.567366 -1.296837 21.190141 194 194 194 0
-0.482949 -1.287863 21.043518 195 195 195 0
-0.400654 -1.282094 20.949249 196 196 196 0
-0.320426 -1.281705 20.942899 195 195 195 0
-0.241477 -1.287878 21.043753 196 196 196 0
-0.160512 -1.284093 20.981918 196 196 196 0
-0.079867 -1.277865 20.880143 199 199 199 0
0.000000 -1.271563 20.777178 201 201 201 0
0.078896 -1.262336 20.626401 200 200 200 0
0.157104 -1.256829 20.536422 201 201 201 0
0.234822 -1.252386 20.463819 201 201 201 0
0.312673 -1.250691 20.436135 201 201 201 0
0.391707 -1.253462 20.481399 201 201 201 0
0.469750 -1.252666 20.468393 202 202 202 0
0.546205 -1.248468 20.399804 205 205 205 0
0.621399 -1.242798 20.307162 205 205 205 0
0.697114 -1.239313 20.250214 206 206 206 0
0.774155 -1.238647 20.239337 205 205 205 0
0.850890 -1.237658 20.223178 206 206 206 0
0.927814 -1.237085 20.213803 206 206 206 0
1.004838 -1.236723 20.207897 206 206 206 0
1.079421 -1.233624 20.157249 207 207 207 0
1.153421 -1.230316 20.103201 208 208 208 0
1.227713 -1.227713 20.060665 209 209 209 0
1.303575 -1.226894 20.047288 210 210 210 0
1.383274 -1.229577 20.091121 210 210 210 0
1.460509 -1.229902 20.096441 211 211 211 0
1.536689 -1.229351 20.087437 210 210 210 0
1.608788 -1.225743 20.028479 210 210 210 0
1.678194 -1.220505 19.942890 210 210 210 0
1.749633 -1.217136 19.887846 211 211 211 0
1.822235 -1.214823 19.850054 210 210 210 0
1.902530 -1.217619 19.895743 212 212 212 0
1.985038 -1.221562 19.960158 213 213 213 0
2.052803 -1.216476 19.877061 212 212 212 0
2.122155 -1.212660 19.814705 213 213 213 0
2.190402 -1.208497 19.746689 212 212 212 0
2.262594 -1.206717 19.717596 213 213 213 0
2.336862 -1.206122 19.707884 213 213 213 0
2.416367 -1.208184 19.741564 213 213 213 0
2.491298 -1.207902 19.736963 214 214 214 0
2.562319 -1.205797 19.702571 213 213 213 0
2.632995 -1.203655 19.667563 214 214 214 0
2.707306 -1.203247 19.660898 215 215 215 0
2.786170 -1.204830 19.686769 215 215 215 0
2.863064 -1.205501 19.697724 215 215 215 0
2.936770 -1.204829 19.686741 215 215 215 0
3.009402 -1.203761 19.669295 216 216 216 0
3.082164 -1.202796 19.653522 215 215 215 0
3.155169 -1.201969 19.640018 216 216 216 0
3.234012 -1.203353 19.662633 216 216 216 0
3.314200 -1.205164 19.692215 216 216 216 0
3.390912 -1.205658 19.700287 216 216 216 0
3.468703 -1.206506 19.714142 216 216 216 0
3.545525 -1.206987 19.722014 216 216 216 0
3.616425 -1.205475 19.697302 216 216 216 0
3.688287 -1.204339 19.678734 216 216 216 0
3.764039 -1.204493 19.681252 217 217 217 0
3.849189 -1.207589 19.731842 217 217 217 0
3.920672 -1.206361 19.711775 217 217 217 0
3.990053 -1.204544 19.682098 217 217 217 0
4.062889 -1.203819 19.670243 217 217 217 0
4.135461 -1.203043 19.657568 218 218 218 0
4.210646 -1.203042 19.657547 217 217 217 0
4.294688 -1.205526 19.698145 217 217 217 0
4.379670 -1.208185 19.741581 217 217 217 0
4.454386 -1.207969 19.738058 218 218 218 0
4.534764 -1.209270 19.759319 218 218 218 0
4.609911 -1.209157 19.757469 218 218 218 0
4.692737 -1.211029 19.788055 218 218 218 0
4.772382 -1.212033 19.804469 218 218 218 0
4.856904 -1.214226 19.840295 218 218 218 0
4.936366 -1.215106 19.854665 217 217 217 0
5.023531 -1.217826 19.899114 218 218 218 0
5.107150 -1.219618 19.928399 218 218 218 0
5.201348 -1.223847 19.997492 217 217 217 0
5.290345 -1.226747 20.044881 217 217 217 0
5.362004 -1.225601 20.026160 218 218 218 0
5.441365 -1.226223 20.036324 218 218 218 0
5.524772 -1.227727 20.060902 217 217 217 0
5.626022 -1.233101 20.148705 218 218 218 0
5.700819 -1.232610 20.140680 217 217 217 0
5.773062 -1.231587 20.123965 218 218 218 0
5.850842 -1.231756 20.126735 218 218 218 0
5.933344 -1.232903 20.145467 218 218 218 0
6.035100 -1.237969 20.228256 218 218 218 0
6.131174 -1.241757 20.290143 218 218 218 0
-2.687556 -1.390115 24.228586 78 78 78 0
-2.560044 -1.371452 23.903305 115 115 115 0
-2.440611 -1.355895 23.632159 119 119 119 0
-2.334255 -1.346686 23.471643 139 139 139 0
-2.224486 -1.334691 23.262597 146 146 146 0
-2.129831 -1.331144 23.200770 146 146 146 0
-2.030153 -1.324013 23.076482 156 156 156 0
-1.930706 -1.316390 22.943619 164 164 164 0
-1.830452 -1.307466 22.788075 164 164 164 0
-1.735090 -1.301318 22.680919 165 165 165 0
-1.638886 -1.293858 22.550896 169 169 169 0
-1.542539 -1.285449 22.404340 176 176 176 0
-1.445365 -1.275322 22.227833 177 177 177 0
-1.351262 -1.266808 22.079447 178 178 178 0
-1.259394 -1.259394 21.950231 178 178 178 0
-1.169753 -1.253307 21.844124 181 181 181 0
-1.082785 -1.249367 21.775464 187 187 187 0
-0.995131 -1.243913 21.680407 188 188 188 0
-0.909907 -1.240782 21.625827 188 188 188 0
-0.825972 -1.238959 21.594049 188 188 188 0
-0.739313 -1.232188 21.476037 188 188 188 0
-0.653002 -1.224380 21.339950 190 190 190 0
-0.567645 -1.216382 21.200564 194 194 194 0
-0.483248 -1.208120 21.056557 195 195 195 0
-0.400712 -1.202135 20.952236 195 195 195 0
-0.320361 -1.201355 20.938653 196 196 196 0
-0.241667 -1.208336 21.060325 196 196 196 0
-0.160604 -1.204530 20.993990 196 196 196 0
-0.079952 -1.199281 20.902505 199 199 199 0
0.000000 -1.192389 20.782373 200 200 200 0
0.078925 -1.183872 20.633942 201 201 201 0
0.157084 -1.178129 20.533841 201 201 201 0
0.234918 -1.174591 20.472182 202 202 202 0
0.313038 -1.173892 20.460000 201 201 201 0
0.392129 -1.176387 20.503474 202 202 202 0
0.470039 -1.175097 20.480995 201 201 201 0
0.546239 -1.170512 20.401076 204 204 204 0
0.621647 -1.165588 20.315253 206 206 206 0
0.697459 -1.162432 20.260255 207 207 207 0
0.775094 -1.162641 20.263890 206 206 206 0
0.851798 -1.161543 20.244759 206 206 206 0
0.928555 -1.160694 20.229959 206 206 206 0
1.005070 -1.159697 20.212579 207 207 207 0
1.080607 -1.157793 20.179401 207 207 207 0
1.153728 -1.153728 20.108557 207 207 207 0
1.228542 -1.151758 20.074220 209 209 209 0
1.304844 -1.151333 20.066810 210 210 210 0
1.384167 -1.153473 20.104103 210 210 210 0
1.462598 -1.154683 20.125187 209 209 209 0
1.537541 -1.153156 20.098582 210 210 210 0
1.610026 -1.150018 20.043893 211 211 211 0
1.679009 -1.144779 19.952577 211 211 211 0
1.750803 -1.141828 19.901143 210 210 210 0
1.822858 -1.139286 19.856843 211 211 211 0
1.903933 -1.142360 19.910408 211 211 211 0
1.986503 -1.146059 19.974889 213 213 213 0
2.054759 -1.141533 19.895995 213 213 213 0
2.121993 -1.136782 19.813192 213 213 213 0
2.192264 -1.133930 19.763481 213 213 213 0
2.262962 -1.131481 19.720803 213 213 213 0
2.338948 -1.131749 19.725476 213 213 213 0
2.419228 -1.134013 19.764931 213 213 213 0
2.493326 -1.133330 19.753031 213 213 213 0
2.563542 -1.130974 19.711972 214 214 214 0
2.634846 -1.129220 19.681386 213 213 213 0
2.708753 -1.128647 19.671412 215 215 215 0
2.788386 -1.130427 19.702430 215 215 215 0
2.864444 -1.130702 19.707216 215 215 215 0
2.938837 -1.130322 19.700601 216 216 216 0
3.010244 -1.128841 19.674795 215 215 215 0
3.083048 -1.127944 19.659158 216 216 216 0
3.158010 -1.127861 19.657702 216 216 216 0
3.235963 -1.128824 19.674496 215 215 215 0
3.318075 -1.131162 19.715244 216 216 216 0
3.395814 -1.131938 19.728767 216 216 216 0
3.471336 -1.131957 19.729104 216 216 216 0
3.549692 -1.132880 19.745192 216 216 216 0
3.619228 -1.131009 19.712573 217 217 217 0
3.692477 -1.130350 19.701090 216 216 216 0
3.767389 -1.130217 19.698764 216 216 216 0
3.851552 -1.132809 19.743954 217 217 217 0
3.919729 -1.130691 19.707033 217 217 217 0
3.992745 -1.130022 19.695376 217 217 217 0
4.066533 -1.129592 19.687886 218 218 218 0
4.138499 -1.128682 19.672009 218 218 218 0
4.213187 -1.128532 19.669408 217 217 217 0
4.297701 -1.130974 19.711966 217 217 217 0
4.379883 -1.132728 19.742544 218 218 218 0
4.455287 -1.132700 19.742050 218 218 218 0
4.537226 -1.134306 19.770047 218 218 218 0
4.615093 -1.134859 19.779675 218 218 218 0
4.695258 -1.135950 19.798686 218 218 218 0
4.771220 -1.136005 19.799649 218 218 218 0
4.859480 -1.138941 19.850817 218 218 218 0
4.938534 -1.139662 19.863385 218 218 218 0
5.027358 -1.142581 19.914273 218 218 218 0
5.111342 -1.144330 19.944755 219 219 219 0
5.204173 -1.147979 20.008354 218 218 218 0
5.292752 -1.150598 20.053999 218 218 218 0
5.364304 -1.149494 20.034748 218 218 218 0
5.443528 -1.150041 20.044289 218 218 218 0
5.528062 -1.151680 20.072848 218 218 218 0
5.623792 -1.155574 20.140719 219 219 219 0
5.703352 -1.156085 20.149626 218 218 218 0
5.776469 -1.155294 20.135840 218 218 218 0
5.855556 -1.155702 20.142951 217 217 217 0
5.937321 -1.156621 20.158972 218 218 218 0
6.041365 -1.161801 20.249255 218 218 218 0
6.135334 -1.164937 20.303911 217 217 217 0
-2.688709 -1.297997 24.238978 74 74 74 0
-2.561427 -1.280714 23.916221 113 113 113 0
-2.440644 -1.265519 23.632472 117 117 117 0
-2.337808 -1.258820 23.507369 136 136 136 0
-2.225891 -1.246499 23.277293 146 146 146 0
-2.129131 -1.241993 23.193150 146 146 146 0
-2.033736 -1.237926 23.117200 154 154 154 0
-1.933307 -1.230286 22.974534 163 163 163 0
-1.834348 -1.222899 22.836582 164 164 164 0
-1.738033 -1.216623 22.719384 165 165 165 0
-1.641176 -1.209288 22.582407 168 168 168 0
-1.544131 -1.200991 22.427464 176 176 176 0
-1.445444 -1.190365 22.229043 177 177 177 0
-1.352473 -1.183414 22.099225 177 177 177 0
-1.259501 -1.175534 21.952082 178 178 178 0
-1.170679 -1.170679 21.861424 180 180 180 0
-1.083092 -1.166406 21.781634 187 187 187 0
-0.996533 -1.162622 21.710955 188 188 188 0
-0.911204 -1.159715 21.656670 188 188 188 0
-0.826664 -1.157330 21.612133 187 187 187 0
-0.739972 -1.151068 21.495200 188 188 188 0
-0.653418 -1.143481 21.353520 190 190 190 0
-0.567615 -1.135229 21.199423 194 194 194 0
-0.483532 -1.128241 21.068929 195 195 195 0
-0.401031 -1.122888 20.968963 195 195 195 0
-0.320431 -1.121508 20.943201 196 196 196 0
-0.241815 -1.128471 21.073227 195 195 195 0
-0.160676 -1.124729 21.003349 196 196 196 0
-0.079974 -1.119642 20.908356 197 197 197 0
0.000000 -1.112984 20.784023 200 200 200 0
0.078932 -1.105047 20.635796 201 201 201 0
0.157202 -1.100415 20.549293 201 201 201 0
0.235122 -1.097236 20.489928 201 201 201 0
0.313508 -1.097280 20.490748 202 202 202 0
0.392371 -1.098638 20.516108 202 202 202 0
0.470377 -1.097547 20.495751 202 202 202 0
0.546499 -1.092998 20.410800 204 204 204 0
0.622016 -1.088528 20.327325 206 206 206 0
0.698560 -1.086649 20.292229 206 206 206 0
0.775994 -1.086391 20.287415 206 206 206 0
0.852444 -1.084929 20.260109 206 206 206 0
0.929612 -1.084547 20.252987 206 206 206 0
1.006394 -1.083809 20.239204 207 207 207 0
1.081563 -1.081563 20.197259 207 207 207 0
1.154516 -1.077548 20.122287 207 207 207 0
1.228676 -1.075092 20.076410 209 209 209 0
1.306569 -1.075998 20.093332 210 210 210 0
1.386436 -1.078339 20.137054 210 210 210 0
1.463676 -1.078498 20.140016 210 210 210 0
1.538427 -1.076899 20.110154 209 209 209 0
1.610456 -1.073637 20.049244 211 211 211 0
1.681070 -1.069772 19.977061 210 210 210 0
1.751460 -1.066106 19.908611 211 211 211 0
1.824886 -1.064517 19.878933 210 210 210 0
1.903631 -1.066033 19.907254 211 211 211 0
1.987072 -1.069962 19.980611 212 212 212 0
2.055726 -1.065932 19.905357 213 213 213 0
2.123820 -1.061910 19.830248 213 213 213 0
2.192922 -1.058652 19.769411 213 213 213 0
2.264907 -1.056957 19.737751 213 213 213 0
2.341342 -1.057380 19.745663 213 213 213 0
2.422585 -1.059881 19.792362 214 214 214 0
2.495128 -1.058539 19.767307 213 213 213 0
2.564706 -1.056055 19.720921 213 213 213 0
2.635916 -1.054366 19.689379 214 214 214 0
2.712583 -1.054893 19.699223 213 213 213 0
2.790951 -1.056036 19.720552 214 214 214 0
2.866670 -1.056142 19.722532 215 215 215 0
2.940514 -1.055569 19.711844 215 215 215 0
3.012942 -1.054530 19.692428 216 216 216 0
3.086420 -1.053899 19.680660 216 216 216 0
3.162177 -1.054059 19.683642 216 216 216 0
3.237799 -1.054167 19.685663 215 215 215 0
3.320084 -1.056390 19.727175 216 216 216 0
3.397847 -1.057108 19.740576 216 216 216 0
3.475253 -1.057686 19.751365 216 216 216 0
3.550412 -1.057570 19.749200 216 216 216 0
3.622525 -1.056570 19.730529 216 216 216 0
3.694735 -1.055639 19.713139 217 217 217 0
3.770240 -1.055667 19.713674 217 217 217 0
3.853309 -1.057771 19.752961 217 217 217 0
3.923762 -1.056398 19.727313 217 217 217 0
3.995534 -1.055424 19.709133 218 218 218 0
4.068502 -1.054797 19.697420 216 216 216 0
4.140834 -1.054030 19.683107 217 217 217 0
4.216163 -1.054041 19.683299 217 217 217 0
4.301056 -1.056400 19.727353 218 218 218 0
4.383882 -1.058179 19.760570 218 218 218 0
4.458135 -1.057863 19.754669 218 218 218 0
4.537828 -1.058827 19.772672 218 218 218 0
4.616087 -1.059430 19.783937 217 217 217 0
4.702012 -1.061745 19.827164 218 218 218 0
4.776848 -1.061522 19.823001 218 218 218 0
4.862882 -1.063755 19.864715 218 218 218 0
4.943509 -1.064756 19.883396 218 218 218 0
5.031450 -1.067277 19.930483 218 218 218 0
5.116229 -1.069063 19.963826 218 218 218 0
5.208311 -1.072299 20.024263 218 218 218 0
5.294690 -1.074285 20.061342 218 218 218 0
5.366997 -1.073399 20.044806 218 218 218 0
5.446029 -1.073865 20.053498 218 218 218 0
5.527340 -1.074761 20.070225 218 218 218 0
5.631321 -1.079979 20.167681 218 218 218 0
5.705159 -1.079354 20.156011 218 218 218 0
5.780743 -1.079072 20.150737 218 218 218 0
5.857943 -1.079095 20.151163 218 218 218 0
5.942314 -1.080421 20.175925 218 218 218 0
6.048265 -1.085586 20.272383 218 218 218 0
6.143598 -1.088739 20.331258 217 217 217 0
-2.560158 -1.188645 23.904374 109 109 109 0
-2.438994 -1.174331 23.616502 118 118 118 0
-2.336623 -1.168311 23.495453 132 132 132 0
-2.225310 -1.157161 23.271216 146 146 146 0
-2.131864 -1.154760 23.222924 146 146 146 0
-2.035590 -1.150551 23.138276 151 151 151 0
-1.935650 -1.143793 23.002378 163 163 163 0
-1.835394 -1.136196 22.849598 165 165 165 0
-1.739427 -1.130628 22.737614 165 165 165 0
-1.643609 -1.124575 22.615880 167 167 167 0
-1.545596 -1.116264 22.448746 176 176 176 0
-1.447641 -1.107019 22.262833 177 177 177 0
-1.350707 -1.097450 22.070382 178 178 178 0
-1.259855 -1.091874 21.958250 178 178 178 0
-1.171263 -1.087601 21.872323 180 180 180 0
-1.084270 -1.084270 21.805331 186 186 186 0
-0.997775 -1.080923 21.738025 188 188 188 0
-0.912229 -1.078089 21.681019 188 188 188 0
-0.828111 -1.076544 21.649963 188 188 188 0
-0.740500 -1.069611 21.510537 189 189 189 0
-0.653875 -1.062547 21.368475 189 189 189 0
-0.568276 -1.055371 21.224143 194 194 194 0
-0.483905 -1.048460 21.085172 196 196 196 0
-0.401617 -1.044203 20.999565 195 195 195 0
-0.314684 -1.022724 20.567598 196 196 196 0
-0.242043 -1.048852 21.093042 195 195 195 0
-0.160852 -1.045537 21.026379 196 196 196 0
-0.079999 -1.039989 20.914810 196 196 196 0
0.000000 -1.033805 20.790443 200 200 200 0
0.078982 -1.026762 20.648802 201 201 201 0
0.157258 -1.022179 20.556640 201 201 201 0
0.235301 -1.019639 20.505552 201 201 201 0
0.313736 -1.019640 20.505589 201 201 201 0
0.392815 -1.021319 20.539344 202 202 202 0
0.470749 -1.019956 20.511926 203 203 203 0
0.546806 -1.015496 20.422242 202 202 202 0
0.622615 -1.011749 20.346896 205 205 205 0
0.698620 -1.009117 20.293964 206 206 206 0
0.776333 -1.009233 20.296290 206 206 206 0
0.853759 -1.008988 20.291355 206 206 206 0
0.930540 -1.008085 20.273193 206 206 206 0
1.007014 -1.007014 20.251673 206 206 206 0
1.082302 -1.004995 20.211062 207 207 207 0
1.155930 -1.001806 20.146924 207 207 207 0
1.229951 -0.999335 20.097244 207 207 207 0
1.306646 -0.999200 20.094518 210 210 210 0
1.386581 -1.001420 20.139157 210 210 210 0
1.465425 -1.002659 20.164085 210 210 210 0
1.539390 -1.000603 20.122741 209 209 209 0
1.611230 -0.997428 20.058888 210 210 210 0
1.681106 -0.993381 19.977496 211 211 211 0
1.753713 -0.991229 19.934224 210 210 210 0
1.828581 -0.990481 19.919181 211 211 211 0
1.898323 -0.987128 19.851742 210 210 210 0
1.987741 -0.993870 19.987340 212 212 212 0
2.056323 -0.990082 19.911144 213 213 213 0
2.125353 -0.986771 19.844570 213 213 213 0
2.194352 -0.983675 19.782303 214 214 214 0
2.266789 -0.982275 19.754148 214 214 214 0
2.343318 -0.982682 19.762327 213 213 213 0
2.422690 -0.984218 19.793217 214 214 214 0
2.498178 -0.984131 19.791470 213 213 213 0
2.567839 -0.981821 19.745014 214 214 214 0
2.638432 -0.979989 19.708175 214 214 214 0
2.714674 -0.980299 19.714407 213 213 213 0
2.794301 -0.981782 19.744224 215 215 215 0
2.869141 -0.981548 19.739533 214 214 214 0
2.944211 -0.981404 19.736622 216 216 216 0
3.015922 -0.980174 19.711905 216 216 216 0
3.087549 -0.978979 19.687863 216 216 216 0
3.162720 -0.978937 19.687023 215 215 215 0
3.240735 -0.979757 19.703512 216 216 216 0
3.323585 -0.981968 19.747979 216 216 216 0
3.399907 -0.982195 19.752545 216 216 216 0
3.478486 -0.983051 19.769744 216 216 216 0
3.553335 -0.982837 19.765456 216 216 216 0
3.626304 -0.982124 19.751114 216 216 216 0
3.696885 -0.980806 19.724608 217 217 217 0
3.773120 -0.981011 19.728734 217 217 217 0
3.855335 -0.982733 19.763350 217 217 217 0
3.924322 -0.981080 19.730125 217 217 217 0
3.996807 -0.980349 19.715415 217 217 217 0
4.070714 -0.979987 19.708128 217 217 217 0
4.144501 -0.979609 19.700539 218 218 218 0
4.219253 -0.979470 19.697728 217 217 217 0
4.303853 -0.981581 19.740181 218 218 218 0
4.385123 -0.982872 19.766161 218 218 218 0
4.461559 -0.983055 19.769840 217 217 217 0
4.541682 -0.984031 19.789462 218 218 218 0
4.619956 -0.984581 19.800518 217 217 217 0
4.703777 -0.986276 19.834607 218 218 218 0
4.779899 -0.986328 19.835662 217 217 217 0
4.864564 -0.988115 19.871584 218 218 218 0
4.944585 -0.988917 19.887721 218 218 218 0
5.033661 -0.991479 19.939238 218 218 218 0
5.120872 -0.993602 19.981943 217 217 217 0
5.213659 -0.996729 20.044823 218 218 218 0
5.298724 -0.998310 20.076630 218 218 218 0
5.370018 -0.997289 20.056089 218 218 218 0
5.448726 -0.997654 20.063429 217 217 217 0
5.532578 -0.998938 20.089245 218 218 218 0
5.635640 -1.003607 20.183151 218 218 218 0
5.710905 -1.003267 20.176310 217 217 217 0
5.782872 -1.002364 20.158159 218 218 218 0
5.864770 -1.003184 20.174648 217 217 217 0
5.951121 -1.004735 20.205828 218 218 218 0
6.052961 -1.008827 20.288120 218 218 218 0
6.154783 -1.012812 20.368273 217 217 217 0
-2.561565 -1.097814 23.917506 104 104 104 0
-2.443588 -1.086039 23.660980 117 117 117 0
-2.339428 -1.079736 23.523656 128 128 128 0
-2.231200 -1.070976 23.332814 145 145 145 0
-2.134780 -1.067390 23.254688 147 147 147 0
-2.038950 -1.063800 23.176469 149 149 149 0
-1.938336 -1.057274 23.034295 162 162 162 0
-1.838980 -1.050846 22.894238 165 165 165 0
-1.741773 -1.045064 22.768270 165 165 165 0
-1.645913 -1.039524 22.647575 167 167 167 0
-1.545636 -1.030424 22.449329 176 176 176 0
-1.447731 -1.021927 22.264216 177 177 177 0
-1.355541 -1.016656 22.149368 179 179 179 0
-1.262337 -1.009870 22.001521 179 179 179 0
-1.172438 -1.004947 21.894266 179 179 179 0
-1.085071 -1.001604 21.821447 184 184 184 0
-0.998469 -0.998469 21.753148 188 188 188 0
-0.914019 -0.997112 21.723575 188 188 188 0
-0.828922 -0.994706 21.671151 188 188 188 0
-0.741300 -0.988399 21.533755 188 188 188 0
-0.654709 -0.982064 21.395720 188 188 188 0
-0.568490 -0.974554 21.232122 192 192 192 0
-0.484463 -0.968926 21.109501 195 195 195 0
-0.401627 -0.963906 21.000120 195 195 195 0
-0.260123 -0.780368 17.001481 195 195 195 0
-0.241643 -0.966573 21.058246 196 196 196 0
-0.161015 -0.966092 21.047749 196 196 196 0
-0.080091 -0.961091 20.938794 197 197 197 0
0.000000 -0.954534 20.795946 199 199 199 0
0.079041 -0.948491 20.664287 201 201 201 0
0.157358 -0.944148 20.569663 201 201 201 0
0.235524 -0.942095 20.524940 202 202 202 0
0.314450 -0.943350 20.552291 202 202 202 0
0.393269 -0.943845 20.563066 202 202 202 0
0.471084 -0.942169 20.526554 202 202 202 0
0.546975 -0.937672 20.428574 202 202 202 0
0.623151 -0.934726 20.364399 204 204 204 0
0.700405 -0.933873 20.345810 206 206 206 0
0.777273 -0.932727 20.320860 206 206 206 0
0.854258 -0.931918 20.303221 206 206 206 0
0.930937 -0.930937 20.281856 206 206 206 0
1.007565 -0.930060 20.262741 207 207 207 0
1.082623 -0.927963 20.217056 206 206 206 0
1.156574 -0.925260 20.158161 207 207 207 0
1.230012 -0.922509 20.098229 206 206 206 0
1.307196 -0.922727 20.102977 209 209 209 0
1.386963 -0.924642 20.144702 209 209 209 0
1.466384 -0.926137 20.177283 210 210 210 0
1.540931 -0.924559 20.142894 210 210 210 0
1.612603 -0.921488 20.075983 210 210 210 0
1.682200 -0.917563 19.990488 210 210 210 0
1.755802 -0.916071 19.957966 210 210 210 0
1.832558 -0.916279 19.962508 210 210 210 0
1.687668 -0.810081 17.648815 210 210 210 0
1.986868 -0.917016 19.978560 211 211 211 0
2.058389 -0.914839 19.931142 211 211 211 0
2.126507 -0.911360 19.855341 213 213 213 0
2.195451 -0.908463 19.792213 213 213 213 0
2.266962 -0.906785 19.755664 214 214 214 0
2.344724 -0.907635 19.774184 213 213 213 0
2.425351 -0.909507 19.814959 213 213 213 0
2.500227 -0.909173 19.807698 214 214 214 0
2.568264 -0.906446 19.748280 214 214 214 0
2.640690 -0.905379 19.725042 214 214 214 0
2.716923 -0.905641 19.730740 214 214 214 0
2.795114 -0.906523 19.749965 214 214 214 0
2.871441 -0.906771 19.755353 214 214 214 0
2.945139 -0.906197 19.742844 214 214 214 0
3.017883 -0.905365 19.724725 215 215 215 0
3.091367 -0.904790 19.712208 215 215 215 0
3.166924 -0.904835 19.713187 216 216 216 0
3.245447 -0.905706 19.732163 216 216 216 0
3.325213 -0.906876 19.757656 216 216 216 0
3.403746 -0.907665 19.774847 217 217 217 0
3.481438 -0.908201 19.786516 216 216 216 0
3.555632 -0.907821 19.778231 216 216 216 0
3.628296 -0.907074 19.761962 217 217 217 0
3.700261 -0.906186 19.742623 217 217 217 0
3.776091 -0.906262 19.744265 217 217 217 0
3.858930 -0.907984 19.781777 216 216 216 0
3.928536 -0.906585 19.751313 217 217 217 0
4.000375 -0.905745 19.733013 217 217 217 0
4.073724 -0.905272 19.722701 217 217 217 0
4.148992 -0.905235 19.721889 217 217 217 0
4.222031 -0.904721 19.710695 217 217 217 0
4.307258 -0.906791 19.755797 217 217 217 0
4.389009 -0.908071 19.783680 217 217 217 0
4.467107 -0.908564 19.794426 217 217 217 0
4.545388 -0.909078 19.805614 217 217 217 0
4.625615 -0.909957 19.824774 218 218 218 0
4.708092 -0.911244 19.852804 217 217 217 0
4.786697 -0.911752 19.863875 218 218 218 0
4.870066 -0.913137 19.894059 218 218 218 0
4.952051 -0.914225 19.917752 218 218 218 0
5.037473 -0.915904 19.954338 218 218 218 0
5.126102 -0.918108 20.002348 218 218 218 0
5.215719 -0.920421 20.052744 218 218 218 0
5.302678 -0.922205 20.091609 218 218 218 0
5.375363 -0.921491 20.076054 217 217 217 0
5.451808 -0.921432 20.074780 217 217 217 0
5.538733 -0.923122 20.111595 217 217 217 0
5.639640 -0.927064 20.197474 218 218 218 0
5.714777 -0.926721 20.189992 217 217 217 0
5.786694 -0.925871 20.171483 217 217 217 0
5.866522 -0.926293 20.180674 217 217 217 0
5.956988 -0.928362 20.225747 218 218 218 0
6.063584 -0.932859 20.323728 217 217 217 0
6.159519 -0.935623 20.383946 218 218 218 0
-2.565393 -1.007833 23.953253 99 99 99 0
-2.441542 -0.994702 23.641168 117 117 117 0
-2.343188 -0.991349 23.561468 125 125 125 0
-2.238823 -0.985082 23.412529 144 144 144 0
-2.138420 -0.980109 23.294340 147 147 147 0
-2.039745 -0.975530 23.185503 149 149 149 0
-1.940457 -0.970229 23.059502 162 162 162 0
-1.839780 -0.963694 22.904202 165 165 165 0
-1.744495 -0.959472 22.803850 165 165 165 0
-1.647163 -0.953621 22.664779 166 166 166 0
-1.548179 -0.946110 22.486264 174 174 174 0
-1.450218 -0.938376 22.302463 178 178 178 0
-1.356611 -0.932670 22.166842 178 178 178 0
-1.264227 -0.927100 22.034455 178 178 178 0
-1.174232 -0.922611 21.927762 179 179 179 0
-1.087449 -0.920149 21.869261 183 183 183 0
-0.998904 -0.915662 21.762613 187 187 187 0
-0.914823 -0.914823 21.742670 188 188 188 0
-0.829760 -0.912736 21.693074 188 188 188 0
-0.741835 -0.906687 21.549310 188 188 188 0
-0.654959 -0.900569 21.403892 189 189 189 0
-0.569421 -0.894804 21.266885 191 191 191 0
-0.484716 -0.888646 21.120531 194 194 194 0
-0.402640 -0.885808 21.053062 195 195 195 0
-0.324011 -0.891031 21.177216 196 196 196 0
-0.241969 -0.887220 21.086639 196 196 196 0
-0.161293 -0.887111 21.084045 196 196 196 0
-0.080225 -0.882474 20.973842 196 196 196 0
0.000000 -0.875922 20.818101 197 197 197 0
0.079018 -0.869193 20.658177 201 201 201 0
0.157439 -0.865916 20.580306 201 201 201 0
0.235770 -0.864490 20.546407 201 201 201 0
0.314789 -0.865670 20.574457 201 201 201 0
0.393968 -0.866729 20.599620 202 202 202 0
0.471439 -0.864305 20.542014 202 202 202 0
0.547323 -0.860079 20.441562 203 203 203 0
0.623837 -0.857776 20.386824 203 203 203 0
0.700581 -0.856265 20.350931 206 206 206 0
0.778220 -0.856042 20.345630 206 206 206 0
0.854538 -0.854538 20.309885 207 207 207 0
0.932222 -0.854537 20.309844 206 206 206 0
1.008170 -0.853067 20.274918 206 206 206 0
1.083507 -0.851327 20.233553 206 206 206 0
1.155972 -0.847712 20.147652 207 207 207 0
1.231005 -0.846316 20.114463 207 207 207 0
1.308689 -0.846798 20.125929 208 208 208 0
1.389300 -0.849017 20.178651 210 210 210 0
1.467854 -0.849810 20.197514 210 210 210 0
1.541470 -0.847808 20.149932 210 210 210 0
1.613269 -0.845045 20.084266 210 210 210 0
1.684059 -0.842029 20.012580 210 210 210 0
1.756406 -0.840020 19.964825 211 211 211 0
1.833529 -0.840368 19.973088 210 210 210 0
1.915177 -0.842678 20.027999 211 211 211 0
1.984027 -0.839396 19.949995 211 211 211 0
2.057952 -0.838425 19.926914 211 211 211 0
2.128046 -0.836018 19.869714 213 213 213 0
2.196968 -0.833333 19.805890 214 214 214 0
2.268335 -0.831723 19.767626 213 213 213 0
2.346497 -0.832628 19.789138 213 213 213 0
2.428111 -0.834663 19.837507 213 213 213 0
2.502532 -0.834177 19.825962 214 214 214 0
2.569462 -0.831296 19.757491 214 214 214 0
2.644629 -0.831169 19.754466 213 213 213 0
2.719180 -0.830860 19.747129 214 214 214 0
2.798085 -0.831863 19.770957 214 214 214 0
2.874451 -0.832078 19.776067 214 214 214 0
2.946441 -0.831048 19.751575 214 214 214 0
3.019604 -0.830391 19.735977 215 215 215 0
3.094135 -0.830134 19.729858 215 215 215 0
3.170009 -0.830240 19.732392 215 215 215 0
3.246789 -0.830574 19.740316 215 215 215 0
3.329716 -0.832429 19.784410 215 215 215 0
3.407177 -0.832865 19.794780 216 216 216 0
3.484336 -0.833211 19.802988 217 217 217 0
3.559828 -0.833151 19.801573 216 216 216 0
3.630385 -0.831963 19.773341 217 217 217 0
3.703572 -0.831414 19.760290 216 216 216 0
3.779923 -0.831583 19.764302 217 217 217 0
3.864500 -0.833520 19.810330 217 217 217 0
3.932271 -0.831826 19.770088 217 217 217 0
4.003049 -0.830822 19.746205 217 217 217 0
4.076425 -0.830383 19.735779 217 217 217 0
4.152911 -0.830582 19.740517 217 217 217 0
4.228202 -0.830540 19.739504 217 217 217 0
4.310705 -0.831890 19.771608 217 217 217 0
4.394182 -0.833379 19.806997 217 217 217 0
4.470730 -0.833526 19.810479 217 217 217 0
4.551367 -0.834417 19.831663 218 218 218 0
4.628154 -0.834585 19.835656 218 218 218 0
4.711569 -0.835924 19.867465 218 218 218 0
4.788477 -0.836083 19.871260 217 217 217 0
4.871352 -0.837264 19.899314 217 217 217 0
4.953955 -0.838362 19.925408 217 217 217 0
5.040993 -0.840165 19.968281 218 218 218 0
5.129972 -0.842234 20.017450 218 218 218 0
5.225007 -0.845222 20.088454 217 217 217 0
5.307080 -0.846056 20.108288 218 218 218 0
5.379643 -0.845373 20.092039 218 218 218 0
5.457371 -0.845508 20.095262 218 218 218 0
5.543969 -0.846995 20.130608 217 217 217 0
5.645901 -0.850752 20.219897 218 218 218 0
5.719410 -0.850183 20.206361 218 218 218 0
5.791691 -0.849448 20.188902 218 218 218 0
5.874605 -0.850272 20.208479 217 217 217 0
5.964265 -0.852038 20.250456 217 217 217 0
6.065548 -0.855398 20.330311 217 217 217 0
6.166346 -0.858605 20.406538 217 217 217 0
-2.566028 -0.916439 23.959177 91 91 91 0
-2.443823 -0.905119 23.663254 118 118 118 0
-2.345452 -0.902097 23.584235 123 123 123 0
-2.245757 -0.898303 23.485038 144 144 144 0
-2.144326 -0.893469 23.358676 147 147 147 0
-2.043570 -0.888509 23.228984 148 148 148 0
-1.941644 -0.882565 23.073607 159 159 159 0
-1.841859 -0.877076 22.930086 165 165 165 0
-1.747232 -0.873616 22.839629 166 166 166 0
-1.649075 -0.867934 22.691090 166 166 166 0
-1.550041 -0.861134 22.513300 171 171 171 0
-1.449680 -0.852753 22.294189 177 177 177 0
-1.360252 -0.850158 22.226348 178 178 178 0
-1.266482 -0.844321 22.073761 179 179 179 0
-1.175627 -0.839733 21.953813 179 179 179 0
-1.088943 -0.837649 21.899308 181 181 181 0
-1.000410 -0.833675 21.795421 187 187 187 0
-0.915756 -0.832505 21.764849 187 187 187 0
-0.830441 -0.830441 21.710873 188 188 188 0
-0.742611 -0.825123 21.571851 188 188 188 0
-0.656214 -0.820268 21.444902 189 189 189 0
-0.569820 -0.814028 21.281776 190 190 190 0
-0.485217 -0.808694 21.142336 195 195 195 0
-0.403659 -0.807318 21.106341 196 196 196 0
-0.323937 -0.809844 21.172379 195 195 195 0
-0.242612 -0.808708 21.142686 196 196 196 0
-0.161323 -0.806615 21.087975 196 196 196 0
-0.080319 -0.803192 20.998484 196 196 196 0
0.000000 -0.796840 20.832418 197 197 197 0
0.079124 -0.791242 20.686064 200 200 200 0
0.157618 -0.788090 20.603649 202 202 202 0
0.236118 -0.787058 20.576692 202 202 202 0
0.315234 -0.788086 20.603554 201 201 201 0
0.394159 -0.788318 20.609615 202 202 202 0
0.471814 -0.786356 20.558324 202 202 202 0
0.547435 -0.782049 20.445737 203 203 203 0
0.624610 -0.780763 20.412105 203 203 203 0
0.701095 -0.778995 20.365878 205 205 205 0
0.778904 -0.778904 20.363498 206 206 206 0
0.856118 -0.778290 20.347438 206 206 206 0
0.933815 -0.778179 20.344555 207 207 207 0
1.009113 -0.776241 20.293874 206 206 206 0
1.084645 -0.774746 20.254808 207 207 207 0
1.158807 -0.772538 20.197064 207 207 207 0
1.232643 -0.770402 20.141217 207 207 207 0
1.310787 -0.771051 20.158197 207 207 207 0
1.389950 -0.772194 20.188089 209 209 209 0
1.469006 -0.773161 20.213366 209 209 209 0
1.542625 -0.771312 20.165028 211 211 211 0
1.614077 -0.768608 20.094328 210 210 210 0
1.685356 -0.766071 20.027999 211 211 211 0
1.758638 -0.764625 19.990197 211 211 211 0
1.834822 -0.764509 19.987164 211 211 211 0
1.914617 -0.765847 20.022134 211 211 211 0
1.988032 -0.764628 19.990263 211 211 211 0
2.059276 -0.762695 19.939736 212 212 212 0
2.128724 -0.760259 19.876043 212 212 212 0
2.198032 -0.757942 19.815483 213 213 213 0
2.270067 -0.756689 19.782717 214 214 214 0
2.348274 -0.757508 19.804124 214 214 214 0
2.429713 -0.759285 19.850596 214 214 214 0
2.504587 -0.758966 19.842241 213 213 213 0
2.574220 -0.757124 19.794081 213 213 213 0
2.646254 -0.756073 19.766605 214 214 214 0
2.721014 -0.755837 19.760449 214 214 214 0
2.800656 -0.756934 19.789126 215 215 215 0
2.876161 -0.756884 19.787830 215 215 215 0
2.948965 -0.756145 19.768493 214 214 214 0
3.021002 -0.755250 19.745108 214 214 214 0
3.094281 -0.754703 19.730792 214 214 214 0
3.173126 -0.755506 19.751793 215 215 215 0
3.252106 -0.756304 19.772648 215 215 215 0
3.332648 -0.757420 19.801831 216 216 216 0
3.409036 -0.757564 19.805583 216 216 216 0
3.486258 -0.757882 19.813914 216 216 216 0
3.561484 -0.757763 19.810784 216 216 216 0
3.634549 -0.757198 19.796020 216 216 216 0
3.708552 -0.756847 19.786858 217 217 217 0
3.783927 -0.756785 19.785241 216 216 216 0
3.868049 -0.758441 19.828524 216 216 216 0
3.935148 -0.756759 19.784554 216 216 216 0
4.005045 -0.755669 19.756051 216 216 216 0
4.080393 -0.755628 19.754989 217 217 217 0
4.156114 -0.755657 19.755739 216 216 216 0
4.234838 -0.756221 19.770485 217 217 217 0
4.316302 -0.757246 19.797280 217 217 217 0
4.398068 -0.758288 19.824512 217 217 217 0
4.474801 -0.758441 19.828518 217 217 217 0
4.556595 -0.759433 19.854445 217 217 217 0
4.633439 -0.759580 19.858305 217 217 217 0
4.715048 -0.760492 19.882134 218 218 218 0
4.794016 -0.760955 19.894246 218 218 218 0
4.876103 -0.761891 19.918720 217 217 217 0
4.958137 -0.762790 19.942231 218 218 218 0
5.042963 -0.764085 19.976085 218 218 218 0
5.136138 -0.766588 20.041512 218 218 218 0
5.228440 -0.768888 20.101653 217 217 217 0
5.311849 -0.769833 20.126358 217 217 217 0
5.383462 -0.769066 20.106302 218 218 218 0
5.462217 -0.769326 20.113107 218 218 218 0
5.546642 -0.770367 20.140311 218 218 218 0
5.656221 -0.774825 20.256857 217 217 217 0
5.723475 -0.773443 20.220721 218 218 218 0
5.795326 -0.772710 20.201571 218 218 218 0
5.875212 -0.773054 20.210568 218 218 218 0
5.975206 -0.776001 20.287601 217 217 217 0
6.071596 -0.778410 20.350580 217 217 217 0
6.172520 -0.781332 20.426971 217 217 217 0
-2.568892 -0.825715 23.985919 85 85 85 0
-2.449535 -0.816512 23.718566 117 117 117 0
-2.350534 -0.813646 23.635337 121 121 121 0
-2.249244 -0.809728 23.521510 140 140 140 0
-2.148642 -0.805741 23.405689 148 148 148 0
-2.047006 -0.801002 23.268045 148 148 148 0
-1.947459 -0.796688 23.142713 155 155 155 0
-1.844853 -0.790651 22.967363 165 165 165 0
-1.747853 -0.786534 22.847753 165 165 165 0
-1.650649 -0.781886 22.712744 165 165 165 0
-1.552237 -0.776119 22.545202 168 168 168 0
-1.457881 -0.771819 22.420316 177 177 177 0
-1.362333 -0.766312 22.260335 178 178 178 0
-1.269997 -0.761998 22.135016 178 178 178 0
-1.177744 -0.757121 21.993359 179 179 179 0
-1.089614 -0.754348 21.912806 180 180 180 0
-1.002137 -0.751603 21.833056 186 186 186 0
-0.917499 -0.750681 21.806265 188 188 188 0
-0.831128 -0.748015 21.728826 188 188 188 0
-0.742955 -0.742955 21.581836 188 188 188 0
-0.656333 -0.738375 21.448800 189 189 189 0
-0.570552 -0.733567 21.309123 189 189 189 0
-0.486306 -0.729460 21.189822 194 194 194 0
-0.404290 -0.727722 21.139343 195 195 195 0
-0.325056 -0.731375 21.245466 196 196 196 0
-0.243378 -0.730135 21.209455 196 196 196 0
-0.161524 -0.726858 21.114249 196 196 196 0
-0.080339 -0.723050 21.003631 196 196 196 0
0.000000 -0.717964 20.855897 196 196 196 0
0.079174 -0.712569 20.699167 199 199 199 0
0.157841 -0.710285 20.632835 201 201 201 0
0.236186 -0.708559 20.582681 202 202 202 0
0.315574 -0.710041 20.625723 202 202 202 0
0.394667 -0.710400 20.636168 202 202 202 0
0.472419 -0.708629 20.584718 202 202 202 0
0.547867 -0.704401 20.461898 202 202 202 0
0.625126 -0.703267 20.428955 202 202 202 0
0.701651 -0.701651 20.382033 203 203 203 0
0.779758 -0.701782 20.385827 206 206 206 0
0.856641 -0.700888 20.359863 206 206 206 0
0.934261 -0.700696 20.354279 206 206 206 0
1.010386 -0.699498 20.319472 207 207 207 0
1.084707 -0.697312 20.255969 207 207 207 0
1.159843 -0.695906 20.215131 207 207 207 0
1.233930 -0.694086 20.162255 207 207 207 0
1.313262 -0.695256 20.196266 207 207 207 0
1.391633 -0.695817 20.212536 208 208 208 0
1.470005 -0.696318 20.227111 209 209 209 0
1.544528 -0.695038 20.189912 210 210 210 0
1.615198 -0.692228 20.108282 211 211 211 0
1.686164 -0.689795 20.037604 211 211 211 0
1.760473 -0.688881 20.011055 210 210 210 0
1.837084 -0.688907 20.011810 210 210 210 0
1.917315 -0.690233 20.050348 211 211 211 0
1.990612 -0.689058 20.016207 212 212 212 0
2.059572 -0.686524 19.942601 211 211 211 0
2.130876 -0.684925 19.896137 211 211 211 0
2.200223 -0.682828 19.835233 211 211 211 0
2.271709 -0.681513 19.797024 213 213 213 0
2.349559 -0.682130 19.814960 214 214 214 0
2.431453 -0.683846 19.864813 214 214 214 0
2.506683 -0.683641 19.858847 214 214 214 0
2.577129 -0.682181 19.816450 213 213 213 0
2.648089 -0.680937 19.780309 214 214 214 0
2.722576 -0.680644 19.771793 214 214 214 0
2.802950 -0.681799 19.805335 214 214 214 0
2.878803 -0.681822 19.806005 214 214 214 0
2.952163 -0.681268 19.789929 215 215 215 0
3.025580 -0.680755 19.775030 215 215 215 0
3.099273 -0.680328 19.762618 215 215 215 0
3.177676 -0.680931 19.780118 215 215 215 0
3.255294 -0.681341 19.792027 215 215 215 0
3.335646 -0.682291 19.819646 215 215 215 0
3.414387 -0.682877 19.836672 215 215 215 0
3.489593 -0.682746 19.832868 216 216 216 0
3.564269 -0.682520 19.826278 216 216 216 0
3.637365 -0.682006 19.811355 216 216 216 0
3.712058 -0.681807 19.805566 216 216 216 0
3.787948 -0.681831 19.806266 216 216 216 0
3.874642 -0.683760 19.862320 217 217 217 0
3.937717 -0.681528 19.797472 217 217 217 0
4.009039 -0.680780 19.775752 217 217 217 0
4.085024 -0.680837 19.777408 217 217 217 0
4.160404 -0.680793 19.776132 216 216 216 0
4.242355 -0.681807 19.805581 217 217 217 0
4.322456 -0.682493 19.825506 217 217 217 0
4.400674 -0.682863 19.836260 217 217 217 0
4.480845 -0.683519 19.855300 217 217 217 0
4.559710 -0.683957 19.868018 217 217 217 0
4.639092 -0.684456 19.882535 217 217 217 0
4.719509 -0.685090 19.900946 217 217 217 0
4.797588 -0.685370 19.909071 217 217 217 0
4.882121 -0.686548 19.943305 218 218 218 0
4.962534 -0.687120 19.959915 217 217 217 0
5.044815 -0.687929 19.983423 218 218 218 0
5.143373 -0.690901 20.069743 217 217 217 0
5.236498 -0.693066 20.132635 218 218 218 0
5.319013 -0.693784 20.153502 218 218 218 0
5.384680 -0.692316 20.110850 217 217 217 0
5.471184 -0.693530 20.146125 217 217 217 0
5.553564 -0.694195 20.165446 217 217 217 0
5.657721 -0.697527 20.262228 217 217 217 0
5.726800 -0.696503 20.232467 217 217 217 0
5.800961 -0.696115 20.221214 217 217 217 0
5.883039 -0.696676 20.237492 217 217 217 0
5.982847 -0.699294 20.313545 217 217 217 0
6.080449 -0.701590 20.380254 217 217 217 0
6.182445 -0.704329 20.459817 217 217 217 0
-2.576532 -0.736152 24.057253 75 75 75 0
-2.457093 -0.728027 23.791748 115 115 115 0
-2.357678 -0.725439 23.707171 121 121 121 0
-2.254864 -0.721557 23.580282 135 135 135 0
-2.150974 -0.716991 23.431094 148 148 148 0
-2.052018 -0.713745 23.325014 148 148 148 0
-1.950546 -0.709289 23.179395 151 151 151 0
-1.849055 -0.704402 23.019669 164 164 164 0
-1.752284 -0.700914 22.905678 166 166 166 0
-1.652865 -0.695943 22.743243 166 166 166 0
-1.553954 -0.690646 22.570134 168 168 168 0
-1.459133 -0.686651 22.439565 176 176 176 0
-1.365626 -0.682813 22.314148 178 178 178 0
-1.272180 -0.678496 22.173070 178 178 178 0
-1.180185 -0.674391 22.038928 179 179 179 0
-1.091703 -0.671817 21.954819 179 179 179 0
-1.003035 -0.668690 21.852611 185 185 185 0
-0.918193 -0.667777 21.822768 189 189 189 0
-0.831360 -0.665088 21.734904 189 189 189 0
-0.743780 -0.661137 21.605799 189 189 189 0
-0.657093 -0.657093 21.473636 190 190 190 0
-0.571205 -0.652806 21.333537 188 188 188 0
-0.487079 -0.649439 21.223497 192 192 192 0
-0.404966 -0.647946 21.174712 195 195 195 0
-0.325934 -0.651868 21.302865 195 195 195 0
-0.243933 -0.650487 21.257736 195 195 195 0
-0.161707 -0.646829 21.138197 196 196 196 0
-0.080414 -0.643310 21.023218 196 196 196 0
0.000000 -0.638679 20.871878 197 197 197 0
0.079275 -0.634202 20.725550 197 197 197 0
0.157969 -0.631875 20.649516 201 201 201 0
0.236360 -0.630292 20.597787 202 202 202 0
0.315891 -0.631782 20.646455 202 202 202 0
0.395186 -0.632298 20.663326 201 201 201 0
0.472865 -0.630486 20.604118 203 203 203 0
0.548805 -0.627205 20.496906 202 202 202 0
0.625784 -0.625784 20.450465 202 202 202 0
0.702757 -0.624673 20.414153 203 203 203 0
0.780259 -0.624207 20.398931 206 206 206 0
0.857362 -0.623536 20.376990 206 206 206 0
0.935611 -0.623741 20.383680 207 207 207 0
1.011926 -0.622724 20.350455 207 207 207 0
1.085852 -0.620487 20.277348 207 207 207 0
1.160527 -0.618948 20.227058 207 207 207 0
1.235382 -0.617691 20.185982 207 207 207 0
1.313851 -0.618283 20.205327 207 207 207 0
1.393551 -0.619356 20.240394 208 208 208 0
1.471733 -0.619677 20.250884 209 209 209 0
1.545648 -0.618259 20.204556 210 210 210 0
1.616242 -0.615711 20.121282 210 210 210 0
1.686700 -0.613345 20.043969 210 210 210 0
1.762829 -0.613158 20.037835 210 210 210 0
1.839745 -0.613248 20.040790 211 211 211 0
1.920126 -0.614440 20.079750 211 211 211 0
1.992460 -0.613065 20.034793 211 211 211 0
2.062339 -0.611064 19.969397 211 211 211 0
2.132271 -0.609220 19.909158 211 211 211 0
2.203033 -0.607733 19.860561 212 212 212 0
2.275837 -0.606890 19.833004 213 213 213 0
2.352651 -0.607136 19.841038 213 213 213 0
2.434028 -0.608507 19.885851 213 213 213 0
2.508646 -0.608157 19.874401 214 214 214 0
2.580260 -0.607120 19.840525 214 214 214 0
2.649611 -0.605625 19.791678 213 213 213 0
2.727212 -0.606047 19.805462 214 214 214 0
2.806278 -0.606763 19.828853 214 214 214 0
2.881946 -0.606725 19.827630 215 215 215 0
2.955812 -0.606321 19.814396 214 214 214 0
3.027607 -0.605521 19.788282 215 215 215 0
3.102019 -0.605272 19.780131 215 215 215 0
3.181455 -0.605991 19.803641 215 215 215 0
3.260320 -0.606571 19.822588 215 215 215 0
3.339983 -0.607270 19.845411 215 215 215 0
3.417289 -0.607518 19.853530 215 215 215 0
3.493707 -0.607601 19.856248 216 216 216 0
3.566441 -0.607054 19.838358 216 216 216 0
3.639253 -0.606542 19.821641 216 216 216 0
3.715835 -0.606667 19.825718 216 216 216 0
3.788819 -0.606211 19.810819 216 216 216 0
3.883196 -0.609129 19.906168 216 216 216 0
3.942422 -0.606526 19.821124 216 216 216 0
4.013991 -0.605885 19.800176 217 217 217 0
4.088770 -0.605744 19.795547 217 217 217 0
4.164184 -0.605699 19.794100 217 217 217 0
4.249448 -0.607064 19.838693 218 218 218 0
4.329195 -0.607606 19.856414 216 216 216 0
4.406115 -0.607740 19.860786 217 217 217 0
4.482267 -0.607765 19.861600 217 217 217 0
4.564797 -0.608640 19.890184 217 217 217 0
4.645396 -0.609232 19.909552 217 217 217 0
4.723186 -0.609443 19.916449 217 217 217 0
4.805329 -0.610201 19.941195 217 217 217 0
4.888450 -0.611056 19.969160 218 218 218 0
4.968664 -0.611528 19.984572 217 217 217 0
5.050198 -0.612145 20.004745 217 217 217 0
5.151463 -0.615100 20.101308 217 217 217 0
5.241037 -0.616593 20.150084 217 217 217 0
5.322644 -0.617118 20.167261 217 217 217 0
5.396470 -0.616739 20.154885 218 218 218 0
5.480098 -0.617476 20.178948 217 217 217 0
4.954269 -0.550474 17.989359 217 217 217 0
5.657067 -0.619953 20.259888 217 217 217 0
5.731975 -0.619673 20.250749 218 218 218 0
5.808936 -0.619620 20.249016 217 217 217 0
5.892184 -0.620230 20.268952 217 217 217 0
5.992549 -0.622603 20.346488 217 217 217 0
6.084419 -0.624043 20.393561 217 217 217 0
6.193397 -0.627179 20.496061 217 217 217 0
-3.612361 -0.936538 34.978076 108 108 108 0
-2.363472 -0.636319 23.765427 119 119 119 0
-3.345719 -0.936801 34.987912 129 129 129 0
-3.212610 -0.937011 34.995751 147 147 147 0
-2.056567 -0.625912 23.376722 148 148 148 0
-1.954803 -0.621983 23.229986 149 149 149 0
-1.855509 -0.618503 23.100025 162 162 162 0
-1.756799 -0.614880 22.964697 165 165 165 0
-1.655295 -0.609845 22.776670 166 166 166 0
-1.553540 -0.604154 22.564121 166 166 166 0
-1.455211 -0.599204 22.379249 173 173 173 0
-1.365642 -0.597469 22.314417 179 179 179 0
-1.274844 -0.594927 22.219498 179 179 179 0
-1.182950 -0.591475 22.090565 180 180 180 0
-1.093994 -0.589074 22.000883 180 180 180 0
-1.005824 -0.586731 21.913383 183 183 183 0
-0.920929 -0.586046 21.887792 188 188 188 0
-0.832585 -0.582810 21.766939 188 188 188 0
-0.745008 -0.579451 21.641482 188 188 188 0
-0.657953 -0.575709 21.501742 188 188 188 0
-0.571677 -0.571677 21.351133 189 189 189 0
-0.487510 -0.568761 21.242247 190 190 190 0
-0.405331 -0.567464 21.193785 195 195 195 0
-0.326862 -0.572008 21.363510 195 195 195 0
-0.244343 -0.570134 21.293511 196 196 196 0
-0.161864 -0.566524 21.158678 196 196 196 0
-0.080502 -0.563517 21.046399 196 196 196 0
0.000000 -0.559185 20.884587 196 196 196 0
0.079428 -0.555994 20.765404 197 197 197 0
0.158224 -0.553784 20.682859 200 200 200 0
0.236860 -0.552674 20.641402 202 202 202 0
0.316487 -0.553852 20.685409 202 202 202 0
0.395519 -0.553726 20.680717 202 202 202 0
0.473221 -0.552091 20.619656 202 202 202 0
0.549279 -0.549279 20.514631 202 202 202 0
0.626037 -0.547783 20.458734 203 203 203 0
0.703404 -0.547092 20.432931 203 203 203 0
0.781257 -0.546880 20.425032 205 205 205 0
0.858960 -0.546611 20.414979 207 207 207 0
0.936010 -0.546006 20.392385 206 206 206 0
1.012377 -0.545126 20.359521 207 207 207 0
1.086549 -0.543274 20.290358 207 207 207 0
1.161627 -0.542093 20.246219 207 207 207 0
1.236728 -0.541069 20.207976 207 207 207 0
1.316172 -0.541953 20.241012 207 207 207 0
1.395495 -0.542693 20.268635 207 207 207 0
1.474147 -0.543107 20.284104 208 208 208 0
1.546292 -0.541202 20.212962 210 210 210 0
1.617641 -0.539214 20.138703 210 210 210 0
1.689222 -0.537480 20.073934 211 211 211 0
1.763681 -0.536773 20.047527 211 211 211 0
1.842780 -0.537477 20.073854 211 211 211 0
1.923696 -0.538635 20.117086 212 212 212 0
1.993751 -0.536779 20.047774 211 211 211 0
2.063008 -0.534854 19.975869 211 211 211 0
2.133578 -0.533394 19.921360 211 211 211 0
2.204938 -0.532227 19.877741 212 212 212 0
2.278399 -0.531626 19.855327 212 212 212 0
2.357895 -0.532428 19.885263 212 212 212 0
2.437664 -0.533239 19.915559 213 213 213 0
2.511044 -0.532646 19.893395 214 214 214 0
2.581299 -0.531444 19.848513 214 214 214 0
2.653026 -0.530605 19.817184 213 213 213 0
2.730061 -0.530845 19.826150 214 214 214 0
2.809982 -0.531618 19.855022 214 214 214 0
2.884799 -0.531410 19.847260 214 214 214 0
2.958684 -0.531046 19.833648 214 214 214 0
3.030900 -0.530407 19.809801 215 215 215 0
3.104278 -0.529999 19.794538 215 215 215 0
3.185252 -0.530875 19.827279 215 215 215 0
3.262559 -0.531114 19.836199 215 215 215 0
3.344056 -0.532009 19.869612 215 215 215 0
3.422830 -0.532440 19.885722 216 216 216 0
3.496295 -0.532045 19.870958 216 216 216 0
3.569940 -0.531693 19.857824 216 216 216 0
3.641586 -0.531065 19.834349 216 216 216 0
3.719368 -0.531338 19.844565 216 216 216 0
3.691898 -0.516866 19.304043 217 217 217 0
3.880898 -0.532672 19.894390 216 216 216 0
3.949313 -0.531638 19.855772 217 217 217 0
4.018319 -0.530721 19.821525 216 216 216 0
4.092870 -0.530557 19.815398 216 216 216 0
4.170135 -0.530744 19.822386 216 216 216 0
4.255626 -0.531953 19.867536 216 216 216 0
4.335019 -0.532371 19.883127 217 217 217 0
4.413655 -0.532683 19.894773 217 217 217 0
4.487148 -0.532373 19.883230 217 217 217 0
4.570541 -0.533230 19.915210 217 217 217 0
4.648943 -0.533485 19.924751 218 218 218 0
4.729808 -0.534011 19.944372 217 217 217 0
4.810946 -0.534550 19.964504 217 217 217 0
4.893057 -0.535178 19.987977 217 217 217 0
4.975324 -0.535804 20.011357 217 217 217 0
5.058032 -0.536458 20.035779 217 217 217 0
5.159838 -0.539088 20.133989 218 218 218 0
5.251741 -0.540620 20.191237 217 217 217 0
5.327284 -0.540449 20.184842 217 217 217 0
5.399218 -0.539922 20.165148 217 217 217 0
5.484258 -0.540702 20.194268 217 217 217 0
5.584059 -0.542895 20.276177 218 218 218 0
5.662500 -0.542979 20.279345 218 218 218 0
5.740802 -0.543049 20.281935 218 218 218 0
5.814756 -0.542711 20.269302 218 218 218 0
5.899968 -0.543418 20.295729 216 216 216 0
6.001659 -0.545605 20.377417 217 217 217 0
6.094847 -0.546973 20.428514 217 217 217 0
6.199630 -0.549334 20.516687 217 217 217 0
-3.612229 -0.802718 34.976801 98 98 98 0
-3.478901 -0.802823 34.981412 120 120 120 0
-3.345605 -0.802945 34.986717 124 124 124 0
-3.212499 -0.803125 34.994543 145 145 145 0
-3.079101 -0.803244 34.999732 148 148 148 0
-1.958653 -0.534178 23.275738 148 148 148 0
-1.861118 -0.531748 23.169844 159 159 159 0
-1.761330 -0.528399 23.023915 165 165 165 0
-1.657453 -0.523406 22.806372 166 166 166 0
-1.557775 -0.519258 22.625635 167 167 167 0
-1.459292 -0.515044 22.442020 171 171 171 0
-1.365075 -0.511903 22.305146 178 178 178 0
-1.277594 -0.511038 22.267432 179 179 179 0
-1.186309 -0.508418 22.153296 180 180 180 0
-1.097393 -0.506489 22.069238 180 180 180 0
-1.007174 -0.503587 21.942781 181 181 181 0
-0.921880 -0.502844 21.910396 186 186 186 0
-0.834355 -0.500613 21.813214 188 188 188 0
-0.746263 -0.497509 21.677951 189 189 189 0
-0.658178 -0.493633 21.509076 189 189 189 0
-0.572230 -0.490483 21.371806 189 189 189 0
-0.488052 -0.488052 21.265901 189 189 189 0
-0.406304 -0.487565 21.244666 193 193 193 0
-0.327272 -0.490907 21.390302 196 196 196 0
-0.244469 -0.488939 21.304520 196 196 196 0
-0.161939 -0.485816 21.168432 197 197 197 0
-0.080592 -0.483552 21.069790 196 196 196 0
0.000000 -0.479971 20.913776 197 197 197 0
0.079495 -0.476969 20.782970 197 197 197 0
0.158556 -0.475669 20.726337 198 198 198 0
