ply
    format ascii 1.0
    element vertex 16138
    property float x
    property float y
    property float z
    property uchar red
    property uchar green
    property uchar blue
    property uchar alpha
    end_header
-3.303077 -0.508166 22.142299 210 210 210 0
-3.243408 -0.512117 22.314471 210 210 210 0
-3.174074 -0.514715 22.427657 211 211 211 0
-3.090334 -0.515056 22.442514 211 211 211 0
-2.993437 -0.513161 22.359938 212 212 212 0
-2.909010 -0.513355 22.368396 211 211 211 0
-2.839803 -0.516328 22.497948 212 212 212 0
-2.774334 -0.520188 22.666127 212 212 212 0
-2.680282 -0.518764 22.604105 212 212 212 0
-2.583319 -0.516664 22.512585 212 212 212 0
-2.494659 -0.516136 22.489598 212 212 212 0
-2.416221 -0.517762 22.560423 212 212 212 0
-2.340822 -0.520183 22.665915 213 213 213 0
-2.258381 -0.521165 22.708711 212 212 212 0
-2.173137 -0.521553 22.725611 212 212 212 0
-2.094777 -0.523694 22.818918 213 213 213 0
-2.012352 -0.524961 22.874130 212 212 212 0
-1.932108 -0.526939 22.960285 211 211 211 0
-1.845321 -0.527235 22.973184 212 212 212 0
-1.762246 -0.528674 23.035891 212 212 212 0
-1.679881 -0.530489 23.114973 212 212 212 0
-1.598620 -0.532873 23.218889 212 212 212 0
-1.513391 -0.534138 23.273986 212 212 212 0
-1.432874 -0.537328 23.412978 212 212 212 0
-1.351146 -0.540458 23.549382 212 212 212 0
-1.262574 -0.541103 23.577485 212 212 212 0
-1.172505 -0.541156 23.579788 212 212 212 0
-1.085201 -0.542601 23.642734 211 211 211 0
-1.003927 -0.547596 23.860411 211 211 211 0
-0.911644 -0.546987 23.833839 211 211 211 0
-0.820937 -0.547291 23.847116 211 211 211 0
-0.730242 -0.547681 23.864109 211 211 211 0
-0.643566 -0.551628 24.036065 211 211 211 0
-0.555660 -0.555660 24.211777 211 211 211 0
-0.463647 -0.556377 24.242989 210 210 210 0
-0.371359 -0.557039 24.271853 210 210 210 0
-0.279840 -0.559680 24.386949 210 210 210 0
-0.188326 -0.564978 24.617758 210 210 210 0
-0.094728 -0.568369 24.765534 209 209 209 0
0.000000 -0.568183 24.757435 209 209 209 0
0.095231 -0.571385 24.896929 209 209 209 0
0.193028 -0.579084 25.232405 209 209 209 0
0.290665 -0.581329 25.330247 209 209 209 0
0.388975 -0.583462 25.423182 208 208 208 0
0.571215 -0.685458 29.867455 209 209 209 0
0.597411 -0.597411 26.030989 209 209 209 0
0.697487 -0.597846 26.049920 209 209 209 0
0.795351 -0.596513 25.991866 212 212 212 0
0.894039 -0.596026 25.970622 212 212 212 0
0.995410 -0.597246 26.023778 211 211 211 0
1.092865 -0.596108 25.974204 210 210 210 0
1.186133 -0.593067 25.841685 210 210 210 0
1.287565 -0.594261 25.893710 210 210 210 0
1.394318 -0.597565 26.037682 209 209 209 0
1.499190 -0.599676 26.129677 210 210 210 0
1.600277 -0.600104 26.148312 210 210 210 0
1.698393 -0.599433 26.119083 209 209 209 0
1.799849 -0.599950 26.141593 210 210 210 0
1.902846 -0.600899 26.182955 211 211 211 0
2.002082 -0.600625 26.171010 210 210 210 0
2.102271 -0.600649 26.172065 210 210 210 0
2.198508 -0.599593 26.126059 211 211 211 0
2.296587 -0.599110 26.104998 210 210 210 0
2.396178 -0.599045 26.102158 210 210 210 0
2.502535 -0.600608 26.170299 209 209 209 0
2.600065 -0.600015 26.144442 209 209 209 0
2.697824 -0.599516 26.122722 210 210 210 0
2.795038 -0.598937 26.097461 210 210 210 0
2.893084 -0.598569 26.081440 210 210 210 0
3.000303 -0.600061 26.146433 209 209 209 0
3.108299 -0.601606 26.213776 211 211 211 0
3.211883 -0.602228 26.240875 210 210 210 0
3.310773 -0.601959 26.229140 209 209 209 0
3.410036 -0.601771 26.220960 210 210 210 0
3.519496 -0.603342 26.289422 209 209 209 0
3.631773 -0.605295 26.374530 209 209 209 0
3.730090 -0.604879 26.356402 210 210 210 0
3.835149 -0.605550 26.385617 210 210 210 0
3.948545 -0.607468 26.469211 210 210 210 0
4.067090 -0.610064 26.582289 210 210 210 0
4.172410 -0.610597 26.605513 210 210 210 0
4.264941 -0.609277 26.548027 209 209 209 0
4.376362 -0.610655 26.608069 210 210 210 0
4.506739 -0.614555 26.778008 209 209 209 0
4.604937 -0.613992 26.753448 209 209 209 0
4.700798 -0.613148 26.716669 209 209 209 0
4.810236 -0.614073 26.756978 209 209 209 0
4.943774 -0.617972 26.926873 209 209 209 0
5.054658 -0.618938 26.968963 209 209 209 0
5.163377 -0.619605 26.998051 209 209 209 0
5.281289 -0.621328 27.073122 209 209 209 0
5.410665 -0.624308 27.202943 207 207 207 0
5.532282 -0.626296 27.289591 207 207 207 0
5.645170 -0.627241 27.330768 207 207 207 0
5.782488 -0.630817 27.486574 207 207 207 0
5.921543 -0.634451 27.644925 207 207 207 0
6.040201 -0.635811 27.704165 206 206 206 0
6.173769 -0.638666 27.828572 205 205 205 0
6.326472 -0.643370 28.033553 205 205 205 0
6.443463 -0.644346 28.076090 205 205 205 0
6.565222 -0.645760 28.137672 205 205 205 0
6.719698 -0.650293 28.335224 204 204 204 0
6.862969 -0.653616 28.480006 202 202 202 0
7.017113 -0.657854 28.664676 202 202 202 0
7.170473 -0.661890 28.840517 202 202 202 0
7.335124 -0.666829 29.055749 199 199 199 0
7.507752 -0.672336 29.295687 197 197 197 0
7.708580 -0.680169 29.636986 196 196 196 0
7.910143 -0.687839 29.971178 193 193 193 0
8.166848 -0.700016 30.501765 191 191 191 0
8.397366 -0.709637 30.920985 184 184 184 0
8.589600 -0.715800 31.189543 139 139 139 0
-8.535405 -0.533463 27.893479 187 187 187 0
-6.597631 -0.417572 21.833809 188 188 188 0
-6.453149 -0.413663 21.629460 189 189 189 0
-6.298621 -0.409001 21.385692 189 189 189 0
-6.179039 -0.406516 21.255724 193 193 193 0
-6.078477 -0.405232 21.188592 194 194 194 0
-5.973428 -0.403610 21.103789 194 194 194 0
-5.974977 -0.409245 21.398431 195 195 195 0
-5.929155 -0.411747 21.529248 195 195 195 0
-5.834134 -0.410855 21.482589 197 197 197 0
-5.737759 -0.409840 21.429538 199 199 199 0
-5.659173 -0.410085 21.442352 199 199 199 0
-5.571695 -0.409683 21.421356 200 200 200 0
-5.505141 -0.410831 21.481380 200 200 200 0
-5.458823 -0.413547 21.623382 199 199 199 0
-5.386604 -0.414354 21.665577 201 201 201 0
-5.282561 -0.412700 21.579088 203 203 203 0
-5.182614 -0.411319 21.506854 203 203 203 0
-5.121603 -0.413032 21.596469 203 203 203 0
-5.077620 -0.416198 21.762004 203 203 203 0
-5.032680 -0.419390 21.928890 204 204 204 0
-4.931314 -0.417908 21.851396 204 204 204 0
-4.810496 -0.414698 21.683552 205 205 205 0
-4.710121 -0.413168 21.603581 207 207 207 0
-4.631900 -0.413562 21.624183 207 207 207 0
-4.592765 -0.417524 21.831326 207 207 207 0
-4.521104 -0.418621 21.888667 207 207 207 0
-4.423723 -0.417332 21.821298 207 207 207 0
-4.317497 -0.415144 21.706871 208 208 208 0
-4.218101 -0.413539 21.622969 208 208 208 0
-4.137114 -0.413711 21.631968 208 208 208 0
-4.103735 -0.418748 21.895343 209 209 209 0
-4.038092 -0.420635 21.993968 209 209 209 0
-3.931622 -0.418258 21.869681 209 209 209 0
-3.838859 -0.417267 21.817898 210 210 210 0
-3.749057 -0.416562 21.781014 210 210 210 0
-3.691466 -0.419485 21.933842 210 210 210 0
-3.629156 -0.421995 22.065095 211 211 211 0
-3.551489 -0.422796 22.106994 211 211 211 0
-3.459811 -0.421928 22.061602 210 210 210 0
-3.371581 -0.421448 22.036477 211 211 211 0
-3.301073 -0.423214 22.128863 211 211 211 0
-3.243490 -0.426775 22.315032 210 210 210 0
-3.171826 -0.428625 22.411774 211 211 211 0
-3.088160 -0.428911 22.426721 211 211 211 0
-2.991430 -0.427347 22.344945 212 212 212 0
-2.907825 -0.427621 22.359287 212 212 212 0
-2.838580 -0.430088 22.488259 212 212 212 0
-2.772433 -0.433193 22.650595 212 212 212 0
-2.679334 -0.432151 22.596111 212 212 212 0
-2.582032 -0.430339 22.501364 212 212 212 0
-2.494748 -0.430129 22.490406 212 212 212 0
-2.412012 -0.430716 22.521121 211 211 211 0
-2.340468 -0.433420 22.662483 212 212 212 0
-2.256790 -0.433998 22.692705 213 213 213 0
-2.173305 -0.434661 22.727368 212 212 212 0
-2.091573 -0.435744 22.784021 212 212 212 0
-2.010915 -0.437156 22.857805 212 212 212 0
-1.931359 -0.438945 22.951388 212 212 212 0
-1.844309 -0.439121 22.960581 212 212 212 0
-1.761982 -0.440496 23.032445 212 212 212 0
-1.680226 -0.442165 23.119727 211 211 211 0
-1.599010 -0.444169 23.224541 213 213 213 0
-1.512167 -0.444755 23.255157 211 211 211 0
-1.431650 -0.447390 23.392966 212 212 212 0
-1.350653 -0.450218 23.540792 212 212 212 0
-1.262574 -0.450919 23.577475 212 212 212 0
-1.171416 -0.450544 23.557882 212 212 212 0
-1.084115 -0.451714 23.619059 212 212 212 0
-1.002404 -0.455638 23.824227 211 211 211 0
-0.911369 -0.455685 23.826641 211 211 211 0
-0.820309 -0.455727 23.828875 211 211 211 0
-0.729693 -0.456058 23.846189 211 211 211 0
-0.642517 -0.458941 23.996898 211 211 211 0
-0.554900 -0.462417 24.178643 211 211 211 0
-0.463238 -0.463238 24.221618 210 210 210 0
-0.371032 -0.463790 24.250455 210 210 210 0
-0.279652 -0.466087 24.370542 210 210 210 0
-0.188013 -0.470033 24.576882 209 209 209 0
-0.094566 -0.472831 24.723181 210 210 210 0
0.000000 -0.473509 24.758655 209 209 209 0
0.095171 -0.475854 24.881276 209 209 209 0
0.192934 -0.482335 25.220143 209 209 209 0
0.290755 -0.484592 25.338150 209 209 209 0
0.388637 -0.485796 25.401124 208 208 208 0
0.470223 -0.470223 24.586804 209 209 209 0
0.595935 -0.496612 25.966653 208 208 208 0
0.697076 -0.497912 26.034601 210 210 210 0
0.797647 -0.498529 26.066885 210 210 210 0
0.899428 -0.499682 26.127168 212 212 212 0
0.998407 -0.499203 26.102135 212 212 212 0
1.094485 -0.497493 26.012710 211 211 211 0
1.188437 -0.495182 25.891867 209 209 209 0
1.289735 -0.496052 25.937348 209 209 209 0
1.396914 -0.498898 26.086160 209 209 209 0
1.502948 -0.500983 26.195179 209 209 209 0
1.602871 -0.500897 26.190702 209 209 209 0
1.700006 -0.500002 26.143883 209 209 209 0
1.800841 -0.500234 26.156009 210 210 210 0
1.906285 -0.501654 26.230268 209 209 209 0
2.007232 -0.501808 26.238328 209 209 209 0
2.107336 -0.501747 26.235123 210 210 210 0
2.203439 -0.500782 26.184657 210 210 210 0
2.300530 -0.500115 26.149819 209 209 209 0
2.400775 -0.500161 26.152230 210 210 210 0
2.509097 -0.501819 26.238920 210 210 210 0
2.604181 -0.500804 26.185833 209 209 209 0
2.701968 -0.500364 26.162842 209 209 209 0
2.799870 -0.499977 26.142576 209 209 209 0
2.899189 -0.499860 26.136476 209 209 209 0
3.005179 -0.500863 26.188926 209 209 209 0
3.112993 -0.502096 26.253371 210 210 210 0
3.215172 -0.502371 26.267749 209 209 209 0
3.316066 -0.502434 26.271074 210 210 210 0
3.418359 -0.502700 26.284961 209 209 209 0
3.524996 -0.503571 26.330504 209 209 209 0
3.634599 -0.504805 26.395056 209 209 209 0
3.734745 -0.504695 26.389296 209 209 209 0
3.839972 -0.505260 26.418799 210 210 210 0
3.959585 -0.507639 26.543223 209 209 209 0
4.076792 -0.509599 26.645702 210 210 210 0
4.175902 -0.509256 26.627781 210 210 210 0
4.271467 -0.508508 26.588652 209 209 209 0
4.387123 -0.510131 26.673493 209 209 209 0
4.517943 -0.513403 26.844582 209 209 209 0
4.614329 -0.512703 26.808012 208 208 208 0
4.710371 -0.511997 26.771075 209 209 209 0
4.824180 -0.513211 26.834541 208 208 208 0
4.958767 -0.516538 27.008537 209 209 209 0
5.065817 -0.516920 27.028502 209 209 209 0
5.171972 -0.517197 27.042991 209 209 209 0
5.294704 -0.519089 27.141888 208 208 208 0
5.425875 -0.521719 27.279413 207 207 207 0
5.544315 -0.523049 27.348944 207 207 207 0
5.658500 -0.523935 27.395303 207 207 207 0
5.800262 -0.527297 27.571063 207 207 207 0
5.934455 -0.529862 27.705208 206 206 206 0
6.051368 -0.530822 27.755387 206 206 206 0
6.188716 -0.533510 27.895948 205 205 205 0
6.337073 -0.537040 28.080527 205 205 205 0
6.455246 -0.537937 28.127432 205 205 205 0
6.583380 -0.539621 28.215492 204 204 204 0
6.742554 -0.543754 28.431598 202 202 202 0
6.879956 -0.546028 28.550496 202 202 202 0
7.035853 -0.549676 28.741231 202 202 202 0
7.203049 -0.554081 28.971538 200 200 200 0
7.365725 -0.558009 29.176967 198 198 198 0
7.563415 -0.564434 29.512887 197 197 197 0
7.762527 -0.570774 29.844395 196 196 196 0
7.937020 -0.575146 30.073013 193 193 193 0
8.210961 -0.586497 30.666519 189 189 189 0
8.446557 -0.594828 31.102116 177 177 177 0
8.653975 -0.600970 31.423292 102 102 102 0
-8.614941 -0.430747 28.153403 188 188 188 0
-6.595180 -0.333933 21.825698 189 189 189 0
-6.438785 -0.330194 21.581314 189 189 189 0
-6.302069 -0.327380 21.397399 190 190 190 0
-6.166551 -0.324555 21.212767 193 193 193 0
-6.074747 -0.323986 21.175587 194 194 194 0
-5.975880 -0.323021 21.112452 194 194 194 0
-5.971959 -0.327231 21.387623 195 195 195 0
-5.931269 -0.329515 21.536924 195 195 195 0
-5.836515 -0.328818 21.491357 198 198 198 0
-5.737654 -0.327866 21.429146 198 198 198 0
-5.657711 -0.327983 21.436813 199 199 199 0
-5.571815 -0.327754 21.421819 200 200 200 0
-5.505231 -0.328671 21.481733 199 199 199 0
-5.460859 -0.330961 21.631447 200 200 200 0
-5.384122 -0.331331 21.655594 203 203 203 0
-5.282792 -0.330174 21.580031 203 203 203 0
-5.183116 -0.329087 21.508936 203 203 203 0
-5.116723 -0.330111 21.575894 204 204 204 0
-5.079006 -0.333050 21.767947 204 204 204 0
-5.037999 -0.335867 21.952065 204 204 204 0
-4.934524 -0.334544 21.865621 205 205 205 0
-4.814467 -0.332032 21.701450 206 206 206 0
-4.706977 -0.330314 21.589161 206 206 206 0
-4.633673 -0.330977 21.632462 206 206 206 0
-4.583822 -0.333369 21.788814 207 207 207 0
-4.519182 -0.334754 21.879361 207 207 207 0
-4.426388 -0.334067 21.834444 207 207 207 0
-4.313329 -0.331795 21.685917 207 207 207 0
-4.213579 -0.330477 21.599790 208 208 208 0
-4.127897 -0.330232 21.583774 209 209 209 0
-4.096800 -0.334433 21.858341 208 208 208 0
-4.031520 -0.335960 21.958169 209 209 209 0
-3.930712 -0.334529 21.864620 210 210 210 0
-3.835094 -0.333486 21.796497 210 210 210 0
-3.747370 -0.333100 21.771214 210 210 210 0
-3.687273 -0.335207 21.908931 210 210 210 0
-3.625577 -0.337263 22.043330 211 211 211 0
-3.549623 -0.338059 22.095384 210 210 210 0
-3.458982 -0.337462 22.056320 211 211 211 0
-3.365991 -0.336599 21.999939 211 211 211 0
-3.298565 -0.338314 22.112050 211 211 211 0
-3.241349 -0.341195 22.300304 211 211 211 0
-3.170058 -0.342709 22.399280 211 211 211 0
-3.087659 -0.343073 22.423083 211 211 211 0
-2.990019 -0.341716 22.334411 211 211 211 0
-2.904312 -0.341684 22.332274 212 212 212 0
-2.835103 -0.343649 22.460708 212 212 212 0
-2.771490 -0.346436 22.642892 212 212 212 0
-2.678878 -0.345662 22.592263 212 212 212 0
-2.582603 -0.344347 22.506341 212 212 212 0
-2.492369 -0.343775 22.468959 212 212 212 0
-2.413829 -0.344833 22.538089 212 212 212 0
-2.336228 -0.346108 22.621429 211 211 211 0
-2.254936 -0.346913 22.674070 212 212 212 0
-2.172057 -0.347529 22.714322 212 212 212 0
-2.090022 -0.348337 22.767126 212 212 212 0
-2.008570 -0.349317 22.831147 213 213 213 0
-1.929036 -0.350734 22.923784 212 212 212 0
-1.843049 -0.351057 22.944899 212 212 212 0
-1.759550 -0.351910 23.000659 212 212 212 0
-1.678908 -0.353454 23.101591 212 212 212 0
-1.597020 -0.354893 23.195645 212 212 212 0
-1.512111 -0.355791 23.254305 212 212 212 0
-1.431692 -0.357923 23.393656 212 212 212 0
-1.349449 -0.359853 23.519800 212 212 212 0
-1.260606 -0.360173 23.540730 212 212 212 0
-1.170391 -0.360120 23.537283 212 212 212 0
-1.083847 -0.361282 23.613228 211 211 211 0
-1.002118 -0.364407 23.817427 212 212 212 0
-0.910691 -0.364276 23.808903 211 211 211 0
-0.819676 -0.364300 23.810485 212 212 212 0
-0.728863 -0.364432 23.819061 211 211 211 0
-0.641536 -0.366592 23.960276 211 211 211 0
-0.554351 -0.369567 24.154718 211 211 211 0
-0.462535 -0.370028 24.184840 211 211 211 0
-0.371077 -0.371077 24.253403 210 210 210 0
-0.279781 -0.373041 24.381755 210 210 210 0
-0.187941 -0.375882 24.567437 210 210 210 0
-0.094552 -0.378207 24.719430 210 210 210 0
0.000000 -0.378938 24.767198 210 210 210 0
0.095177 -0.380706 24.882756 208 208 208 0
0.192848 -0.385696 25.208911 209 209 209 0
0.290710 -0.387614 25.334224 209 209 209 0
0.388316 -0.388316 25.380110 208 208 208 0
0.484539 -0.387631 25.335362 209 209 209 0
0.595627 -0.397084 25.953227 209 209 209 0
0.696777 -0.398159 26.023436 208 208 208 0
0.799596 -0.399798 26.130604 210 210 210 0
0.904298 -0.401910 26.268640 210 210 210 0
1.001839 -0.400735 26.191861 212 212 212 0
1.095563 -0.398386 26.038330 210 210 210 0
1.188187 -0.396062 25.886435 210 210 210 0
1.290754 -0.397155 25.957840 210 210 210 0
1.400274 -0.400078 26.148917 209 209 209 0
1.505415 -0.401444 26.238161 208 208 208 0
1.605483 -0.401371 26.233381 210 210 210 0
1.703362 -0.400791 26.195489 209 209 209 0
1.805822 -0.401294 26.228354 209 209 209 0
1.910717 -0.402256 26.291253 209 209 209 0
2.010648 -0.402130 26.282983 208 208 208 0
2.110951 -0.402086 26.280127 209 209 209 0
2.207633 -0.401388 26.234494 208 208 208 0
2.305546 -0.400964 26.206828 209 209 209 0
2.404220 -0.400703 26.189756 209 209 209 0
2.514954 -0.402393 26.300168 209 209 209 0
2.609309 -0.401432 26.237394 209 209 209 0
2.705834 -0.400864 26.200282 208 208 208 0
2.806805 -0.400972 26.207334 208 208 208 0
2.907441 -0.401026 26.210871 208 208 208 0
3.013246 -0.401766 26.259228 209 209 209 0
3.117216 -0.402221 26.288983 209 209 209 0
3.222138 -0.402767 26.324659 209 209 209 0
3.322583 -0.402737 26.322702 209 209 209 0
3.424262 -0.402854 26.330351 209 209 209 0
3.535943 -0.404108 26.412276 209 209 209 0
3.644831 -0.404981 26.469358 209 209 209 0
3.746038 -0.404977 26.469091 209 209 209 0
3.847711 -0.405022 26.472042 209 209 209 0
3.966889 -0.406860 26.592181 209 209 209 0
4.085056 -0.408506 26.699716 210 210 210 0
4.183012 -0.408099 26.673123 209 209 209 0
4.284376 -0.408036 26.669009 209 209 209 0
4.363142 -0.405874 26.527694 208 208 208 0
4.524369 -0.411306 26.882761 209 209 209 0
4.624857 -0.411098 26.869176 208 208 208 0
4.721443 -0.410560 26.834002 208 208 208 0
4.841196 -0.412017 26.929196 209 209 209 0
4.972176 -0.414348 27.081570 208 208 208 0
5.075028 -0.414288 27.077648 209 209 209 0
5.187757 -0.415021 27.125525 208 208 208 0
5.314941 -0.416858 27.245626 207 207 207 0
5.441044 -0.418542 27.355674 207 207 207 0
5.554659 -0.419220 27.399968 207 207 207 0
5.676496 -0.420481 27.482431 207 207 207 0
5.820347 -0.423298 27.666532 208 208 208 0
5.948031 -0.424859 27.768584 205 205 205 0
6.067450 -0.425786 27.829147 205 205 205 0
6.210930 -0.428340 27.996080 205 205 205 0
6.353532 -0.430748 28.153458 205 205 205 0
6.471221 -0.431415 28.197043 204 204 204 0
6.602597 -0.432957 28.297853 203 203 203 0
6.765188 -0.436464 28.527040 202 202 202 0
6.907775 -0.438589 28.665941 202 202 202 0
7.060572 -0.441286 28.842206 201 201 201 0
7.233178 -0.445119 29.092723 198 198 198 0
7.399675 -0.448465 29.311448 198 198 198 0
7.604135 -0.453978 29.671780 197 197 197 0
7.807736 -0.459279 30.018207 193 193 193 0
7.384628 -0.428094 27.980025 191 191 191 0
8.287511 -0.473572 30.952420 185 185 185 0
8.512409 -0.479572 31.344596 154 154 154 0
8.653996 -0.480778 31.423369 78 78 78 0
-8.633516 -0.323757 28.214104 188 188 188 0
-6.582988 -0.249987 21.785351 188 188 188 0
-6.447256 -0.247971 21.609706 188 188 188 0
-6.301516 -0.245514 21.395521 190 190 190 0
-6.172933 -0.243668 21.234718 194 194 194 0
-6.077704 -0.243108 21.185898 194 194 194 0
-5.985603 -0.242660 21.146804 194 194 194 0
-5.974246 -0.245517 21.395814 194 194 194 0
-5.944008 -0.247667 21.583179 196 196 196 0
-5.834070 -0.246510 21.482353 198 198 198 0
-5.744906 -0.246210 21.456233 199 199 199 0
-5.649006 -0.245609 21.403832 199 199 199 0
-5.576088 -0.246004 21.438246 199 199 199 0
-5.488138 -0.245738 21.415036 200 200 200 0
-5.453762 -0.247898 21.603336 202 202 202 0
-5.379306 -0.248276 21.636223 203 203 203 0
-5.274474 -0.247241 21.546054 203 203 203 0
-5.181654 -0.246745 21.502868 203 203 203 0
-5.120968 -0.247789 21.593793 203 203 203 0
-5.072300 -0.249457 21.739203 203 203 203 0
-5.027454 -0.251373 21.906119 204 204 204 0
-4.928107 -0.250582 21.837188 206 206 206 0
-4.812701 -0.248933 21.693489 206 206 206 0
-4.704035 -0.247581 21.575668 206 206 206 0
-4.631334 -0.248107 21.621538 206 206 206 0
-4.587138 -0.250208 21.804576 206 206 206 0
-4.519257 -0.251070 21.879723 207 207 207 0
-4.423483 -0.250386 21.820115 206 206 206 0
-4.317812 -0.249105 21.708458 207 207 207 0
-4.211697 -0.247747 21.590141 209 209 209 0
-4.128748 -0.247725 21.588226 209 209 209 0
-4.097253 -0.250852 21.860762 209 209 209 0
-4.032507 -0.252032 21.963544 209 209 209 0
-3.930001 -0.250851 21.860662 210 210 210 0
-3.837504 -0.250272 21.810196 209 209 209 0
-3.745592 -0.249706 21.760881 210 210 210 0
-3.686720 -0.251367 21.905642 210 210 210 0
-3.625101 -0.252914 22.040436 211 211 211 0
-3.548717 -0.253480 22.089740 210 210 210 0
-3.457605 -0.252995 22.047535 211 211 211 0
-3.369688 -0.252727 22.024104 211 211 211 0
-3.299803 -0.253831 22.120346 211 211 211 0
-3.242239 -0.255966 22.306423 211 211 211 0
-3.169724 -0.257005 22.396922 211 211 211 0
-3.085185 -0.257099 22.405123 211 211 211 0
-2.989076 -0.256206 22.327362 212 212 212 0
-2.903599 -0.256200 22.326787 212 212 212 0
-2.833540 -0.257595 22.448324 212 212 212 0
-2.770079 -0.259695 22.631366 212 212 212 0
-2.676218 -0.258989 22.569834 212 212 212 0
-2.581420 -0.258142 22.496034 212 212 212 0
-2.489526 -0.257537 22.443331 212 212 212 0
-2.411680 -0.258394 22.518020 213 213 213 0
-2.333917 -0.259324 22.599052 212 212 212 0
-2.253142 -0.259978 22.656033 212 212 212 0
-2.171191 -0.260543 22.705270 213 213 213 0
-2.089557 -0.261195 22.762055 212 212 212 0
-2.010847 -0.262284 22.857023 212 212 212 0
-1.929224 -0.263076 22.926012 212 212 212 0
-1.842845 -0.263264 22.942361 212 212 212 0
-1.758303 -0.263745 22.984351 212 212 212 0
-1.678384 -0.265008 23.094374 213 213 213 0
-1.597743 -0.266291 23.206151 212 212 212 0
-1.511094 -0.266664 23.238659 213 213 213 0
-1.429653 -0.268060 23.360340 213 213 213 0
-1.349630 -0.269926 23.522970 212 212 212 0
-1.260223 -0.270048 23.533577 212 212 212 0
-1.169507 -0.269886 23.519489 212 212 212 0
-1.082468 -0.270617 23.583173 212 212 212 0
-1.001315 -0.273086 23.798342 211 211 211 0
-0.910598 -0.273180 23.806497 211 211 211 0
-0.819483 -0.273161 23.804884 211 211 211 0
-0.729220 -0.273457 23.830705 211 211 211 0
-0.641136 -0.274772 23.945314 211 211 211 0
-0.554168 -0.277084 24.146742 211 211 211 0
-0.463039 -0.277823 24.211166 210 210 210 0
-0.371238 -0.278429 24.263943 211 211 211 0
-0.279716 -0.279716 24.376105 210 210 210 0
-0.188121 -0.282182 24.590985 210 210 210 0
-0.094607 -0.283820 24.733782 210 210 210 0
0.000000 -0.284039 24.752885 210 210 210 0
0.095143 -0.285430 24.874053 209 209 209 0
0.192628 -0.288943 25.180189 209 209 209 0
0.290598 -0.290598 25.324432 209 209 209 0
0.388043 -0.291032 25.362299 208 208 208 0
0.489553 -0.293732 25.597517 208 208 208 0
0.594620 -0.297310 25.909348 208 208 208 0
0.695977 -0.298276 25.993524 207 207 207 0
0.800906 -0.300340 26.173398 208 208 208 0
0.907133 -0.302378 26.350990 213 213 213 0
1.004965 -0.301489 26.273590 211 211 211 0
1.096840 -0.299138 26.068679 211 211 211 0
1.189005 -0.297251 25.904247 210 210 210 0
1.291773 -0.298101 25.978337 210 210 210 0
1.402282 -0.300489 26.186400 209 209 209 0
1.507954 -0.301591 26.282424 209 209 209 0
1.608644 -0.301621 26.285028 209 209 209 0
1.707041 -0.301243 26.252071 209 209 209 0
1.808010 -0.301335 26.260133 209 209 209 0
1.914783 -0.302334 26.347207 208 208 208 0
2.015641 -0.302346 26.348249 208 208 208 0
2.114670 -0.302096 26.326425 209 209 209 0
2.211576 -0.301579 26.281360 208 208 208 0
2.309163 -0.301195 26.247948 208 208 208 0
2.410175 -0.301272 26.254632 208 208 208 0
2.523038 -0.302765 26.384711 209 209 209 0
2.615917 -0.301837 26.303839 209 209 209 0
2.713573 -0.301508 26.275214 209 209 209 0
2.812680 -0.301359 26.262189 209 209 209 0
2.916510 -0.301708 26.292632 209 209 209 0
3.022046 -0.302205 26.335913 209 209 209 0
3.125244 -0.302443 26.356685 208 208 208 0
3.229153 -0.302733 26.381971 209 209 209 0
3.328887 -0.302626 26.372646 209 209 209 0
3.433876 -0.302989 26.404278 209 209 209 0
3.543148 -0.303698 26.466095 209 209 209 0
3.652185 -0.304349 26.522770 210 210 210 0
3.751496 -0.304175 26.507654 209 209 209 0
3.858117 -0.304588 26.543634 209 209 209 0
3.979871 -0.306144 26.679210 209 209 209 0
4.094140 -0.307060 26.759082 208 208 208 0
4.192158 -0.306743 26.731436 208 208 208 0
4.294481 -0.306749 26.731909 208 208 208 0
4.430998 -0.309139 26.940250 208 208 208 0
4.533151 -0.309079 26.934946 208 208 208 0
4.630264 -0.308684 26.900592 209 209 209 0
4.733305 -0.308694 26.901424 208 208 208 0
4.859245 -0.310165 27.029595 209 209 209 0
4.983670 -0.311479 27.144174 209 209 209 0
5.084072 -0.311270 27.125903 207 207 207 0
5.200322 -0.312019 27.191228 207 207 207 0
5.329702 -0.313512 27.321296 207 207 207 0
5.456657 -0.314807 27.434171 207 207 207 0
5.566109 -0.315063 27.456451 206 206 206 0
5.694558 -0.316364 27.569878 207 207 207 0
5.843273 -0.318724 27.775510 206 206 206 0
5.963075 -0.319450 27.838819 205 205 205 0
6.089934 -0.320523 27.932275 205 205 205 0
6.191045 -0.320226 27.906445 204 204 204 0
6.369240 -0.323860 28.223066 204 204 204 0
6.488149 -0.324407 28.270803 204 204 204 0
6.632923 -0.326209 28.427827 201 201 201 0
6.790414 -0.328568 28.633415 201 201 201 0
6.942878 -0.330613 28.811610 201 201 201 0
7.087312 -0.332218 28.951439 200 200 200 0
7.263456 -0.335236 29.214505 198 198 198 0
7.445408 -0.338428 29.492603 197 197 197 0
7.647653 -0.342432 29.841590 195 195 195 0
7.861237 -0.346819 30.223903 192 192 192 0
8.107620 -0.352505 30.719408 189 189 189 0
8.339332 -0.357400 31.145964 178 178 178 0
8.576058 -0.362369 31.578968 113 113 113 0
-8.646674 -0.216167 28.257104 188 188 188 0
-6.584864 -0.166705 21.791557 188 188 188 0
-6.437514 -0.165064 21.577055 188 188 188 0
-6.299222 -0.163616 21.387734 191 191 191 0
-6.174244 -0.162480 21.239230 193 193 193 0
-6.065559 -0.161748 21.143559 194 194 194 0
-5.975621 -0.161503 21.111538 194 194 194 0
-5.967399 -0.163490 21.371291 194 194 194 0
-5.927433 -0.164651 21.522997 196 196 196 0
-5.826391 -0.164124 21.454077 199 199 199 0
-5.734857 -0.163853 21.418699 198 198 198 0
-5.659725 -0.164050 21.444446 199 199 199 0
-5.567948 -0.163763 21.406950 199 199 199 0
-5.493627 -0.163989 21.436453 199 199 199 0
-5.452861 -0.165238 21.599766 202 202 202 0
-5.375086 -0.165387 21.619251 203 203 203 0
-5.272862 -0.164777 21.539469 203 203 203 0
-5.178798 -0.164406 21.491017 203 203 203 0
-5.112994 -0.164935 21.560169 204 204 204 0
-5.073185 -0.166334 21.742999 203 203 203 0
-5.024020 -0.167467 21.891153 205 205 205 0
-4.928713 -0.167075 21.839870 206 206 206 0
-4.808877 -0.165823 21.676255 206 206 206 0
-4.709183 -0.165234 21.599280 207 207 207 0
-4.625816 -0.165208 21.595779 206 206 206 0
-4.582376 -0.166632 21.781943 207 207 207 0
-4.512787 -0.167140 21.848398 206 206 206 0
-4.420311 -0.166804 21.804472 207 207 207 0
-4.314460 -0.165941 21.691606 209 209 209 0
-4.209868 -0.165093 21.580767 208 208 208 0
-4.128290 -0.165132 21.585830 209 209 209 0
-4.096422 -0.167201 21.856324 208 208 208 0
-4.028561 -0.167857 21.942055 209 209 209 0
-3.927431 -0.167125 21.846367 210 210 210 0
-3.834015 -0.166696 21.790365 209 209 209 0
-3.745471 -0.166465 21.760182 210 210 210 0
-3.685578 -0.167526 21.898859 209 209 209 0
-3.623326 -0.168527 22.029647 210 210 210 0
-3.547811 -0.168943 22.084104 210 210 210 0
-3.456258 -0.168598 22.038947 211 211 211 0
-3.367004 -0.168350 22.006564 211 211 211 0
-3.298883 -0.169173 22.114180 211 211 211 0
-3.241726 -0.170617 22.302899 211 211 211 0
-3.169982 -0.171350 22.398740 212 212 212 0
-3.082863 -0.171270 22.388256 211 211 211 0
-2.992119 -0.170978 22.350093 211 211 211 0
-2.902405 -0.170730 22.317610 212 212 212 0
-2.833623 -0.171735 22.448985 212 212 212 0
-2.768102 -0.173006 22.615213 211 211 211 0
-2.676143 -0.172654 22.569205 212 212 212 0
-2.579831 -0.171989 22.482187 211 211 211 0
-2.489956 -0.171721 22.447199 212 212 212 0
-2.410521 -0.172180 22.507199 213 213 213 0
-2.332743 -0.172796 22.587679 212 212 212 0
-2.251829 -0.173218 22.642826 212 212 212 0
-2.170648 -0.173652 22.699591 213 213 213 0
-2.089135 -0.174095 22.757457 212 212 212 0
-2.009778 -0.174763 22.844878 212 212 212 0
-1.928715 -0.175338 22.919969 213 213 213 0
-1.840905 -0.175324 22.918209 212 212 212 0
-1.758822 -0.175882 22.991134 213 213 213 0
-1.675877 -0.176408 23.059886 212 212 212 0
-1.595574 -0.177286 23.174641 213 213 213 0
-1.509833 -0.177627 23.219275 213 213 213 0
-1.429015 -0.178627 23.349925 212 212 212 0
-1.348497 -0.179800 23.503214 211 211 211 0
-1.258252 -0.179750 23.496760 212 212 212 0
-1.169045 -0.179853 23.510210 211 211 211 0
-1.081712 -0.180285 23.566715 212 212 212 0
-0.999756 -0.181774 23.761282 212 212 212 0
-0.909766 -0.181953 23.784726 212 212 212 0
-0.819180 -0.182040 23.796076 211 211 211 0
-0.728626 -0.182157 23.811314 211 211 211 0
-0.640097 -0.182885 23.906527 212 212 212 0
-0.553675 -0.184558 24.125276 210 210 210 0
-0.462702 -0.185081 24.193571 211 211 211 0
-0.371143 -0.185572 24.257744 209 209 209 0
-0.279562 -0.186375 24.362688 210 210 210 0
-0.187936 -0.187936 24.566768 209 209 209 0
-0.094552 -0.189105 24.719598 210 210 210 0
0.000000 -0.189420 24.760797 210 210 210 0
0.095086 -0.190171 24.859000 209 209 209 0
0.192569 -0.192569 25.172428 208 208 208 0
0.290467 -0.193645 25.313042 209 209 209 0
0.387685 -0.193843 25.338897 208 208 208 0
0.488847 -0.195539 25.560623 206 206 206 0
0.593265 -0.197755 25.850339 208 208 208 0
0.695566 -0.198733 25.978207 207 207 207 0
0.801371 -0.200343 26.188581 208 208 208 0
0.909590 -0.202131 26.422362 210 210 210 0
1.008911 -0.201782 26.376749 211 211 211 0
1.099717 -0.199949 26.137075 210 210 210 0
1.194096 -0.199016 26.015169 210 210 210 0
1.297635 -0.199636 26.096229 210 210 210 0
1.406520 -0.200931 26.265538 209 209 209 0
1.510324 -0.201377 26.323732 209 209 209 0
1.611466 -0.201433 26.331151 209 209 209 0
1.710605 -0.201248 26.306884 209 209 209 0
1.812203 -0.201356 26.321030 209 209 209 0
1.919365 -0.202038 26.410248 208 208 208 0
2.020692 -0.202069 26.414271 207 207 207 0
2.118907 -0.201801 26.379178 208 208 208 0
2.214751 -0.201341 26.319088 208 208 208 0
2.313860 -0.201205 26.301338 209 209 209 0
2.386321 -0.198860 25.994779 208 208 208 0
2.525928 -0.202074 26.414936 208 208 208 0
2.624115 -0.201855 26.386273 209 209 209 0
2.718006 -0.201334 26.318138 209 209 209 0
2.818420 -0.201316 26.315776 209 209 209 0
2.924449 -0.201686 26.364205 208 208 208 0
3.030070 -0.202005 26.405842 208 208 208 0
3.131893 -0.202058 26.412759 209 209 209 0
3.235207 -0.202200 26.431428 208 208 208 0
3.335697 -0.202163 26.426594 209 209 209 0
3.445001 -0.202647 26.489819 209 209 209 0
3.552089 -0.202976 26.532875 209 209 209 0
3.658283 -0.203238 26.567053 209 209 209 0
3.761893 -0.203346 26.581123 208 208 208 0
3.868405 -0.203600 26.614413 208 208 208 0
3.993934 -0.204817 26.773482 208 208 208 0
4.102537 -0.205127 26.813967 208 208 208 0
4.197443 -0.204753 26.765137 207 207 207 0
4.305388 -0.205018 26.799803 208 208 208 0
4.441617 -0.206587 27.004818 208 208 208 0
4.541597 -0.206436 26.985125 209 209 209 0
4.640151 -0.206229 26.958033 208 208 208 0
4.741537 -0.206154 26.948207 209 209 209 0
4.872826 -0.207354 27.105135 209 209 209 0
4.992339 -0.208014 27.191391 207 207 207 0
5.097754 -0.208072 27.198898 206 206 206 0
5.215086 -0.208603 27.268423 207 207 207 0
5.343619 -0.209554 27.392638 206 206 206 0
5.470438 -0.210401 27.503460 207 207 207 0
5.576269 -0.210425 27.506566 207 207 207 0
5.717392 -0.211755 27.680428 206 206 206 0
5.864643 -0.213260 27.877093 205 205 205 0
5.984354 -0.213727 27.938159 205 205 205 0
6.114107 -0.214530 28.043147 205 205 205 0
6.275109 -0.216383 28.285368 204 204 204 0
6.390425 -0.216625 28.316937 204 204 204 0
6.512279 -0.217076 28.375945 202 202 202 0
6.669624 -0.218676 28.585123 201 201 201 0
6.816240 -0.219879 28.742315 201 201 201 0
6.980991 -0.221619 28.969774 201 201 201 0
7.120947 -0.222530 29.088837 198 198 198 0
7.299415 -0.224597 29.359135 197 197 197 0
7.487797 -0.226903 29.660516 196 196 196 0
7.704988 -0.230000 30.065312 193 193 193 0
7.894307 -0.232185 30.351044 191 191 191 0
8.168607 -0.236771 30.950488 186 186 186 0
8.415344 -0.240438 31.429855 159 159 159 0
8.607097 -0.242453 31.693260 78 78 78 0
-8.621158 -0.107764 28.173720 188 188 188 0
-6.571724 -0.083186 21.748074 188 188 188 0
-6.446654 -0.082649 21.607688 188 188 188 0
-6.299945 -0.081817 21.390188 191 191 191 0
-6.168146 -0.081160 21.218254 195 195 195 0
-6.075078 -0.081001 21.176743 194 194 194 0
-5.981946 -0.080837 21.133884 194 194 194 0
-5.976910 -0.081875 21.405353 195 195 195 0
-5.926675 -0.082315 21.520242 196 196 196 0
-5.830800 -0.082124 21.470313 199 199 199 0
-5.729513 -0.081850 21.398740 198 198 198 0
-5.649959 -0.081883 21.407441 199 199 199 0
-5.560858 -0.081777 21.379692 199 199 199 0
-5.489338 -0.081930 21.419716 199 199 199 0
-5.446973 -0.082530 21.576444 202 202 202 0
-5.373083 -0.082663 21.611192 202 202 202 0
-5.267805 -0.082309 21.518811 203 203 203 0
-5.175410 -0.082149 21.476956 203 203 203 0
-5.108356 -0.082393 21.540610 203 203 203 0
-5.070792 -0.083128 21.732742 203 203 203 0
-5.028224 -0.083804 21.909473 206 206 206 0
-4.926150 -0.083494 21.828516 205 205 205 0
-4.802767 -0.082806 21.648715 206 206 206 0
-4.700306 -0.082462 21.558563 206 206 206 0
-4.625912 -0.082606 21.596227 206 206 206 0
-4.589506 -0.083446 21.815834 207 207 207 0
-4.513518 -0.083584 21.851938 207 207 207 0
-4.423153 -0.083456 21.818488 207 207 207 0
-4.312521 -0.082933 21.681853 208 208 208 0
-4.210651 -0.082562 21.584782 209 209 209 0
-4.127902 -0.082558 21.583803 209 209 209 0
-4.095643 -0.083585 21.852169 209 209 209 0
-4.030391 -0.083966 21.952018 210 210 210 0
-3.929318 -0.083603 21.856863 210 210 210 0
-3.832488 -0.083315 21.781690 209 209 209 0
-3.743072 -0.083179 21.746240 210 210 210 0
-3.686710 -0.083789 21.905586 210 210 210 0
-3.622402 -0.084242 22.024027 210 210 210 0
-3.546071 -0.084430 22.073273 211 211 211 0
-3.453561 -0.084233 22.021750 211 211 211 0
-3.363890 -0.084097 21.986206 210 210 210 0
-3.301276 -0.084648 22.130225 212 212 212 0
-3.240969 -0.085289 22.297686 211 211 211 0
-3.168468 -0.085634 22.388045 211 211 211 0
-3.086163 -0.085727 22.412225 212 212 212 0
-2.990373 -0.085439 22.337053 211 211 211 0
-2.899191 -0.085270 22.292895 211 211 211 0
-2.831030 -0.085789 22.428440 213 213 213 0
-2.774435 -0.086701 22.666949 213 213 213 0
-2.676745 -0.086347 22.574282 212 212 212 0
-2.580978 -0.086033 22.492187 211 211 211 0
-2.490034 -0.085863 22.447907 213 213 213 0
-2.407267 -0.085974 22.476817 212 212 212 0
-2.330916 -0.086330 22.569989 212 212 212 0
-2.251253 -0.086587 22.637037 212 212 212 0
-2.170621 -0.086825 22.699305 212 212 212 0
-2.089192 -0.087050 22.758078 212 212 212 0
-2.008104 -0.087309 22.825854 212 212 212 0
-1.926122 -0.087551 22.889154 212 212 212 0
-1.841741 -0.087702 22.928613 212 212 212 0
-1.759144 -0.087957 22.995350 212 212 212 0
-1.677717 -0.088301 23.085203 212 212 212 0
-1.594743 -0.088597 23.162569 212 212 212 0
-1.509163 -0.088774 23.208964 212 212 212 0
-1.428580 -0.089286 23.342818 212 212 212 0
-1.347233 -0.089816 23.481191 212 212 212 0
-1.258313 -0.089880 23.497909 212 212 212 0
-1.168499 -0.089885 23.499224 212 212 212 0
-1.081291 -0.090108 23.557547 212 212 212 0
-0.999396 -0.090854 23.752724 212 212 212 0
-0.909349 -0.090935 23.773820 211 211 211 0
-0.818963 -0.090996 23.789786 210 210 210 0
-0.728443 -0.091055 23.805327 210 210 210 0
-0.640138 -0.091448 23.908050 211 211 211 0
-0.553592 -0.092265 24.121662 211 211 211 0
-0.462569 -0.092514 24.186639 210 210 210 0
-0.370908 -0.092727 24.242334 210 210 210 0
-0.279373 -0.093124 24.346262 210 210 210 0
-0.187828 -0.093914 24.552738 210 210 210 0
-0.094601 -0.094601 24.732345 210 210 210 0
0.000000 -0.094640 24.742425 210 210 210 0
0.095019 -0.095019 24.841618 208 208 208 0
0.192596 -0.096298 25.175927 208 208 208 0
0.290474 -0.096825 25.313678 209 209 209 0
0.387501 -0.096875 25.326867 208 208 208 0
0.488623 -0.097725 25.548916 207 207 207 0
0.593034 -0.098839 25.840260 208 208 208 0
0.694852 -0.099265 25.951512 207 207 207 0
0.800706 -0.100088 26.166871 208 208 208 0
0.910837 -0.101204 26.458577 210 210 210 0
1.011938 -0.101194 26.455888 211 211 211 0
1.106750 -0.100614 26.304219 211 211 211 0
1.201974 -0.100165 26.186806 209 209 209 0
1.304927 -0.100379 26.242875 210 210 210 0
1.410873 -0.100777 26.346836 209 209 209 0
1.514298 -0.100953 26.392990 209 209 209 0
1.615079 -0.100942 26.390186 210 210 210 0
1.712733 -0.100749 26.339603 209 209 209 0
1.816673 -0.100926 26.385957 208 208 208 0
1.923885 -0.101257 26.472447 209 209 209 0
2.026369 -0.101318 26.488488 208 208 208 0
2.125257 -0.101203 26.458228 208 208 208 0
2.221024 -0.100956 26.393627 209 209 209 0
2.321145 -0.100919 26.384144 208 208 208 0
2.437755 -0.101573 26.555068 208 208 208 0
2.529764 -0.101191 26.455049 209 209 209 0
2.628359 -0.101091 26.428951 209 209 209 0
2.724413 -0.100904 26.380179 208 208 208 0
2.823571 -0.100842 26.363878 209 209 209 0
2.932335 -0.101115 26.435297 208 208 208 0
3.038705 -0.101290 26.481091 208 208 208 0
3.139408 -0.101271 26.476136 209 209 209 0
3.240024 -0.101251 26.470788 209 209 209 0
3.341968 -0.101272 26.476278 208 208 208 0
3.446402 -0.101365 26.500592 208 208 208 0
3.562720 -0.101792 26.612290 209 209 209 0
3.667054 -0.101863 26.630749 208 208 208 0
3.767329 -0.101820 26.619531 207 207 207 0
3.881302 -0.102140 26.703144 207 207 207 0
4.004290 -0.102674 26.842904 208 208 208 0
4.108588 -0.102715 26.853514 208 208 208 0
4.204157 -0.102540 26.807954 207 207 207 0
4.315646 -0.102753 26.863652 208 208 208 0
4.448364 -0.103450 27.045835 208 208 208 0
4.549275 -0.103393 27.030747 208 208 208 0
4.646186 -0.103249 26.993091 208 208 208 0
4.753989 -0.103348 27.018979 207 207 207 0
4.889457 -0.104031 27.197646 206 206 206 0
5.003545 -0.104241 27.252424 207 207 207 0
5.113884 -0.104365 27.284961 206 206 206 0
5.229161 -0.104583 27.342020 206 206 206 0
5.360081 -0.105100 27.477029 207 207 207 0
5.480617 -0.105396 27.554634 207 207 207 0
5.595242 -0.105571 27.600156 206 206 206 0
5.735101 -0.106206 27.766165 204 204 204 0
5.881361 -0.106934 27.956556 204 204 204 0
5.998819 -0.107122 28.005692 204 204 204 0
6.136876 -0.107664 28.147579 205 205 205 0
6.288950 -0.108430 28.347758 204 204 204 0
6.410496 -0.108652 28.405874 202 202 202 0
6.536441 -0.108941 28.481225 201 201 201 0
6.701685 -0.109864 28.722535 201 201 201 0
6.848243 -0.110456 28.877265 201 201 201 0
7.005394 -0.111197 29.071039 199 199 199 0
7.162980 -0.111922 29.260540 198 198 198 0
7.336750 -0.112873 29.509303 197 197 197 0
7.535554 -0.114175 29.849689 194 194 194 0
7.754854 -0.115744 30.259892 192 192 192 0
7.722449 -0.113565 29.690308 188 188 188 0
8.244379 -0.119484 31.237583 179 179 179 0
8.469749 -0.120996 31.633050 116 116 116 0
-8.595320 0.000000 28.089280 188 188 188 0
-6.582053 0.000000 21.782254 188 188 188 0
-6.441062 0.000000 21.588945 189 189 189 0
-6.298218 0.000000 21.384325 191 191 191 0
-6.163431 0.000000 21.202032 194 194 194 0
-6.066803 0.000000 21.147896 193 193 193 0
-5.972911 0.000000 21.101964 194 194 194 0
-5.966149 0.000000 21.366814 194 194 194 0
-5.917741 0.000000 21.487803 197 197 197 0
-5.821205 0.000000 21.434979 199 199 199 0
-5.729098 0.000000 21.397190 199 199 199 0
-5.652705 0.000000 21.417847 199 199 199 0
-5.560827 0.000000 21.379575 199 199 199 0
-5.491798 0.000000 21.429317 200 200 200 0
-5.444121 0.000000 21.565146 203 203 203 0
-5.367072 0.000000 21.587018 202 202 202 0
-5.266854 0.000000 21.514926 203 203 203 0
-5.175363 0.000000 21.476761 203 203 203 0
-5.108302 0.000000 21.540384 203 203 203 0
-5.066048 0.000000 21.712410 204 204 204 0
-5.025227 0.000000 21.896416 205 205 205 0
-4.927314 0.000000 21.833671 206 206 206 0
-4.806417 0.000000 21.665164 206 206 206 0
-4.701891 0.000000 21.565834 206 206 206 0
-4.625950 0.000000 21.596407 206 206 206 0
-4.583721 0.000000 21.788337 206 206 206 0
-4.514202 0.000000 21.855249 208 208 208 0
-4.419992 0.000000 21.802897 208 208 208 0
-4.309287 0.000000 21.665594 209 209 209 0
-4.208285 0.000000 21.572654 209 209 209 0
-4.129619 0.000000 21.592778 209 209 209 0
-4.091446 0.000000 21.829776 209 209 209 0
-4.029815 0.000000 21.948884 209 209 209 0
-3.926921 0.000000 21.843533 209 209 209 0
-3.832519 0.000000 21.781863 210 210 210 0
-3.744494 0.000000 21.754502 210 210 210 0
-3.682050 0.000000 21.877899 210 210 210 0
-3.618553 0.000000 22.000623 211 211 211 0
-3.541944 0.000000 22.047583 210 210 210 0
-3.451169 0.000000 22.006501 211 211 211 0
-3.364123 0.000000 21.987733 212 212 212 0
-3.294401 0.000000 22.084135 211 211 211 0
-3.238635 0.000000 22.281628 211 211 211 0
-3.166765 0.000000 22.376010 211 211 211 0
-3.082574 0.000000 22.386158 211 211 211 0
-2.988378 0.000000 22.322152 211 211 211 0
-2.902685 0.000000 22.319763 211 211 211 0
-2.832034 0.000000 22.436396 212 212 212 0
-2.789270 0.000000 22.788157 211 211 211 0
-2.674026 0.000000 22.551351 212 212 212 0
-2.579635 0.000000 22.480477 212 212 212 0
-2.488375 0.000000 22.432949 212 212 212 0
-2.407673 0.000000 22.480605 212 212 212 0
-2.331203 0.000000 22.572772 212 212 212 0
-2.250396 0.000000 22.628413 212 212 212 0
-2.169756 0.000000 22.690262 212 212 212 0
-2.086978 0.000000 22.733961 212 212 212 0
-2.006374 0.000000 22.806186 213 213 213 0
-1.925596 0.000000 22.882905 213 213 213 0
-1.842742 0.000000 22.941079 212 212 212 0
-1.758494 0.000000 22.986851 212 212 212 0
-1.677512 0.000000 23.082374 213 213 213 0
-1.594734 0.000000 23.162442 212 212 212 0
-1.508344 0.000000 23.196377 212 212 212 0
-1.429273 0.000000 23.354134 213 213 213 0
-1.347287 0.000000 23.482126 212 212 212 0
-1.257418 0.000000 23.481190 212 212 212 0
-1.167781 0.000000 23.484784 211 211 211 0
-1.080038 0.000000 23.530232 213 213 213 0
-0.998909 0.000000 23.741148 211 211 211 0
-0.909311 0.000000 23.772838 212 212 212 0
-0.818771 0.000000 23.784196 211 211 211 0
-0.728365 0.000000 23.802778 211 211 211 0
-0.640137 0.000000 23.907994 211 211 211 0
-0.553356 0.000000 24.111384 210 210 210 0
-0.462300 0.000000 24.172550 211 211 211 0
-0.370378 0.000000 24.207702 211 211 211 0
-0.279044 0.000000 24.317518 210 210 210 0
-0.187534 0.000000 24.514237 210 210 210 0
-0.094328 0.000000 24.660910 210 210 210 0
0.000000 0.000000 24.701643 209 209 209 0
0.094983 0.000000 24.832183 209 209 209 0
0.192366 0.000000 25.145915 208 208 208 0
0.290238 0.000000 25.293040 209 209 209 0
0.387390 0.000000 25.319579 208 208 208 0
0.488118 0.000000 25.522485 208 208 208 0
0.592539 0.000000 25.818700 208 208 208 0
0.694101 0.000000 25.923480 207 207 207 0
0.799895 0.000000 26.140353 207 207 207 0
0.911063 0.000000 26.465154 208 208 208 0
1.014622 0.000000 26.526067 211 211 211 0
1.112837 0.000000 26.448880 211 211 211 0
1.208354 0.000000 26.325795 210 210 210 0
1.311737 0.000000 26.379838 209 209 209 0
1.417083 0.000000 26.462802 210 210 210 0
1.517130 0.000000 26.442358 208 208 208 0
1.617193 0.000000 26.424728 209 209 209 0
1.718090 0.000000 26.421996 208 208 208 0
1.822834 0.000000 26.475442 209 209 209 0
1.926700 0.000000 26.511183 208 208 208 0
2.030296 0.000000 26.539811 209 209 209 0
2.128340 0.000000 26.496612 209 209 209 0
2.224594 0.000000 26.436058 208 208 208 0
2.328430 0.000000 26.466956 208 208 208 0
2.436277 0.000000 26.538961 209 209 209 0
2.534504 0.000000 26.504613 208 208 208 0
2.631183 0.000000 26.457349 208 208 208 0
2.730098 0.000000 26.435229 208 208 208 0
2.829357 0.000000 26.417904 208 208 208 0
2.938541 0.000000 26.491243 208 208 208 0
3.043842 0.000000 26.525854 208 208 208 0
3.144328 0.000000 26.517629 208 208 208 0
3.247197 0.000000 26.529388 208 208 208 0
3.350799 0.000000 26.546241 208 208 208 0
3.459529 0.000000 26.601529 208 208 208 0
3.573038 0.000000 26.689363 208 208 208 0
3.672916 0.000000 26.673322 207 207 207 0
3.777285 0.000000 26.689880 208 208 208 0
3.896026 0.000000 26.804447 208 208 208 0
4.015990 0.000000 26.921332 208 208 208 0
4.117850 0.000000 26.914053 207 207 207 0
4.216466 0.000000 26.886440 208 208 208 0
4.327070 0.000000 26.934763 208 208 208 0
4.459950 0.000000 27.116280 208 208 208 0
4.558324 0.000000 27.084518 207 207 207 0
4.655260 0.000000 27.045808 207 207 207 0
4.770883 0.000000 27.114994 206 206 206 0
4.907442 0.000000 27.297687 206 206 206 0
5.017568 0.000000 27.328799 207 207 207 0
5.128181 0.000000 27.361243 207 207 207 0
5.245316 0.000000 27.426489 206 206 206 0
5.377867 0.000000 27.568203 206 206 206 0
5.500160 0.000000 27.652892 206 206 206 0
5.615999 0.000000 27.702548 204 204 204 0
5.763247 0.000000 27.902432 205 205 205 0
5.901648 0.000000 28.052990 204 204 204 0
6.018891 0.000000 28.099397 204 204 204 0
6.154815 0.000000 28.229861 203 203 203 0
6.307727 0.000000 28.432396 202 202 202 0
6.428305 0.000000 28.484790 201 201 201 0
6.566078 0.000000 28.610363 202 202 202 0
6.729527 0.000000 28.841859 201 201 201 0
6.874935 0.000000 28.989817 199 199 199 0
7.031650 0.000000 29.179999 197 197 197 0
7.198188 0.000000 29.404362 197 197 197 0
7.381729 0.000000 29.690211 196 196 196 0
7.587885 0.000000 30.056983 192 192 192 0
7.817063 0.000000 30.502638 190 190 190 0
8.097021 0.000000 31.130414 185 185 185 0
8.313024 0.000000 31.497677 161 161 161 0
8.521486 0.000000 31.826280 81 81 81 0
-8.601808 0.107523 28.110485 188 188 188 0
-6.585155 0.083356 21.792522 188 188 188 0
-6.438268 0.082542 21.579582 188 188 188 0
-6.303348 0.081862 21.401742 191 191 191 0
-6.178217 0.081292 21.252896 194 194 194 0
-6.069887 0.080932 21.158646 194 194 194 0
-5.972389 0.080708 21.100122 194 194 194 0
-5.961067 0.081658 21.348614 194 194 194 0
-5.921965 0.082250 21.503139 197 197 197 0
-5.829904 0.082111 21.467013 199 199 199 0
-5.742141 0.082031 21.445906 199 199 199 0
-5.645414 0.081818 21.390219 199 199 199 0
-5.561661 0.081789 21.382781 199 199 199 0
-5.486268 0.081885 21.407738 200 200 200 0
-5.433152 0.082320 21.521696 202 202 202 0
-5.369220 0.082603 21.595657 203 203 203 0
-5.276282 0.082442 21.553438 203 203 203 0
-5.177850 0.082188 21.487084 203 203 203 0
-5.108342 0.082393 21.540553 203 203 203 0
-5.066757 0.083062 21.715449 204 204 204 0
-5.027898 0.083798 21.908053 206 206 206 0
-4.925036 0.083475 21.823580 206 206 206 0
-4.800808 0.082773 21.639884 206 206 206 0
-4.704899 0.082542 21.579630 206 206 206 0
-4.623854 0.082569 21.586618 206 206 206 0
-4.587848 0.083415 21.807951 206 206 206 0
-4.512573 0.083566 21.847365 207 207 207 0
-4.418671 0.083371 21.796379 208 208 208 0
-4.312932 0.082941 21.683923 209 209 209 0
-4.208706 0.082524 21.574811 209 209 209 0
-4.131274 0.082625 21.601432 209 209 209 0
-4.094701 0.083565 21.847145 208 208 208 0
-4.028077 0.083918 21.939415 209 209 209 0
-3.933387 0.083689 21.879497 210 210 210 0
-3.839324 0.083464 21.820542 209 209 209 0
-3.744887 0.083220 21.756789 210 210 210 0
-3.681750 0.083676 21.876111 210 210 210 0
-3.622219 0.084238 22.022915 210 210 210 0
-3.543505 0.084369 22.057299 210 210 210 0
-3.450912 0.084169 22.004861 211 211 211 0
-3.357058 0.083926 21.941557 211 211 211 0
-3.296597 0.084528 22.098858 211 211 211 0
-3.239340 0.085246 22.286480 212 212 212 0
-3.166096 0.085570 22.371283 212 212 212 0
-3.084592 0.085683 22.400813 212 212 212 0
-2.988862 0.085396 22.325769 212 212 212 0
-2.902640 0.085372 22.319419 212 212 212 0
-2.832549 0.085835 22.440475 212 212 212 0
-2.815671 0.087990 23.003847 212 212 212 0
-2.674716 0.086281 22.557169 212 212 212 0
-2.577389 0.085913 22.460904 213 213 213 0
-2.488595 0.085814 22.434938 213 213 213 0
-2.409500 0.086054 22.497663 212 212 212 0
-2.330688 0.086322 22.567785 212 212 212 0
-2.249710 0.086527 22.621514 213 213 213 0
-2.169816 0.086793 22.690882 213 213 213 0
-2.087422 0.086976 22.738797 213 213 213 0
-2.005336 0.087189 22.794388 213 213 213 0
-1.925678 0.087531 22.883870 212 212 212 0
-1.840757 0.087655 22.916367 213 213 213 0
-1.756300 0.087815 22.958171 213 213 213 0
-1.675782 0.088199 23.058582 212 212 212 0
-1.594640 0.088591 23.161077 212 212 212 0
-1.508808 0.088753 23.203512 212 212 212 0
-1.428725 0.089295 23.345173 213 213 213 0
-1.347571 0.089838 23.487072 213 213 213 0
-1.258025 0.089859 23.492524 212 212 212 0
-1.167868 0.089836 23.486535 212 212 212 0
-1.079511 0.089959 23.518767 211 211 211 0
-0.998275 0.090752 23.726083 212 212 212 0
-0.908818 0.090882 23.759944 211 211 211 0
-0.819069 0.091008 23.792846 211 211 211 0
-0.728327 0.091041 23.801526 211 211 211 0
-0.639797 0.091400 23.895323 211 211 211 0
-0.553337 0.092223 24.110526 211 211 211 0
-0.462299 0.092460 24.172486 211 211 211 0
-0.370133 0.092533 24.191692 209 209 209 0
-0.279197 0.093066 24.330866 210 210 210 0
