ply
    format ascii 1.0
    element vertex 18726
    property float x
    property float y
    property float z
    property uchar red
    property uchar green
    property uchar blue
    property uchar alpha
    end_header
-2.497337 1.980647 22.513746 207 207 207 0
-2.421688 1.989244 22.611468 207 207 207 0
-2.349112 2.001096 22.746184 206 206 206 0
-2.271298 2.009225 22.838594 206 206 206 0
-2.186092 2.011204 22.861088 206 206 206 0
-2.109199 2.021315 22.976020 207 207 207 0
-2.027219 2.027219 23.043131 207 207 207 0
-1.953429 2.042221 23.213650 207 207 207 0
-1.875760 2.054404 23.352131 208 208 208 0
-1.795621 2.064964 23.472171 207 207 207 0
-1.709712 2.069652 23.525456 205 205 205 0
-1.626899 2.078816 23.629620 205 205 205 0
-1.546152 2.091853 23.777815 207 207 207 0
-1.466221 2.107693 23.957864 207 207 207 0
-1.374121 2.106985 23.949813 205 205 205 0
-1.283078 2.107914 23.960370 204 204 204 0
-1.187060 2.100184 23.872506 205 205 205 0
-1.117217 2.141332 24.340237 206 206 206 0
-1.026121 2.145527 24.387913 204 204 204 0
-0.932447 2.144628 24.377697 203 203 203 0
-0.844848 2.159055 24.541688 204 204 204 0
-0.765499 2.200811 25.016324 205 205 205 0
-0.677777 2.226982 25.313810 203 203 203 0
-0.580202 2.224109 25.281153 202 202 202 0
-0.482190 2.218072 25.212524 203 203 203 0
-0.385932 2.219110 25.224325 200 200 200 0
-0.288313 2.210403 25.125354 196 196 196 0
-0.191367 2.200720 25.015287 186 186 186 0
-0.095342 2.192871 24.926066 190 190 190 0
0.000000 2.182823 24.811857 190 190 190 0
0.094799 2.180371 24.783987 190 190 190 0
0.190802 2.194223 24.941443 191 191 191 0
0.285989 2.192584 24.922811 193 193 193 0
0.379774 2.183700 24.821822 193 193 193 0
0.471904 2.170758 24.674718 197 197 197 0
0.561149 2.151070 24.450927 193 193 193 0
0.651256 2.139842 24.323296 195 195 195 0
0.741175 2.130878 24.221399 196 196 196 0
0.783538 2.002374 22.760719 197 197 197 0
0.676602 1.556185 17.688941 197 197 197 0
1.017259 2.126996 24.177282 197 197 197 0
1.103449 2.114943 24.040276 198 198 198 0
1.187094 2.100244 23.873190 199 199 199 0
1.270296 2.086914 23.721673 200 200 200 0
1.356830 2.080472 23.648448 201 201 201 0
1.444980 2.077159 23.610787 202 202 202 0
1.537809 2.080565 23.649500 203 203 203 0
1.623918 2.075006 23.586319 203 203 203 0
1.706144 2.065332 23.476351 203 203 203 0
1.789986 2.058484 23.398516 203 203 203 0
1.873982 2.052456 23.329991 204 204 204 0
1.961978 2.051159 23.315244 206 206 206 0
2.048548 2.048548 23.285570 206 206 206 0
2.134666 2.045722 23.253443 206 206 206 0
2.221586 2.043859 23.232269 206 206 206 0
2.304559 2.038648 23.173037 207 207 207 0
2.384365 2.031126 23.087533 208 208 208 0
2.474013 2.032225 23.100025 208 208 208 0
2.563915 2.033450 23.113954 209 209 209 0
2.651530 2.032839 23.107011 209 209 209 0
2.737589 2.031114 23.087403 209 209 209 0
2.820021 2.026890 23.039388 210 210 210 0
2.900879 2.021824 22.981807 210 210 210 0
2.984902 2.019198 22.951958 210 210 210 0
3.073944 2.020020 22.961299 211 211 211 0
3.345253 2.137245 24.293776 211 211 211 0
3.241718 2.015122 22.905622 211 211 211 0
3.325619 2.012875 22.880074 212 212 212 0
3.405930 2.008625 22.831774 213 213 213 0
3.485080 2.003921 22.778303 213 213 213 0
3.569980 2.002671 22.764097 212 212 212 0
3.665273 2.007173 22.815266 213 213 213 0
3.753233 2.007543 22.819474 213 213 213 0
3.839088 2.006796 22.810982 214 214 214 0
3.922123 2.004641 22.786484 213 213 213 0
4.010549 2.005275 22.793687 213 213 213 0
4.098850 2.005820 22.799889 214 214 214 0
4.184224 2.004940 22.789889 214 214 214 0
4.275712 2.006967 22.812923 214 214 214 0
4.365292 2.008034 22.825056 214 214 214 0
4.455158 2.009189 22.838183 215 215 215 0
4.538037 2.007209 22.815669 215 215 215 0
4.642534 2.014685 22.900649 215 215 215 0
4.742889 2.020120 22.962427 215 215 215 0
4.826135 2.018202 22.940630 215 215 215 0
4.906945 2.015352 22.908238 215 215 215 0
5.001019 2.017955 22.937823 216 216 216 0
5.104253 2.024100 23.007677 215 215 215 0
5.194369 2.024923 23.017032 216 216 216 0
5.277904 2.023197 22.997404 215 215 215 0
5.361091 2.021395 22.976923 215 215 215 0
5.450216 2.021854 22.982147 216 216 216 0
5.564081 2.031331 23.089869 215 215 215 0
5.664835 2.035800 23.140667 215 215 215 0
5.753206 2.035750 23.140093 215 215 215 0
5.856323 2.040840 23.197953 215 215 215 0
5.966661 2.048257 23.282258 215 215 215 0
6.068750 2.052665 23.332372 215 215 215 0
6.169541 2.056514 23.376116 215 215 215 0
6.268640 2.059696 23.412289 214 214 214 0
6.383885 2.068019 23.506897 214 214 214 0
6.507273 2.078712 23.628442 214 214 214 0
6.624526 2.087179 23.724688 213 213 213 0
6.734307 2.093095 23.791933 213 213 213 0
7.164898 2.197235 24.975678 213 213 213 0
6.966473 2.108275 23.964475 212 212 212 0
7.080946 2.115088 24.041917 211 211 211 0
7.193160 2.121060 24.109804 211 211 211 0
7.330323 2.134145 24.258537 210 210 210 0
-10.711343 3.213403 35.004388 171 171 171 0
-6.519062 1.980474 21.573796 172 172 172 0
-6.342623 1.951576 21.259003 174 174 174 0
-6.200341 1.932574 21.052004 180 180 180 0
-6.096711 1.925277 20.972518 182 182 182 0
-6.023581 1.927546 20.997233 182 182 182 0
-5.932629 1.924096 20.959652 183 183 183 0
-5.902910 1.940683 21.140336 184 184 184 0
-5.879085 1.959695 21.347442 188 188 188 0
-5.771907 1.951067 21.253454 190 190 190 0
-5.683094 1.948489 21.225373 191 191 191 0
-5.588116 1.943692 21.173120 191 191 191 0
-5.509336 1.944472 21.181607 192 192 192 0
-5.443030 1.949742 21.239021 192 192 192 0
-5.401271 1.964098 21.395407 193 193 193 0
-5.354400 1.977009 21.536047 194 194 194 0
-5.257257 1.971471 21.475724 196 196 196 0
-5.162415 1.966634 21.423030 197 197 197 0
-5.077550 1.965503 21.410712 197 197 197 0
-5.044648 1.984779 21.620691 199 199 199 0
-5.005909 2.002364 21.812240 200 200 200 0
-4.911742 1.997997 21.764672 200 200 200 0
-4.787567 1.981062 21.580200 200 200 200 0
-4.684939 1.972606 21.488084 200 200 200 0
-4.597337 1.970287 21.462827 201 201 201 0
-4.907699 2.141541 23.328338 202 202 202 0
-4.517902 2.007956 21.873164 202 202 202 0
-4.429997 2.006036 21.852247 202 202 202 0
-4.304858 1.986857 21.643327 202 202 202 0
-4.201101 1.976989 21.535827 204 204 204 0
-4.111393 1.973469 21.497482 203 203 203 0
-4.074650 1.995747 21.740164 204 204 204 0
-4.026264 2.013132 21.929542 204 204 204 0
-3.921682 2.002561 21.814390 205 205 205 0
-3.831185 1.998879 21.774283 205 205 205 0
-3.739440 1.994368 21.725139 205 205 205 0
-3.682388 2.008575 21.879902 205 205 205 0
-3.621282 2.021181 22.017218 206 206 206 0
-3.548657 2.027804 22.089368 206 206 206 0
-3.457043 2.023635 22.043956 206 206 206 0
-3.369621 2.021773 22.023666 206 206 206 0
-3.293774 2.026938 22.079935 205 205 205 0
-3.243281 2.048388 22.313597 205 205 205 0
-3.171775 2.057368 22.411413 205 205 205 0
-3.090448 2.060299 22.443339 205 205 205 0
-2.997673 2.055547 22.391582 206 206 206 0
-2.907394 2.052278 22.355973 206 206 206 0
-2.844126 2.068455 22.532190 206 206 206 0
-2.779174 2.084380 22.705668 206 206 206 0
-2.688901 2.081730 22.676795 207 207 207 0
-2.592524 2.074019 22.592799 206 206 206 0
-2.505797 2.073763 22.590011 206 206 206 0
-2.427888 2.081047 22.669355 206 206 206 0
-2.360029 2.097804 22.851892 206 206 206 0
-2.279364 2.104029 22.919701 206 206 206 0
-2.194615 2.106830 22.950219 206 206 206 0
-2.115861 2.115861 23.048590 206 206 206 0
-2.037887 2.126491 23.164385 206 206 206 0
-1.961061 2.139340 23.304354 207 207 207 0
-1.884465 2.153674 23.460502 205 205 205 0
-1.801638 2.161966 23.550825 205 205 205 0
-1.718141 2.170283 23.641429 206 206 206 0
-1.633730 2.178307 23.728836 205 205 205 0
-1.554453 2.194522 23.905466 206 206 206 0
-1.471502 2.207253 24.044147 205 205 205 0
-1.379808 2.207693 24.048945 204 204 204 0
-1.288540 2.208925 24.062368 205 205 205 0
-1.307847 2.414488 26.301607 205 205 205 0
-1.121863 2.243727 24.441470 203 203 203 0
-1.030555 2.248483 24.493283 202 202 202 0
-0.939269 2.254245 24.556044 202 202 202 0
-0.851316 2.270176 24.729583 202 202 202 0
-0.769931 2.309793 25.161149 203 203 203 0
-0.681394 2.336208 25.448890 202 202 202 0
-0.582798 2.331194 25.394266 201 201 201 0
-0.483324 2.319954 25.271826 201 201 201 0
-0.386873 2.321239 25.285829 198 198 198 0
-0.288794 2.310355 25.167267 188 188 188 0
-0.191112 2.293341 24.981923 185 185 185 0
-0.095390 2.289352 24.938470 186 186 186 0
0.000000 2.276993 24.803849 188 188 188 0
0.094985 2.279636 24.832635 185 185 185 0
0.191251 2.295012 25.000131 192 192 192 0
0.286643 2.293145 24.979788 190 190 190 0
0.380143 2.280860 24.845972 192 192 192 0
0.471741 2.264357 24.666200 195 195 195 0
0.561448 2.245791 24.463959 194 194 194 0
0.651117 2.232400 24.318083 194 194 194 0
0.740809 2.222427 24.209445 195 195 195 0
0.799606 2.132282 23.227475 196 196 196 0
0.926922 2.224613 24.233255 198 198 198 0
1.017482 2.219962 24.182589 198 198 198 0
1.103424 2.206849 24.039745 200 200 200 0
1.187124 2.191613 23.873780 200 200 200 0
1.270622 2.178210 23.727777 200 200 200 0
1.355623 2.168997 23.627421 201 201 201 0
1.444311 2.166466 23.599846 202 202 202 0
1.537013 2.169901 23.637267 204 204 204 0
1.623419 2.164559 23.579069 203 203 203 0
1.705386 2.154171 23.465917 204 204 204 0
1.789993 2.147992 23.398606 203 203 203 0
1.874982 2.142837 23.342447 204 204 204 0
1.961953 2.140313 23.314953 206 206 206 0
2.049065 2.138155 23.291450 206 206 206 0
2.134393 2.134393 23.250469 206 206 206 0
2.220937 2.132099 23.225483 206 206 206 0
2.305693 2.128332 23.184444 207 207 207 0
2.385530 2.120471 23.098817 208 208 208 0
2.472377 2.119180 23.084754 208 208 208 0
2.562471 2.120666 23.100933 209 209 209 0
2.650362 2.120290 23.096837 208 208 208 0
2.735733 2.117987 23.071749 208 208 208 0
2.821499 2.116124 23.051464 210 210 210 0
2.900803 2.109675 22.981210 210 210 210 0
2.986807 2.108334 22.966603 210 210 210 0
3.074543 2.108258 22.965772 210 210 210 0
3.388808 2.259205 24.610078 211 211 211 0
3.239799 2.101491 22.892060 212 212 212 0
3.325274 2.100173 22.877699 212 212 212 0
3.404575 2.095123 22.822691 212 212 212 0
3.486036 2.091622 22.784551 212 212 212 0
3.568984 2.089161 22.757746 213 213 213 0
3.663660 2.093520 22.805227 213 213 213 0
3.752480 2.094407 22.814894 213 213 213 0
3.838199 2.093563 22.805695 214 214 214 0
3.920147 2.090745 22.775000 214 214 214 0
4.007698 2.090973 22.777480 214 214 214 0
4.095354 2.091245 22.780442 214 214 214 0
4.183312 2.091656 22.784922 213 213 213 0
4.276192 2.094461 22.815481 215 215 215 0
4.362633 2.094064 22.811150 214 214 214 0
4.452294 2.095197 22.823500 215 215 215 0
4.536624 2.093827 22.808569 214 214 214 0
4.641797 2.101946 22.897015 214 214 214 0
4.740734 2.106993 22.951991 215 215 215 0
4.824927 2.105422 22.934885 215 215 215 0
4.906423 2.102753 22.905805 216 216 216 0
4.999064 2.104869 22.928858 216 216 216 0
5.106087 2.112863 23.015942 215 215 215 0
5.193389 2.112565 23.012692 215 215 215 0
5.277546 2.111018 22.995841 215 215 215 0
5.359010 2.108463 22.968006 215 215 215 0
5.453750 2.111129 22.997046 215 215 215 0
5.561562 2.118690 23.079414 215 215 215 0
5.664252 2.124094 23.138284 215 215 215 0
5.752416 2.123969 23.136918 215 215 215 0
5.856183 2.129521 23.197397 215 215 215 0
5.962607 2.135859 23.266441 215 215 215 0
6.066133 2.140988 23.322311 214 214 214 0
6.169209 2.145812 23.374856 214 214 214 0
6.267875 2.148986 23.409430 214 214 214 0
6.382352 2.157415 23.501250 214 214 214 0
6.505144 2.168381 23.620712 214 214 214 0
6.621378 2.176891 23.713413 213 213 213 0
6.733686 2.183898 23.789740 213 213 213 0
7.353731 2.353194 25.633921 213 213 213 0
6.962518 2.198690 23.950871 212 212 212 0
7.080725 2.206979 24.041168 211 211 211 0
7.190270 2.212391 24.100117 211 211 211 0
7.328016 2.226233 24.250902 211 211 211 0
-7.963928 2.488727 26.025908 167 167 167 0
-6.500316 2.057062 21.511760 171 171 171 0
-6.372361 2.042423 21.358675 172 172 172 0
-6.252676 2.030090 21.229696 174 174 174 0
-6.128307 2.015891 21.081208 180 180 180 0
-6.041390 2.013797 21.059310 182 182 182 0
-5.952181 2.010872 21.028726 183 183 183 0
-5.943583 2.035474 21.286000 184 184 184 0
-5.895368 2.047003 21.406564 185 185 185 0
-5.783562 2.036465 21.296370 186 186 186 0
-5.702779 2.036707 21.298893 190 190 190 0
-5.601281 2.029450 21.223004 191 191 191 0
-5.532793 2.034115 21.271791 193 193 193 0
-5.458659 2.036813 21.300005 193 193 193 0
-5.431206 2.057275 21.513986 193 193 193 0
-5.369153 2.065059 21.595389 194 194 194 0
-5.267682 2.057688 21.518309 194 194 194 0
-5.166089 2.050035 21.438277 194 194 194 0
-5.107515 2.059482 21.537065 196 196 196 0
-5.066467 2.076421 21.714208 197 197 197 0
-5.035621 2.098175 21.941703 198 198 198 0
-4.923213 2.086107 21.815501 199 199 199 0
-4.806237 2.071654 21.664353 200 200 200 0
-4.694208 2.058863 21.530595 201 201 201 0
-4.614000 2.059822 21.540617 200 200 200 0
-4.599340 2.090609 21.862579 201 201 201 0
-4.527425 2.096030 21.919268 202 202 202 0
-4.431287 2.090230 21.858609 202 202 202 0
-4.317596 2.075767 21.707369 202 202 202 0
-4.210836 2.064135 21.585728 203 203 203 0
-4.124445 2.062223 21.565728 203 203 203 0
-4.094355 2.088957 21.845298 203 203 203 0
-4.038843 2.103564 21.998056 204 204 204 0
-3.936753 2.094017 21.898220 204 204 204 0
-3.838230 2.085994 21.814321 205 205 205 0
-3.755019 2.086122 21.815651 205 205 205 0
-3.698156 2.101225 21.973593 205 205 205 0
-3.632699 2.112034 22.086632 205 205 205 0
-3.562717 2.120665 22.176889 204 204 204 0
-3.468720 2.115073 22.118415 204 204 204 0
-3.382411 2.114007 22.107259 205 205 205 0
-3.304569 2.118313 22.152295 205 205 205 0
-3.255251 2.141612 22.395946 205 205 205 0
-3.181231 2.149480 22.478226 205 205 205 0
-3.097238 2.150860 22.492649 205 205 205 0
-3.003958 2.145684 22.438526 206 206 206 0
-2.917033 2.144877 22.430085 206 206 206 0
-2.856481 2.164000 22.630071 206 206 206 0
-2.787253 2.177541 22.771675 207 207 207 0
-2.695570 2.173847 22.733037 206 206 206 0
-2.599266 2.166055 22.651556 205 205 205 0
-2.516723 2.169589 22.688508 204 204 204 0
-2.436999 2.175892 22.754429 206 206 206 0
-2.369555 2.194033 22.944134 206 206 206 0
-2.287361 2.199386 23.000115 206 206 206 0
-2.201044 2.201044 23.017448 206 206 206 0
-2.122892 2.211346 23.125190 206 206 206 0
-2.044033 2.221775 23.234245 205 205 205 0
-1.966611 2.234786 23.370307 205 205 205 0
-1.888869 2.248654 23.515332 205 205 205 0
-1.807625 2.259532 23.629091 204 204 204 0
-1.722387 2.266298 23.699851 205 205 205 0
-1.639606 2.277230 23.814172 205 205 205 0
-1.561967 2.297011 24.021028 204 204 204 0
-1.477507 2.308604 24.142264 203 203 203 0
-1.383510 2.305851 24.113472 203 203 203 0
-1.292647 2.308299 24.139075 204 204 204 0
-1.217185 2.340740 24.478329 203 203 203 0
-1.128122 2.350254 24.577823 202 202 202 0
-1.034212 2.350482 24.580201 202 202 202 0
-0.945881 2.364702 24.728913 202 202 202 0
-0.859971 2.388808 24.980996 201 201 201 0
-0.778031 2.431347 25.425853 200 200 200 0
-0.684442 2.444437 25.562744 200 200 200 0
-0.585210 2.438373 25.499330 200 200 200 0
-0.484688 2.423441 25.343176 198 198 198 0
-0.386430 2.415185 25.256832 193 193 193 0
-0.288512 2.404269 25.142682 182 182 182 0
-0.191687 2.396091 25.057156 184 184 184 0
-0.095621 2.390534 24.999048 187 187 187 0
0.000000 2.373260 24.818408 185 185 185 0
0.095351 2.383767 24.928284 186 186 186 0
0.191670 2.395874 25.054891 190 190 190 0
0.286916 2.390969 25.003597 188 188 188 0
0.380103 2.375642 24.843318 189 189 189 0
0.471933 2.359664 24.676220 193 193 193 0
0.561320 2.338835 24.458404 192 192 192 0
0.650958 2.324848 24.312139 192 192 192 0
0.740577 2.314303 24.201861 195 195 195 0
0.805350 2.237083 23.394329 196 196 196 0
0.927424 2.318559 24.246366 197 197 197 0
1.018162 2.314004 24.198734 196 196 196 0
1.103198 2.298329 24.034812 200 200 200 0
1.186958 2.282611 23.870445 199 199 199 0
1.270269 2.268338 23.721185 200 200 200 0
1.357031 2.261718 23.651956 199 199 199 0
1.444128 2.256450 23.596860 202 202 202 0
1.537310 2.260750 23.641830 202 202 202 0
1.623206 2.254453 23.575976 203 203 203 0
1.706256 2.245073 23.477892 203 203 203 0
1.789662 2.237078 23.394276 203 203 203 0
1.875296 2.232496 23.346360 205 205 205 0
1.962012 2.229559 23.315651 206 206 206 0
2.047182 2.225198 23.270044 206 206 206 0
2.135766 2.224756 23.265425 206 206 206 0
2.220896 2.220896 23.225056 206 206 206 0
2.304414 2.215783 23.171586 207 207 207 0
2.383427 2.206877 23.078448 208 208 208 0
2.471886 2.207041 23.080171 208 208 208 0
2.563502 2.209916 23.110229 209 209 209 0
2.649452 2.207876 23.088904 208 208 208 0
2.737027 2.207280 23.082664 209 209 209 0
2.820576 2.203575 23.043922 211 211 211 0
2.901683 2.198244 22.988176 210 210 210 0
2.987736 2.196865 22.973749 210 210 210 0
3.075576 2.196840 22.973493 210 210 210 0
3.386337 2.351623 24.592138 211 211 211 0
3.237567 2.187545 22.876287 212 212 212 0
3.325955 2.188128 22.882386 212 212 212 0
3.403652 2.181828 22.816503 213 213 213 0
3.485773 2.178608 22.782827 212 212 212 0
3.568496 2.175912 22.754639 213 213 213 0
3.663726 2.180789 22.805641 212 212 212 0
3.754366 2.182771 22.826361 213 213 213 0
3.837792 2.180563 22.803277 213 213 213 0
3.919682 2.177601 22.772299 214 214 214 0
4.006384 2.177382 22.770013 214 214 214 0
4.094437 2.177892 22.775339 214 214 214 0
4.182306 2.178284 22.779443 214 214 214 0
4.273087 2.180146 22.798915 214 214 214 0
4.363007 2.181503 22.813108 214 214 214 0
4.449954 2.181350 22.811502 214 214 214 0
4.533584 2.179607 22.793281 214 214 214 0
4.639933 2.188648 22.887817 215 215 215 0
4.739795 2.194349 22.947444 215 215 215 0
4.824395 2.192907 22.932361 215 215 215 0
4.903820 2.189205 22.893650 215 215 215 0
4.998499 2.192324 22.926264 215 215 215 0
5.107305 2.201424 23.021432 215 215 215 0
5.192419 2.200178 23.008393 215 215 215 0
5.274623 2.197759 22.983106 215 215 215 0
5.357912 2.195866 22.963302 215 215 215 0
5.451599 2.198225 22.987978 215 215 215 0
5.562118 2.207190 23.081721 216 216 216 0
5.663726 2.212393 23.136135 215 215 215 0
5.751213 2.212005 23.132080 215 215 215 0
5.853062 2.217069 23.185034 215 215 215 0
5.964014 2.225378 23.271929 214 214 214 0
6.068111 2.230923 23.329917 214 214 214 0
6.166637 2.234289 23.365111 214 214 214 0
6.264918 2.237471 23.398388 214 214 214 0
6.380272 2.246575 23.493590 214 214 214 0
6.504512 2.258511 23.618417 214 214 214 0
6.622056 2.267827 23.715841 213 213 213 0
6.733958 2.274986 23.790701 213 213 213 0
7.411568 2.470523 25.835530 213 213 213 0
6.962478 2.290289 23.950733 212 212 212 0
7.082410 2.299484 24.046888 211 211 211 0
7.190099 2.304519 24.099544 211 211 211 0
7.325994 2.318353 24.244210 210 210 210 0
-6.750936 2.194054 22.061882 160 160 160 0
-6.533296 2.150199 21.620903 167 167 167 0
-6.401969 2.133990 21.457914 171 171 171 0
-6.275587 2.119029 21.307485 172 172 172 0
-6.153150 2.105025 21.166666 175 175 175 0
-6.064448 2.102342 21.139689 179 179 179 0
-5.978267 2.100472 21.120888 182 182 182 0
-5.977039 2.128808 21.405817 184 184 184 0
-5.936410 2.143704 21.555591 184 184 184 0
-5.816723 2.130068 21.418478 186 186 186 0
-5.738122 2.131302 21.430894 185 185 185 0
-5.642355 2.126105 21.378631 189 189 189 0
-5.554360 2.123726 21.354711 191 191 191 0
-5.498633 2.133798 21.455988 193 193 193 0
-5.472353 2.155776 21.676979 192 192 192 0
-5.389241 2.155697 21.676185 193 193 193 0
-5.291892 2.149831 21.617206 195 195 195 0
-5.183753 2.139327 21.511581 195 195 195 0
-5.124823 2.149119 21.610047 195 195 195 0
-5.086268 2.167918 21.799071 196 196 196 0
-5.047409 2.187211 21.993067 195 195 195 0
-4.944179 2.178791 21.908404 196 196 196 0
-4.815868 2.158837 21.707766 197 197 197 0
-4.707897 2.147462 21.593382 198 198 198 0
-4.631262 2.150229 21.621203 199 199 199 0
-4.621906 2.184901 21.969844 200 200 200 0
-4.546771 2.189186 22.012930 200 200 200 0
-4.438359 2.177308 21.893498 201 201 201 0
-4.324242 2.162121 21.740786 201 201 201 0
-4.217776 2.150239 21.621304 202 202 202 0
-4.137040 2.151261 21.631584 202 202 202 0
-4.113414 2.182628 21.946988 202 202 202 0
-4.048192 2.192771 22.048977 202 202 202 0
-3.948405 2.184224 21.963038 203 203 203 0
-3.852572 2.177541 21.895834 202 202 202 0
-3.772371 2.179592 21.916464 202 202 202 0
-3.711650 2.193247 22.053771 203 203 203 0
-3.645477 2.204242 22.164322 203 203 203 0
-3.577045 2.214361 22.266074 203 203 203 0
-3.475327 2.203866 22.160540 203 203 203 0
-3.395632 2.207161 22.193671 204 204 204 0
-3.320851 2.213901 22.261448 204 204 204 0
-3.266934 2.235270 22.476323 205 205 205 0
-3.193634 2.244176 22.565868 205 205 205 0
-3.105505 2.242864 22.552685 205 205 205 0
-3.010687 2.236510 22.488788 205 205 205 0
-2.927559 2.238721 22.511025 206 206 206 0
-2.865249 2.257469 22.699538 206 206 206 0
-2.798729 2.273967 22.865430 205 205 205 0
-2.702808 2.266871 22.794076 204 204 204 0
-2.607323 2.259680 22.721765 204 204 204 0
-2.527045 2.265626 22.781562 205 205 205 0
-2.447819 2.272975 22.855450 205 205 205 0
-2.376014 2.288014 23.006672 205 205 205 0
-2.295726 2.295726 23.084221 205 205 205 0
-2.208350 2.296685 23.093861 205 205 205 0
-2.130329 2.307857 23.206202 204 204 204 0
-2.051527 2.319117 23.319432 203 203 203 0
-1.974085 2.333009 23.459116 204 204 204 0
-1.897480 2.349261 23.622533 205 205 205 0
-1.813368 2.357378 23.704153 205 205 205 0
-1.731715 2.369716 23.828213 205 205 205 0
-1.649113 2.382052 23.952260 204 204 204 0
-1.569338 2.400163 24.134373 202 202 202 0
-1.483642 2.410918 24.242510 203 203 203 0
-1.389326 2.408164 24.214825 202 202 202 0
-1.300499 2.415212 24.285691 203 203 203 0
-1.221119 2.442237 24.557439 202 202 202 0
-1.132989 2.454808 24.683846 201 201 201 0
-1.039131 2.456129 24.697121 201 201 201 0
-0.951314 2.473416 24.870950 202 202 202 0
-0.871005 2.516237 25.301529 201 201 201 0
-0.785566 2.553090 25.672092 197 197 197 0
-0.686851 2.551161 25.652702 196 196 196 0
-0.587061 2.543931 25.580000 196 196 196 0
-0.486036 2.527387 25.413644 193 193 193 0
-0.386871 2.514660 25.285673 178 178 178 0
-0.288594 2.501151 25.149834 178 178 178 0
-0.191765 2.492942 25.067290 182 182 182 0
-0.095674 2.487521 25.012781 182 182 182 0
0.000000 2.478834 24.925428 182 182 182 0
0.095691 2.487964 25.017238 184 184 184 0
0.191802 2.493430 25.072197 190 190 190 0
0.287248 2.489484 25.032519 189 189 189 0
0.380578 2.473760 24.874411 189 189 189 0
0.471855 2.453645 24.672145 191 191 191 0
0.561199 2.431864 24.453131 192 192 192 0
0.651330 2.419226 24.326058 191 191 191 0
0.740296 2.405962 24.192682 195 195 195 0
0.805881 2.328101 23.409759 194 194 194 0
0.928163 2.413225 24.265707 195 195 195 0
1.017622 2.405289 24.185913 195 195 195 0
1.103568 2.391064 24.042875 199 199 199 0
1.186730 2.373460 23.865860 199 199 199 0
1.270723 2.359914 23.729651 199 199 199 0
1.357557 2.353099 23.661127 200 200 200 0
1.444550 2.347394 23.603760 200 200 200 0
1.537528 2.351514 23.645190 202 202 202 0
1.622718 2.343926 23.568892 202 202 202 0
1.706196 2.334795 23.477069 202 202 202 0
1.789327 2.326125 23.389892 203 203 203 0
1.874775 2.321150 23.339866 205 205 205 0
1.961527 2.318169 23.309890 206 206 206 0
2.048758 2.315987 23.287955 205 205 205 0
2.136441 2.314478 23.272782 205 205 205 0
2.222768 2.311679 23.244635 206 206 206 0
2.305151 2.305151 23.178995 207 207 207 0
2.388116 2.299668 23.123857 208 208 208 0
2.473087 2.296438 23.091386 208 208 208 0
2.563291 2.298123 23.108322 208 208 208 0
2.650692 2.297266 23.099709 209 209 209 0
2.736732 2.295324 23.080179 209 209 209 0
2.820144 2.291367 23.040395 211 211 211 0
2.902719 2.286991 22.996391 210 210 210 0
2.986468 2.283770 22.963998 210 210 210 0
3.076837 2.285650 22.982910 211 211 211 0
3.365879 2.430913 24.443568 211 211 211 0
3.241004 2.277463 22.900579 211 211 211 0
3.325734 2.275503 22.880870 212 212 212 0
3.403635 2.269090 22.816389 212 212 212 0
3.486070 2.265946 22.784771 212 212 212 0
3.569797 2.263774 22.762936 212 212 212 0
3.663968 2.268171 22.807148 213 213 213 0
3.753488 2.269551 22.821024 214 214 214 0
3.837558 2.267648 22.801887 214 214 214 0
3.918847 2.264223 22.767450 214 214 214 0
4.006990 2.264821 22.773461 213 213 213 0
4.095077 2.265362 22.778902 213 213 213 0
4.180657 2.264523 22.770464 215 215 215 0
4.273743 2.267700 22.802414 215 215 215 0
4.362289 2.268390 22.809356 215 215 215 0
4.449792 2.268522 22.810675 215 215 215 0
4.536121 2.268060 22.806036 214 214 214 0
4.640545 2.276494 22.890835 215 215 215 0
4.739421 2.281943 22.945634 215 215 215 0
4.824184 2.280523 22.931356 216 216 216 0
4.903946 2.276832 22.894238 215 215 215 0
4.997518 2.279569 22.921764 215 215 215 0
5.108424 2.289983 23.026478 215 215 215 0
5.192068 2.288030 23.006835 215 215 215 0
5.275997 2.286265 22.989094 215 215 215 0
5.357793 2.283650 22.962791 215 215 215 0
5.450135 2.285540 22.981805 215 215 215 0
5.560734 2.294906 23.075978 215 215 215 0
5.664392 2.301159 23.138855 215 215 215 0
5.751847 2.300739 23.134629 215 215 215 0
5.854896 2.306474 23.192301 215 215 215 0
5.964008 2.314391 23.271905 215 215 215 0
6.066607 2.319585 23.324133 214 214 214 0
6.168260 2.324272 23.371261 213 213 213 0
6.270061 2.328880 23.417594 214 214 214 0
6.380278 2.336440 23.493615 214 214 214 0
6.505704 2.349282 23.622746 214 214 214 0
6.620755 2.358077 23.711183 213 213 213 0
6.738293 2.367508 23.806017 213 213 213 0
7.283605 2.524983 25.389474 213 213 213 0
6.962492 2.381905 23.950781 212 212 212 0
7.081876 2.391283 24.045075 211 211 211 0
7.194239 2.398080 24.113420 211 211 211 0
7.329589 2.412270 24.256105 210 210 210 0
-6.867457 2.317767 22.442671 158 158 158 0
-6.569620 2.245313 21.741109 160 160 160 0
-6.433004 2.226809 21.561936 166 166 166 0
-6.327714 2.218809 21.484473 172 172 172 0
-6.209134 2.205877 21.359251 174 174 174 0
-6.105241 2.197887 21.281885 174 174 174 0
-6.016006 2.195029 21.254216 177 177 177 0
-6.019532 2.226402 21.557999 183 183 183 0
-5.967999 2.238000 21.670295 185 185 185 0
-5.843026 2.221996 21.515330 185 185 185 0
-5.755056 2.219807 21.494140 185 185 185 0
-5.665875 2.217082 21.467746 187 187 187 0
-5.585702 2.217852 21.475210 188 188 188 0
-5.526609 2.227141 21.565150 189 189 189 0
-5.501306 2.250534 21.791664 191 191 191 0
-5.412456 2.248251 21.769557 194 194 194 0
-5.310338 2.240299 21.692556 194 194 194 0
-5.211090 2.233324 21.625025 194 194 194 0
-5.156970 2.245777 21.745603 195 195 195 0
-5.134562 2.272675 22.006050 195 195 195 0
-5.072679 2.282706 22.103176 196 196 196 0
-4.962737 2.271083 21.990638 195 195 195 0
-4.823725 2.245527 21.743182 197 197 197 0
-4.716670 2.234212 21.633621 197 197 197 0
-4.645058 2.239582 21.685611 197 197 197 0
-4.649000 2.282237 22.098636 198 198 198 0
-4.558986 2.279493 22.072070 199 199 199 0
-4.444457 2.264158 21.923578 200 200 200 0
-4.336603 2.251698 21.802933 199 199 199 0
-4.233353 2.241187 21.701156 200 200 200 0
-4.157595 2.245101 21.739059 200 200 200 0
-4.130748 2.276126 22.039469 200 200 200 0
-4.065826 2.287027 22.145023 200 200 200 0
-3.954062 2.271483 21.994507 202 202 202 0
-3.868210 2.270471 21.984712 201 201 201 0
-3.788760 2.273256 22.011679 202 202 202 0
-3.728785 2.288118 22.155588 203 203 203 0
-3.662075 2.299442 22.265237 203 203 203 0
-3.581406 2.302333 22.293223 203 203 203 0
-3.482456 2.293325 22.206000 203 203 203 0
-3.403916 2.297643 22.247818 204 204 204 0
-3.336302 2.309747 22.365020 204 204 204 0
-3.286477 2.335128 22.610780 204 204 204 0
-3.206817 2.340110 22.659013 204 204 204 0
-3.112085 2.334063 22.600469 204 204 204 0
-3.017284 2.327619 22.538072 204 204 204 0
-2.940379 2.335007 22.609602 205 205 205 0
-2.875304 2.352522 22.779197 204 204 204 0
-2.808689 2.369831 22.946804 203 203 203 0
-2.712565 2.362556 22.876362 205 205 205 0
-2.615853 2.354268 22.796105 205 205 205 0
-2.536586 2.361649 22.867577 205 205 205 0
-2.459513 2.371674 22.964645 204 204 204 0
-2.385377 2.385377 23.097337 205 205 205 0
-2.301715 2.390243 23.144445 204 204 204 0
-2.216923 2.394277 23.183512 204 204 204 0
-2.138956 2.406326 23.300180 204 204 204 0
-2.060987 2.419420 23.426967 203 203 203 0
-1.985788 2.437103 23.598192 204 204 204 0
-1.904905 2.449163 23.714966 203 203 203 0
-1.823915 2.462286 23.842032 204 204 204 0
-1.736671 2.467901 23.896406 202 202 202 0
-1.661065 2.491597 24.125851 202 202 202 0
-1.579724 2.508974 24.294107 203 203 203 0
-1.488667 2.512126 24.324626 202 202 202 0
-1.397770 2.515986 24.362007 202 202 202 0
-1.306039 2.518789 24.389146 201 201 201 0
-1.227940 2.550337 24.694620 200 200 200 0
-1.137434 2.559226 24.780691 200 200 200 0
-1.044498 2.563767 24.824664 202 202 202 0
-0.959892 2.591709 25.095221 200 200 200 0
-0.877947 2.633842 25.503191 200 200 200 0
-0.787062 2.656336 25.720995 197 197 197 0
-0.688214 2.654540 25.703611 194 194 194 0
-0.587819 2.645187 25.613039 191 191 191 0
-0.486809 2.628769 25.454068 185 185 185 0
-0.387445 2.615254 25.323200 165 165 165 0
-0.288271 2.594443 25.121697 173 173 173 0
-0.192023 2.592310 25.101045 176 176 176 0
-0.096090 2.594433 25.121596 183 183 183 0
0.000000 2.597033 25.146775 181 181 181 0
0.096240 2.598485 25.160830 184 184 184 0
0.192255 2.595449 25.131434 188 188 188 0
0.287562 2.588054 25.059833 190 190 190 0
0.380915 2.571178 24.896422 188 188 188 0
0.472083 2.549251 24.684101 192 192 192 0
0.561509 2.526789 24.466610 192 192 192 0
0.651590 2.513276 24.335761 192 192 192 0
0.740391 2.498818 24.195773 194 194 194 0
0.802002 2.406006 23.297080 195 195 195 0
0.927738 2.504892 24.254585 195 195 195 0
1.017712 2.498021 24.188048 196 196 196 0
1.103467 2.482801 24.040677 198 198 198 0
1.187262 2.465851 23.876552 200 200 200 0
1.270697 2.450630 23.729172 199 199 199 0
1.358120 2.444616 23.670933 198 198 198 0
1.445995 2.440117 23.627373 200 200 200 0
1.537961 2.442644 23.651842 203 203 203 0
1.624246 2.436369 23.591083 203 203 203 0
1.705333 2.423368 23.465194 202 202 202 0
1.789446 2.415752 23.391448 203 203 203 0
1.873592 2.408904 23.325145 204 204 204 0
1.963112 2.409274 23.328725 206 206 206 0
2.050665 2.407302 23.309628 205 205 205 0
2.136835 2.403939 23.277069 206 206 206 0
2.222435 2.400230 23.241154 206 206 206 0
2.306743 2.395464 23.195002 207 207 207 0
2.386376 2.386376 23.107002 208 208 208 0
2.473111 2.384786 23.091608 208 208 208 0
2.563431 2.386643 23.109587 207 207 207 0
2.650807 2.385726 23.100713 209 209 209 0
2.736919 2.383769 23.081758 209 209 209 0
2.822117 2.381162 23.056514 210 210 210 0
2.902149 2.374485 22.991871 211 211 211 0
2.985214 2.370611 22.954354 211 211 211 0
3.077256 2.373883 22.986039 210 210 210 0
3.302221 2.476666 23.981270 210 210 210 0
3.240613 2.364771 22.897810 211 211 211 0
3.324196 2.361928 22.870282 212 212 212 0
3.404334 2.356847 22.821078 213 213 213 0
3.486368 2.353298 22.786719 212 212 212 0
3.569908 2.350915 22.763644 212 212 212 0
3.663513 2.355115 22.804313 213 213 213 0
3.752008 2.355912 22.812027 213 213 213 0
3.837438 2.354792 22.801177 214 214 214 0
3.918952 2.351371 22.768060 213 213 213 0
4.007267 2.352092 22.775035 214 214 214 0
4.095118 2.352515 22.779131 214 214 214 0
4.182284 2.352535 22.779323 214 214 214 0
4.275196 2.355720 22.810171 214 214 214 0
4.363974 2.356546 22.818164 214 214 214 0
4.451262 2.356550 22.818206 215 215 215 0
4.535926 2.355192 22.805058 215 215 215 0
4.640815 2.364189 22.892170 215 215 215 0
4.739566 2.369783 22.946339 215 215 215 0
4.825591 2.368926 22.938042 215 215 215 0
4.905048 2.364934 22.899385 215 215 215 0
4.999077 2.367984 22.928915 215 215 215 0
5.107576 2.377664 23.022653 215 215 215 0
5.192944 2.376432 23.010719 215 215 215 0
5.275150 2.373817 22.985403 215 215 215 0
5.356472 2.370897 22.957129 215 215 215 0
5.449033 2.372966 22.977157 215 215 215 0
5.562253 2.383823 23.082283 215 215 215 0
5.665571 2.390163 23.143671 215 215 215 0
5.753458 2.389898 23.141107 215 215 215 0
5.856360 2.395784 23.198098 215 215 215 0
5.966182 2.404282 23.280389 215 215 215 0
6.066625 2.408807 23.324201 215 215 215 0
6.166586 2.413012 23.364917 215 215 215 0
6.269541 2.418251 23.415652 214 214 214 0
6.382801 2.427262 23.502904 215 215 215 0
6.506743 2.440029 23.626518 213 213 213 0
6.619150 2.448179 23.705435 213 213 213 0
6.735213 2.457442 23.795134 213 213 213 0
7.084369 2.550373 24.694967 213 213 213 0
6.964083 2.474082 23.956253 212 212 212 0
7.081564 2.483146 24.044018 211 211 211 0
7.194468 2.490393 24.114187 211 211 211 0
7.331356 2.505653 24.261953 210 210 210 0
-6.994614 2.448115 22.858217 148 148 148 0
-6.656931 2.359418 22.030051 157 157 157 0
-6.507966 2.336193 21.813191 161 161 161 0
-6.382737 2.320995 21.671291 168 168 168 0
-6.253925 2.304078 21.513331 173 173 173 0
-6.148004 2.295255 21.430952 174 174 174 0
-6.071024 2.297144 21.448594 175 175 175 0
-6.057682 2.323494 21.694626 178 178 178 0
-5.997432 2.332335 21.777169 182 182 182 0
-5.876044 2.317313 21.636911 183 183 183 0
-5.782153 2.312861 21.595343 185 185 185 0
-5.705599 2.315316 21.618260 186 186 186 0
-5.623643 2.315618 21.621080 186 186 186 0
-5.566880 2.326457 21.722290 186 186 186 0
-5.529053 2.345659 21.901576 188 188 188 0
-5.439924 2.343352 21.880034 191 191 191 0
-5.329819 2.331796 21.772135 192 192 192 0
-5.234676 2.326523 21.722900 193 193 193 0
-5.181480 2.340023 21.848954 195 195 195 0
-5.153389 2.365490 22.086740 195 195 195 0
-5.102562 2.381195 22.233384 196 196 196 0
-4.974923 2.360980 22.044634 195 195 195 0
-4.846914 2.339890 21.847710 197 197 197 0
-4.731293 2.324144 21.700691 196 196 196 0
-4.654984 2.327492 21.731952 197 197 197 0
-4.668703 2.376794 22.192292 197 197 197 0
-4.578091 2.373825 22.164566 199 199 199 0
-4.455551 2.353876 21.978303 199 199 199 0
-4.338556 2.336146 21.812752 199 199 199 0
-4.245921 2.331094 21.765580 200 200 200 0
-4.176762 2.338987 21.839278 200 200 200 0
-4.149056 2.370889 22.137153 200 200 200 0
-4.077878 2.378762 22.210665 200 200 200 0
-3.963781 2.361402 22.048569 201 201 201 0
-3.874992 2.358691 22.023257 202 202 202 0
-3.802625 2.366078 22.092229 201 201 201 0
-3.752453 2.387925 22.296214 202 202 202 0
-3.680638 2.396694 22.378097 203 203 203 0
-3.595550 2.397033 22.381265 203 203 203 0
-3.494888 2.386753 22.285272 203 203 203 0
-3.421579 2.395105 22.363261 203 203 203 0
-3.362699 2.414246 22.541977 204 204 204 0
-3.301927 2.432999 22.717073 204 204 204 0
-3.220086 2.436822 22.752773 203 203 203 0
-3.123077 2.429060 22.680297 202 202 202 0
-3.032231 2.425785 22.649722 203 203 203 0
-2.958996 2.436821 22.752760 203 203 203 0
-2.771979 2.351983 21.960622 203 203 203 0
-2.816285 2.464250 23.008866 203 203 203 0
-2.721738 2.458344 22.953727 204 204 204 0
-2.623495 2.448596 22.862703 204 204 204 0
-2.547745 2.459892 22.968180 204 204 204 0
-2.472750 2.472750 23.088238 204 204 204 0
-2.394641 2.483331 23.187034 203 203 203 0
-2.309112 2.486736 23.218820 202 202 202 0
-2.231651 2.499450 23.337530 202 202 202 0
-2.151909 2.510560 23.441273 203 203 203 0
-2.073195 2.523889 23.565725 203 203 203 0
-1.996101 2.540492 23.720747 203 203 203 0
-1.914688 2.552917 23.836759 202 202 202 0
-1.832092 2.564928 23.948909 202 202 202 0
-1.746102 2.573202 24.026165 202 202 202 0
-1.668617 2.595626 24.235540 202 202 202 0
-1.589564 2.618105 24.445429 202 202 202 0
-1.496490 2.618858 24.452457 201 201 201 0
-1.405797 2.624154 24.501901 199 199 199 0
-1.461212 2.922424 27.286873 199 199 199 0
-1.234845 2.659666 24.833484 199 199 199 0
-1.143743 2.668734 24.918149 197 197 197 0
-1.050577 2.674197 24.969156 198 198 198 0
-0.970381 2.717066 25.369432 197 197 197 0
-0.889611 2.767680 25.842017 195 195 195 0
-0.789558 2.763452 25.802537 194 194 194 0
-0.689113 2.756452 25.737179 193 193 193 0
-0.587488 2.741613 25.598624 188 188 188 0
-0.486552 2.724694 25.440651 162 162 162 0
-0.386931 2.708517 25.289608 161 161 161 0
-0.288777 2.695248 25.165713 169 169 169 0
-0.192538 2.695536 25.168407 171 171 171 0
-0.096340 2.697519 25.186918 177 177 177 0
0.000000 2.710152 25.304877 181 181 181 0
0.096586 2.704415 25.251304 184 184 184 0
0.192477 2.694673 25.160346 184 184 184 0
0.287868 2.686769 25.086548 186 186 186 0
0.381132 2.667922 24.910573 186 186 186 0
0.472254 2.644621 24.693010 190 190 190 0
0.561656 2.621060 24.473014 192 192 192 0
0.652150 2.608600 24.356679 191 191 191 0
0.741406 2.594922 24.228964 193 193 193 0
0.789024 2.454740 22.920076 197 197 197 0
0.928910 2.600947 24.285219 196 196 196 0
1.017977 2.591214 24.194338 196 196 196 0
1.103495 2.574821 24.041277 197 197 197 0
1.187390 2.557456 23.879137 199 199 199 0
1.270720 2.541439 23.729591 198 198 198 0
1.357933 2.534808 23.667679 200 200 200 0
1.446453 2.531293 23.634856 200 200 200 0
1.538477 2.533963 23.659783 202 202 202 0
1.622967 2.524616 23.572513 202 202 202 0
1.705382 2.513194 23.465865 202 202 202 0
1.789458 2.505241 23.391607 203 203 203 0
1.874395 2.499193 23.335140 204 204 204 0
1.963951 2.499574 23.338689 205 205 205 0
2.050957 2.496818 23.312956 206 206 206 0
2.136873 2.493019 23.277486 206 206 206 0
2.222244 2.488913 23.239149 206 206 206 0
2.305066 2.482378 23.178137 207 207 207 0
2.386671 2.475066 23.109862 208 208 208 0
2.473459 2.473459 23.094856 207 207 207 0
2.563077 2.474695 23.106398 209 209 209 0
2.650800 2.474080 23.100650 208 208 208 0
2.735485 2.470761 23.069661 208 208 208 0
2.821755 2.469035 23.053550 210 210 210 0
2.902291 2.462550 22.992996 211 211 211 0
2.984431 2.457767 22.948338 211 211 211 0
3.074983 2.459986 22.969059 210 210 210 0
3.223503 2.507169 23.409608 210 210 210 0
3.241236 2.452828 22.902218 211 211 211 0
3.325091 2.450067 22.876446 212 212 212 0
3.404024 2.443914 22.818995 212 212 212 0
3.487314 2.441119 22.792899 212 212 212 0
3.569966 2.438026 22.764013 212 212 212 0
3.666463 2.444309 22.822679 212 212 212 0
3.755081 2.445169 22.830710 212 212 212 0
3.838557 2.442718 22.807827 214 214 214 0
3.920683 2.439536 22.778117 214 214 214 0
4.007510 2.439354 22.776415 213 213 213 0
4.097331 2.440963 22.791437 214 214 214 0
4.182931 2.440043 22.782848 214 214 214 0
4.275657 2.443233 22.812629 214 214 214 0
4.363801 2.443728 22.817258 214 214 214 0
4.451820 2.444136 22.821067 214 214 214 0
4.536021 2.442473 22.805534 214 214 214 0
4.640361 2.451512 22.889930 215 215 215 0
4.739819 2.457684 22.947562 215 215 215 0
4.825184 2.456457 22.936107 215 215 215 0
4.904505 2.452252 22.896847 215 215 215 0
5.001231 2.456745 22.938798 216 216 216 0
5.107311 2.465599 23.021462 216 216 216 0
5.195304 2.465568 23.021175 215 215 215 0
5.280263 2.464123 23.007681 215 215 215 0
5.358368 2.459579 22.965253 215 215 215 0
5.450583 2.461553 22.983692 215 215 215 0
5.560779 2.471457 23.076164 214 214 214 0
5.665001 2.478438 23.141346 215 215 215 0
5.753702 2.478518 23.142090 215 215 215 0
5.854099 2.483557 23.189142 214 214 214 0
5.964648 2.492689 23.274404 215 215 215 0
6.068070 2.498617 23.329757 214 214 214 0
6.166574 2.502378 23.364872 214 214 214 0
6.269360 2.507744 23.414977 214 214 214 0
6.384808 2.517952 23.510292 214 214 214 0
6.508956 2.531260 23.634552 214 214 214 0
6.620612 2.539413 23.710671 213 213 213 0
6.733206 2.547700 23.788046 213 213 213 0
6.906806 2.578541 24.076011 213 213 213 0
6.971392 2.568408 23.981398 211 211 211 0
7.081787 2.575195 24.044774 211 211 211 0
7.198243 2.583985 24.126842 211 211 211 0
7.330752 2.598241 24.259956 210 210 210 0
-7.042572 2.552932 23.014942 138 138 138 0
-6.757781 2.480705 22.363800 148 148 148 0
-6.596326 2.452480 22.109355 159 159 159 0
-6.429035 2.421325 21.828486 162 162 162 0
-6.306491 2.406424 21.694155 166 166 166 0
-6.208133 2.400478 21.640552 171 171 171 0
-6.120463 2.398560 21.623258 175 175 175 0
-6.095335 2.421434 21.829473 176 176 176 0
-6.035618 2.431013 21.915823 177 177 177 0
-5.904549 2.411717 21.741873 179 179 179 0
-5.808879 2.406535 21.695158 182 182 182 0
-5.738048 2.411643 21.741207 185 185 185 0
-5.671140 2.418574 21.803689 187 187 187 0
-5.622161 2.433473 21.938000 187 187 187 0
-5.572592 2.448563 22.074041 187 187 187 0
-5.454803 2.433681 21.939881 189 189 189 0
-5.351846 2.425055 21.862117 189 189 189 0
-5.258760 2.420699 21.822846 189 189 189 0
-5.213108 2.438389 21.982323 191 191 191 0
-5.188469 2.466649 22.237090 194 194 194 0
-5.111132 2.470380 22.270728 195 195 195 0
-4.984324 2.449922 22.086291 195 195 195 0
-4.854732 2.427366 21.882950 196 196 196 0
-4.748111 2.415706 21.777829 197 197 197 0
-4.669231 2.417995 21.798466 197 197 197 0
-4.691092 2.473485 22.298716 197 197 197 0
-4.591643 2.465882 22.230178 199 199 199 0
-4.470918 2.446351 22.054104 199 199 199 0
-4.351666 2.426891 21.878665 199 199 199 0
-4.259962 2.422331 21.837560 199 199 199 0
-4.194694 2.432922 21.933038 200 200 200 0
-4.167349 2.466390 22.234755 200 200 200 0
-4.088225 2.469969 22.267021 200 200 200 0
-3.972884 2.451354 22.099204 201 201 201 0
-3.885906 2.449810 22.085285 201 201 201 0
-3.820318 2.461983 22.195023 202 202 202 0
-3.763470 2.480469 22.361673 201 201 201 0
-3.697228 2.493479 22.478966 202 202 202 0
-3.605796 2.489716 22.445041 202 202 202 0
-3.507925 2.481215 22.368404 202 202 202 0
-3.431872 2.488107 22.430535 202 202 202 0
-3.373429 2.508447 22.613903 202 202 202 0
-3.312442 2.527916 22.789418 203 203 203 0
-3.231343 2.532674 22.832311 202 202 202 0
-3.132189 2.523152 22.746473 201 201 201 0
-3.045190 2.523158 22.746521 202 202 202 0
-2.975754 2.538143 22.881615 203 203 203 0
-2.919785 2.565872 23.131591 202 202 202 0
-2.822002 2.557439 23.055570 202 202 202 0
-2.727060 2.551121 22.998609 203 203 203 0
-2.636619 2.548732 22.977071 203 203 203 0
-2.556343 2.556343 23.045685 204 204 204 0
-2.484731 2.573472 23.200105 202 202 202 0
-2.406528 2.584790 23.302139 201 201 201 0
-2.320803 2.588588 23.336384 201 201 201 0
-2.244779 2.603944 23.474813 201 201 201 0
-2.162747 2.613319 23.559335 203 203 203 0
-2.087949 2.632631 23.733433 203 203 203 0
-2.009217 2.648514 23.876616 201 201 201 0
-1.923699 2.656536 23.948942 201 201 201 0
-1.840900 2.669304 24.064047 200 200 200 0
-1.758816 2.684508 24.201109 201 201 201 0
-1.679986 2.706643 24.400662 200 200 200 0
-1.598601 2.727024 24.584399 201 201 201 0
-1.501202 2.720929 24.529445 199 199 199 0
-1.411984 2.729836 24.609749 198 198 198 0
-1.332903 2.761013 24.890808 199 199 199 0
-1.243335 2.773593 25.004217 197 197 197 0
-1.151105 2.781838 25.078551 196 196 196 0
-1.063000 2.802454 25.264406 194 194 194 0
-0.983846 2.853154 25.721471 193 193 193 0
-0.896653 2.889214 26.046551 191 191 191 0
-0.793428 2.876175 25.929008 189 189 189 0
-0.691421 2.864457 25.823367 185 185 185 0
-0.589138 2.847501 25.670509 162 162 162 0
-0.486733 2.823052 25.450096 140 140 140 0
-0.386854 2.804695 25.284607 152 152 152 0
-0.289508 2.798578 25.229459 161 161 161 0
-0.193166 2.800901 25.250405 168 168 168 0
-0.096606 2.801578 25.256511 173 173 173 0
0.000000 2.813513 25.364105 179 179 179 0
0.096729 2.805133 25.288554 180 180 180 0
0.192760 2.795020 25.197382 183 183 183 0
0.288336 2.787244 25.127281 185 185 185 0
0.381444 2.765472 24.931010 186 186 186 0
0.472440 2.740154 24.702763 190 190 190 0
0.562142 2.717019 24.494198 190 190 190 0
0.652498 2.703206 24.369669 190 190 190 0
0.742695 2.692271 24.271091 192 192 192 0
0.755510 2.434421 21.946554 195 195 195 0
0.931698 2.701925 24.358129 194 194 194 0
1.019193 2.686964 24.223246 195 195 195 0
1.104115 2.668277 24.054786 196 196 196 0
1.188760 2.651850 23.906695 198 198 198 0
1.271525 2.633872 23.744624 198 198 198 0
1.359271 2.627924 23.690995 198 198 198 0
1.446111 2.621076 23.629261 199 199 199 0
1.539968 2.627004 23.682707 202 202 202 0
1.625948 2.619582 23.615797 202 202 202 0
1.706783 2.605090 23.485145 203 203 203 0
1.787180 2.591411 23.361829 202 202 202 0
1.875647 2.590179 23.350723 203 203 203 0
1.964043 2.588965 23.339781 205 205 205 0
2.050209 2.585046 23.304447 205 205 205 0
2.136750 2.581906 23.276140 205 205 205 0
2.221678 2.577147 23.233237 206 206 206 0
2.305300 2.571296 23.180489 206 206 206 0
2.385586 2.562296 23.099354 208 208 208 0
2.473909 2.562263 23.099058 208 208 208 0
2.564674 2.564674 23.120797 208 208 208 0
2.653024 2.564590 23.120038 208 208 208 0
2.736551 2.560000 23.078653 208 208 208 0
2.821471 2.556958 23.051233 209 209 209 0
2.904104 2.552092 23.007361 210 210 210 0
2.984366 2.545489 22.947835 210 210 210 0
3.072463 2.545755 22.950239 211 211 211 0
3.168906 2.552730 23.013119 211 211 211 0
3.243111 2.541898 22.915463 210 210 210 0
3.324349 2.537003 22.871340 212 212 212 0
3.405213 2.532081 22.826968 212 212 212 0
3.486965 2.528049 22.790619 212 212 212 0
3.570814 2.525697 22.769416 212 212 212 0
3.666318 2.531506 22.821777 212 212 212 0
3.756073 2.533165 22.836740 213 213 213 0
3.839119 2.530328 22.811164 214 214 214 0
3.920688 2.526666 22.778145 214 214 214 0
4.009011 2.527420 22.784946 214 214 214 0
4.097382 2.528172 22.791722 214 214 214 0
4.183321 2.527423 22.784974 214 214 214 0
4.272621 2.528694 22.796431 214 214 214 0
4.364013 2.531127 22.818368 215 215 215 0
4.449947 2.530362 22.811468 214 214 214 0
4.536884 2.530185 22.809874 215 215 215 0
4.644263 2.541201 22.909179 214 214 214 0
4.742538 2.546918 22.960725 215 215 215 0
4.826830 2.545056 22.943931 215 215 215 0
4.907161 2.541208 22.909248 215 215 215 0
4.999061 2.543382 22.928842 216 216 216 0
5.108419 2.554210 23.026457 215 215 215 0
5.196146 2.554038 23.024908 215 215 215 0
5.279327 2.551674 23.003601 215 215 215 0
5.359784 2.548094 22.971324 214 214 214 0
5.450913 2.549620 22.985084 215 215 215 0
5.563086 2.560786 23.085738 215 215 215 0
5.666000 2.567406 23.145425 215 215 215 0
5.754866 2.567556 23.146772 215 215 215 0
5.858267 2.574087 23.205654 214 214 214 0
5.966090 2.582337 23.280031 215 215 215 0
6.068474 2.588026 23.331309 215 215 215 0
6.169269 2.592881 23.375082 214 214 214 0
6.270179 2.597646 23.418035 213 213 213 0
6.384597 2.607793 23.509516 214 214 214 0
6.510012 2.622088 23.638387 213 213 213 0
6.622945 2.631033 23.719028 213 213 213 0
6.733447 2.638783 23.788897 213 213 213 0
6.879790 2.660185 23.981837 212 212 212 0
6.974924 2.661484 23.993548 211 211 211 0
7.083835 2.667938 24.051726 211 211 211 0
7.201428 2.677454 24.137515 211 211 211 0
7.336786 2.693251 24.279925 210 210 210 0
-7.173791 2.690171 23.443760 112 112 112 0
-6.844557 2.599199 22.650969 137 137 137 0
-6.676250 2.567788 22.377241 149 149 149 0
-6.506848 2.535136 22.092686 158 158 158 0
-6.370008 2.514477 21.912654 162 162 162 0
-6.282038 2.512815 21.898173 163 163 163 0
-6.201211 2.514004 21.908535 171 171 171 0
-6.157264 2.530382 22.051263 175 175 175 0
-6.058545 2.524394 21.999073 176 176 176 0
-5.929657 2.505489 21.834324 177 177 177 0
-5.834828 2.500641 21.792074 179 179 179 0
-5.773089 2.510039 21.873974 182 182 182 0
-5.707156 2.517863 21.942162 185 185 185 0
-5.677601 2.542209 22.154330 187 187 187 0
-5.608754 2.549434 22.217286 188 188 188 0
-5.495882 2.536561 22.105108 189 189 189 0
-5.374494 2.519294 21.954631 189 189 189 0
-5.295845 2.521831 21.976740 188 188 188 0
-5.239531 2.535257 22.093743 190 190 190 0
-5.220842 2.567627 22.375838 191 191 191 0
-5.126601 2.563300 22.338130 191 191 191 0
-4.999199 2.541965 22.152205 192 192 192 0
-4.864339 2.516037 21.926252 194 194 194 0
-4.778851 2.515185 21.918819 195 195 195 0
-4.728964 2.533374 22.077332 196 196 196 0
-4.711663 2.569998 22.396497 196 196 196 0
-4.597361 2.554090 22.257862 198 198 198 0
-4.481938 2.536946 22.108464 198 198 198 0
-4.361085 2.516010 21.926017 198 198 198 0
-4.268258 2.510740 21.880089 199 199 199 0
-4.210669 2.526401 22.016570 199 199 199 0
-4.179203 2.558696 22.298000 200 200 200 0
-4.100582 2.562864 22.334324 199 199 199 0
-3.985733 2.544085 22.170674 200 200 200 0
-3.899011 2.542833 22.159766 201 201 201 0
-3.836727 2.557818 22.290352 201 201 201 0
-3.784756 2.580515 22.488151 200 200 200 0
-3.714663 2.591625 22.584968 200 200 200 0
-3.623152 2.587966 22.553078 201 201 201 0
-3.527925 2.581409 22.495937 200 200 200 0
-3.447581 2.585686 22.533209 200 200 200 0
-3.400463 2.615741 22.795124 201 201 201 0
-3.326217 2.625960 22.884187 201 201 201 0
-3.242069 2.628705 22.908103 201 201 201 0
-3.144589 2.620491 22.836521 202 202 202 0
-3.056194 2.619595 22.828713 202 202 202 0
-2.987987 2.636459 22.975681 202 202 202 0
-2.930192 2.663811 23.214040 203 203 203 0
-2.829803 2.652941 23.119308 203 203 203 0
-2.735963 2.647706 23.073695 202 202 202 0
-2.647119 2.647119 23.068573 201 201 201 0
-2.569359 2.657958 23.163029 201 201 201 0
-2.499749 2.678302 23.340322 201 201 201 0
-2.417973 2.686637 23.412957 202 202 202 0
-2.331869 2.690618 23.447652 201 201 201 0
