ply
    format ascii 1.0
    element vertex 24598
    property float x
    property float y
    property float z
    property uchar red
    property uchar green
    property uchar blue
    property uchar alpha
    end_header
1.469363 0.408156 21.341504 213 213 213 0
1.540191 0.405313 21.192861 213 213 213 0
1.587538 0.396884 20.752128 213 213 213 0
1.646611 0.392050 20.499356 214 214 214 0
1.672741 0.380168 19.878087 214 214 214 0
1.809601 0.393392 20.569493 214 214 214 0
1.885726 0.392860 20.541682 215 215 215 0
1.958517 0.391703 20.481225 212 212 212 0
2.025857 0.389588 20.370613 211 211 211 0
2.093618 0.387707 20.272259 210 210 210 0
2.165696 0.386731 20.221250 211 211 211 0
2.249025 0.387763 20.275188 209 209 209 0
2.334792 0.389132 20.346768 210 210 210 0
2.415420 0.389584 20.370396 210 210 210 0
2.485608 0.388376 20.307254 210 210 210 0
2.566642 0.388885 20.333865 211 211 211 0
2.651678 0.389953 20.389683 212 212 212 0
2.737795 0.391114 20.450386 209 209 209 0
2.823661 0.392175 20.505887 211 211 211 0
2.900954 0.392021 20.497818 211 211 211 0
2.984210 0.392659 20.531200 212 212 212 0
3.068506 0.393398 20.569840 211 211 211 0
3.161394 0.395174 20.662705 212 212 212 0
3.251379 0.396510 20.732530 213 213 213 0
3.338741 0.397469 20.782703 212 212 212 0
3.421091 0.397801 20.800066 211 211 211 0
3.504160 0.398200 20.820918 211 211 211 0
3.610692 0.401188 20.977149 211 211 211 0
3.692554 0.401365 20.986381 211 211 211 0
3.775487 0.401648 21.001180 211 211 211 0
3.858676 0.401945 21.016755 212 212 212 0
3.951238 0.403188 21.081704 212 212 212 0
4.054965 0.405496 21.202429 212 212 212 0
4.148417 0.406708 21.265756 212 212 212 0
4.243192 0.407999 21.333293 211 211 211 0
4.334321 0.408898 21.380300 212 212 212 0
4.434184 0.410573 21.467847 212 212 212 0
4.539416 0.412674 21.577737 212 212 212 0
4.627853 0.413201 21.605289 211 211 211 0
4.726624 0.414616 21.679276 212 212 212 0
4.842263 0.417436 21.826744 211 211 211 0
4.952297 0.419686 21.944376 211 211 211 0
5.044259 0.420355 21.979340 212 212 212 0
5.146970 0.421883 22.059230 212 212 212 0
5.271716 0.425138 22.229458 212 212 212 0
5.369700 0.426167 22.283226 212 212 212 0
5.457209 0.426344 22.292522 211 211 211 0
5.564691 0.428053 22.381865 212 212 212 0
5.698627 0.431714 22.573291 212 212 212 0
5.793193 0.432328 22.605376 212 212 212 0
5.891947 0.433231 22.652623 211 211 211 0
7.294352 0.528576 27.637974 212 212 212 0
7.441700 0.531550 27.793464 212 212 212 0
7.612216 0.536072 28.029885 212 212 212 0
7.838440 0.544336 28.462019 212 212 212 0
7.995171 0.547614 28.633435 210 210 210 0
8.114074 0.548248 28.666574 212 212 212 0
8.276811 0.551787 28.851629 211 211 211 0
8.357773 0.549854 28.750510 214 214 214 0
8.435792 0.547779 28.642024 212 212 212 0
8.513658 0.545747 28.535806 211 211 211 0
8.635530 0.546553 28.577912 211 211 211 0
-10.713447 0.803509 35.011264 206 206 206 0
-10.578772 0.803451 35.008759 206 206 206 0
-6.163647 0.474127 20.659116 205 205 205 0
-6.118606 0.476775 20.774488 206 206 206 0
-5.996008 0.473369 20.626104 206 206 206 0
-5.860246 0.468820 20.427873 198 198 198 0
-5.634344 0.456839 19.905827 169 169 169 0
-5.473971 0.449915 19.604159 211 211 211 0
-5.413778 0.451148 19.657873 213 213 213 0
-5.424145 0.458378 19.972916 213 213 213 0
-5.433081 0.465693 20.291621 213 213 213 0
-5.376523 0.467524 20.371406 213 213 213 0
-5.322177 0.469604 20.462042 214 214 214 0
-5.294945 0.474174 20.661183 212 212 212 0
-5.293218 0.481202 20.967391 213 213 213 0
-5.297411 0.488992 21.306831 213 213 213 0
-5.206516 0.488111 21.268448 213 213 213 0
-5.117119 0.487345 21.235060 214 214 214 0
-5.024559 0.486248 21.187262 214 214 214 0
-4.983488 0.490179 21.358567 213 213 213 0
-4.973270 0.497327 21.670020 214 214 214 0
-4.896268 0.497926 21.696101 212 212 212 0
-4.779491 0.494430 21.543796 210 210 210 0
-4.649267 0.489396 21.324466 209 209 209 0
-4.548812 0.487373 21.236283 208 208 208 0
-4.498983 0.490798 21.385539 208 208 208 0
-4.487601 0.498622 21.726463 208 208 208 0
-4.394198 0.497456 21.675659 209 209 209 0
-4.273509 0.493097 21.485716 208 208 208 0
-4.162483 0.489704 21.337858 208 208 208 0
-4.067863 0.488144 21.269870 208 208 208 0
-4.000883 0.489904 21.346580 209 209 209 0
-3.970957 0.496370 21.628306 208 208 208 0
-3.889228 0.496497 21.633865 208 208 208 0
-3.789665 0.494304 21.538305 209 209 209 0
-3.693645 0.492486 21.459083 209 209 209 0
-3.609044 0.492142 21.444111 209 209 209 0
-3.542097 0.494246 21.535776 208 208 208 0
-3.474189 0.496313 21.625825 209 209 209 0
-3.393217 0.496568 21.636963 209 209 209 0
-3.303264 0.495490 21.589959 208 208 208 0
-3.215591 0.494706 21.555828 209 209 209 0
-3.140725 0.495904 21.608018 208 208 208 0
-3.080593 0.499556 21.767127 208 208 208 0
-3.006231 0.501039 21.831743 209 209 209 0
-2.916006 0.499887 21.781554 209 209 209 0
-2.828564 0.499158 21.749817 210 210 210 0
-2.731036 0.496552 21.636254 209 209 209 0
-2.645200 0.495975 21.611111 209 209 209 0
-2.576725 0.498721 21.730762 209 209 209 0
-2.502943 0.500589 21.812138 209 209 209 0
-2.413486 0.499342 21.757819 209 209 209 0
-2.321934 0.497557 21.680059 209 209 209 0
-2.231955 0.495990 21.611763 209 209 209 0
-2.147090 0.495482 21.589645 210 210 210 0
-2.068264 0.496383 21.628904 210 210 210 0
-1.992905 0.498226 21.709203 209 209 209 0
-1.912178 0.498829 21.735473 210 210 210 0
-1.824918 0.497705 21.686491 210 210 210 0
-1.741392 0.497541 21.679326 209 209 209 0
-1.658897 0.497669 21.684929 210 210 210 0
-1.577520 0.498164 21.706508 210 210 210 0
-1.494744 0.498248 21.710159 210 210 210 0
-1.409402 0.497436 21.674766 210 210 210 0
-1.329635 0.498613 21.726057 210 210 210 0
-1.246049 0.498419 21.717624 210 210 210 0
-1.164831 0.499213 21.752204 210 210 210 0
-1.082566 0.499646 21.771069 211 211 211 0
-0.998350 0.499175 21.750546 211 211 211 0
-0.917863 0.500653 21.814925 211 211 211 0
-0.834892 0.500935 21.827233 210 210 210 0
-0.750173 0.500115 21.791517 211 211 211 0
-0.664376 0.498282 21.711631 211 211 211 0
-0.581769 0.498659 21.728081 211 211 211 0
-0.500335 0.500335 21.801087 211 211 211 0
-0.417399 0.500879 21.824800 211 211 211 0
-0.333623 0.500434 21.805399 210 210 210 0
-0.249304 0.498608 21.725845 212 212 212 0
-0.165897 0.497690 21.685839 212 212 212 0
-0.082781 0.496685 21.642066 211 211 211 0
0.000000 0.498622 21.726431 211 211 211 0
0.083187 0.499124 21.748326 211 211 211 0
0.166096 0.498287 21.711838 211 211 211 0
0.248824 0.497648 21.684021 211 211 211 0
0.331189 0.496784 21.646350 211 211 211 0
0.414079 0.496894 21.651164 211 211 211 0
0.497688 0.497688 21.685772 212 212 212 0
0.580442 0.497522 21.678501 212 212 212 0
0.663083 0.497313 21.669391 212 212 212 0
0.744481 0.496321 21.626182 212 212 212 0
0.826494 0.495896 21.607682 212 212 212 0
0.908704 0.495657 21.597239 212 212 212 0
0.993491 0.496745 21.644683 212 212 212 0
1.076956 0.497057 21.658247 212 212 212 0
1.159622 0.496981 21.654939 212 212 212 0
1.237811 0.495124 21.574040 213 213 213 0
1.314569 0.492963 21.479887 212 212 212 0
1.390330 0.490705 21.381461 212 212 212 0
1.469198 0.489733 21.339118 213 213 213 0
1.541842 0.486898 21.215578 213 213 213 0
1.586540 0.475962 20.739079 213 213 213 0
1.645895 0.470256 20.490439 213 213 213 0
1.700600 0.463800 20.209148 215 215 215 0
1.831660 0.477824 20.820230 215 215 215 0
1.884863 0.471216 20.532275 214 214 214 0
1.957224 0.469734 20.467707 211 211 211 0
2.024381 0.467165 20.355762 209 209 209 0
2.090600 0.464578 20.243038 211 211 211 0
2.161193 0.463113 20.179208 210 210 210 0
2.242553 0.463977 20.216844 211 211 211 0
2.330559 0.466112 20.309886 211 211 211 0
2.409517 0.466358 20.320617 211 211 211 0
2.487786 0.466460 20.325050 210 210 210 0
2.563365 0.466066 20.307904 212 212 212 0
2.646489 0.467027 20.349777 211 211 211 0
2.731828 0.468313 20.405808 211 211 211 0
2.813796 0.468966 20.434248 211 211 211 0
2.894848 0.469435 20.454678 210 210 210 0
2.974468 0.469653 20.464179 210 210 210 0
3.061748 0.471038 20.524540 211 211 211 0
3.155744 0.473362 20.625780 211 211 211 0
3.243881 0.474714 20.684719 211 211 211 0
3.332208 0.476030 20.742033 212 212 212 0
3.415536 0.476586 20.766293 211 211 211 0
3.497991 0.476999 20.784262 212 212 212 0
3.675050 0.490007 21.351055 212 212 212 0
3.685947 0.480776 20.948830 211 211 211 0
3.771037 0.481409 20.976428 211 211 211 0
3.851643 0.481455 20.978449 211 211 211 0
3.940209 0.482475 21.022855 211 211 211 0
4.043747 0.485250 21.143777 211 211 211 0
4.139837 0.487040 21.221770 212 212 212 0
4.232272 0.488339 21.278389 212 212 212 0
4.324409 0.489556 21.331407 212 212 212 0
4.425333 0.491704 21.424996 211 211 211 0
4.529539 0.494131 21.530784 212 212 212 0
4.622171 0.495233 21.578764 212 212 212 0
4.714417 0.496254 21.623287 212 212 212 0
4.827465 0.499393 21.760040 211 211 211 0
4.938554 0.502226 21.883478 212 212 212 0
5.036945 0.503695 21.947473 211 211 211 0
5.133212 0.504906 22.000264 213 213 213 0
5.326068 0.515426 22.458647 212 212 212 0
5.358077 0.510293 22.234989 212 212 212 0
5.449756 0.510915 22.262076 211 211 211 0
5.548096 0.512132 22.315118 212 212 212 0
5.683519 0.516684 22.513446 211 211 211 0
5.789289 0.518444 22.590144 211 211 211 0
5.883885 0.519166 22.621626 212 212 212 0
7.262599 0.631530 27.517662 211 211 211 0
7.426730 0.636577 27.737553 212 212 212 0
7.590479 0.641449 27.949845 212 212 212 0
7.776043 0.648004 28.235452 211 211 211 0
7.974057 0.655402 28.557819 211 211 211 0
8.105895 0.657235 28.637679 211 211 211 0
8.280080 0.662406 28.863025 211 211 211 0
8.365551 0.660438 28.777266 212 212 212 0
8.445352 0.658079 28.674482 212 212 212 0
8.520793 0.655446 28.559721 212 212 212 0
8.638670 0.656102 28.588302 211 211 211 0
-10.713469 0.937429 35.011338 206 206 206 0
-10.578913 0.937372 35.009227 205 205 205 0
-6.164129 0.553191 20.660732 206 206 206 0
-6.124427 0.556766 20.794252 207 207 207 0
-5.988034 0.551529 20.598672 207 207 207 0
-5.849666 0.545969 20.390992 198 198 198 0
-5.651551 0.534606 19.966619 165 165 165 0
-5.474525 0.524954 19.606143 212 212 212 0
-5.408201 0.525797 19.637623 213 213 213 0
-5.418738 0.534242 19.953009 213 213 213 0
-5.408124 0.540812 20.198411 214 214 214 0
-5.372402 0.545026 20.355791 213 213 213 0
-5.313685 0.546997 20.429393 213 213 213 0
-5.292126 0.552909 20.650185 213 213 213 0
-5.285024 0.560533 20.934933 213 213 213 0
-5.285689 0.569228 21.259684 213 213 213 0
-5.209865 0.569829 21.282129 213 213 213 0
-5.122576 0.569175 21.257708 214 214 214 0
-5.026813 0.567543 21.196767 214 214 214 0
-4.985613 0.572119 21.367674 214 214 214 0
-4.963323 0.579054 21.626680 213 213 213 0
-4.886144 0.579712 21.651241 211 211 211 0
-4.771687 0.575893 21.508620 209 209 209 0
-4.654943 0.571660 21.350503 208 208 208 0
-4.550032 0.568754 21.241978 209 209 209 0
-4.495384 0.572140 21.368434 208 208 208 0
-4.477555 0.580424 21.677824 209 209 209 0
-4.384399 0.579072 21.627323 208 208 208 0
-4.275654 0.575569 21.496502 208 208 208 0
-4.163429 0.571451 21.342712 208 208 208 0
-4.069899 0.569786 21.280518 207 207 207 0
-4.009037 0.572720 21.390086 208 208 208 0
-3.965185 0.578256 21.596869 208 208 208 0
-3.891430 0.579575 21.646111 209 209 209 0
-3.788089 0.576448 21.529350 209 209 209 0
-3.690262 0.574041 21.439428 209 209 209 0
-3.606683 0.573790 21.430082 208 208 208 0
-3.540369 0.576339 21.525272 209 209 209 0
-3.475050 0.579175 21.631186 209 209 209 0
-3.391808 0.579089 21.627981 208 208 208 0
-3.302666 0.577967 21.586052 208 208 208 0
-3.212985 0.576690 21.538362 209 209 209 0
-3.135534 0.577598 21.572301 208 208 208 0
-3.078885 0.582492 21.755060 208 208 208 0
-3.003593 0.584032 21.812584 209 209 209 0
-2.915536 0.583107 21.778048 209 209 209 0
-2.823092 0.581225 21.707744 208 208 208 0
-2.728970 0.578872 21.619885 210 210 210 0
-2.642947 0.578145 21.592701 209 209 209 0
-2.574615 0.581365 21.712962 209 209 209 0
-2.503156 0.584070 21.813996 209 209 209 0
-2.410483 0.581841 21.730742 209 209 209 0
-2.319479 0.579870 21.657131 209 209 209 0
-2.230650 0.578317 21.599132 210 210 210 0
-2.147267 0.578110 21.591419 210 210 210 0
-2.067138 0.578799 21.617130 210 210 210 0
-1.992149 0.581044 21.700971 210 210 210 0
-1.911368 0.581721 21.726263 209 209 209 0
-1.822213 0.579795 21.654342 210 210 210 0
-1.739340 0.579780 21.653776 210 210 210 0
-1.657878 0.580257 21.671608 210 210 210 0
-1.576971 0.580989 21.698947 210 210 210 0
-1.494616 0.581240 21.708295 210 210 210 0
-1.409499 0.580382 21.676267 210 210 210 0
-1.328430 0.581188 21.706374 210 210 210 0
-1.246603 0.581748 21.727278 210 210 210 0
-1.163732 0.581866 21.731691 211 211 211 0
-1.081683 0.582445 21.753310 211 211 211 0
-0.998548 0.582486 21.754855 210 210 210 0
-0.917060 0.583584 21.795846 211 211 211 0
-0.834562 0.584193 21.818613 210 210 210 0
-0.749753 0.583141 21.779319 211 211 211 0
-0.663607 0.580656 21.686501 211 211 211 0
-0.581296 0.581296 21.710414 210 210 210 0
-0.499970 0.583298 21.785166 211 211 211 0
-0.416940 0.583716 21.800801 211 211 211 0
-0.333156 0.583024 21.774928 211 211 211 0
-0.249204 0.581477 21.717167 211 211 211 0
-0.165533 0.579364 21.638244 211 211 211 0
-0.082733 0.579130 21.629496 211 211 211 0
0.000000 0.581152 21.705017 211 211 211 0
0.083138 0.581966 21.735429 211 211 211 0
0.165910 0.580687 21.687642 212 212 212 0
0.248621 0.580116 21.666312 211 211 211 0
0.330860 0.579005 21.624849 212 212 212 0
0.413852 0.579392 21.639309 212 212 212 0
0.497238 0.580111 21.666152 212 212 212 0
0.579980 0.579980 21.661250 212 212 212 0
0.663055 0.580173 21.668448 212 212 212 0
0.743705 0.578437 21.603641 212 212 212 0
0.825674 0.577972 21.586253 212 212 212 0
0.907797 0.577689 21.575691 212 212 212 0
0.992201 0.578784 21.616583 211 211 211 0
1.075579 0.579158 21.630539 212 212 212 0
1.159208 0.579604 21.647215 212 212 212 0
1.237060 0.577295 21.560964 212 212 212 0
1.314212 0.574968 21.474044 212 212 212 0
1.390202 0.572436 21.379501 213 213 213 0
1.469297 0.571393 21.340547 213 213 213 0
1.542989 0.568470 21.231362 212 212 212 0
1.586922 0.555423 20.744082 212 212 212 0
1.646003 0.548668 20.491790 214 214 214 0
1.710631 0.544292 20.328350 215 215 215 0
1.872336 0.569841 21.282591 214 214 214 0
1.881807 0.548861 20.498992 213 213 213 0
1.953586 0.547004 20.429661 211 211 211 0
2.022161 0.544428 20.333442 211 211 211 0
2.087158 0.541115 20.209717 211 211 211 0
2.158072 0.539518 20.150068 212 212 212 0
2.238293 0.540278 20.178433 211 211 211 0
2.326631 0.542881 20.275652 212 212 212 0
2.410834 0.544382 20.331720 210 210 210 0
2.483097 0.543177 20.286737 212 212 212 0
2.560849 0.543210 20.287967 211 211 211 0
2.639867 0.543502 20.298861 211 211 211 0
2.723716 0.544743 20.345218 211 211 211 0
2.807385 0.545880 20.387690 211 211 211 0
2.890288 0.546811 20.422453 211 211 211 0
2.970180 0.547138 20.434674 210 210 210 0
3.055057 0.548343 20.479682 210 210 210 0
3.148763 0.551033 20.580148 212 212 212 0
3.238063 0.552840 20.647623 211 211 211 0
3.325806 0.554301 20.702182 211 211 211 0
3.406841 0.554602 20.713429 212 212 212 0
3.490377 0.555287 20.739018 212 212 212 0
3.519795 0.547524 20.449066 212 212 212 0
3.679971 0.559996 20.914868 212 212 212 0
3.765234 0.560779 20.944144 211 211 211 0
3.842228 0.560325 20.927168 211 211 211 0
3.931858 0.561694 20.978302 212 212 212 0
4.034554 0.564838 21.095710 212 212 212 0
4.134704 0.567508 21.195457 212 212 212 0
4.228553 0.569228 21.259692 212 212 212 0
4.313446 0.569700 21.277325 212 212 212 0
4.417803 0.572678 21.388538 212 212 212 0
4.519788 0.575246 21.484437 212 212 212 0
4.616054 0.577007 21.550203 212 212 212 0
4.706428 0.577982 21.586644 212 212 212 0
4.813720 0.580966 21.698085 212 212 212 0
4.929418 0.584846 21.842997 212 212 212 0
5.023149 0.586034 21.887357 212 212 212 0
5.120609 0.587611 21.946250 212 212 212 0
5.212633 0.588523 21.980321 212 212 212 0
5.343095 0.593677 22.172820 212 212 212 0
5.440833 0.595091 22.225626 212 212 212 0
5.532652 0.595824 22.253000 211 211 211 0
5.665773 0.600915 22.443150 211 211 211 0
5.781458 0.604033 22.559588 211 211 211 0
5.872768 0.604550 22.578886 212 212 212 0
7.250908 0.735599 27.473366 212 212 212 0
7.415503 0.741550 27.695625 212 212 212 0
7.554581 0.744818 27.817660 211 211 211 0
7.733366 0.751855 28.080486 212 212 212 0
7.942864 0.761644 28.446106 212 212 212 0
8.086849 0.764972 28.570389 212 212 212 0
8.271361 0.771994 28.832629 211 211 211 0
8.368857 0.770816 28.788638 212 212 212 0
8.448807 0.768073 28.686212 211 211 211 0
8.528460 0.765375 28.585418 213 213 213 0
8.639405 0.765517 28.590734 211 211 211 0
-10.713464 1.071346 35.011321 206 206 206 0
-10.579035 1.071295 35.009632 207 207 207 0
-6.173520 0.633182 20.692209 206 206 206 0
-6.115179 0.635343 20.762853 206 206 206 0
-5.976636 0.629120 20.559462 207 207 207 0
-5.802627 0.618947 20.227023 200 200 200 0
-5.640323 0.609765 19.926951 168 168 168 0
-5.469334 0.599379 19.587550 211 211 211 0
-5.420989 0.602332 19.684055 213 213 213 0
-5.422826 0.611023 19.968060 214 214 214 0
-5.405890 0.617816 20.190066 214 214 214 0
-5.370066 0.622616 20.346938 213 213 213 0
-5.322956 0.626230 20.465035 214 214 214 0
-5.286843 0.631265 20.629570 213 213 213 0
-5.273768 0.639245 20.890348 213 213 213 0
-5.274313 0.649146 21.213928 213 213 213 0
-5.213358 0.651670 21.296396 214 214 214 0
-5.110715 0.648980 21.208488 213 213 213 0
-5.017444 0.647412 21.157260 213 213 213 0
-4.984718 0.653733 21.363839 213 213 213 0
-4.958830 0.661177 21.607102 212 212 212 0
-4.883984 0.662235 21.641672 211 211 211 0
-4.769074 0.657803 21.496839 209 209 209 0
-4.650187 0.652658 21.328686 209 209 209 0
-4.548652 0.649807 21.235538 208 208 208 0
-4.488097 0.652814 21.333793 209 209 209 0
-4.470979 0.662367 21.645988 209 209 209 0
-4.385383 0.661945 21.632178 208 208 208 0
-4.273995 0.657538 21.488160 208 208 208 0
-4.164730 0.653291 21.349376 208 208 208 0
-4.067326 0.650772 21.267062 209 209 209 0
-3.997373 0.652632 21.327853 208 208 208 0
-3.959805 0.659968 21.567565 209 209 209 0
-3.887116 0.661637 21.622116 209 209 209 0
-3.783677 0.658031 21.504272 208 208 208 0
-3.686709 0.655415 21.418788 209 209 209 0
-3.603032 0.655097 21.408391 208 208 208 0
-3.537489 0.658137 21.507759 209 209 209 0
-3.470407 0.661030 21.602282 210 210 210 0
-3.393244 0.662096 21.637137 209 209 209 0
-3.302649 0.660530 21.585943 209 209 209 0
-3.212468 0.658968 21.534897 209 209 209 0
-3.136370 0.660288 21.578051 208 208 208 0
-3.079356 0.665807 21.758391 209 209 209 0
-3.001204 0.666934 21.795234 209 209 209 0
-2.913907 0.666036 21.765879 209 209 209 0
-2.824528 0.664595 21.718785 209 209 209 0
-2.728956 0.661565 21.619778 209 209 209 0
-2.641661 0.660415 21.582199 210 210 210 0
-2.575341 0.664604 21.719089 209 209 209 0
-2.502619 0.667365 21.809318 209 209 209 0
-2.409862 0.664790 21.725152 209 209 209 0
-2.319070 0.662591 21.653313 210 210 210 0
-2.229587 0.660618 21.588831 210 210 210 0
-2.145251 0.660077 21.571149 209 209 209 0
-2.065772 0.661047 21.602844 210 210 210 0
-1.990861 0.663620 21.686944 210 210 210 0
-1.908877 0.663957 21.697949 210 210 210 0
-1.818622 0.661317 21.611668 210 210 210 0
-1.736739 0.661615 21.621403 210 210 210 0
-1.655046 0.662018 21.634588 210 210 210 0
-1.575391 0.663323 21.677207 209 209 209 0
-1.493052 0.663579 21.685576 210 210 210 0
-1.408767 0.662949 21.665007 210 210 210 0
-1.327062 0.663531 21.684027 211 211 211 0
-1.243843 0.663383 21.679174 211 211 211 0
-1.162909 0.664520 21.716330 210 210 210 0
-1.079588 0.664362 21.711169 210 210 210 0
-0.997671 0.665114 21.735751 211 211 211 0
-0.916177 0.666311 21.774862 210 210 210 0
-0.835009 0.668007 21.830306 211 211 211 0
-0.749172 0.665931 21.762444 210 210 210 0
-0.663742 0.663742 21.690930 211 211 211 0
-0.581193 0.664221 21.706573 210 210 210 0
-0.500385 0.667180 21.803258 211 211 211 0
-0.416836 0.666937 21.795340 211 211 211 0
-0.332821 0.665641 21.752980 211 211 211 0
-0.248931 0.663815 21.693290 211 211 211 0
-0.165549 0.662197 21.640433 211 211 211 0
-0.082684 0.661474 21.616808 212 212 212 0
0.000000 0.664018 21.699948 211 211 211 0
0.083063 0.664502 21.715752 211 211 211 0
0.165898 0.663591 21.685978 211 211 211 0
0.248254 0.662011 21.634353 212 212 212 0
0.330639 0.661278 21.610378 212 212 212 0
0.413745 0.661991 21.633705 212 212 212 0
0.496818 0.662424 21.647857 211 211 211 0
0.579358 0.662123 21.638019 212 212 212 0
0.662439 0.662439 21.648331 212 212 212 0
0.743827 0.661180 21.607180 212 212 212 0
0.824868 0.659894 21.565164 212 212 212 0
0.907653 0.660111 21.572262 212 212 212 0
0.990809 0.660540 21.586261 212 212 212 0
1.075231 0.661681 21.623552 212 212 212 0
1.158329 0.661902 21.630798 212 212 212 0
1.236655 0.659549 21.553897 212 212 212 0
1.314006 0.657003 21.470690 213 213 213 0
1.390252 0.654236 21.380273 213 213 213 0
1.469205 0.652980 21.339219 213 213 213 0
1.544073 0.650136 21.246276 213 213 213 0
1.586649 0.634659 20.740505 212 212 212 0
1.645666 0.626921 20.487599 215 215 215 0
1.714337 0.623395 20.372395 215 215 215 0
1.961489 0.682257 22.295982 215 215 215 0
1.880127 0.626709 20.480685 212 212 212 0
1.951133 0.624363 20.404005 212 212 212 0
2.018970 0.621221 20.301356 211 211 211 0
2.085438 0.617908 20.193058 211 211 211 0
2.155421 0.615835 20.125311 213 213 213 0
2.233205 0.616057 20.132569 211 211 211 0
2.322710 0.619389 20.241483 211 211 211 0
2.403304 0.620207 20.268217 211 211 211 0
2.477007 0.619252 20.236989 210 210 210 0
2.548292 0.617768 20.188485 212 212 212 0
2.636097 0.620258 20.269876 210 210 210 0
2.719232 0.621539 20.311723 212 212 212 0
2.802438 0.622764 20.351766 212 212 212 0
2.886630 0.624136 20.396611 212 212 212 0
2.966608 0.624549 20.410102 211 211 211 0
3.051402 0.625929 20.455184 211 211 211 0
3.142660 0.628532 20.540264 212 212 212 0
3.234327 0.631088 20.623795 213 213 213 0
3.321781 0.632720 20.677130 212 212 212 0
3.400795 0.632706 20.676668 212 212 212 0
3.487865 0.634157 20.724092 213 213 213 0
3.577118 0.635932 20.782094 212 212 212 0
3.671660 0.638550 20.867633 213 213 213 0
3.756662 0.639432 20.896464 212 212 212 0
3.836903 0.639484 20.898167 213 213 213 0
3.922980 0.640487 20.930934 212 212 212 0
4.027473 0.644396 21.058681 212 212 212 0
4.127344 0.647427 21.157731 211 211 211 0
4.211343 0.647899 21.173167 213 213 213 0
4.307137 0.650134 21.246205 212 212 212 0
4.408901 0.653170 21.345440 213 213 213 0
4.509937 0.655991 21.437609 212 212 212 0
4.609462 0.658495 21.519430 213 213 213 0
4.699516 0.659581 21.554942 212 212 212 0
4.804285 0.662660 21.655554 213 213 213 0
4.915972 0.666572 21.783414 212 212 212 0
5.016895 0.668919 21.860109 212 212 212 0
5.109343 0.670078 21.897968 212 212 212 0
5.216215 0.673060 21.995426 212 212 212 0
5.334650 0.677416 22.137773 213 213 213 0
5.428477 0.678560 22.175151 211 211 211 0
5.520609 0.679460 22.204560 212 212 212 0
5.645140 0.684259 22.361417 212 212 212 0
5.771970 0.689190 22.522564 212 212 212 0
5.864634 0.689957 22.547614 212 212 212 0
7.238775 0.839278 27.427395 213 213 213 0
7.394898 0.845131 27.618666 211 211 211 0
7.536137 0.849142 27.749744 212 212 212 0
7.698895 0.855433 27.955321 211 211 211 0
7.896212 0.865338 28.279031 212 212 212 0
8.076471 0.873132 28.533724 211 211 211 0
8.311252 0.886534 28.971685 213 213 213 0
8.365761 0.880606 28.777989 212 212 212 0
8.453709 0.878307 28.702856 211 211 211 0
8.527691 0.874635 28.582841 212 212 212 0
8.629269 0.873850 28.557191 211 211 211 0
-10.713483 1.205267 35.011383 206 206 206 0
-10.579138 1.205218 35.009970 206 206 206 0
-6.159900 0.710758 20.646557 207 207 207 0
-6.116941 0.714967 20.768835 207 207 207 0
-5.992780 0.709671 20.614998 208 208 208 0
-5.800385 0.696046 20.219209 200 200 200 0
-5.621269 0.683668 19.859633 169 169 169 0
-5.468868 0.674244 19.585883 211 211 211 0
-5.409608 0.676201 19.642731 214 214 214 0
-5.422648 0.687378 19.967403 214 214 214 0
-5.434527 0.698725 20.297020 213 213 213 0
-5.358685 0.698959 20.303816 213 213 213 0
-5.313864 0.703305 20.430080 213 213 213 0
-5.283815 0.709766 20.617754 214 214 214 0
-5.265608 0.718037 20.858024 213 213 213 0
-5.257051 0.727899 21.144498 214 214 214 0
-5.201347 0.731439 21.247332 214 214 214 0
-5.125487 0.732212 21.269788 213 213 213 0
-5.023857 0.729270 21.184303 213 213 213 0
-4.989333 0.736131 21.383621 214 214 214 0
-4.947055 0.742058 21.555794 212 212 212 0
-4.871279 0.743077 21.585375 209 209 209 0
-4.768683 0.739968 21.495076 209 209 209 0
-4.646244 0.733618 21.310603 209 209 209 0
-4.540609 0.729741 21.197987 208 208 208 0
-4.487996 0.734399 21.333314 209 209 209 0
-4.465864 0.744311 21.621224 208 208 208 0
-4.379046 0.743612 21.600915 208 208 208 0
-4.270327 0.739095 21.469718 208 208 208 0
-4.158301 0.733818 21.316423 207 207 207 0
-4.060150 0.730827 21.229541 208 208 208 0
-3.994354 0.733657 21.311744 208 208 208 0
-3.957942 0.742114 21.557420 208 208 208 0
-3.882199 0.743400 21.594763 208 208 208 0
-3.784607 0.740467 21.509560 208 208 208 0
-3.683158 0.736632 21.398156 208 208 208 0
-3.598185 0.735992 21.379588 209 209 209 0
-3.533056 0.739477 21.480806 208 208 208 0
-3.465504 0.742608 21.571765 209 209 209 0
-3.390199 0.744190 21.617723 209 209 209 0
-3.301897 0.742927 21.581027 209 209 209 0
-3.210735 0.740939 21.523278 209 209 209 0
-3.133008 0.742028 21.554924 209 209 209 0
-3.072800 0.747438 21.712067 209 209 209 0
-2.998443 0.749611 21.775187 209 209 209 0
-2.912369 0.748895 21.754390 209 209 209 0
-2.821813 0.746951 21.697912 209 209 209 0
-2.724443 0.743030 21.584020 209 209 209 0
-2.642001 0.743063 21.584975 209 209 209 0
-2.573361 0.747105 21.702394 210 210 210 0
-2.499588 0.749877 21.782905 209 209 209 0
-2.408559 0.747484 21.713397 210 210 210 0
-2.317475 0.744903 21.638420 209 209 209 0
-2.226554 0.742185 21.559469 209 209 209 0
-2.142956 0.741792 21.548070 210 210 210 0
-2.063922 0.743012 21.583496 209 209 209 0
-1.989355 0.746008 21.670534 210 210 210 0
-1.907052 0.746238 21.677199 210 210 210 0
-1.817859 0.743669 21.602597 209 209 209 0
-1.735081 0.743606 21.600764 210 210 210 0
-1.653967 0.744285 21.620485 211 211 211 0
-1.573045 0.745127 21.644931 210 210 210 0
-1.491692 0.745846 21.665819 210 210 210 0
-1.407290 0.745036 21.642293 211 211 211 0
-1.326121 0.745943 21.668636 210 210 210 0
-1.243903 0.746342 21.680222 211 211 211 0
-1.162657 0.747422 21.711613 211 211 211 0
-1.078431 0.746606 21.687897 210 210 210 0
-0.996877 0.747658 21.718457 211 211 211 0
-0.915007 0.748642 21.747037 210 210 210 0
-0.833426 0.750083 21.788909 211 211 211 0
-0.748710 0.748710 21.749025 211 211 211 0
-0.663330 0.746247 21.677466 211 211 211 0
-0.581433 0.747556 21.715501 211 211 211 0
-0.503838 0.755757 21.953730 211 211 211 0
-0.416439 0.749590 21.774586 210 210 210 0
-0.332570 0.748283 21.736627 211 211 211 0
-0.248780 0.746341 21.680202 211 211 211 0
-0.165449 0.744523 21.627380 211 211 211 0
-0.082643 0.743785 21.605951 212 212 212 0
0.000000 0.745688 21.661228 211 211 211 0
0.082936 0.746426 21.682685 211 211 211 0
0.165773 0.745978 21.669661 212 212 212 0
0.248213 0.744638 21.630736 212 212 212 0
0.330534 0.743701 21.603511 212 212 212 0
0.413216 0.743788 21.606044 212 212 212 0
0.496443 0.744664 21.631485 211 211 211 0
0.579025 0.744460 21.625572 212 212 212 0
0.661842 0.744572 21.628815 212 212 212 0
0.743008 0.743008 21.583389 212 212 212 0
0.824340 0.741906 21.551369 212 212 212 0
0.906733 0.741872 21.550390 212 212 212 0
0.991189 0.743392 21.594540 212 212 212 0
1.074902 0.744163 21.616924 212 212 212 0
1.157891 0.744358 21.622609 212 212 212 0
1.236684 0.742011 21.554409 212 212 212 0
1.312957 0.738538 21.453538 212 212 212 0
1.390223 0.736000 21.379816 213 213 213 0
1.469672 0.734836 21.346002 213 213 213 0
1.545962 0.732298 21.272267 212 212 212 0
1.586016 0.713707 20.732242 213 213 213 0
1.647198 0.705942 20.506667 214 214 214 0
1.716432 0.702177 20.397289 216 216 216 0
2.047613 0.801240 23.274939 214 214 214 0
1.876781 0.703793 20.444242 212 212 212 0
1.949006 0.701642 20.381766 212 212 212 0
2.015016 0.697506 20.261602 210 210 210 0
2.082091 0.694030 20.160652 211 211 211 0
2.152007 0.691716 20.093433 212 212 212 0
2.229890 0.692035 20.102684 209 209 209 0
2.316440 0.694932 20.186837 212 212 212 0
2.397570 0.696069 20.219862 211 211 211 0
2.471819 0.695199 20.194596 211 211 211 0
2.550195 0.695508 20.203566 212 212 212 0
2.629795 0.696122 20.221412 212 212 212 0
2.714663 0.698056 20.277596 212 212 212 0
2.797068 0.699267 20.312770 211 211 211 0
2.884475 0.701629 20.381382 211 211 211 0
2.961957 0.701516 20.378099 212 212 212 0
3.047822 0.703343 20.431182 212 212 212 0
3.136127 0.705629 20.497565 211 211 211 0
3.228892 0.708781 20.589141 211 211 211 0
3.317944 0.710988 20.653246 211 211 211 0
3.396040 0.710799 20.647760 212 212 212 0
3.479755 0.711768 20.675909 213 213 213 0
3.569065 0.713813 20.735309 212 212 212 0
3.666720 0.717402 20.839555 212 212 212 0
3.751537 0.718379 20.867959 213 213 213 0
3.831426 0.718392 20.868332 212 212 212 0
3.917441 0.719530 20.901377 213 213 213 0
4.016838 0.723031 21.003074 213 213 213 0
4.120958 0.727228 21.124994 212 212 212 0
4.213343 0.729232 21.183224 213 213 213 0
4.300258 0.730232 21.212272 212 212 212 0
4.399212 0.733202 21.298531 213 213 213 0
4.499818 0.736334 21.389511 212 212 212 0
4.602300 0.739655 21.485996 212 212 212 0
4.693829 0.741131 21.528858 214 214 214 0
4.793221 0.743776 21.605686 212 212 212 0
4.907199 0.748556 21.744539 212 212 212 0
5.010449 0.751567 21.832022 212 212 212 0
5.102161 0.752778 21.867183 212 212 212 0
5.199176 0.754719 21.923575 211 211 211 0
5.326986 0.760998 22.105969 212 212 212 0
5.419157 0.762069 22.137080 212 212 212 0
5.508897 0.762770 22.157453 212 212 212 0
5.623525 0.766844 22.275796 212 212 212 0
5.753692 0.772884 22.451241 212 212 212 0
5.853653 0.774748 22.505394 212 212 212 0
7.226350 0.942567 27.380318 212 212 212 0
7.380634 0.948939 27.565393 211 211 211 0
7.534352 0.955059 27.743172 211 211 211 0
7.684313 0.960539 27.902371 212 212 212 0
7.857079 0.968681 28.138879 212 212 212 0
8.046382 0.978614 28.427424 211 211 211 0
9.234184 1.108102 32.188876 211 211 211 0
8.371046 0.991308 28.796169 212 212 212 0
8.457194 0.988503 28.714689 215 215 215 0
8.533543 0.984640 28.602457 213 213 213 0
8.636353 0.983888 28.580633 212 212 212 0
-10.713497 1.339187 35.011428 206 206 206 0
-10.579142 1.339132 35.009986 206 206 206 0
-6.166904 0.790629 20.670032 208 208 208 0
-6.122557 0.795137 20.787903 206 206 206 0
-5.993131 0.788570 20.616207 206 206 206 0
-5.825723 0.776763 20.307530 202 202 202 0
-5.625470 0.760199 19.874475 173 173 173 0
-5.464788 0.748601 19.571270 212 212 212 0
-5.406996 0.750972 19.633247 213 213 213 0
-5.409549 0.761908 19.919172 213 213 213 0
-5.406250 0.772321 20.191410 213 213 213 0
-5.346599 0.774869 20.258024 213 213 213 0
-5.308349 0.780640 20.408878 213 213 213 0
-5.289935 0.789542 20.641633 213 213 213 0
-5.270426 0.798549 20.877109 213 213 213 0
-5.280243 0.812345 21.237782 214 214 214 0
-5.205828 0.813411 21.265636 213 213 213 0
-5.111814 0.811399 21.213045 213 213 213 0
-5.015800 0.809000 21.150329 214 214 214 0
-4.981748 0.816680 21.351110 213 213 213 0
-4.951435 0.825239 21.574878 211 211 211 0
-4.875962 0.826434 21.606124 209 209 209 0
-4.756867 0.820150 21.441818 208 208 208 0
-4.642569 0.814486 21.293747 208 208 208 0
-4.533929 0.809630 21.166802 209 209 209 0
-4.487200 0.815855 21.329533 209 209 209 0
-4.457220 0.825411 21.579374 209 209 209 0
-4.373406 0.825171 21.573095 209 209 209 0
-4.266067 0.820397 21.448299 209 209 209 0
-4.159665 0.815621 21.323416 208 208 208 0
-4.058662 0.811732 21.221760 208 208 208 0
-3.982698 0.812795 21.249555 209 209 209 0
-3.953038 0.823550 21.530707 208 208 208 0
-3.882790 0.826126 21.598053 209 209 209 0
-3.782505 0.822284 21.497612 209 209 209 0
-3.679537 0.817675 21.377120 209 209 209 0
-3.596392 0.817362 21.368934 209 209 209 0
-3.532711 0.821561 21.478708 209 209 209 0
-3.464044 0.824772 21.562674 208 208 208 0
-3.391595 0.827218 21.626623 209 209 209 0
-3.298314 0.824579 21.557610 209 209 209 0
-3.206501 0.822180 21.494897 209 209 209 0
-3.129554 0.823567 21.531157 208 208 208 0
-3.068191 0.829241 21.679497 209 209 209 0
-2.994212 0.831725 21.744457 209 209 209 0
-2.909159 0.831188 21.730412 209 209 209 0
-2.818455 0.828957 21.672088 209 209 209 0
-2.723723 0.825371 21.578317 209 209 209 0
-2.639009 0.824690 21.560533 210 210 210 0
-2.568321 0.828490 21.659882 209 209 209 0
-2.499607 0.833202 21.783067 210 210 210 0
-2.406896 0.829964 21.698408 210 210 210 0
-2.317716 0.827756 21.640674 209 209 209 0
-2.224385 0.823846 21.538469 210 210 210 0
-2.142197 0.823922 21.540444 210 210 210 0
-2.062023 0.824809 21.563636 209 209 209 0
-1.987327 0.828053 21.648447 209 209 209 0
-1.905181 0.828339 21.655934 210 210 210 0
-1.817448 0.826113 21.597724 210 210 210 0
-1.733329 0.825395 21.578948 210 210 210 0
-1.652548 0.826274 21.601931 210 210 210 0
-1.572613 0.827691 21.638989 210 210 210 0
-1.490789 0.828216 21.652709 210 210 210 0
-1.405427 0.826722 21.613639 210 210 210 0
-1.324219 0.827637 21.637565 210 210 210 0
-1.241240 0.827493 21.633813 210 210 210 0
-1.160683 0.829060 21.674760 211 211 211 0
-1.077995 0.829227 21.679127 211 211 211 0
-0.996090 0.830075 21.701306 211 211 211 0
-0.914383 0.831257 21.732216 211 211 211 0
-0.832912 0.832912 21.775489 211 211 211 0
-0.748063 0.831182 21.730237 210 210 210 0
-0.663851 0.829814 21.694479 211 211 211 0
-0.581253 0.830361 21.708785 211 211 211 0
-0.524495 0.874159 22.853821 211 211 211 0
-0.415775 0.831549 21.739850 211 211 211 0
-0.332655 0.831638 21.742183 211 211 211 0
-0.248763 0.829210 21.678686 211 211 211 0
-0.165360 0.826802 21.615748 211 211 211 0
-0.082562 0.825617 21.584752 211 211 211 0
0.000000 0.828123 21.650269 211 211 211 0
0.082894 0.828938 21.671584 211 211 211 0
0.165605 0.828024 21.647686 211 211 211 0
0.248054 0.826845 21.616870 212 212 212 0
0.330176 0.825439 21.580105 212 212 212 0
0.412939 0.825879 21.591603 212 212 212 0
0.496102 0.826837 21.616665 212 212 212 0
0.578804 0.826863 21.617337 212 212 212 0
0.661445 0.826806 21.615834 212 212 212 0
0.742644 0.825160 21.572814 212 212 212 0
0.823954 0.823954 21.541271 212 212 212 0
0.905147 0.822860 21.512692 212 212 212 0
0.990438 0.825365 21.578167 212 212 212 0
1.074040 0.826185 21.599607 212 212 212 0
1.157162 0.826544 21.609004 213 213 213 0
1.236152 0.824101 21.545127 213 213 213 0
1.313854 0.821159 21.468209 213 213 213 0
1.389328 0.817252 21.366061 213 213 213 0
1.469424 0.816347 21.342394 212 212 212 0
1.546978 0.814199 21.286242 213 213 213 0
1.572345 0.786172 20.553526 213 213 213 0
1.647745 0.784640 20.513476 214 214 214 0
1.716020 0.780009 20.392400 214 214 214 0
1.609736 0.699885 18.297656 213 213 213 0
1.873723 0.780718 20.410930 212 212 212 0
1.946824 0.778730 20.358947 212 212 212 0
2.013468 0.774411 20.246035 210 210 210 0
2.080147 0.770425 20.141822 212 212 212 0
2.150480 0.768029 20.079178 211 211 211 0
2.226713 0.767832 20.074039 211 211 211 0
2.309386 0.769795 20.125367 212 212 212 0
2.391720 0.771523 20.170528 211 211 211 0
2.466225 0.770695 20.148893 212 212 212 0
2.544372 0.771022 20.157433 211 211 211 0
2.620939 0.770864 20.153315 212 212 212 0
2.709241 0.774069 20.237093 211 211 211 0
2.793146 0.775874 20.284284 211 211 211 0
2.876213 0.777355 20.323006 211 211 211 0
2.956614 0.778056 20.341343 212 212 212 0
3.040456 0.779604 20.381808 212 212 212 0
3.126673 0.781668 20.435768 212 212 212 0
3.223649 0.786256 20.555707 212 212 212 0
3.313811 0.789003 20.627518 212 212 212 0
3.392225 0.788890 20.624565 212 212 212 0
3.475487 0.789883 20.650548 212 212 212 0
3.563390 0.791864 20.702337 212 212 212 0
3.662206 0.796132 20.813899 212 212 212 0
3.744046 0.796606 20.826290 213 213 213 0
3.827742 0.797446 20.848271 212 212 212 0
3.911294 0.798223 20.868582 212 212 212 0
4.006460 0.801292 20.948810 213 213 213 0
4.110931 0.806065 21.073595 212 212 212 0
4.202997 0.808269 21.131205 213 213 213 0
4.293253 0.810048 21.177720 212 212 212 0
4.388820 0.812744 21.248220 213 213 213 0
4.491806 0.816692 21.351427 212 212 212 0
4.593184 0.820211 21.443434 213 213 213 0
4.682491 0.821490 21.476856 213 213 213 0
4.784226 0.824867 21.565138 212 212 212 0
4.897144 0.830024 21.699983 212 212 212 0
5.004037 0.834006 21.804081 212 212 212 0
5.091649 0.834697 21.822134 212 212 212 0
5.189130 0.836956 21.881216 211 211 211 0
5.312863 0.843312 22.047361 212 212 212 0
5.409964 0.845307 22.099527 212 212 212 0
5.496502 0.845616 22.107598 212 212 212 0
5.606821 0.849518 22.209629 211 211 211 0
5.738900 0.856552 22.393524 212 212 212 0
5.839436 0.858741 22.450735 212 212 212 0
7.209824 1.044902 27.317700 212 212 212 0
7.364269 1.052038 27.504274 212 212 212 0
7.519053 1.059022 27.686839 212 212 212 0
7.665543 1.064659 27.834214 211 211 211 0
7.835861 1.073406 28.062891 213 213 213 0
8.017123 1.083395 28.324052 212 212 212 0
8.155101 1.087347 28.427366 211 211 211 0
8.325585 1.095472 28.639784 212 212 212 0
8.440116 1.096119 28.656705 211 211 211 0
8.536569 1.094432 28.612601 214 214 214 0
8.635173 1.093060 28.576729 213 213 213 0
-10.713497 1.473106 35.011427 205 205 205 0
-10.579106 1.473040 35.009866 206 206 206 0
-6.162817 0.869115 20.656332 206 206 206 0
-6.131306 0.875901 20.817610 207 207 207 0
-5.997348 0.868037 20.630712 206 206 206 0
-5.875435 0.861731 20.480820 201 201 201 0
-5.659509 0.841278 19.994731 167 167 167 0
-5.471635 0.824493 19.595792 212 212 212 0
-5.398743 0.824808 19.603279 214 214 214 0
-5.416766 0.839217 19.945746 213 213 213 0
-5.396145 0.847966 20.153669 213 213 213 0
-5.346787 0.852386 20.258736 213 213 213 0
-5.301397 0.857579 20.382148 214 214 214 0
-5.290039 0.868514 20.642042 214 214 214 0
-5.275252 0.879209 20.896227 213 213 213 0
-5.274145 0.892548 21.213251 213 213 213 0
-5.198889 0.893559 21.237291 213 213 213 0
-5.113204 0.892782 21.218815 213 213 213 0
-5.021249 0.890867 21.173302 213 213 213 0
-4.983578 0.898678 21.358956 214 214 214 0
-4.939013 0.905486 21.520755 210 210 210 0
-4.869815 0.907932 21.578884 209 209 209 0
-4.754038 0.901628 21.429066 209 209 209 0
-4.639839 0.895408 21.281225 209 209 209 0
-4.526590 0.889152 21.132541 208 208 208 0
-4.475775 0.895155 21.275221 208 208 208 0
-4.445982 0.905663 21.524968 208 208 208 0
-4.365252 0.905996 21.532873 208 208 208 0
-4.259268 0.900999 21.414117 209 209 209 0
-4.153693 0.895895 21.292799 209 209 209 0
-4.051704 0.891375 21.185381 209 209 209 0
-3.982652 0.894065 21.249310 207 207 207 0
-3.950429 0.905307 21.516500 209 209 209 0
-3.879225 0.907904 21.578224 208 208 208 0
-3.780019 0.903918 21.483487 209 209 209 0
-3.675344 0.898417 21.352760 208 208 208 0
-3.594330 0.898583 21.356685 208 208 208 0
-3.529421 0.902875 21.458710 208 208 208 0
-3.463254 0.907043 21.557758 208 208 208 0
-3.387198 0.908760 21.598582 209 209 209 0
-3.298030 0.906958 21.555750 208 208 208 0
-3.205130 0.904011 21.485704 208 208 208 0
-3.130245 0.906123 21.535912 208 208 208 0
-3.066518 0.911668 21.667679 209 209 209 0
-2.992409 0.914347 21.731365 209 209 209 0
-2.908820 0.914201 21.727882 209 209 209 0
-2.818351 0.911819 21.671284 209 209 209 0
-2.724397 0.908132 21.583658 209 209 209 0
-2.637386 0.906601 21.547272 209 209 209 0
-2.570268 0.912031 21.676309 209 209 209 0
-2.498203 0.916008 21.770829 209 209 209 0
-2.406999 0.913000 21.699341 210 210 210 0
-2.314761 0.909371 21.613085 209 209 209 0
-2.224181 0.906148 21.536489 210 210 210 0
-2.141352 0.905957 21.531949 210 210 210 0
-2.060600 0.906664 21.548763 210 210 210 0
-1.985280 0.909920 21.626138 210 210 210 0
-1.903131 0.910193 21.632631 210 210 210 0
-1.816546 0.908273 21.586999 210 210 210 0
-1.731362 0.906904 21.554464 210 210 210 0
-1.650990 0.908045 21.581571 210 210 210 0
-1.572007 0.910110 21.630649 210 210 210 0
-1.489366 0.910168 21.632036 210 210 210 0
-1.403846 0.908371 21.589321 210 210 210 0
-1.323048 0.909596 21.618433 210 210 210 0
-1.240627 0.909793 21.623127 211 211 211 0
-1.159718 0.911207 21.656733 210 210 210 0
-1.076510 0.910893 21.649266 210 210 210 0
-0.995316 0.912373 21.684438 211 211 211 0
-0.913473 0.913473 21.710587 211 211 211 0
-0.832614 0.915875 21.767683 211 211 211 0
-0.747754 0.913922 21.721248 211 211 211 0
-0.663646 0.912514 21.687792 211 211 211 0
-0.579688 0.910939 21.650352 211 211 211 0
-0.410190 0.752016 17.873217 211 211 211 0
-0.415271 0.913595 21.713494 211 211 211 0
-0.332455 0.914250 21.729058 211 211 211 0
-0.248546 0.911335 21.659762 211 211 211 0
-0.165213 0.908672 21.596490 212 212 212 0
-0.082522 0.907742 21.574390 211 211 211 0
0.000000 0.910029 21.628744 211 211 211 0
0.082737 0.910106 21.630569 211 211 211 0
0.165501 0.910254 21.634089 211 211 211 0
0.247914 0.909017 21.604675 211 211 211 0
0.329847 0.907079 21.558625 212 212 212 0
0.412763 0.908079 21.582391 211 211 211 0
0.496071 0.909464 21.615310 213 213 213 0
0.578337 0.908816 21.599893 211 211 211 0
0.661468 0.909519 21.616614 213 213 213 0
0.742297 0.907252 21.562731 212 212 212 0
0.823785 0.906163 21.536857 213 213 213 0
0.904841 0.904841 21.505431 213 213 213 0
0.989697 0.907222 21.562031 212 212 212 0
1.073766 0.908571 21.594083 213 213 213 0
1.156926 0.909013 21.604598 212 212 212 0
1.235848 0.906288 21.539830 212 212 212 0
1.313223 0.902841 21.457890 212 212 212 0
1.388905 0.898703 21.359547 212 212 212 0
1.469365 0.897946 21.341547 212 212 212 0
1.547609 0.895984 21.294928 212 212 212 0
1.551333 0.853233 20.278863 212 212 212 0
1.651348 0.864992 20.558335 214 214 214 0
1.715439 0.857719 20.385488 215 215 215 0
1.668090 0.797782 18.960955 213 213 213 0
1.872920 0.858422 20.402179 211 211 211 0
1.945287 0.855926 20.342868 211 211 211 0
2.012967 0.851640 20.240997 211 211 211 0
2.078630 0.846849 20.127138 211 211 211 0
2.147510 0.843665 20.051447 210 210 210 0
2.222863 0.843155 20.039332 212 212 212 0
2.304107 0.844839 20.079364 211 211 211 0
2.389487 0.847882 20.151690 211 211 211 0
2.464309 0.847106 20.133242 211 211 211 0
2.538177 0.846059 20.108355 213 213 213 0
2.617332 0.846784 20.125585 212 212 212 0
2.705383 0.850263 20.208279 212 212 212 0
2.789923 0.852476 20.260878 213 213 213 0
2.873437 0.854265 20.303385 212 212 212 0
2.953539 0.854972 20.320185 213 213 213 0
3.037597 0.856758 20.362641 213 213 213 0
3.120489 0.858134 20.395351 212 212 212 0
3.218194 0.863418 20.520923 213 213 213 0
3.307437 0.866233 20.587840 212 212 212 0
3.386908 0.866418 20.592234 213 213 213 0
3.471193 0.867798 20.625033 213 213 213 0
3.557387 0.869584 20.667463 212 212 212 0
3.654941 0.874008 20.772613 213 213 213 0
3.740559 0.875450 20.806892 212 212 212 0
3.821202 0.875692 20.812647 212 212 212 0
3.905705 0.876791 20.838762 213 213 213 0
3.997164 0.879376 20.900202 212 212 212 0
4.101401 0.884616 21.024737 212 212 212 0
4.194731 0.887347 21.089647 213 213 213 0
4.287458 0.889850 21.149132 213 213 213 0
4.382214 0.892673 21.216240 214 214 214 0
4.485231 0.897046 21.320173 213 213 213 0
4.588865 0.901384 21.423271 212 212 212 0
4.677942 0.902761 21.455988 212 212 212 0
4.775938 0.905781 21.527780 213 213 213 0
4.889270 0.911559 21.665093 213 213 213 0
4.993505 0.915476 21.758193 212 212 212 0
5.083785 0.916748 21.788426 212 212 212 0
5.182290 0.919439 21.852374 213 213 213 0
5.309277 0.927017 22.032481 212 212 212 0
5.402764 0.928600 22.070116 212 212 212 0
5.490796 0.929212 22.084648 213 213 213 0
5.593133 0.932189 22.155408 212 212 212 0
5.727538 0.940342 22.349187 211 211 211 0
5.830489 0.943167 22.416337 212 212 212 0
7.191344 1.146446 27.247682 212 212 212 0
7.353323 1.155522 27.463393 213 213 213 0
7.507722 1.163168 27.645114 211 211 211 0
7.654712 1.169470 27.794887 213 213 213 0
7.808863 1.176678 27.966204 212 212 212 0
7.993668 1.188248 28.241187 213 213 213 0
8.134458 1.193054 28.355411 213 213 213 0
8.315785 1.203600 28.606071 212 212 212 0
8.442983 1.206140 28.666438 213 213 213 0
8.546883 1.205330 28.647168 212 212 212 0
8.653277 1.204887 28.636640 211 211 211 0
-10.713489 1.607023 35.011403 205 205 205 0
-10.579151 1.606960 35.010013 206 206 206 0
-6.148108 0.945863 20.607032 205 205 205 0
-6.121174 0.953949 20.783206 205 205 205 0
-6.003549 0.947929 20.652044 206 206 206 0
-5.883246 0.941319 20.508046 203 203 203 0
-5.676649 0.920538 20.055286 172 172 172 0
-5.468867 0.898992 19.585879 211 211 211 0
-5.384036 0.897339 19.549876 213 213 213 0
-5.410738 0.914491 19.923548 213 213 213 0
-5.409004 0.927258 20.201696 213 213 213 0
-5.339676 0.928639 20.231792 213 213 213 0
-5.297813 0.934908 20.368370 213 213 213 0
-5.285709 0.946694 20.625145 214 214 214 0
-5.270895 0.958345 20.878966 213 213 213 0
-5.278766 0.974541 21.231840 213 213 213 0
-5.214854 0.977785 21.302508 213 213 213 0
-5.111586 0.973635 21.212102 213 213 213 0
-5.022447 0.972086 21.178354 214 214 214 0
-4.993873 0.982401 21.403078 214 214 214 0
-4.929432 0.985886 21.479005 210 210 210 0
-4.862871 0.989058 21.548115 209 209 209 0
-4.755250 0.983845 21.434528 209 209 209 0
-4.634584 0.975702 21.257122 209 209 209 0
-4.524818 0.969604 21.124267 209 209 209 0
-4.468049 0.974847 21.238499 208 208 208 0
-4.443821 0.987516 21.514505 208 208 208 0
-4.360115 0.987196 21.507535 209 209 209 0
-4.263604 0.983909 21.435920 209 209 209 0
-4.151349 0.976788 21.280786 208 208 208 0
-4.052629 0.972631 21.190219 208 208 208 0
-3.974554 0.973360 21.206102 209 209 209 0
-3.945514 0.986379 21.489730 209 209 209 0
-3.878011 0.990130 21.571469 208 208 208 0
-3.775208 0.984837 21.456140 208 208 208 0
-3.673850 0.979693 21.344081 208 208 208 0
-3.591385 0.979469 21.339185 209 209 209 0
-3.524843 0.983677 21.430877 208 208 208 0
-3.460796 0.988799 21.542461 209 209 209 0
-3.381117 0.989595 21.559808 208 208 208 0
-3.294039 0.988212 21.529667 208 208 208 0
-3.200587 0.984796 21.455252 208 208 208 0
-3.129617 0.988300 21.531591 209 209 209 0
-3.063913 0.993701 21.649269 209 209 209 0
-2.989907 0.996636 21.713195 209 209 209 0
-2.905342 0.996117 21.701903 210 210 210 0
-2.815421 0.993678 21.648756 209 209 209 0
-2.722787 0.990104 21.570904 209 209 209 0
-2.636139 0.988552 21.537084 209 209 209 0
-2.566741 0.993577 21.646560 209 209 209 0
-2.497879 0.999152 21.768012 210 210 210 0
-2.405710 0.995466 21.687716 209 209 209 0
-2.314327 0.991854 21.609026 209 209 209 0
-2.223767 0.988341 21.532479 210 210 210 0
-2.138706 0.987095 21.505335 210 210 210 0
-2.059573 0.988595 21.538014 210 210 210 0
-1.983459 0.991729 21.606306 209 209 209 0
-1.900670 0.991654 21.604660 209 209 209 0
-1.815426 0.990232 21.573692 210 210 210 0
-1.731348 0.989342 21.554290 211 211 211 0
-1.648619 0.989171 21.550576 210 210 210 0
-1.571521 0.992540 21.623958 210 210 210 0
-1.488928 0.992619 21.625679 210 210 210 0
-1.403948 0.991022 21.590898 210 210 210 0
-1.321984 0.991488 21.601049 210 210 210 0
-1.239554 0.991643 21.604434 210 210 210 0
-1.158366 0.992885 21.631484 211 211 211 0
-1.076727 0.993901 21.653626 210 210 210 0
-0.995024 0.995024 21.678072 210 210 210 0
-0.913205 0.996224 21.704219 211 211 211 0
-0.831441 0.997729 21.737015 211 211 211 0
-0.747166 0.996221 21.704171 211 211 211 0
-0.663067 0.994601 21.668858 211 211 211 0
-0.578898 0.992397 21.620839 211 211 211 0
-0.452676 0.905352 19.724452 212 212 212 0
-0.415936 0.998246 21.748277 211 211 211 0
-0.332325 0.996974 21.720561 211 211 211 0
-0.248246 0.992983 21.633614 211 211 211 0
-0.165132 0.990794 21.585919 211 211 211 0
-0.082423 0.989071 21.548391 212 212 212 0
0.000000 0.991335 21.597707 211 211 211 0
0.082750 0.992994 21.633859 212 212 212 0
0.165463 0.992780 21.629194 212 212 212 0
0.247730 0.990918 21.588636 211 211 211 0
0.329811 0.989433 21.556266 212 212 212 0
0.412593 0.990222 21.573470 211 211 211 0
0.495493 0.990985 21.590095 212 212 212 0
0.578327 0.991418 21.599519 212 212 212 0
0.660647 0.990970 21.589762 211 211 211 0
0.742227 0.989637 21.560709 213 213 213 0
0.822956 0.987547 21.515186 212 212 212 0
0.904123 0.986316 21.488371 212 212 212 0
0.989848 0.989848 21.565325 212 212 212 0
1.072765 0.990245 21.573957 212 212 212 0
1.156602 0.991373 21.598540 212 212 212 0
1.235391 0.988313 21.531867 213 213 213 0
1.313039 0.984779 21.454886 213 213 213 0
1.388514 0.980128 21.353547 212 212 212 0
1.468508 0.979006 21.329098 212 212 212 0
1.547494 0.977365 21.293346 212 212 212 0
1.518059 0.910835 19.843910 213 213 213 0
