ply
    format ascii 1.0
    element vertex 13875
    property float x
    property float y
    property float z
    property uchar red
    property uchar green
    property uchar blue
    property uchar alpha
    end_header
5.757870 -3.868569 23.520712 211 211 211 0
5.877500 -3.888192 23.640021 210 210 210 0
6.004237 -3.911852 23.783867 211 211 211 0
6.112351 -3.922852 23.850749 209 209 209 0
6.236491 -3.943663 23.977281 208 208 208 0
6.393273 -3.984214 24.223825 208 208 208 0
6.518839 -4.004429 24.346736 208 208 208 0
6.642272 -4.022785 24.458335 207 207 207 0
6.807874 -4.065813 24.719948 205 205 205 0
6.932321 -4.083422 24.827006 205 205 205 0
7.070370 -4.108458 24.979226 204 204 204 0
7.247474 -4.155218 25.263524 203 203 203 0
7.433778 -4.205954 25.571993 201 201 201 0
7.624166 -4.257651 25.886311 199 199 199 0
7.889865 -4.349541 26.444998 195 195 195 0
8.060202 -4.387198 26.673953 175 175 175 0
-4.341151 -4.240194 26.393989 99 99 99 0
-4.194499 -4.194499 26.109551 119 119 119 0
-4.015666 -4.113610 25.606035 135 135 135 0
-3.848981 -4.041430 25.156740 140 140 140 0
-3.713892 -3.999576 24.896208 154 154 154 0
-3.586844 -3.964407 24.677290 156 156 156 0
-3.482658 -3.953288 24.608078 157 157 157 0
-3.420384 -3.990448 24.839391 165 165 165 0
-3.278490 -3.934188 24.489186 170 170 170 0
-3.154598 -3.896856 24.256809 171 171 171 0
-3.027384 -3.853034 23.984029 172 172 172 0
-2.905611 -3.813614 23.738648 175 175 175 0
-2.794691 -3.786355 23.568972 181 181 181 0
-2.696391 -3.774947 23.497957 182 182 182 0
-2.605847 -3.773986 23.491975 182 182 182 0
-2.512091 -3.768136 23.455561 182 182 182 0
-2.415991 -3.758208 23.393765 183 183 183 0
-2.313461 -3.737130 23.262556 189 189 189 0
-2.211062 -3.714584 23.122215 190 190 190 0
-2.117897 -3.706320 23.070777 189 189 189 0
-2.026571 -3.700696 23.035765 190 190 190 0
-1.932696 -3.689692 22.967268 190 190 190 0
-1.839218 -3.678436 22.897207 190 190 190 0
-1.747293 -3.669316 22.840438 194 194 194 0
-1.657232 -3.663355 22.803331 196 196 196 0
-1.566192 -3.654448 22.747885 196 196 196 0
-1.477064 -3.649216 22.715319 197 197 197 0
-1.388642 -3.645186 22.690235 197 197 197 0
-1.297243 -3.632279 22.609894 197 197 197 0
-1.210623 -3.631868 22.607332 197 197 197 0
-1.124751 -3.633810 22.619422 198 198 198 0
-1.035745 -3.625109 22.565258 201 201 201 0
-0.944270 -3.605396 22.442553 202 202 202 0
-0.853844 -3.586144 22.322716 202 202 202 0
-0.766915 -3.578935 22.277839 202 202 202 0
-0.682042 -3.580719 22.288948 202 202 202 0
-0.599827 -3.598963 22.402508 202 202 202 0
-0.511752 -3.582267 22.298581 202 202 202 0
-0.424376 -3.564759 22.189596 203 203 203 0
-0.337991 -3.548909 22.090935 205 205 205 0
-0.252947 -3.541262 22.043337 206 206 206 0
-0.168111 -3.530337 21.975330 207 207 207 0
-0.084378 -3.543890 22.059692 206 206 206 0
0.000000 -3.549967 22.097525 206 206 206 0
0.084316 -3.541280 22.043446 206 206 206 0
0.168238 -3.532993 21.991861 207 207 207 0
0.251640 -3.522959 21.929407 207 207 207 0
0.335558 -3.523361 21.931911 207 207 207 0
0.419915 -3.527288 21.956352 207 207 207 0
0.504199 -3.529394 21.969463 208 208 208 0
0.588657 -3.531941 21.985314 209 209 209 0
0.671236 -3.523987 21.935806 209 209 209 0
0.753641 -3.516993 21.892266 210 210 210 0
0.837430 -3.517207 21.893601 210 210 210 0
0.924635 -3.530425 21.975879 210 210 210 0
1.010215 -3.535752 22.009038 210 210 210 0
1.093832 -3.533918 21.997623 210 210 210 0
1.173041 -3.519123 21.905528 210 210 210 0
1.253835 -3.510737 21.853325 211 211 211 0
1.337396 -3.510664 21.852875 211 211 211 0
1.419045 -3.505877 21.823075 211 211 211 0
1.512101 -3.528235 21.962249 211 211 211 0
1.591916 -3.518972 21.904589 211 211 211 0
1.670711 -3.508494 21.839363 212 212 212 0
1.749005 -3.498009 21.774102 212 212 212 0
1.833875 -3.501033 21.792924 212 212 212 0
1.925429 -3.516000 21.886088 212 212 212 0
2.011223 -3.519640 21.908744 213 213 213 0
2.091691 -3.514041 21.873895 213 213 213 0
2.176233 -3.515453 21.882681 213 213 213 0
2.260534 -3.516386 21.888491 212 212 212 0
2.349495 -3.524243 21.937396 212 212 212 0
2.434320 -3.525567 21.945637 213 213 213 0
2.519640 -3.527495 21.957643 213 213 213 0
2.603385 -3.527167 21.955597 213 213 213 0
2.689066 -3.529399 21.969496 214 214 214 0
2.775112 -3.531961 21.985440 214 214 214 0
2.871059 -3.546603 22.076580 214 214 214 0
2.960930 -3.553116 22.117125 214 214 214 0
3.045482 -3.553062 22.116789 214 214 214 0
3.129943 -3.552908 22.115830 214 214 214 0
3.215583 -3.554065 22.123033 214 214 214 0
3.254285 -3.504614 21.815214 214 214 214 0
3.399374 -3.569343 22.218131 213 213 213 0
3.481409 -3.566322 22.199325 214 214 214 0
3.567021 -3.567021 22.203677 213 213 213 0
3.655241 -3.570235 22.223685 213 213 213 0
3.750849 -3.580356 22.286685 214 214 214 0
3.847610 -3.591103 22.353579 214 214 214 0
3.938914 -3.596400 22.386555 214 214 214 0
4.030138 -3.601400 22.417676 214 214 214 0
4.120116 -3.605101 22.440719 214 214 214 0
4.212301 -3.610544 22.474598 213 213 213 0
4.312381 -3.622400 22.548395 213 213 213 0
4.410188 -3.631920 22.607656 213 213 213 0
4.503947 -3.637803 22.644278 213 213 213 0
4.602992 -3.647654 22.705598 214 214 214 0
4.716498 -3.668387 22.834656 214 214 214 0
4.815121 -3.677001 22.888275 213 213 213 0
4.904430 -3.678323 22.896501 212 212 212 0
5.004073 -3.687211 22.951829 212 212 212 0
5.127076 -3.712711 23.110554 212 212 212 0
5.215309 -3.712593 23.109822 212 212 212 0
5.306801 -3.714761 23.123317 213 213 213 0
5.408288 -3.723739 23.179204 212 212 212 0
5.533617 -3.748579 23.333828 213 213 213 0
5.645654 -3.763769 23.428381 210 210 210 0
5.744307 -3.769701 23.465305 210 210 210 0
5.861454 -3.787401 23.575481 210 210 210 0
5.989527 -3.811517 23.725596 210 210 210 0
6.102523 -3.825462 23.812401 210 210 210 0
6.221051 -3.842414 23.917918 209 209 209 0
6.370730 -3.877836 24.138412 208 208 208 0
6.510315 -3.906189 24.314901 208 208 208 0
6.623979 -3.918410 24.390975 208 208 208 0
6.807534 -3.971062 24.718715 206 206 206 0
6.908545 -3.974780 24.741859 205 205 205 0
7.045385 -3.998732 24.890956 204 204 204 0
7.216256 -4.041103 25.154705 204 204 204 0
7.383473 -4.080341 25.398945 201 201 201 0
7.571360 -4.129833 25.707019 200 200 200 0
7.823806 -4.212818 26.223581 196 196 196 0
8.005125 -4.255889 26.491687 189 189 189 0
-4.519481 -4.211334 26.853717 81 81 81 0
-4.336277 -4.134590 26.364353 105 105 105 0
-4.168766 -4.069510 25.949368 129 129 129 0
-4.002704 -4.002704 25.523379 135 135 135 0
-3.839471 -3.935458 25.094582 144 144 144 0
-3.701852 -3.891691 24.815499 155 155 155 0
-3.569254 -3.851038 24.556274 156 156 156 0
-3.463419 -3.837842 24.472133 159 159 159 0
-2.500707 -2.848028 18.160546 169 169 169 0
-3.263638 -3.823118 24.378245 170 170 170 0
-3.144988 -3.792485 24.182914 170 170 170 0
-3.021712 -3.754249 23.939096 172 172 172 0
-2.900167 -3.715839 23.694176 178 178 178 0
-2.786517 -3.685393 23.500036 182 182 182 0
-2.690023 -3.676365 23.442468 182 182 182 0
-2.598195 -3.673310 23.422988 182 182 182 0
-2.502990 -3.665092 23.370584 183 183 183 0
-2.410814 -3.660866 23.343638 185 185 185 0
-2.308078 -3.639662 23.208431 190 190 190 0
-2.207350 -3.620054 23.083401 190 190 190 0
-2.115000 -3.613125 23.039215 190 190 190 0
-2.022533 -3.605385 22.989860 190 190 190 0
-1.929711 -3.596280 22.931802 190 190 190 0
-1.836661 -3.585862 22.865369 192 192 192 0
-1.743728 -3.574643 22.793833 196 196 196 0
-1.653426 -3.567919 22.750957 196 196 196 0
-1.563846 -3.562094 22.713814 197 197 197 0
-1.473482 -3.553691 22.660234 197 197 197 0
-1.385595 -3.550586 22.640434 197 197 197 0
-1.294882 -3.539343 22.568745 198 198 198 0
-1.208442 -3.539009 22.566614 198 198 198 0
-1.122539 -3.540315 22.574938 200 200 200 0
-1.034426 -3.534288 22.536510 202 202 202 0
-0.944249 -3.519474 22.442045 203 203 203 0
-0.853493 -3.499321 22.313541 202 202 202 0
-0.766115 -3.490081 22.254623 202 202 202 0
-0.681399 -3.492170 22.267945 202 202 202 0
-0.597962 -3.502348 22.332840 202 202 202 0
-0.510860 -3.490876 22.259690 202 202 202 0
-0.424068 -3.477358 22.173490 204 204 204 0
-0.337784 -3.462288 22.077397 206 206 206 0
-0.252360 -3.448922 21.992168 206 206 206 0
-0.167954 -3.443063 21.954808 207 207 207 0
-0.084271 -3.455117 22.031675 206 206 206 0
0.000000 -3.459158 22.057440 207 207 207 0
0.084205 -3.452420 22.014477 207 207 207 0
0.167958 -3.443133 21.955256 206 206 206 0
0.251461 -3.436639 21.913847 206 206 206 0
0.335287 -3.436695 21.914205 207 207 207 0
0.419226 -3.437651 21.920298 207 207 207 0
0.503446 -3.440211 21.936624 209 209 209 0
0.587204 -3.439335 21.931037 209 209 209 0
0.670492 -3.436269 21.911488 209 209 209 0
0.752875 -3.429763 21.869999 210 210 210 0
0.836153 -3.428225 21.860197 210 210 210 0
0.923272 -3.441287 21.943484 210 210 210 0
1.008529 -3.445806 21.972302 210 210 210 0
1.092241 -3.444759 21.965627 210 210 210 0
1.172274 -3.433087 21.891197 210 210 210 0
1.253015 -3.424908 21.839042 211 211 211 0
1.336324 -3.424331 21.835362 211 211 211 0
1.426083 -3.439377 21.931304 211 211 211 0
1.511925 -3.443830 21.959700 212 212 212 0
1.590608 -3.432364 21.886590 211 211 211 0
1.667876 -3.419147 21.802307 212 212 212 0
1.747518 -3.411821 21.755592 212 212 212 0
1.832189 -3.414534 21.772893 212 212 212 0
1.923954 -3.429657 21.869324 212 212 212 0
2.009079 -3.432176 21.885391 212 212 212 0
2.088654 -3.425392 21.842132 213 213 213 0
2.171218 -3.423844 21.832258 212 212 212 0
2.256070 -3.425884 21.845265 213 213 213 0
2.344931 -3.433649 21.894781 213 213 213 0
2.431628 -3.437818 21.921367 213 213 213 0
2.517668 -3.440813 21.940460 213 213 213 0
2.599884 -3.438556 21.926069 213 213 213 0
2.688080 -3.444103 21.961439 213 213 213 0
2.771685 -3.443608 21.958287 214 214 214 0
2.866819 -3.457047 22.043978 214 214 214 0
2.957478 -3.464475 22.091341 214 214 214 0
3.041963 -3.464458 22.091238 214 214 214 0
3.129487 -3.467809 22.112606 214 214 214 0
3.212675 -3.466307 22.103026 215 215 215 0
3.307838 -3.477470 22.174208 214 214 214 0
3.395582 -3.480471 22.193346 214 214 214 0
3.477488 -3.477488 22.174323 214 214 214 0
3.562303 -3.477486 22.174309 214 214 214 0
3.649176 -3.479447 22.186815 214 214 214 0
3.744881 -3.489548 22.251222 214 214 214 0
3.841662 -3.500181 22.319022 214 214 214 0
3.930609 -3.503369 22.339352 214 214 214 0
4.023553 -3.509908 22.381047 214 214 214 0
4.114570 -3.514529 22.410514 214 214 214 0
4.206916 -3.520073 22.445865 214 214 214 0
4.306852 -3.531618 22.519486 214 214 214 0
4.407279 -3.543106 22.592739 213 213 213 0
4.499557 -3.547727 22.622206 214 214 214 0
4.596079 -3.555457 22.671496 214 214 214 0
4.710169 -3.576239 22.804013 214 214 214 0
4.810677 -3.586141 22.867151 213 213 213 0
4.898939 -3.586723 22.870863 213 213 213 0
4.996078 -3.593670 22.915160 212 212 212 0
5.112735 -3.614175 23.045911 212 212 212 0
5.211746 -3.621722 23.094035 212 212 212 0
5.300107 -3.621740 23.094148 212 212 212 0
5.400252 -3.629677 23.144762 212 212 212 0
5.521552 -3.651349 23.282950 213 213 213 0
5.635049 -3.667254 23.384373 212 212 212 0
5.731631 -3.671826 23.413526 211 211 211 0
5.848256 -3.688900 23.522396 211 211 211 0
5.973001 -3.710500 23.660134 210 210 210 0
6.090873 -3.727250 23.766940 210 210 210 0
6.208187 -3.743172 23.868462 210 210 210 0
6.348312 -3.772186 24.053472 208 208 208 0
6.487498 -3.799820 24.229684 208 208 208 0
6.601485 -3.812125 24.308147 207 207 207 0
6.736637 -3.836140 24.461280 207 207 207 0
6.883390 -3.866013 24.651767 206 206 206 0
7.022396 -3.890787 24.809738 205 205 205 0
7.191195 -3.931187 25.067347 204 204 204 0
7.356271 -3.968515 25.305370 202 202 202 0
7.530156 -4.009564 25.567120 201 201 201 0
7.746608 -4.071935 25.964834 198 198 198 0
7.946881 -4.124330 26.298935 195 195 195 0
-4.519517 -4.108651 26.853931 92 92 92 0
-4.330241 -4.028131 26.327653 112 112 112 0
-4.152891 -3.955134 25.850548 134 134 134 0
-4.002940 -3.905308 25.524887 137 137 137 0
-3.842043 -3.842043 25.111389 151 151 151 0
-3.691225 -3.785872 24.744261 156 156 156 0
-3.548701 -3.735475 24.414871 156 156 156 0
-3.440675 -3.719648 24.311428 162 162 162 0
-3.241915 -3.602128 23.543320 170 170 170 0
-3.250797 -3.715197 24.282333 171 171 171 0
-3.140925 -3.695206 24.151671 171 171 171 0
-3.014473 -3.653907 23.881742 174 174 174 0
-2.895274 -3.619093 23.654200 181 181 181 0
-2.784776 -3.593259 23.485356 181 181 181 0
-2.686533 -3.582044 23.412054 181 181 181 0
-2.586478 -3.567555 23.317356 182 182 182 0
-2.494863 -3.564089 23.294703 183 183 183 0
-2.403639 -3.560946 23.274159 188 188 188 0
-2.304491 -3.545371 23.172357 189 189 189 0
-2.202499 -3.523999 23.032671 190 190 190 0
-2.109773 -3.516289 22.982280 190 190 190 0
-2.018606 -3.510619 22.945222 190 190 190 0
-1.925425 -3.500773 22.880870 191 191 191 0
-1.832377 -3.490242 22.812041 194 194 194 0
-1.739192 -3.478383 22.734532 196 196 196 0
-1.649750 -3.473157 22.700374 196 196 196 0
-1.559344 -3.465208 22.648418 197 197 197 0
-1.470291 -3.459509 22.611170 197 197 197 0
-1.380822 -3.452054 22.562444 197 197 197 0
-1.292388 -3.446368 22.525280 197 197 197 0
-1.206625 -3.447501 22.532688 199 199 199 0
-1.121788 -3.451657 22.559848 202 202 202 0
-1.033335 -3.444448 22.512734 202 202 202 0
-0.942938 -3.428864 22.410879 202 202 202 0
-0.853065 -3.412262 22.302366 202 202 202 0
-0.765189 -3.400841 22.227717 202 202 202 0
-0.679719 -3.398594 22.213034 202 202 202 0
-0.596474 -3.408420 22.277256 203 203 203 0
-0.510033 -3.400221 22.223669 202 202 202 0
-0.423698 -3.389581 22.154126 205 205 205 0
-0.337470 -3.374703 22.056882 206 206 206 0
-0.252143 -3.361901 21.973210 206 206 206 0
-0.167770 -3.355392 21.930664 206 206 206 0
-0.084156 -3.366233 22.001520 206 206 206 0
0.000000 -3.369357 22.021944 206 206 206 0
0.084107 -3.364286 21.988796 206 206 206 0
0.167783 -3.355651 21.932359 207 207 207 0
0.251048 -3.347303 21.877800 207 207 207 0
0.334883 -3.348835 21.887808 207 207 207 0
0.418635 -3.349076 21.889387 209 209 209 0
0.502773 -3.351821 21.907324 209 209 209 0
0.586887 -3.353639 21.919207 210 210 210 0
0.670133 -3.350665 21.899770 210 210 210 0
0.751604 -3.340461 21.833078 210 210 210 0
0.834780 -3.339120 21.824312 210 210 210 0
0.922010 -3.352764 21.913487 210 210 210 0
1.007555 -3.358515 21.951081 211 211 211 0
1.091216 -3.357587 21.945011 210 210 210 0
1.170855 -3.345300 21.864703 211 211 211 0
1.252085 -3.338894 21.822836 211 211 211 0
1.333860 -3.334650 21.795097 211 211 211 0
1.421696 -3.345167 21.863838 211 211 211 0
1.510253 -3.356119 21.935417 211 211 211 0
1.588163 -3.343501 21.852950 212 212 212 0
1.667043 -3.334086 21.791412 212 212 212 0
1.746185 -3.326066 21.738992 212 212 212 0
1.830911 -3.328929 21.757706 212 212 212 0
1.922366 -3.343244 21.851271 212 212 212 0
2.007627 -3.346044 21.869571 213 213 213 0
2.085357 -3.336571 21.807654 212 212 212 0
2.167611 -3.334786 21.795985 213 213 213 0
2.251984 -3.336273 21.805707 213 213 213 0
2.341381 -3.344830 21.861637 213 213 213 0
2.427326 -3.348036 21.882586 213 213 213 0
2.513389 -3.351185 21.903173 213 213 213 0
2.596593 -3.350443 21.898321 214 214 214 0
2.683667 -3.354584 21.925388 214 214 214 0
2.768395 -3.355631 21.932228 213 213 213 0
2.862946 -3.368171 22.014193 214 214 214 0
2.953217 -3.375105 22.059512 214 214 214 0
3.039527 -3.377252 22.073544 214 214 214 0
3.124692 -3.378046 22.078731 214 214 214 0
3.208660 -3.377537 22.075406 214 214 214 0
3.300184 -3.384804 22.122901 214 214 214 0
3.393410 -3.393410 22.179153 214 214 214 0
3.474978 -3.390223 22.158319 214 214 214 0
3.558654 -3.389194 22.151598 214 214 214 0
3.644788 -3.390500 22.160131 214 214 214 0
3.735887 -3.396261 22.197786 214 214 214 0
3.834459 -3.408408 22.277179 214 214 214 0
3.922987 -3.411293 22.296033 215 215 215 0
4.015621 -3.417549 22.336924 214 214 214 0
4.108338 -3.423615 22.376569 215 215 215 0
4.203066 -3.431074 22.425321 214 214 214 0
4.302007 -3.441606 22.494156 214 214 214 0
4.399598 -3.450665 22.553365 214 214 214 0
4.493218 -3.456322 22.590338 214 214 214 0
4.584499 -3.460000 22.614377 214 214 214 0
4.701507 -3.482598 22.762076 213 213 213 0
4.805657 -3.495023 22.843288 214 214 214 0
4.892820 -3.494872 22.842299 214 214 214 0
4.986718 -3.499452 22.872232 213 213 213 0
5.110669 -3.524600 23.036599 212 212 212 0
5.201024 -3.526118 23.046525 212 212 212 0
5.294321 -3.529547 23.068936 212 212 212 0
5.389032 -3.533791 23.096675 212 212 212 0
5.508981 -3.554181 23.229941 212 212 212 0
5.625034 -3.571450 23.342811 212 212 212 0
5.722491 -3.576557 23.376189 211 211 211 0
5.832139 -3.589009 23.457574 210 210 210 0
5.955468 -3.609375 23.590684 211 211 211 0
6.078091 -3.628711 23.717064 210 210 210 0
6.188049 -3.640029 23.791039 210 210 210 0
6.326427 -3.667494 23.970547 209 209 209 0
6.466425 -3.695100 24.150979 208 208 208 0
6.583088 -3.708782 24.240406 208 208 208 0
6.719328 -3.732960 24.398431 208 208 208 0
6.866219 -3.762312 24.590274 207 207 207 0
7.002231 -3.784989 24.738493 205 205 205 0
7.169536 -3.823752 24.991845 205 205 205 0
7.329397 -3.857578 25.212925 204 204 204 0
7.501283 -3.896770 25.469088 201 201 201 0
7.712650 -3.955205 25.851013 200 200 200 0
7.899405 -3.999699 26.141821 196 196 196 0
-4.688164 -4.063076 27.236975 73 73 73 0
-4.496061 -3.985145 26.714566 100 100 100 0
-4.323991 -3.921759 26.289656 121 121 121 0
-4.142795 -3.846881 25.787707 136 136 136 0
-3.994375 -3.799528 25.470271 139 139 139 0
-3.832630 -3.736815 25.049872 154 154 154 0
-3.680476 -3.680476 24.672202 157 157 157 0
-3.540027 -3.633186 24.355194 157 157 157 0
-3.426195 -3.611395 24.209118 167 167 167 0
-3.333358 -3.611138 24.207392 170 170 170 0
-3.240441 -3.610778 24.204977 170 170 170 0
-3.132013 -3.592603 24.083146 171 171 171 0
-3.005830 -3.552344 23.813267 176 176 176 0
-2.891190 -3.523638 23.620833 181 181 181 0
-2.779742 -3.497094 23.442898 181 181 181 0
-2.679241 -3.483013 23.348504 182 182 182 0
-2.579575 -3.469084 23.255127 182 182 182 0
-2.485673 -3.462187 23.208895 184 184 184 0
-2.394217 -3.458313 23.182926 190 190 190 0
-2.301164 -3.451746 23.138905 190 190 190 0
-2.198966 -3.430387 22.995726 189 189 189 0
-2.106140 -3.422478 22.942703 190 190 190 0
-2.015442 -3.417488 22.909254 190 190 190 0
-1.923793 -3.410359 22.861468 191 191 191 0
-1.829695 -3.398004 22.778643 196 196 196 0
-1.737716 -3.388546 22.715238 196 196 196 0
-1.648014 -3.382766 22.676497 197 197 197 0
-1.559982 -3.379962 22.657694 196 196 196 0
-1.468437 -3.368767 22.582651 197 197 197 0
-1.379806 -3.363277 22.545848 196 196 196 0
-1.291280 -3.357327 22.505962 198 198 198 0
-1.204765 -3.356132 22.497953 200 200 200 0
-1.119194 -3.357582 22.507669 201 201 201 0
-1.032370 -3.355202 22.491715 202 202 202 0
-0.941863 -3.339331 22.385325 202 202 202 0
-0.851458 -3.320687 22.260344 201 201 201 0
-0.763788 -3.309749 22.187023 202 202 202 0
-0.678513 -3.307753 22.173643 203 203 203 0
-0.595617 -3.318439 22.245279 203 203 203 0
-0.509064 -3.308918 22.181454 204 204 204 0
-0.422993 -3.299348 22.117298 206 206 206 0
-0.337220 -3.287890 22.040490 206 206 206 0
-0.251989 -3.275857 21.959823 206 206 206 0
-0.167579 -3.267792 21.905764 206 206 206 0
-0.084018 -3.276684 21.965370 207 207 207 0
0.000000 -3.284322 22.016569 206 206 206 0
0.084021 -3.276803 21.966166 206 206 206 0
0.167647 -3.269112 21.914613 207 207 207 0
0.250825 -3.260720 21.858355 207 207 207 0
0.334316 -3.259577 21.850691 209 209 209 0
0.417995 -3.260363 21.855958 210 210 210 0
0.502335 -3.265179 21.888246 209 209 209 0
0.586559 -3.267972 21.906966 209 209 209 0
0.669236 -3.262527 21.870469 210 210 210 0
0.751091 -3.254729 21.818192 210 210 210 0
0.834041 -3.252758 21.804983 210 210 210 0
0.920424 -3.263321 21.875787 210 210 210 0
1.006472 -3.271034 21.927493 210 210 210 0
1.090560 -3.271680 21.931822 211 211 211 0
1.170417 -3.260448 21.856529 211 211 211 0
1.250306 -3.250795 21.791824 211 211 211 0
1.331402 -3.245293 21.754938 211 211 211 0
1.419087 -3.255553 21.823717 211 211 211 0
1.508910 -3.269305 21.915907 212 212 212 0
1.586354 -3.256200 21.828054 212 212 212 0
1.664777 -3.246314 21.761785 212 212 212 0
1.744309 -3.239431 21.715644 212 212 212 0
1.828176 -3.240858 21.725210 213 213 213 0
1.920481 -3.256468 21.829849 212 212 212 0
2.004566 -3.257420 21.836231 212 212 212 0
2.083641 -3.250479 21.789706 213 213 213 0
2.166561 -3.249842 21.785434 213 213 213 0
2.249452 -3.249208 21.781182 213 213 213 0
2.339329 -3.258351 21.842475 213 213 213 0
2.425357 -3.261686 21.864833 213 213 213 0
2.510059 -3.263077 21.874157 213 213 213 0
2.593767 -3.263127 21.874488 213 213 213 0
2.681966 -3.268645 21.911483 214 214 214 0
2.766479 -3.269475 21.917041 214 214 214 0
2.858783 -3.279192 21.982184 214 214 214 0
2.950087 -3.287239 22.036128 215 215 215 0
3.038036 -3.291206 22.062716 214 214 214 0
3.119512 -3.288134 22.042127 215 215 215 0
3.203334 -3.287632 22.038761 215 215 215 0
3.292540 -3.292540 22.071663 214 214 214 0
3.390984 -3.306209 22.163291 214 214 214 0
3.470904 -3.301591 22.132336 214 214 214 0
3.554699 -3.300792 22.126978 214 214 214 0
3.640482 -3.301833 22.133956 214 214 214 0
3.730777 -3.306825 22.167423 214 214 214 0
3.825128 -3.315111 22.222965 214 214 214 0
3.921893 -3.325083 22.289816 214 214 214 0
4.011910 -3.329032 22.316285 214 214 214 0
4.105132 -3.335420 22.359106 214 214 214 0
4.197771 -3.341083 22.397072 215 215 215 0
4.293168 -3.348671 22.447938 214 214 214 0
4.389473 -3.356656 22.501463 213 213 213 0
4.483420 -3.362565 22.541076 214 214 214 0
4.576791 -3.367828 22.576353 214 214 214 0
4.690339 -3.387467 22.708006 213 213 213 0
4.799873 -3.403546 22.815795 213 213 213 0
4.883437 -3.400965 22.798492 214 214 214 0
4.975301 -3.404153 22.819865 214 214 214 0
4.663134 -3.135556 21.019310 213 213 213 0
5.194740 -3.433811 23.018677 213 213 213 0
5.287442 -3.436837 23.038961 213 213 213 0
5.383305 -3.441785 23.072133 213 213 213 0
5.496835 -3.457686 23.178726 213 213 213 0
5.615369 -3.476181 23.302702 213 213 213 0
5.718883 -3.484944 23.361450 211 211 211 0
5.823779 -3.494267 23.423947 210 210 210 0
5.947080 -3.514184 23.557457 211 211 211 0
6.066143 -3.531038 23.670443 211 211 211 0
6.172527 -3.540126 23.731360 211 211 211 0
6.312390 -3.567872 23.917362 210 210 210 0
6.447770 -3.592329 24.081307 208 208 208 0
6.564472 -3.605837 24.171858 208 208 208 0
6.699293 -3.628784 24.325682 209 209 209 0
6.849947 -3.659561 24.531997 208 208 208 0
6.984488 -3.681014 24.675810 205 205 205 0
7.141095 -3.713370 24.892707 205 205 205 0
7.311045 -3.751721 25.149795 204 204 204 0
7.473742 -3.785402 25.375578 202 202 202 0
7.679359 -3.839680 25.739431 201 201 201 0
7.859896 -3.880202 26.011073 198 198 198 0
-4.692778 -3.962790 27.263780 83 83 83 0
-4.482913 -3.871607 26.636443 106 106 106 0
-4.307668 -3.806777 26.190414 130 130 130 0
-4.139925 -3.745646 25.769840 136 136 136 0
-3.987821 -3.696029 25.428475 145 145 145 0
-3.824032 -3.632830 24.993671 155 155 155 0
-3.670222 -3.576113 24.603463 157 157 157 0
-3.524454 -3.524454 24.248048 159 159 159 0
-3.410842 -3.503027 24.100634 169 169 169 0
-3.319636 -3.504060 24.107741 171 171 171 0
-3.234906 -3.512184 24.163631 171 171 171 0
-3.127371 -3.495297 24.047451 172 172 172 0
-3.006024 -3.461482 23.814805 179 179 179 0
-2.889966 -3.431835 23.610836 181 181 181 0
-2.777897 -3.405164 23.427344 181 181 181 0
-2.674934 -3.388249 23.310969 182 182 182 0
-2.575862 -3.375267 23.221651 182 182 182 0
-2.479409 -3.364912 23.150412 186 186 186 0
-2.391615 -3.365976 23.157732 189 189 189 0
-2.296610 -3.356584 23.093116 190 190 190 0
-2.195492 -3.337148 22.959394 190 190 190 0
-2.101409 -3.327231 22.891163 190 190 190 0
-2.008864 -3.318993 22.834488 191 191 191 0
-1.919099 -3.314807 22.805687 192 192 192 0
-1.828334 -3.308414 22.761705 195 195 195 0
-1.734909 -3.296326 22.678543 196 196 196 0
-1.645741 -3.291482 22.645215 197 197 197 0
-1.557430 -3.287908 22.620626 197 197 197 0
-1.466148 -3.277273 22.547457 197 197 197 0
-1.377390 -3.271301 22.506373 198 198 198 0
-1.290263 -3.268666 22.488242 199 199 199 0
-1.203170 -3.265748 22.468167 201 201 201 0
-1.118148 -3.268433 22.486636 201 201 201 0
-1.031338 -3.265904 22.469243 202 202 202 0
-0.941491 -3.252424 22.376500 202 202 202 0
-0.850906 -3.233444 22.245916 202 202 202 0
-0.763768 -3.224798 22.186431 202 202 202 0
-0.677319 -3.217266 22.134610 202 202 202 0
-0.594460 -3.227069 22.202054 203 203 203 0
-0.508893 -3.222989 22.173988 205 205 205 0
-0.422683 -3.212392 22.101083 206 206 206 0
-0.336909 -3.200631 22.020168 206 206 206 0
-0.251810 -3.189598 21.944259 206 206 206 0
-0.167354 -3.179725 21.876331 206 206 206 0
-0.083884 -3.187580 21.930373 207 207 207 0
0.000000 -3.194015 21.974648 207 207 207 0
0.083963 -3.190580 21.951015 207 207 207 0
0.167375 -3.180119 21.879041 207 207 207 0
0.250767 -3.176382 21.853336 208 208 208 0
0.333754 -3.170661 21.813974 209 209 209 0
0.417305 -3.171518 21.819870 209 209 209 0
0.501612 -3.176877 21.856739 210 210 210 0
0.585720 -3.179624 21.875638 210 210 210 0
0.668756 -3.176593 21.854783 210 210 210 0
0.750454 -3.168583 21.799675 210 210 210 0
0.833372 -3.166815 21.787513 210 210 210 0
0.919355 -3.175953 21.850379 210 210 210 0
1.005096 -3.182805 21.897524 210 210 210 0
1.088937 -3.183048 21.899193 211 211 211 0
1.169414 -3.174124 21.837800 210 210 210 0
1.249273 -3.164826 21.773827 211 211 211 0
1.329688 -3.158008 21.726922 212 212 212 0
1.416640 -3.166608 21.786087 211 211 211 0
1.506790 -3.181001 21.885112 212 212 212 0
1.584704 -3.169409 21.805357 213 213 213 0
1.663477 -3.160606 21.744793 212 212 212 0
1.744130 -3.156044 21.713409 213 213 213 0
1.827025 -3.155770 21.711526 213 213 213 0
1.917367 -3.167824 21.794454 213 213 213 0
2.001329 -3.168771 21.800967 213 213 213 0
2.083306 -3.166624 21.786202 214 214 214 0
2.163743 -3.162393 21.757089 213 213 213 0
2.247557 -3.163228 21.762837 213 213 213 0
2.336807 -3.171381 21.818927 214 214 214 0
2.423402 -3.175492 21.847208 214 214 214 0
2.506990 -3.175521 21.847409 214 214 214 0
2.590693 -3.175688 21.848557 214 214 214 0
2.675432 -3.177076 21.858106 214 214 214 0
2.763252 -3.181926 21.891477 213 213 213 0
2.856599 -3.192669 21.965388 214 214 214 0
2.947974 -3.200657 22.020345 214 214 214 0
3.035166 -3.203786 22.041873 214 214 214 0
3.118158 -3.202432 22.032557 214 214 214 0
3.201037 -3.201037 22.022959 214 214 214 0
3.289294 -3.204953 22.049899 214 214 214 0
3.387347 -3.217980 22.139523 214 214 214 0
3.467019 -3.213335 22.107567 215 215 215 0
3.550948 -3.212763 22.103629 214 214 214 0
3.637099 -3.214181 22.113386 214 214 214 0
3.726179 -3.218064 22.140103 214 214 214 0
3.822026 -3.227489 22.204945 215 215 215 0
3.917972 -3.236586 22.267532 214 214 214 0
4.006916 -3.239634 22.288504 215 215 215 0
4.101024 -3.246644 22.336731 215 215 215 0
4.191727 -3.250727 22.364824 215 215 215 0
4.286175 -3.257493 22.411373 215 215 215 0
4.383515 -3.266148 22.470920 214 214 214 0
4.475565 -3.270605 22.501582 214 214 214 0
4.571221 -3.277479 22.548876 214 214 214 0
4.686103 -3.297628 22.687501 214 214 214 0
4.790930 -3.310097 22.773284 214 214 214 0
4.879384 -3.311011 22.779572 213 213 213 0
4.973042 -3.315362 22.809506 214 214 214 0
5.086479 -3.332521 22.927561 213 213 213 0
5.187274 -3.340956 22.985595 213 213 213 0
5.282319 -3.345469 23.016641 212 212 212 0
5.372641 -3.346891 23.026428 213 213 213 0
5.485369 -3.362000 23.130377 212 212 212 0
5.609559 -3.383544 23.278593 213 213 213 0
5.712662 -3.391893 23.336038 213 213 213 0
5.817867 -3.401214 23.400167 211 211 211 0
5.934612 -3.416898 23.508070 211 211 211 0
6.058575 -3.436207 23.640912 211 211 211 0
6.165364 -3.445350 23.703821 211 211 211 0
6.301300 -3.470281 23.875344 211 211 211 0
6.436843 -3.494286 24.040498 209 209 209 0
6.555551 -3.508605 24.139007 209 209 209 0
6.686532 -3.529003 24.279346 208 208 208 0
6.833265 -3.557042 24.472253 208 208 208 0
6.970270 -3.579328 24.625579 206 206 206 0
7.119298 -3.607111 24.816726 205 205 205 0
7.288500 -3.644250 25.072238 204 204 204 0
7.439042 -3.671216 25.257761 204 204 204 0
7.637363 -3.720766 25.598668 200 200 200 0
7.830480 -3.766560 25.913726 199 199 199 0
-4.608634 -3.789321 26.774923 93 93 93 0
-4.453126 -3.744674 26.459451 112 112 112 0
-4.289191 -3.690699 26.078071 135 135 135 0
-4.126695 -3.635422 25.687486 137 137 137 0
-3.982585 -3.594040 25.395093 151 151 151 0
-3.816562 -3.530320 24.944853 156 156 156 0
-3.658279 -3.470675 24.523403 157 157 157 0
-3.512946 -3.420501 24.168878 164 164 164 0
-3.395853 -3.395853 23.994724 169 169 169 0
-3.302680 -3.394421 23.984603 171 171 171 0
-3.225114 -3.409407 24.090491 171 171 171 0
-3.123015 -3.398576 24.013959 174 174 174 0
-3.001569 -3.365395 23.779511 180 180 180 0
-2.884682 -3.335414 23.567665 181 181 181 0
-2.772276 -3.308845 23.379933 181 181 181 0
-2.667352 -3.289734 23.244899 182 182 182 0
-2.569518 -3.278350 23.164459 183 183 183 0
-2.471948 -3.266503 23.080750 188 188 188 0
-2.387126 -3.271247 23.114268 190 190 190 0
-2.293681 -3.264084 23.063657 190 190 190 0
-2.194419 -3.247740 22.948170 189 189 189 0
-2.097194 -3.233175 22.845254 190 190 190 0
-2.002878 -3.222022 22.766450 191 191 191 0
-1.916190 -3.222682 22.771118 195 195 195 0
-1.823878 -3.213499 22.706231 195 195 195 0
-1.732233 -3.204631 22.643569 196 196 196 0
-1.642652 -3.198849 22.602713 196 196 196 0
-1.555628 -3.197680 22.594452 196 196 196 0
-1.463855 -3.186038 22.512190 197 197 197 0
-1.376542 -3.183253 22.492511 197 197 197 0
-1.289378 -3.180466 22.472824 200 200 200 0
-1.201950 -3.176583 22.445382 201 201 201 0
-1.116844 -3.178709 22.460407 201 201 201 0
-1.030033 -3.175934 22.440796 201 201 201 0
-0.940098 -3.162149 22.343393 202 202 202 0
-0.850055 -3.145203 22.223656 202 202 202 0
-0.762401 -3.134316 22.146729 201 201 201 0
-0.677057 -3.131387 22.126035 202 202 202 0
-0.593414 -3.136615 22.162973 204 204 204 0
-0.508249 -3.134204 22.145937 205 205 205 0
-0.422309 -3.125084 22.081501 206 206 206 0
-0.336531 -3.112907 21.995459 206 206 206 0
-0.251422 -3.100871 21.910414 206 206 206 0
-0.167186 -3.092936 21.854346 206 206 206 0
-0.083721 -3.097687 21.887914 206 206 206 0
0.000000 -3.105341 21.941997 206 206 206 0
0.083870 -3.103195 21.926833 207 207 207 0
0.167309 -3.095222 21.870499 208 208 208 0
0.250502 -3.089529 21.830272 209 209 209 0
0.333745 -3.087142 21.813404 209 209 209 0
0.416971 -3.085586 21.802413 210 210 210 0
0.501108 -3.090166 21.834770 210 210 210 0
0.585783 -3.096282 21.877983 210 210 210 0
0.667967 -3.089346 21.828977 210 210 210 0
0.749866 -3.082783 21.782603 211 211 211 0
0.832036 -3.078532 21.752567 210 210 210 0
0.917882 -3.087423 21.815386 210 210 210 0
1.003525 -3.094201 21.863282 210 210 210 0
1.087991 -3.096590 21.880159 210 210 210 0
1.167922 -3.086651 21.809937 211 211 211 0
1.248058 -3.078542 21.752638 212 212 212 0
1.328284 -3.071657 21.703991 212 212 212 0
1.414579 -3.078791 21.754394 213 213 213 0
1.504754 -3.093105 21.855537 212 212 212 0
1.583635 -3.083922 21.790649 213 213 213 0
1.662095 -3.074876 21.726731 212 212 212 0
1.741654 -3.068629 21.682593 213 213 213 0
1.823852 -3.067387 21.673819 213 213 213 0
1.912872 -3.077229 21.743360 213 213 213 0
2.000008 -3.083345 21.786576 213 213 213 0
2.081338 -3.080381 21.765629 214 214 214 0
2.162325 -3.077155 21.742835 214 214 214 0
2.246371 -3.078361 21.751355 213 213 213 0
2.334848 -3.085334 21.800631 214 214 214 0
2.421283 -3.089223 21.828105 214 214 214 0
2.503914 -3.088161 21.820601 214 214 214 0
2.587116 -3.087848 21.818395 214 214 214 0
2.671346 -3.088743 21.824719 213 213 213 0
2.761726 -3.096481 21.879391 214 214 214 0
2.854678 -3.106562 21.950621 214 214 214 0
2.944040 -3.112271 21.990963 214 214 214 0
3.034156 -3.118438 22.034539 214 214 214 0
3.114883 -3.114883 22.009422 215 215 215 0
3.197317 -3.113177 21.997367 215 215 215 0
3.285746 -3.117246 22.026118 214 214 214 0
3.382029 -3.128376 22.104762 215 215 215 0
3.462718 -3.124892 22.080138 215 215 215 0
3.547004 -3.124742 22.079081 215 215 215 0
3.633724 -3.126693 22.092865 214 214 214 0
3.722389 -3.130191 22.117584 214 214 214 0
3.816353 -3.137890 22.171983 214 214 214 0
3.913570 -3.147871 22.242510 214 214 214 0
4.002045 -3.150546 22.261410 214 214 214 0
4.095562 -3.156996 22.306983 215 215 215 0
4.186741 -3.161417 22.338220 214 214 214 0
4.278876 -3.166369 22.373210 214 214 214 0
4.378140 -3.176298 22.443369 214 214 214 0
4.472923 -3.182657 22.488299 213 213 213 0
4.567596 -3.188699 22.530995 214 214 214 0
4.677821 -3.205174 22.647402 214 214 214 0
4.787445 -3.220645 22.756720 213 213 213 0
4.876097 -3.221707 22.764223 214 214 214 0
4.968471 -3.225148 22.788536 214 214 214 0
5.069316 -3.233874 22.850195 213 213 213 0
5.188257 -3.253653 22.989949 213 213 213 0
5.276877 -3.254074 22.992928 213 213 213 0
5.363764 -3.253431 22.988381 213 213 213 0
5.476278 -3.268101 23.092042 213 213 213 0
5.603330 -3.290844 23.252743 212 212 212 0
5.708739 -3.300365 23.320014 212 212 212 0
5.812750 -3.308796 23.379589 212 212 212 0
5.927156 -3.322800 23.478536 211 211 211 0
6.050352 -3.341239 23.608826 211 211 211 0
6.158917 -3.351176 23.679036 211 211 211 0
6.290534 -3.373185 23.834553 211 211 211 0
6.428815 -3.398088 24.010515 210 210 210 0
6.550605 -3.413696 24.120796 209 209 209 0
6.676793 -3.431130 24.243984 208 208 208 0
6.823246 -3.458358 24.436372 209 209 209 0
6.956015 -3.478007 24.575215 207 207 207 0
7.096809 -3.501093 24.738333 205 205 205 0
7.263101 -3.535984 24.984869 205 205 205 0
7.410932 -3.561097 25.162318 203 203 203 0
7.600252 -3.605248 25.474282 201 201 201 0
7.793749 -3.650237 25.792169 200 200 200 0
-4.577726 -3.662181 26.595359 98 98 98 0
-4.434431 -3.628171 26.348371 120 120 120 0
-4.273591 -3.577890 25.983227 134 134 134 0
-4.124759 -3.535508 25.675438 139 139 139 0
-3.970664 -3.486436 25.319074 154 154 154 0
-3.815031 -3.433528 24.934843 155 155 155 0
-3.653216 -3.372200 24.489467 157 157 157 0
-3.504037 -3.319614 24.107579 166 166 166 0
-3.392310 -3.300626 23.969687 170 170 170 0
-3.293606 -3.293606 23.918709 171 171 171 0
-3.245051 -3.337767 24.239412 171 171 171 0
-3.118989 -3.302459 23.983000 176 176 176 0
-3.003712 -3.276777 23.796489 180 180 180 0
-2.884794 -3.245393 23.568575 181 181 181 0
-2.769559 -3.216262 23.357020 181 181 181 0
-2.662030 -3.194436 23.198516 182 182 182 0
-2.565219 -3.184410 23.125705 185 185 185 0
-2.469944 -3.175642 23.062034 189 189 189 0
-2.383506 -3.178007 23.079212 190 190 190 0
-2.290833 -3.171922 23.035020 190 190 190 0
-2.190082 -3.153718 22.902814 190 190 190 0
-2.091971 -3.137956 22.788353 190 190 190 0
-2.001525 -3.132822 22.751068 192 192 192 0
-1.912447 -3.129459 22.726648 196 196 196 0
-1.822078 -3.123562 22.683823 196 196 196 0
-1.730497 -3.114894 22.620874 196 196 196 0
-1.642090 -3.111328 22.594978 196 196 196 0
-1.553810 -3.107620 22.568050 197 197 197 0
-1.463602 -3.099393 22.508298 197 197 197 0
-1.374788 -3.093273 22.463856 198 198 198 0
-1.288209 -3.091700 22.452436 201 201 201 0
-1.200898 -3.088023 22.425731 201 201 201 0
-1.115303 -3.088531 22.429421 202 202 202 0
-1.029844 -3.089531 22.436681 202 202 202 0
-0.939234 -3.073858 22.322862 202 202 202 0
-0.849324 -3.057567 22.204554 202 202 202 0
-0.761676 -3.046702 22.125653 202 202 202 0
-0.676513 -3.044307 22.108260 204 204 204 0
-0.593101 -3.050236 22.151313 205 205 205 0
-0.507756 -3.046538 22.124456 205 205 205 0
-0.422315 -3.040671 22.081851 205 205 205 0
-0.336471 -3.028241 21.991585 205 205 205 0
-0.251149 -3.013792 21.886651 206 206 206 0
-0.166947 -3.005050 21.823168 206 206 206 0
-0.083627 -3.010555 21.863143 206 206 206 0
0.000000 -3.017951 21.916852 207 207 207 0
0.083843 -3.018361 21.919836 207 207 207 0
0.167190 -3.009420 21.854899 209 209 209 0
0.250202 -3.002427 21.804116 209 209 209 0
0.333227 -2.999040 21.779518 209 209 209 0
0.416462 -2.998529 21.775813 209 209 209 0
0.500658 -3.003945 21.815142 209 209 209 0
0.584488 -3.005937 21.829607 209 209 209 0
0.667881 -3.005466 21.826188 210 210 210 0
0.749144 -2.996575 21.761622 210 210 210 0
0.831363 -2.992905 21.734969 210 210 210 0
0.917269 -3.001972 21.800813 210 210 210 0
1.003377 -3.010130 21.860058 210 210 210 0
1.086754 -3.009471 21.855275 211 211 211 0
1.167652 -3.002533 21.804889 212 212 212 0
1.246477 -2.991546 21.725098 212 212 212 0
1.327048 -2.985858 21.683793 213 213 213 0
1.413391 -2.993063 21.736118 212 212 212 0
1.503810 -3.007620 21.841829 213 213 213 0
1.582927 -2.999230 21.780901 213 213 213 0
1.661180 -2.990125 21.714776 213 213 213 0
1.740734 -2.984115 21.671135 213 213 213 0
1.822582 -2.982407 21.658727 214 214 214 0
1.910148 -2.989797 21.712400 214 214 214 0
1.999102 -2.998653 21.776712 213 213 213 0
2.080215 -2.995510 21.753884 213 213 213 0
2.160574 -2.991563 21.725225 214 214 214 0
2.245001 -2.993334 21.738084 214 214 214 0
2.333524 -3.000245 21.788273 214 214 214 0
2.418432 -3.002192 21.802411 214 214 214 0
2.502526 -3.003031 21.808506 214 214 214 0
2.586271 -3.003412 21.811268 213 213 213 0
2.670680 -3.004515 21.819283 214 214 214 0
2.760360 -3.011302 21.868572 214 214 214 0
2.850380 -3.018050 21.917574 215 215 215 0
2.943113 -3.027202 21.984040 215 215 215 0
3.030767 -3.030767 22.009929 214 214 214 0
3.111079 -3.026996 21.982541 215 215 215 0
3.194981 -3.026824 21.981295 215 215 215 0
3.283585 -3.031001 22.011628 215 215 215 0
3.379859 -3.041873 22.090581 214 214 214 0
3.459812 -3.037884 22.061609 215 215 215 0
3.544516 -3.038156 22.063589 215 215 215 0
3.628786 -3.038053 22.062840 215 215 215 0
3.718638 -3.042522 22.095297 214 214 214 0
3.812624 -3.050099 22.150320 215 215 215 0
3.908791 -3.059054 22.215351 215 215 215 0
3.998842 -3.062943 22.243592 215 215 215 0
4.092247 -3.069185 22.288925 215 215 215 0
4.182751 -3.073041 22.316931 214 214 214 0
4.274864 -3.077902 22.352229 215 215 215 0
4.373880 -3.087445 22.421529 215 215 215 0
4.469673 -3.094389 22.471960 215 215 215 0
4.563890 -3.100001 22.512715 214 214 214 0
4.672243 -3.114829 22.620396 214 214 214 0
4.781183 -3.129501 22.726953 214 214 214 0
4.871973 -3.131983 22.744972 214 214 214 0
4.959667 -3.132421 22.748157 214 214 214 0
5.059320 -3.140267 22.805137 213 213 213 0
5.179627 -3.160450 22.951709 213 213 213 0
5.269559 -3.161736 22.961044 212 212 212 0
5.356406 -3.161157 22.956845 213 213 213 0
5.464771 -3.173093 23.043520 213 213 213 0
5.593878 -3.196502 23.213519 213 213 213 0
5.701286 -3.206973 23.289566 213 213 213 0
5.805744 -3.215489 23.351407 212 212 212 0
5.920933 -3.229600 23.453885 211 211 211 0
6.042207 -3.246559 23.577046 211 211 211 0
6.152576 -3.257246 23.654658 211 211 211 0
6.273182 -3.272965 23.768806 211 211 211 0
6.415666 -3.299486 23.961405 210 210 210 0
6.544298 -3.318235 24.097570 208 208 208 0
6.664373 -3.332186 24.198884 209 209 209 0
6.832994 -3.369695 24.471281 208 208 208 0
6.942414 -3.377391 24.527164 208 208 208 0
7.078681 -3.397767 24.675141 205 205 205 0
7.237905 -3.428481 24.898194 205 205 205 0
7.388866 -3.454535 25.087399 204 204 204 0
7.560641 -3.489527 25.341516 202 202 202 0
7.732547 -3.523692 25.589632 201 201 201 0
-4.745424 -3.610649 26.970299 79 79 79 0
-4.533656 -3.526177 26.339325 101 101 101 0
-4.401429 -3.501136 26.152280 126 126 126 0
-4.251523 -3.460542 25.849053 135 135 135 0
-4.108628 -3.423856 25.575024 143 143 143 0
-3.958836 -3.379494 25.243653 154 154 154 0
-3.804392 -3.328843 24.865308 156 156 156 0
-3.649510 -3.275201 24.464620 158 158 158 0
-3.500698 -3.224328 24.084613 168 168 168 0
-3.389292 -3.206087 23.948363 171 171 171 0
-3.289312 -3.197943 23.887526 170 170 170 0
-3.538853 -3.538853 26.434012 171 171 171 0
-3.109283 -3.200732 23.908364 179 179 179 0
-3.001795 -3.183722 23.781304 181 181 181 0
-2.881956 -3.152140 23.545394 181 181 181 0
-2.767549 -3.124652 23.340072 181 181 181 0
-2.656624 -3.099395 23.151410 182 182 182 0
-2.559373 -3.088898 23.073000 187 187 187 0
-2.465620 -3.082025 23.021665 189 189 189 0
-2.379687 -3.084779 23.042233 189 189 189 0
-2.289070 -3.081440 23.017295 190 190 190 0
-2.189878 -3.065829 22.900685 190 190 190 0
-2.092829 -3.052043 22.797704 190 190 190 0
-1.999035 -3.042009 22.722759 193 193 193 0
-1.911027 -3.040269 22.709763 196 196 196 0
-1.818898 -3.031497 22.644239 196 196 196 0
-1.729260 -3.026206 22.604711 196 196 196 0
-1.640229 -3.021475 22.569376 196 196 196 0
-1.552585 -3.018915 22.550250 197 197 197 0
-1.460570 -3.007057 22.461676 197 197 197 0
-1.372829 -3.003064 22.431853 200 200 200 0
-1.288504 -3.006508 22.457578 201 201 201 0
-1.199605 -2.999012 22.401580 201 201 201 0
-1.114065 -2.999405 22.404521 201 201 201 0
-1.028511 -2.999824 22.407649 201 201 201 0
-0.938186 -2.985137 22.297944 202 202 202 0
-0.848058 -2.968203 22.171450 202 202 202 0
-0.761191 -2.960185 22.111562 202 202 202 0
-0.675963 -2.957338 22.090292 205 205 205 0
-0.592586 -2.962932 22.132075 205 205 205 0
-0.507182 -2.958562 22.099437 205 205 205 0
-0.421678 -2.951748 22.048541 206 206 206 0
-0.336287 -2.942509 21.979529 206 206 206 0
-0.251225 -2.930962 21.893273 206 206 206 0
-0.166894 -2.920649 21.816241 207 207 207 0
-0.083488 -2.922069 21.826845 206 206 206 0
0.000000 -2.930775 21.891879 206 206 206 0
0.083789 -2.932628 21.905718 208 208 208 0
0.167164 -2.925378 21.851559 209 209 209 0
0.249998 -2.916646 21.786338 209 209 209 0
0.333086 -2.914505 21.770342 209 209 209 0
0.416287 -2.914007 21.766625 209 209 209 0
0.500090 -2.917192 21.790416 210 210 210 0
0.584229 -2.921143 21.819928 209 209 209 0
0.667074 -2.918449 21.799806 210 210 210 0
0.749021 -2.912860 21.758055 210 210 210 0
0.830959 -2.908356 21.724412 210 210 210 0
0.916115 -2.914912 21.773384 210 210 210 0
1.002123 -2.922859 21.832750 211 211 211 0
1.085930 -2.923659 21.838719 212 212 212 0
1.167188 -2.917971 21.796232 211 211 211 0
1.246452 -2.908388 21.724656 213 213 213 0
1.325972 -2.900565 21.666216 212 212 212 0
1.412189 -2.907447 21.717625 212 212 212 0
1.501701 -2.919974 21.811194 212 212 212 0
1.581256 -2.912839 21.757903 213 213 213 0
1.660292 -2.905511 21.703167 213 213 213 0
1.740061 -2.900102 21.662762 213 213 213 0
1.821682 -2.898131 21.648037 214 214 214 0
1.906641 -2.901411 21.672535 213 213 213 0
1.996562 -2.911652 21.749036 214 214 214 0
2.078502 -2.909903 21.735970 213 213 213 0
2.160044 -2.907752 21.719899 214 214 214 0
2.243690 -2.908487 21.725394 215 215 215 0
2.331796 -2.914745 21.772138 214 214 214 0
2.418743 -2.919172 21.805209 213 213 213 0
2.502293 -2.919342 21.806479 215 215 215 0
2.585108 -2.918670 21.801458 214 214 214 0
2.667427 -2.917499 21.792707 214 214 214 0
2.758381 -2.925555 21.852887 214 214 214 0
2.848539 -2.932319 21.903413 215 215 215 0
2.939542 -2.939542 21.957365 215 215 215 0
3.028859 -2.944724 21.996070 214 214 214 0
3.109192 -2.941128 21.969210 214 214 214 0
3.192864 -2.940796 21.966732 215 215 215 0
3.282166 -2.945533 22.002115 215 215 215 0
3.376433 -2.954379 22.068191 214 214 214 0
3.458870 -2.952694 22.055606 215 215 215 0
3.540991 -2.950826 22.041650 215 215 215 0
3.626076 -2.951457 22.046365 215 215 215 0
3.714763 -2.954925 22.072272 215 215 215 0
3.807713 -2.961554 22.121788 215 215 215 0
3.905792 -2.971798 22.198306 215 215 215 0
3.994680 -2.974762 22.220443 215 215 215 0
4.088593 -2.981266 22.269027 215 215 215 0
4.178226 -2.984447 22.292790 215 215 215 0
4.271301 -2.989911 22.333601 214 214 214 0
4.370531 -2.999384 22.404363 215 215 215 0
4.466270 -3.006143 22.454852 214 214 214 0
4.559170 -3.010772 22.489430 214 214 214 0
4.664975 -3.023595 22.585209 214 214 214 0
4.775367 -3.038870 22.699308 214 214 214 0
4.865595 -3.040997 22.715197 215 215 215 0
4.955983 -3.043147 22.731258 214 214 214 0
5.054063 -3.049866 22.781444 213 213 213 0
5.174815 -3.069806 22.930388 214 214 214 0
5.262480 -3.069780 22.930195 213 213 213 0
5.351314 -3.070426 22.935022 213 213 213 0
5.456085 -3.080048 23.006893 213 213 213 0
5.587286 -3.104048 23.186164 213 213 213 0
5.694284 -3.114061 23.260963 213 213 213 0
5.799970 -3.123061 23.328186 212 212 212 0
5.907176 -3.132593 23.399391 211 211 211 0
6.035559 -3.152904 23.551102 211 211 211 0
6.146949 -3.163871 23.633023 211 211 211 0
6.264982 -3.177890 23.737738 211 211 211 0
6.406733 -3.203367 23.928042 211 211 211 0
6.534561 -3.221263 24.061719 209 209 209 0
6.654642 -3.234895 24.163550 209 209 209 0
7.264245 -3.482857 26.015740 209 209 209 0
6.921930 -3.273886 24.454797 208 208 208 0
7.061320 -3.295283 24.614624 206 206 206 0
7.215133 -3.322758 24.819858 205 205 205 0
7.375253 -3.352388 25.041178 205 205 205 0
7.532997 -3.380191 25.248860 202 202 202 0
7.707373 -3.414659 25.506323 202 202 202 0
-4.702223 -3.475556 26.724768 86 86 86 0
-4.523463 -3.417728 26.280107 106 106 106 0
-4.369773 -3.376643 25.964190 130 130 130 0
-4.224511 -3.340311 25.684822 135 135 135 0
-4.087979 -3.309316 25.446492 148 148 148 0
-3.942642 -3.269508 25.140393 155 155 155 0
-3.796046 -3.226639 24.810758 156 156 156 0
-3.647038 -3.179469 24.448054 160 160 160 0
-3.499512 -3.131143 24.076452 169 169 169 0
-3.392164 -3.117123 23.968654 170 170 170 0
-3.285931 -3.103379 23.862969 170 170 170 0
-2.583709 -2.509889 19.299415 172 172 172 0
-3.105683 -3.105683 23.880686 181 181 181 0
-3.002973 -3.093972 23.790632 181 181 181 0
-2.880216 -3.060229 23.531173 181 181 181 0
-2.765689 -3.033336 23.324385 181 181 181 0
-2.654760 -3.008728 23.135166 183 183 183 0
-2.555504 -2.996108 23.038122 188 188 188 0
-2.463411 -2.991285 23.001038 189 189 189 0
-2.378878 -2.995624 23.034404 190 190 190 0
-2.286745 -2.990359 22.993915 190 190 190 0
-2.186969 -2.974277 22.870259 190 190 190 0
-2.089401 -2.959984 22.760354 191 191 191 0
-1.995180 -2.949396 22.678940 195 195 195 0
-1.908080 -2.948850 22.674744 196 196 196 0
-1.816546 -2.941074 22.614947 197 197 197 0
-1.727079 -2.936034 22.576196 196 196 196 0
-1.639989 -2.934717 22.566069 197 197 197 0
-1.550527 -2.928773 22.520359 197 197 197 0
-1.461118 -2.922236 22.470093 197 197 197 0
-1.371104 -2.913595 22.403653 201 201 201 0
-1.287466 -2.918257 22.439503 201 201 201 0
-1.197749 -2.908819 22.366930 202 202 202 0
-1.112351 -2.909227 22.370064 202 202 202 0
-1.026798 -2.909260 22.370319 202 202 202 0
-0.938079 -2.899516 22.295391 201 201 201 0
-0.849129 -2.887040 22.199458 201 201 201 0
-0.760515 -2.873057 22.091941 204 204 204 0
-0.675348 -2.870229 22.070196 206 206 206 0
-0.591955 -2.875212 22.108514 205 205 205 0
-0.506975 -2.872856 22.090397 205 205 205 0
-0.421610 -2.866949 22.044973 206 206 206 0
-0.336112 -2.856949 21.968079 206 206 206 0
-0.250933 -2.843911 21.867828 206 206 206 0
-0.166678 -2.833531 21.788014 206 206 206 0
-0.083401 -2.835648 21.804288 206 206 206 0
0.000000 -2.843280 21.862974 207 207 207 0
0.083735 -2.846994 21.891533 208 208 208 0
0.166989 -2.838815 21.828645 209 209 209 0
0.249727 -2.830244 21.762740 209 209 209 0
0.332549 -2.826670 21.735257 209 209 209 0
0.415804 -2.827469 21.741396 209 209 209 0
0.499922 -2.832893 21.783107 209 209 209 0
0.583675 -2.834995 21.799270 210 210 210 0
0.666514 -2.832685 21.781506 210 210 210 0
0.747571 -2.824158 21.715938 209 209 209 0
0.830090 -2.822305 21.701695 210 210 210 0
0.915388 -2.829381 21.756102 211 211 211 0
1.001939 -2.838827 21.828738 212 212 212 0
1.085683 -2.839479 21.833750 212 212 212 0
1.167306 -2.834887 21.798437 212 212 212 0
1.245585 -2.823325 21.709535 212 212 212 0
1.326106 -2.817975 21.668396 213 213 213 0
1.412421 -2.824842 21.721200 213 213 213 0
1.501477 -2.836122 21.807938 212 212 212 0
1.580625 -2.828487 21.749230 213 213 213 0
1.659678 -2.821452 21.695136 212 212 212 0
1.739281 -2.815979 21.653051 213 213 213 0
1.819789 -2.812401 21.625535 214 214 214 0
1.904605 -2.815503 21.649386 213 213 213 0
1.994335 -2.825308 21.724781 213 213 213 0
2.078340 -2.826543 21.734276 214 214 214 0
2.158469 -2.822613 21.704060 214 214 214 0
2.242433 -2.823804 21.713221 214 214 214 0
2.330093 -2.829399 21.756240 214 214 214 0
2.416182 -2.832765 21.782120 214 214 214 0
2.499048 -2.832254 21.778193 215 215 215 0
2.582176 -2.832064 21.776733 214 214 214 0
2.666506 -2.833163 21.785180 215 215 215 0
2.755367 -2.838863 21.829011 214 214 214 0
2.846207 -2.846207 21.885479 215 215 215 0
2.937569 -2.853639 21.942628 215 215 215 0
3.027404 -2.859215 21.985508 215 215 215 0
3.107946 -2.855951 21.960404 215 215 215 0
3.191315 -2.855387 21.956074 215 215 215 0
3.279460 -2.859017 21.983980 215 215 215 0
3.374717 -2.868509 22.056972 215 215 215 0
3.455618 -2.865635 22.034868 215 215 215 0
3.539813 -2.865563 22.034317 215 215 215 0
