ply
    format ascii 1.0
    element vertex 9693
    property float x
    property float y
    property float z
    property uchar red
    property uchar green
    property uchar blue
    property uchar alpha
    end_header
2.035896 -1.203030 24.193659 211 211 211 0
2.132368 -1.205252 24.238345 210 210 210 0
2.239086 -1.212839 24.390920 209 209 209 0
2.349259 -1.221614 24.567410 208 208 208 0
2.453643 -1.226821 24.672125 208 208 208 0
2.556200 -1.230763 24.751387 208 208 208 0
2.663252 -1.236510 24.866962 208 208 208 0
2.779458 -1.245964 25.057089 207 207 207 0
2.889701 -1.252204 25.182579 206 206 206 0
2.998634 -1.257492 25.288921 205 205 205 0
3.115150 -1.265530 25.450576 205 205 205 0
3.234115 -1.274045 25.621822 203 203 203 0
3.351768 -1.281558 25.772916 202 202 202 0
3.477152 -1.291514 25.973124 202 202 202 0
3.614789 -1.305340 26.251188 199 199 199 0
3.749500 -1.317392 26.493554 198 198 198 0
3.898990 -1.333865 26.824833 196 196 196 0
4.068761 -1.356254 27.275086 193 193 193 0
3.833547 -1.245903 25.055862 187 187 187 0
4.424188 -1.402791 28.210988 150 150 150 0
-7.730801 -1.520813 33.133188 94 94 94 0
-5.885376 -1.177075 25.644338 125 125 125 0
-5.586625 -1.136263 24.755179 136 136 136 0
-5.468088 -1.131329 24.647682 151 151 151 0
-5.331125 -1.122342 24.451898 155 155 155 0
-5.160538 -1.105830 24.092149 161 161 161 0
-5.010508 -1.093202 23.817031 168 168 168 0
-4.903193 -1.089599 23.738531 169 169 169 0
-4.827981 -1.093128 23.815422 170 170 170 0
-4.764708 -1.099548 23.955297 178 178 178 0
-4.663335 -1.097255 23.905345 179 179 179 0
-4.522281 -1.085347 23.645914 180 180 180 0
-4.391387 -1.075442 23.430105 181 181 181 0
-4.282330 -1.070583 23.324239 185 185 185 0
-4.201708 -1.072777 23.372040 188 188 188 0
-4.124940 -1.076071 23.443822 188 188 188 0
-4.029899 -1.074640 23.412628 188 188 188 0
-3.929720 -1.071742 23.349494 189 189 189 0
-3.815988 -1.064927 23.201024 192 192 192 0
-3.704399 -1.058400 23.058819 194 194 194 0
-3.621024 -1.059812 23.089585 195 195 195 0
-3.545991 -1.063797 23.176414 195 195 195 0
-3.464133 -1.065887 23.221943 195 195 195 0
-3.367979 -1.063572 23.171510 196 196 196 0
-3.258765 -1.056897 23.026071 197 197 197 0
-3.148763 -1.049588 22.866834 200 200 200 0
-3.048598 -1.045233 22.771971 200 200 200 0
-2.955276 -1.043039 22.724151 201 201 201 0
-2.202772 -0.801008 17.451155 201 201 201 0
-2.806259 -1.052347 22.926951 201 201 201 0
-2.709184 -1.048716 22.847852 202 202 202 0
-2.602505 -1.041002 22.679783 201 201 201 0
-2.508115 -1.037841 22.610908 203 203 203 0
-2.419905 -1.037102 22.594816 204 204 204 0
-2.341291 -1.040574 22.670457 205 205 205 0
-2.258190 -1.042242 22.706790 205 205 205 0
-2.168313 -1.040790 22.675173 205 205 205 0
-2.076319 -1.038159 22.617850 206 206 206 0
-1.993635 -1.040157 22.661378 206 206 206 0
-1.906295 -1.039797 22.653532 206 206 206 0
-1.820741 -1.040423 22.667178 207 207 207 0
-1.731832 -1.039099 22.638327 207 207 207 0
-1.648065 -1.040883 22.677196 207 207 207 0
-1.561934 -1.041289 22.686040 208 208 208 0
-1.475841 -1.041770 22.696510 207 207 207 0
-1.388464 -1.041348 22.687314 209 209 209 0
-1.304579 -1.043663 22.737766 209 209 209 0
-1.221098 -1.046656 22.802956 209 209 209 0
-1.135452 -1.048109 22.834629 208 208 208 0
-1.046120 -1.046120 22.791282 209 209 209 0
-0.956993 -1.043992 22.744923 209 209 209 0
-0.869794 -1.043753 22.739716 210 210 210 0
-0.785450 -1.047267 22.816272 210 210 210 0
-0.698729 -1.048093 22.834272 210 210 210 0
-0.611220 -1.047806 22.828008 210 210 210 0
-0.523450 -1.046900 22.808287 210 210 210 0
-0.435362 -1.044869 22.764026 211 211 211 0
-0.348834 -1.046501 22.799595 210 210 210 0
-0.262697 -1.050788 22.892975 211 211 211 0
-0.175550 -1.053300 22.947722 211 211 211 0
-0.087594 -1.051126 22.900347 212 212 212 0
0.000000 -1.050791 22.893047 212 212 212 0
0.087745 -1.052941 22.939881 212 212 212 0
0.176048 -1.056287 23.012793 212 212 212 0
0.264883 -1.059534 23.083529 212 212 212 0
0.353641 -1.060924 23.113817 212 212 212 0
0.441719 -1.060126 23.096421 211 211 211 0
0.531411 -1.062822 23.155162 211 211 211 0
0.625123 -1.071640 23.347271 211 211 211 0
0.716318 -1.074477 23.409076 211 211 211 0
0.804953 -1.073271 23.382807 212 212 212 0
0.892937 -1.071524 23.344757 212 212 212 0
0.985606 -1.075207 23.424982 211 211 211 0
1.083433 -1.083433 23.604214 211 211 211 0
1.171780 -1.081643 23.565203 212 212 212 0
1.260128 -1.080110 23.531802 211 211 211 0
1.351707 -1.081366 23.559171 212 212 212 0
1.447511 -1.085633 23.652136 210 210 210 0
1.546929 -1.091950 23.789761 211 211 211 0
1.640098 -1.093399 23.821319 211 211 211 0
1.735180 -1.095903 23.875888 210 210 210 0
1.833821 -1.100292 23.971513 210 210 210 0
1.934270 -1.105297 24.080548 210 210 210 0
2.031352 -1.108010 24.139653 210 210 210 0
2.126932 -1.109704 24.176551 210 210 210 0
2.233233 -1.116617 24.327158 209 209 209 0
2.342926 -1.124604 24.501183 208 208 208 0
2.446665 -1.129230 24.601962 208 208 208 0
2.550010 -1.133338 24.691455 207 207 207 0
2.657498 -1.138928 24.813236 208 208 208 0
2.772638 -1.147298 24.995609 207 207 207 0
2.880811 -1.152324 25.105106 206 206 206 0
2.988015 -1.156651 25.199367 206 206 206 0
3.103219 -1.163707 25.353094 205 205 205 0
3.223980 -1.172356 25.541533 204 204 204 0
3.339148 -1.178523 25.675876 202 202 202 0
3.458253 -1.185687 25.831958 202 202 202 0
3.596351 -1.198784 26.117289 201 201 201 0
3.732556 -1.210559 26.373829 198 198 198 0
3.884112 -1.226562 26.722477 197 197 197 0
4.051330 -1.246563 27.158238 193 193 193 0
4.184754 -1.255426 27.351331 190 190 190 0
4.408138 -1.290187 28.108643 172 172 172 0
4.562860 -1.303674 28.402491 91 91 91 0
-7.823451 -1.388032 32.989461 77 77 77 0
-5.885578 -1.061334 25.224807 106 106 106 0
-7.388693 -1.354594 32.194740 129 129 129 0
-5.630705 -1.049792 24.950503 141 141 141 0
-5.471833 -1.037761 24.664560 153 153 153 0
-5.316263 -1.025946 24.383731 155 155 155 0
-5.154840 -1.012558 24.065546 165 165 165 0
-5.001691 -1.000338 23.775123 169 169 169 0
-4.886992 -0.995498 23.660092 169 169 169 0
-4.809688 -0.998237 23.725186 175 175 175 0
-4.753988 -1.005651 23.901399 179 179 179 0
-4.653685 -1.003736 23.855873 180 180 180 0
-4.515159 -0.993335 23.608673 179 179 179 0
-4.383283 -0.984002 23.386863 183 183 183 0
-4.276321 -0.979990 23.291510 187 187 187 0
-4.186073 -0.979719 23.285066 188 188 188 0
-4.108134 -0.982380 23.348306 189 189 189 0
-4.018296 -0.982250 23.345219 188 188 188 0
-3.922972 -0.980743 23.309399 190 190 190 0
-3.807513 -0.974015 23.149497 193 193 193 0
-3.693186 -0.967263 22.989018 194 194 194 0
-3.609244 -0.968334 23.014468 195 195 195 0
-3.536669 -0.972584 23.115485 195 195 195 0
-3.453452 -0.974050 23.150338 196 196 196 0
-3.361720 -0.973130 23.128450 197 197 197 0
-3.254165 -0.967455 22.993573 199 199 199 0
-3.146911 -0.961556 22.853382 200 200 200 0
-3.045361 -0.957113 22.747791 201 201 201 0
-2.955365 -0.956147 22.724834 201 201 201 0
-2.884236 -0.961412 22.849958 201 201 201 0
-2.808801 -0.965525 22.947719 201 201 201 0
-2.705257 -0.959930 22.814731 202 202 202 0
-2.598513 -0.952788 22.644997 203 203 203 0
-2.504856 -0.950118 22.581529 204 204 204 0
-2.418425 -0.950095 22.580998 205 205 205 0
-2.337281 -0.952226 22.631627 205 205 205 0
-2.256500 -0.954673 22.689797 205 205 205 0
-2.167174 -0.953557 22.663257 205 205 205 0
-2.074109 -0.950633 22.593777 206 206 206 0
-1.988890 -0.951208 22.607446 206 206 206 0
-1.904372 -0.952186 22.630682 207 207 207 0
-1.817371 -0.951956 22.625225 206 206 206 0
-1.729829 -0.951406 22.612149 207 207 207 0
-1.645336 -0.952563 22.639643 207 207 207 0
-1.560378 -0.953565 22.663447 209 209 209 0
-1.474122 -0.953844 22.670085 208 208 208 0
-1.386751 -0.953391 22.659334 209 209 209 0
-1.301380 -0.954345 22.681999 209 209 209 0
-1.218969 -0.957762 22.763197 210 210 210 0
-1.134768 -0.960188 22.820878 210 210 210 0
-1.044240 -0.957220 22.750317 210 210 210 0
-0.955492 -0.955492 22.709266 210 210 210 0
-0.868333 -0.955167 22.701528 210 210 210 0
-0.784844 -0.959254 22.798674 211 211 211 0
-0.698008 -0.959762 22.810731 211 211 211 0
-0.611075 -0.960261 22.822602 210 210 210 0
-0.522749 -0.958374 22.777750 210 210 210 0
-0.434829 -0.956625 22.736180 210 210 210 0
-0.347905 -0.956738 22.738882 211 211 211 0
-0.262145 -0.961199 22.844901 211 211 211 0
-0.175226 -0.963746 22.905424 212 212 212 0
-0.087538 -0.962922 22.885844 211 211 211 0
0.000000 -0.962520 22.876300 211 211 211 0
0.087589 -0.963480 22.899103 212 212 212 0
0.175819 -0.967002 22.982820 212 212 212 0
0.264496 -0.969818 23.049745 212 212 212 0
0.352999 -0.970748 23.071851 211 211 211 0
0.440992 -0.970183 23.058429 212 212 212 0
0.529673 -0.971067 23.079441 212 212 212 0
0.623639 -0.980004 23.291834 212 212 212 0
0.714994 -0.983117 23.365821 212 212 212 0
0.803031 -0.981483 23.326985 212 212 212 0
0.892120 -0.981331 23.323386 212 212 212 0
0.984466 -0.984466 23.397877 212 212 212 0
1.081816 -0.991664 23.568967 212 212 212 0
1.170860 -0.990728 23.546709 211 211 211 0
1.259050 -0.989254 23.511674 211 211 211 0
1.348340 -0.988783 23.500476 211 211 211 0
1.443915 -0.992691 23.593381 211 211 211 0
1.543739 -0.998890 23.740699 211 211 211 0
1.636927 -1.000344 23.775259 212 212 212 0
1.730784 -1.002033 23.815394 211 211 211 0
1.830048 -1.006527 23.922199 210 210 210 0
1.930923 -1.011436 24.038879 210 210 210 0
2.030047 -1.015024 24.124150 210 210 210 0
2.125538 -1.016562 24.160710 210 210 210 0
2.230090 -1.022124 24.292915 210 210 210 0
2.336646 -1.028124 24.435511 210 210 210 0
2.440699 -1.032603 24.541969 208 208 208 0
2.543601 -1.036282 24.629395 208 208 208 0
2.649603 -1.040915 24.739519 209 209 209 0
2.772983 -1.051821 24.998721 208 208 208 0
2.874196 -1.053872 25.047456 206 206 206 0
2.981602 -1.057988 25.145280 206 206 206 0
3.093623 -1.063433 25.274698 205 205 205 0
3.215701 -1.071900 25.475943 205 205 205 0
3.332506 -1.078164 25.624807 203 203 203 0
3.449312 -1.084070 25.765170 202 202 202 0
3.584605 -1.095296 26.031991 202 202 202 0
3.725310 -1.107524 26.322625 199 199 199 0
3.864811 -1.118761 26.589689 198 198 198 0
4.030565 -1.136826 27.019041 195 195 195 0
4.183458 -1.150451 27.342861 192 192 192 0
4.385894 -1.176703 27.966806 183 183 183 0
4.550060 -1.191682 28.322815 125 125 125 0
-6.140759 -0.990445 25.893987 87 87 87 0
-5.935645 -0.973056 25.439385 116 116 116 0
-5.181904 -0.863651 22.579103 133 133 133 0
-5.721121 -0.969681 25.351150 147 147 147 0
-5.487874 -0.946185 24.736866 153 153 153 0
-5.317516 -0.932898 24.389477 158 158 158 0
-5.153736 -0.920310 24.060394 167 167 167 0
-5.004945 -0.909990 23.790586 168 168 168 0
-4.879282 -0.903571 23.622766 170 170 170 0
-4.787595 -0.903320 23.616203 178 178 178 0
-4.738514 -0.911253 23.823600 179 179 179 0
-4.648588 -0.911488 23.829747 180 180 180 0
-4.507697 -0.901539 23.569659 180 180 180 0
-4.374488 -0.892753 23.339938 185 185 185 0
-4.260772 -0.887661 23.206817 187 187 187 0
-4.170513 -0.887343 23.198516 187 187 187 0
-4.096311 -0.890502 23.281108 189 189 189 0
-4.010562 -0.891236 23.300289 189 189 189 0
-3.909668 -0.888561 23.230352 193 193 193 0
-3.794814 -0.882515 23.072286 194 194 194 0
-3.687022 -0.877862 22.950650 195 195 195 0
-3.592867 -0.876309 22.910037 195 195 195 0
-3.526456 -0.881614 23.048730 195 195 195 0
-3.448117 -0.884133 23.114578 196 196 196 0
-3.356028 -0.883165 23.089285 199 199 199 0
-3.249667 -0.878288 22.961790 200 200 200 0
-3.141723 -0.872701 22.815709 201 201 201 0
-3.044655 -0.869901 22.742520 201 201 201 0
-2.957257 -0.869781 22.739385 201 201 201 0
-2.888153 -0.875198 22.880992 201 201 201 0
-2.807901 -0.877469 22.940366 201 201 201 0
-2.703033 -0.871946 22.795974 202 202 202 0
-2.595288 -0.865096 22.616891 203 203 203 0
-2.502588 -0.862961 22.561081 204 204 204 0
-2.415535 -0.862691 22.554010 205 205 205 0
-2.333560 -0.864281 22.595594 206 206 206 0
-2.253623 -0.866778 22.660865 205 205 205 0
-2.164966 -0.865986 22.640165 205 205 205 0
-2.072277 -0.863449 22.573820 205 205 205 0
-1.985039 -0.863060 22.563668 205 205 205 0
-1.899417 -0.863372 22.571806 207 207 207 0
-1.814614 -0.864102 22.590900 207 207 207 0
-1.728673 -0.864336 22.597030 208 208 208 0
-1.641892 -0.864153 22.592248 209 209 209 0
-1.557503 -0.865280 22.621688 209 209 209 0
-1.469977 -0.864693 22.606340 209 209 209 0
-1.385494 -0.865934 22.638790 209 209 209 0
-1.299600 -0.866400 22.650979 210 210 210 0
-1.217030 -0.869307 22.726990 210 210 210 0
-1.132628 -0.871252 22.777836 210 210 210 0
-1.043205 -0.869338 22.727786 210 210 210 0
-0.954985 -0.868168 22.697208 210 210 210 0
-0.866831 -0.866831 22.662247 211 211 211 0
-0.809134 -0.899038 23.504255 210 210 210 0
-0.696204 -0.870255 22.751775 211 211 211 0
-0.610408 -0.872012 22.797694 211 211 211 0
-0.521765 -0.869608 22.734839 212 212 212 0
-0.434297 -0.868593 22.708318 211 211 211 0
-0.347418 -0.868546 22.707087 211 211 211 0
-0.261534 -0.871779 22.791614 211 211 211 0
-0.174897 -0.874487 22.862407 212 212 212 0
-0.087407 -0.874074 22.851617 212 212 212 0
0.000000 -0.874058 22.851186 212 212 212 0
0.087524 -0.875243 22.882183 212 212 212 0
0.175518 -0.877588 22.943470 212 212 212 0
0.264414 -0.881380 23.042605 212 212 212 0
0.352492 -0.881231 23.038713 212 212 212 0
0.440540 -0.881081 23.034791 212 212 212 0
0.528467 -0.880779 23.026900 212 212 212 0
0.622227 -0.888896 23.239117 213 213 213 0
0.714712 -0.893390 23.356614 212 212 212 0
0.802232 -0.891369 23.303772 212 212 212 0
0.891206 -0.891206 23.299510 212 212 212 0
0.983304 -0.893913 23.370273 212 212 212 0
1.080368 -0.900307 23.537437 213 213 213 0
1.169464 -0.899588 23.518635 211 211 211 0
1.257811 -0.898436 23.488534 212 212 212 0
1.346395 -0.897597 23.466583 212 212 212 0
1.441108 -0.900693 23.547522 211 211 211 0
1.541557 -0.906798 23.707150 211 211 211 0
1.634977 -0.908321 23.746942 212 212 212 0
1.726983 -0.908938 23.763092 211 211 211 0
1.827336 -0.913668 23.886739 211 211 211 0
1.926992 -0.917615 23.989935 210 210 210 0
2.026378 -0.921081 24.080548 211 211 211 0
2.123777 -0.923381 24.140684 211 211 211 0
2.226697 -0.927790 24.255960 211 211 211 0
2.332319 -0.932928 24.390268 210 210 210 0
2.437895 -0.937652 24.513779 209 209 209 0
2.539995 -0.940739 24.594485 209 209 209 0
2.640295 -0.942963 24.652617 209 209 209 0
2.429771 -0.837852 21.904626 208 208 208 0
2.862951 -0.954317 24.949466 208 208 208 0
2.974122 -0.959394 25.082202 206 206 206 0
3.083139 -0.963481 25.189043 206 206 206 0
3.205966 -0.971505 25.398817 205 205 205 0
3.329003 -0.979119 25.597873 203 203 203 0
3.440953 -0.983130 25.702733 202 202 202 0
3.568610 -0.991281 25.915832 203 203 203 0
3.713897 -1.003756 26.241982 201 201 201 0
3.845019 -1.011847 26.453519 199 199 199 0
4.004406 -1.026771 26.843681 196 196 196 0
4.161335 -1.040334 27.198268 192 192 192 0
4.369229 -1.065666 27.860539 188 188 188 0
4.528818 -1.078290 28.190589 156 156 156 0
4.723486 -1.098485 28.718567 78 78 78 0
-6.080838 -0.882702 25.641317 97 97 97 0
-5.872823 -0.866482 25.170142 126 126 126 0
-5.509895 -0.826484 24.008258 136 136 136 0
-5.647178 -0.861434 25.023500 151 151 151 0
-5.470231 -0.848829 24.657339 153 153 153 0
-5.318584 -0.839776 24.394378 162 162 162 0
-5.153130 -0.828182 24.057561 167 167 167 0
-5.004544 -0.818925 23.788684 168 168 168 0
-4.874725 -0.812454 23.600700 172 172 172 0
-4.781257 -0.811912 23.584939 178 178 178 0
-4.722276 -0.817317 23.741960 179 179 179 0
-4.639449 -0.818726 23.782899 179 179 179 0
-4.504118 -0.810741 23.550944 182 182 182 0
-4.369653 -0.802589 23.314142 187 187 187 0
-4.256280 -0.798053 23.182355 188 188 188 0
-4.156635 -0.795951 23.121316 187 187 187 0
-4.083709 -0.798987 23.209487 188 188 188 0
-3.996763 -0.799353 23.220121 190 190 190 0
-3.900414 -0.797812 23.175365 193 193 193 0
-3.789101 -0.793068 23.037549 195 195 195 0
-3.679869 -0.788543 22.906124 195 195 195 0
-3.585178 -0.786990 22.861008 194 194 194 0
-3.519097 -0.791797 23.000637 195 195 195 0
-3.441317 -0.794150 23.068993 197 197 197 0
-3.349548 -0.793314 23.044705 200 200 200 0
-3.249915 -0.790520 22.963543 200 200 200 0
-3.136242 -0.784060 22.775904 200 200 200 0
-3.043688 -0.782663 22.735298 200 200 200 0
-2.953922 -0.781920 22.713737 201 201 201 0
-2.879904 -0.785428 22.815640 201 201 201 0
-2.802838 -0.788298 22.899004 202 202 202 0
-2.700468 -0.784007 22.774343 204 204 204 0
-2.590919 -0.777276 22.578811 203 203 203 0
-2.499672 -0.775760 22.534795 205 205 205 0
-2.412146 -0.775333 22.522376 205 205 205 0
-2.330156 -0.776719 22.562635 205 205 205 0
-2.249454 -0.778657 22.618945 205 205 205 0
-2.161469 -0.778129 22.603602 206 206 206 0
-2.071152 -0.776682 22.561567 206 206 206 0
-1.982994 -0.775954 22.540427 206 206 206 0
-1.899977 -0.777263 22.578457 207 207 207 0
-1.811938 -0.776545 22.557585 208 208 208 0
-1.725306 -0.776388 22.553024 208 208 208 0
-1.640345 -0.777005 22.570964 208 208 208 0
-1.556363 -0.778182 22.605128 209 209 209 0
-1.470242 -0.778364 22.610419 209 209 209 0
-1.383194 -0.778047 22.601208 210 210 210 0
-1.298021 -0.778813 22.623463 209 209 209 0
-1.215181 -0.781188 22.692455 210 210 210 0
-1.130727 -0.782811 22.739610 210 210 210 0
-1.041518 -0.781139 22.691026 210 210 210 0
-0.953366 -0.780026 22.658719 211 211 211 0
-0.865103 -0.778592 22.617063 211 211 211 0
-0.735691 -0.735691 21.370843 210 210 210 0
-0.697222 -0.784375 22.785042 211 211 211 0
-0.609435 -0.783560 22.761351 211 211 211 0
-0.521414 -0.782121 22.719575 212 212 212 0
-0.433632 -0.780538 22.673592 212 212 212 0
-0.346749 -0.780186 22.663341 212 212 212 0
-0.261305 -0.783914 22.771647 211 211 211 0
-0.174877 -0.786947 22.859767 212 212 212 0
-0.087289 -0.785598 22.820555 212 212 212 0
0.000000 -0.785705 22.823669 212 212 212 0
0.087395 -0.786555 22.848357 212 212 212 0
0.175335 -0.789009 22.919650 212 212 212 0
0.263809 -0.791426 22.989849 212 212 212 0
0.352107 -0.792242 23.013562 213 213 213 0
0.439835 -0.791704 22.997931 213 213 213 0
0.528038 -0.792057 23.008181 212 212 212 0
0.620975 -0.798397 23.192355 212 212 212 0
0.713662 -0.802870 23.322304 212 212 212 0
0.801303 -0.801303 23.276786 212 212 212 0
0.889940 -0.800946 23.266405 212 212 212 0
0.981709 -0.803216 23.332348 212 212 212 0
1.078832 -0.809124 23.503969 212 212 212 0
1.167933 -0.808569 23.487843 213 213 213 0
1.255851 -0.807333 23.451939 212 212 212 0
1.344136 -0.806482 23.427212 212 212 212 0
1.438536 -0.809176 23.505483 212 212 212 0
1.539114 -0.814825 23.669572 211 211 211 0
1.633529 -0.816764 23.725909 212 212 212 0
1.724285 -0.816767 23.725977 211 211 211 0
1.823697 -0.820664 23.839178 211 211 211 0
1.924328 -0.824712 23.956771 211 211 211 0
2.023297 -0.827713 24.043938 211 211 211 0
2.121452 -0.830133 24.114256 210 210 210 0
2.221975 -0.833241 24.204519 210 210 210 0
2.326465 -0.837527 24.329048 210 210 210 0
2.432196 -0.841914 24.456470 210 210 210 0
2.535658 -0.845219 24.552488 208 208 208 0
2.637140 -0.847652 24.623153 208 208 208 0
2.737922 -0.849700 24.682639 208 208 208 0
2.855312 -0.856594 24.882894 208 208 208 0
2.967978 -0.861671 25.030386 207 207 207 0
3.074842 -0.864799 25.121258 206 206 206 0
3.200255 -0.872797 25.353574 206 206 206 0
3.325093 -0.880172 25.567803 204 204 204 0
3.436093 -0.883567 25.666430 203 203 203 0
3.558077 -0.889519 25.839337 203 203 203 0
3.701743 -0.900424 26.156105 201 201 201 0
3.830046 -0.907116 26.350503 198 198 198 0
3.984369 -0.919470 26.709359 198 198 198 0
4.139156 -0.931310 27.053309 194 194 194 0
4.371377 -0.959571 27.874235 190 190 190 0
4.502375 -0.964795 28.025988 176 176 176 0
4.676222 -0.978744 28.431204 95 95 95 0
-8.384798 -1.064736 34.795302 74 74 74 0
-6.017078 -0.776397 25.372456 104 104 104 0
-5.817923 -0.763006 24.934847 130 130 130 0
-5.612094 -0.748279 24.453571 141 141 141 0
-5.635302 -0.764109 24.970874 152 152 152 0
-5.454958 -0.752408 24.588499 154 154 154 0
-5.318205 -0.746415 24.392637 165 165 165 0
-5.144901 -0.734986 24.019145 167 167 167 0
-5.012114 -0.729035 23.824664 168 168 168 0
-4.871790 -0.721747 23.586490 174 174 174 0
-4.777891 -0.721191 23.568338 178 178 178 0
-4.710207 -0.724647 23.681283 179 179 179 0
-4.627402 -0.725867 23.721145 179 179 179 0
-4.495735 -0.719318 23.507109 185 185 185 0
-4.359460 -0.711749 23.259756 187 187 187 0
-4.249652 -0.708275 23.146250 187 187 187 0
-4.141178 -0.704881 23.035339 187 187 187 0
-4.067517 -0.707394 23.117461 189 189 189 0
-3.984424 -0.708342 23.148431 193 193 193 0
-3.894598 -0.708109 23.140811 194 194 194 0
-3.783987 -0.703998 23.006459 194 194 194 0
-3.671761 -0.699383 22.855657 194 194 194 0
-3.580017 -0.698540 22.828101 195 195 195 0
-3.512478 -0.702496 22.957374 196 196 196 0
-3.433933 -0.704396 23.019492 199 199 199 0
-3.342892 -0.703767 22.998913 199 199 199 0
-3.241609 -0.700888 22.904852 199 199 199 0
-3.133921 -0.696427 22.759047 199 199 199 0
-3.039614 -0.694769 22.704868 200 200 200 0
-2.945077 -0.692959 22.645731 201 201 201 0
-2.874618 -0.696877 22.773760 202 202 202 0
-2.798994 -0.699749 22.867599 203 203 203 0
-2.695030 -0.695492 22.728481 204 204 204 0
-2.588582 -0.690289 22.558453 204 204 204 0
-2.495995 -0.688550 22.501649 204 204 204 0
-2.406812 -0.687661 22.472571 204 204 204 0
-2.325143 -0.688931 22.514094 205 205 205 0
-2.247789 -0.691627 22.602198 205 205 205 0
-2.160239 -0.691276 22.590730 206 206 206 0
-2.069354 -0.689785 22.541986 207 207 207 0
-1.979795 -0.688624 22.504068 207 207 207 0
-1.896033 -0.689467 22.531589 208 208 208 0
-1.810916 -0.689873 22.544867 208 208 208 0
-1.724049 -0.689620 22.536587 208 208 208 0
-1.638229 -0.689781 22.541848 208 208 208 0
-1.554330 -0.690813 22.575598 210 210 210 0
-1.467511 -0.690593 22.568408 210 210 210 0
-1.382624 -0.691312 22.591901 209 209 209 0
-1.297557 -0.692030 22.615366 209 209 209 0
-1.213394 -0.693368 22.659088 210 210 210 0
-1.129696 -0.695198 22.718874 210 210 210 0
-1.040998 -0.693999 22.679691 210 210 210 0
-0.952418 -0.692667 22.636189 211 211 211 0
-0.864910 -0.691928 22.612037 211 211 211 0
-0.779796 -0.693152 22.652038 211 211 211 0
-0.695059 -0.695059 22.714338 212 212 212 0
-0.608854 -0.695833 22.739630 211 211 211 0
-0.520994 -0.694658 22.701244 212 212 212 0
-0.433353 -0.693366 22.659005 212 212 212 0
-0.346497 -0.692995 22.646887 211 211 211 0
-0.261070 -0.696188 22.751238 211 211 211 0
-0.174560 -0.698238 22.818242 212 212 212 0
-0.087197 -0.697573 22.796508 212 212 212 0
0.000000 -0.697489 22.793751 213 213 213 0
0.087252 -0.698017 22.811019 212 212 212 0
0.175151 -0.700605 22.895598 212 212 212 0
0.263393 -0.702382 22.953665 212 212 212 0
0.351607 -0.703213 22.980830 212 212 212 0
0.439340 -0.702944 22.972027 212 212 212 0
0.527474 -0.703299 22.983624 213 213 213 0
0.620219 -0.708822 23.164101 213 213 213 0
0.712483 -0.712483 23.283763 212 212 212 0
0.801163 -0.712145 23.272721 212 212 212 0
0.889924 -0.711939 23.265994 213 213 213 0
0.979327 -0.712238 23.275751 212 212 212 0
1.087849 -0.725233 23.700422 213 213 213 0
1.167303 -0.718340 23.475172 213 213 213 0
1.254518 -0.716868 23.427043 213 213 213 0
1.341534 -0.715485 23.381863 212 212 212 0
1.435785 -0.717893 23.460540 211 211 211 0
1.536232 -0.722933 23.625257 211 211 211 0
1.631272 -0.725010 23.693126 212 212 212 0
1.721854 -0.724991 23.692522 212 212 212 0
1.821331 -0.728533 23.808252 212 212 212 0
1.922056 -0.732212 23.928497 211 211 211 0
2.019913 -0.734514 24.003718 211 211 211 0
2.118923 -0.737017 24.085509 210 210 210 0
2.218169 -0.739390 24.163064 210 210 210 0
2.321468 -0.742870 24.276788 210 210 210 0
2.429223 -0.747453 24.426572 210 210 210 0
2.531804 -0.750164 24.515170 209 209 209 0
2.632236 -0.752067 24.577368 208 208 208 0
2.739705 -0.755781 24.698713 209 209 209 0
2.853235 -0.760863 24.864789 209 209 209 0
2.960763 -0.764068 24.969539 208 208 208 0
3.067533 -0.766883 25.061542 206 206 206 0
3.193369 -0.774150 25.299022 206 206 206 0
3.318890 -0.780915 25.520110 206 206 206 0
3.431005 -0.784230 25.628423 203 203 203 0
3.547521 -0.788338 25.762681 202 202 202 0
3.687257 -0.797245 26.053753 202 202 202 0
3.819028 -0.804006 26.274702 200 200 200 0
3.965115 -0.813357 26.580289 198 198 198 0
4.125976 -0.825195 26.967162 196 196 196 0
4.252151 -0.829688 27.113985 192 192 192 0
4.475057 -0.852392 27.855940 184 184 184 0
4.668066 -0.868477 28.381614 118 118 118 0
-6.168949 -0.685439 25.599955 81 81 81 0
-5.959728 -0.672873 25.130628 112 112 112 0
-5.773564 -0.662540 24.744730 130 130 130 0
-5.614163 -0.654986 24.462582 146 146 146 0
-5.663098 -0.671893 25.094041 152 152 152 0
-5.446195 -0.657299 24.548995 158 158 158 0
-5.310517 -0.652169 24.357377 166 166 166 0
-5.139743 -0.642468 23.995063 168 168 168 0
-4.993830 -0.635578 23.737756 170 170 170 0
-4.853098 -0.629105 23.495998 177 177 177 0
-4.766240 -0.629503 23.510862 178 178 178 0
-4.687128 -0.630960 23.565249 179 179 179 0
-4.619474 -0.634045 23.680501 181 181 181 0
-4.488000 -0.628320 23.466667 186 186 186 0
-4.354008 -0.622001 23.230667 187 187 187 0
-4.240292 -0.618376 23.095273 187 187 187 0
-4.132320 -0.615452 22.986066 188 188 188 0
-4.056044 -0.617224 23.052253 190 190 190 0
-3.976370 -0.618546 23.101642 194 194 194 0
-3.890399 -0.618927 23.115858 194 194 194 0
-3.781128 -0.615532 22.989073 193 193 193 0
-3.673564 -0.612261 22.866876 194 194 194 0
-3.579596 -0.611150 22.825414 195 195 195 0
-3.512039 -0.614607 22.954505 198 198 198 0
-3.428285 -0.615333 22.981631 200 200 200 0
-3.340593 -0.615372 22.983094 199 199 199 0
-3.237990 -0.612593 22.879276 199 199 199 0
-3.131206 -0.608846 22.739333 200 200 200 0
-3.031181 -0.606236 22.641874 201 201 201 0
-2.941166 -0.605534 22.615656 201 201 201 0
-2.870381 -0.608869 22.740196 203 203 203 0
-2.791836 -0.610714 22.809119 204 204 204 0
-2.693504 -0.608211 22.715616 204 204 204 0
-2.586195 -0.603446 22.537651 204 204 204 0
-2.495554 -0.602375 22.497672 204 204 204 0
-2.404100 -0.601025 22.447243 204 204 204 0
-2.321477 -0.601864 22.478594 205 205 205 0
-2.245020 -0.604429 22.574362 205 205 205 0
-2.157825 -0.604191 22.565493 206 206 206 0
-2.066012 -0.602587 22.505575 208 208 208 0
-1.977626 -0.601886 22.479414 208 208 208 0
-1.892947 -0.602301 22.494910 208 208 208 0
-1.807623 -0.602541 22.503868 208 208 208 0
-1.722284 -0.602799 22.513511 208 208 208 0
-1.636113 -0.602778 22.512729 209 209 209 0
-1.550699 -0.603050 22.522861 209 209 209 0
-1.465807 -0.603567 22.542200 209 209 209 0
-1.381037 -0.604204 22.565970 210 210 210 0
-1.295804 -0.604709 22.584821 210 210 210 0
-1.211112 -0.605556 22.616471 210 210 210 0
-1.127426 -0.607076 22.673227 210 210 210 0
-1.040006 -0.606670 22.658084 211 211 211 0
-0.952676 -0.606248 22.642329 211 211 211 0
-0.863827 -0.604679 22.583722 211 211 211 0
-0.779964 -0.606639 22.656911 211 211 211 0
-0.696205 -0.609179 22.751789 211 211 211 0
-0.608450 -0.608450 22.724557 212 212 212 0
-0.520425 -0.607162 22.676456 211 211 211 0
-0.432884 -0.606037 22.634439 212 212 212 0
-0.346084 -0.605647 22.619853 212 212 212 0
-0.260579 -0.608018 22.708419 212 212 212 0
-0.174400 -0.610401 22.797435 212 212 212 0
-0.087141 -0.609988 22.782002 212 212 212 0
0.000000 -0.609492 22.763457 212 212 212 0
0.087208 -0.610458 22.799550 213 213 213 0
0.175014 -0.612547 22.877583 213 213 213 0
0.263038 -0.613754 22.922665 213 213 213 0
0.351304 -0.614781 22.961015 213 213 213 0
0.439121 -0.614770 22.960598 212 212 212 0
0.527233 -0.615106 22.973128 212 212 212 0
0.619121 -0.619121 23.123095 212 212 212 0
0.711423 -0.622495 23.249122 213 213 213 0
0.800191 -0.622371 23.244465 213 213 213 0
0.887487 -0.621241 23.202264 213 213 213 0
0.977190 -0.621848 23.224944 213 213 213 0
1.060950 -0.618888 23.114379 212 212 212 0
1.166511 -0.628121 23.459243 213 213 213 0
1.253078 -0.626539 23.400153 212 212 212 0
1.339692 -0.625189 23.349744 213 213 213 0
1.433420 -0.627121 23.421895 212 212 212 0
1.534375 -0.631801 23.596694 212 212 212 0
1.629452 -0.633676 23.666695 211 211 211 0
1.719607 -0.633540 23.661610 212 212 212 0
1.817565 -0.636148 23.759017 212 212 212 0
1.919370 -0.639790 23.895054 211 211 211 0
2.018154 -0.642140 23.982818 211 211 211 0
2.114508 -0.643546 24.035329 211 211 211 0
2.214613 -0.645929 24.124328 210 210 210 0
2.317963 -0.649030 24.240133 211 211 211 0
2.426105 -0.653182 24.395222 210 210 210 0
2.528438 -0.655521 24.482576 209 209 209 0
2.627386 -0.656846 24.532078 209 209 209 0
2.734087 -0.659952 24.648066 209 209 209 0
2.848980 -0.664762 24.827709 209 209 209 0
2.954192 -0.667076 24.914125 208 208 208 0
3.061438 -0.669690 25.011751 207 207 207 0
3.183183 -0.675221 25.218327 206 206 206 0
3.304396 -0.680317 25.408661 206 206 206 0
3.424103 -0.684821 25.576870 204 204 204 0
3.539916 -0.688317 25.707449 203 203 203 0
3.679611 -0.696143 25.999726 202 202 202 0
3.810025 -0.701847 26.212759 200 200 200 0
3.958233 -0.710452 26.534156 198 198 198 0
4.117813 -0.720617 26.913812 197 197 197 0
4.268754 -0.728812 27.219855 193 193 193 0
4.463583 -0.743930 27.784519 187 187 187 0
4.646466 -0.756401 28.250288 143 143 143 0
-6.176939 -0.588280 25.633111 87 87 87 0
-5.945377 -0.575359 25.070114 120 120 120 0
-5.757576 -0.566319 24.676208 133 133 133 0
-5.611938 -0.561194 24.452891 149 149 149 0
-5.871562 -0.597108 26.017778 152 152 152 0
-5.428754 -0.561595 24.470379 161 161 161 0
-5.308111 -0.558749 24.346343 166 166 166 0
-5.136383 -0.550327 23.979381 168 168 168 0
-4.986556 -0.543988 23.703176 172 172 172 0
-4.834215 -0.537135 23.404576 178 178 178 0
-4.753169 -0.538095 23.446388 178 178 178 0
-4.672836 -0.539173 23.493395 178 178 178 0
-4.598518 -0.541002 23.573076 182 182 182 0
-4.478819 -0.537458 23.418664 186 186 186 0
-4.344467 -0.531976 23.179764 187 187 187 0
-4.229422 -0.528678 23.036069 187 187 187 0
-4.126409 -0.526776 22.953188 187 187 187 0
-4.047990 -0.527999 23.006480 192 192 192 0
-3.972052 -0.529607 23.076554 194 194 194 0
-3.882582 -0.529443 23.069412 194 194 194 0
-3.779905 -0.527429 22.981638 194 194 194 0
-3.676134 -0.525162 22.882875 194 194 194 0
-3.575556 -0.523252 22.799657 196 196 196 0
-3.511469 -0.526720 22.950777 199 199 199 0
-3.426753 -0.527193 22.971364 198 198 198 0
-3.337238 -0.526932 22.960011 199 199 199 0
-3.235498 -0.524675 22.861670 199 199 199 0
-3.127984 -0.521331 22.715930 200 200 200 0
-3.026238 -0.518784 22.604949 200 200 200 0
-2.937055 -0.518304 22.584044 202 202 202 0
-2.865277 -0.520959 22.699759 204 204 204 0
-2.790011 -0.523127 22.794208 204 204 204 0
-2.691028 -0.520844 22.694737 204 204 204 0
-2.586076 -0.517215 22.536609 204 204 204 0
-2.491374 -0.515457 22.459991 204 204 204 0
-2.404284 -0.515204 22.448960 204 204 204 0
-2.317448 -0.514988 22.439584 206 206 206 0
-2.240092 -0.516944 22.524806 207 207 207 0
-2.154345 -0.517043 22.529095 207 207 207 0
-2.061620 -0.515405 22.457739 208 208 208 0
-1.974526 -0.515094 22.444168 208 208 208 0
-1.889540 -0.515329 22.454422 207 207 207 0
-1.805027 -0.515722 22.471548 208 208 208 0
-1.720344 -0.516103 22.488153 208 208 208 0
-1.633517 -0.515847 22.477014 209 209 209 0
-1.549752 -0.516584 22.509105 209 209 209 0
-1.464431 -0.516858 22.521041 209 209 209 0
-1.378016 -0.516756 22.516597 209 209 209 0
-1.293902 -0.517561 22.551665 210 210 210 0
-1.209889 -0.518524 22.593623 210 210 210 0
-1.126699 -0.520015 22.658604 210 210 210 0
-1.038667 -0.519334 22.628918 210 210 210 0
-0.951548 -0.519026 22.615511 210 210 210 0
-0.862704 -0.517623 22.554362 211 211 211 0
-0.778266 -0.518844 22.607592 211 211 211 0
-0.694762 -0.521072 22.704654 212 212 212 0
-0.607615 -0.520812 22.693353 211 211 211 0
-0.519679 -0.519679 22.643955 212 212 212 0
-0.432445 -0.518934 22.611510 212 212 212 0
-0.345799 -0.518699 22.601269 212 212 212 0
-0.260047 -0.520094 22.662056 212 212 212 0
-0.174198 -0.522593 22.770919 213 213 213 0
-0.087102 -0.522615 22.771894 212 212 212 0
0.000000 -0.522209 22.754211 213 213 213 0
0.087094 -0.522564 22.769652 213 213 213 0
0.174737 -0.524212 22.841481 212 212 212 0
0.262657 -0.525314 22.889485 212 212 212 0
0.351084 -0.526625 22.946637 212 212 212 0
0.438819 -0.526582 22.944762 213 213 213 0
0.526488 -0.526488 22.940640 213 213 213 0
0.618015 -0.529727 23.081798 212 212 212 0
0.710633 -0.532975 23.223295 213 213 213 0
0.799384 -0.532923 23.221042 213 213 213 0
0.886761 -0.532057 23.183296 212 212 212 0
0.976920 -0.532865 23.218538 212 212 212 0
1.071390 -0.535695 23.341837 213 213 213 0
1.165663 -0.537998 23.442193 212 212 212 0
1.251289 -0.536267 23.366747 212 212 212 0
1.338453 -0.535381 23.328158 213 213 213 0
1.431513 -0.536818 23.390743 213 213 213 0
1.531549 -0.540547 23.553229 212 212 212 0
1.628181 -0.542727 23.648238 212 212 212 0
1.717413 -0.542341 23.631412 212 212 212 0
1.814845 -0.544454 23.723468 212 212 212 0
1.916220 -0.547491 23.855830 212 212 212 0
2.013403 -0.549110 23.926356 212 212 212 0
2.111198 -0.550747 23.997707 211 211 211 0
2.208746 -0.552186 24.060411 211 211 211 0
2.312564 -0.555015 24.183672 210 210 210 0
2.422701 -0.559085 24.361000 210 210 210 0
2.526392 -0.561420 24.462763 210 210 210 0
2.624583 -0.562411 24.505914 209 209 209 0
2.730002 -0.564828 24.611242 209 209 209 0
2.844064 -0.568813 24.784870 208 208 208 0
2.947231 -0.570432 24.855419 209 209 209 0
3.055389 -0.572885 24.962324 207 207 207 0
3.173431 -0.576988 25.141069 206 206 206 0
3.295467 -0.581553 25.340000 206 206 206 0
3.412022 -0.584918 25.486627 205 205 205 0
3.532395 -0.588732 25.652829 203 203 203 0
3.668849 -0.594948 25.923680 203 203 203 0
3.801036 -0.600164 26.150920 201 201 201 0
3.948558 -0.607471 26.469304 199 199 199 0
4.106440 -0.615966 26.839478 198 198 198 0
4.249889 -0.621935 27.099560 194 194 194 0
4.450639 -0.635806 27.703949 189 189 189 0
4.632283 -0.646365 28.164056 163 163 163 0
-6.158664 -0.488783 25.557272 96 96 96 0
-5.937614 -0.478840 25.037378 125 125 125 0
-5.739409 -0.470443 24.598348 137 137 137 0
-5.627461 -0.468955 24.520528 151 151 151 0
-6.406920 -0.542959 28.390030 152 152 152 0
-5.423769 -0.467566 24.447912 163 163 163 0
-5.306055 -0.465443 24.336913 167 167 167 0
-5.126438 -0.457718 23.932951 167 167 167 0
-4.970143 -0.451831 23.625159 175 175 175 0
-4.835696 -0.447750 23.411747 178 178 178 0
-4.734351 -0.446637 23.353560 179 179 179 0
-4.647525 -0.446877 23.366140 179 179 179 0
-4.590071 -0.450007 23.529777 185 185 185 0
-4.473463 -0.447346 23.390659 186 186 186 0
-4.338685 -0.442723 23.148913 187 187 187 0
-4.222462 -0.439840 22.998161 188 188 188 0
-4.115832 -0.437855 22.894354 188 188 188 0
-4.038536 -0.438971 22.952746 193 193 193 0
-3.961936 -0.440215 23.017785 193 193 193 0
-3.880748 -0.440994 23.058517 194 194 194 0
-3.779977 -0.439532 22.982077 195 195 195 0
-3.672590 -0.437213 22.860813 195 195 195 0
-3.575967 -0.436093 22.802274 197 197 197 0
-3.502639 -0.437830 22.893068 199 199 199 0
-3.419255 -0.438366 22.921102 199 199 199 0
-3.331219 -0.438318 22.918603 199 199 199 0
-3.233094 -0.436905 22.844682 200 200 200 0
-3.125759 -0.434133 22.699776 199 199 199 0
-3.020501 -0.431500 22.562100 201 201 201 0
-2.935670 -0.431716 22.573397 203 203 203 0
-2.862584 -0.433725 22.678424 204 204 204 0
-2.785517 -0.435237 22.757494 204 204 204 0
-2.689276 -0.433754 22.679955 204 204 204 0
-2.583813 -0.430635 22.516888 204 204 204 0
-2.490640 -0.429421 22.453370 204 204 204 0
-2.399976 -0.428567 22.408736 204 204 204 0
-2.317908 -0.429242 22.444033 206 206 206 0
-2.237844 -0.430355 22.502197 207 207 207 0
-2.152292 -0.430458 22.507624 207 207 207 0
-2.057645 -0.428676 22.414433 208 208 208 0
-1.970677 -0.428408 22.400422 208 208 208 0
-1.887620 -0.429005 22.431613 208 208 208 0
-1.804191 -0.429569 22.461143 208 208 208 0
-1.718395 -0.429599 22.462680 208 208 208 0
-1.631507 -0.429344 22.449356 208 208 208 0
-1.546765 -0.429657 22.465728 209 209 209 0
-1.461398 -0.429823 22.474398 208 208 208 0
-1.377626 -0.430508 22.510234 210 210 210 0
-1.292339 -0.430780 22.524422 210 210 210 0
-1.208089 -0.431460 22.560010 211 211 211 0
-1.124842 -0.432632 22.621265 211 211 211 0
-1.037734 -0.432389 22.608573 211 211 211 0
-0.949877 -0.431762 22.575817 211 211 211 0
-0.861252 -0.430626 22.516397 211 211 211 0
-0.776921 -0.431623 22.568506 211 211 211 0
-0.693781 -0.433613 22.672577 211 211 211 0
-0.606589 -0.433278 22.655039 212 212 212 0
-0.519098 -0.432582 22.618659 212 212 212 0
-0.432008 -0.432008 22.588654 212 212 212 0
-0.345171 -0.431464 22.560205 212 212 212 0
-0.259942 -0.433236 22.652886 212 212 212 0
-0.174053 -0.435133 22.752048 212 212 212 0
-0.087007 -0.435036 22.746989 213 213 213 0
0.000000 -0.434883 22.738973 213 213 213 0
0.087014 -0.435072 22.748873 213 213 213 0
0.174574 -0.436436 22.820191 213 213 213 0
0.262421 -0.437368 22.868935 213 213 213 0
0.350621 -0.438276 22.916390 213 213 213 0
0.438398 -0.438398 22.922766 213 213 213 0
0.526420 -0.438683 22.937686 213 213 213 0
0.617273 -0.440909 23.054091 213 213 213 0
0.709428 -0.443393 23.183935 213 213 213 0
0.798512 -0.443618 23.195689 213 213 213 0
0.885992 -0.442996 23.163179 212 212 212 0
0.974901 -0.443137 23.170558 213 213 213 0
1.068372 -0.445155 23.276086 213 213 213 0
1.164420 -0.447854 23.417188 213 213 213 0
1.249824 -0.446366 23.339387 213 213 213 0
1.337941 -0.445980 23.319236 213 213 213 0
1.429974 -0.446867 23.365583 213 213 213 0
1.529064 -0.449725 23.515023 212 212 212 0
1.626146 -0.451707 23.618685 212 212 212 0
1.714100 -0.451079 23.585829 212 212 212 0
1.812716 -0.453179 23.695630 212 212 212 0
1.913368 -0.455564 23.820324 213 213 213 0
2.009246 -0.456647 23.876956 212 212 212 0
2.107362 -0.458122 23.954100 211 211 211 0
2.205035 -0.459382 24.019992 211 211 211 0
2.310283 -0.462057 24.159820 211 211 211 0
2.419445 -0.465278 24.328254 210 210 210 0
2.522531 -0.467135 24.425380 211 211 211 0
2.620155 -0.467885 24.464565 209 209 209 0
2.725378 -0.469893 24.569558 209 209 209 0
2.841407 -0.473568 24.761720 209 209 209 0
2.945706 -0.475114 24.842553 209 209 209 0
3.050624 -0.476660 24.923403 207 207 207 0
3.166178 -0.479724 25.083602 207 207 207 0
3.288064 -0.483539 25.283074 206 206 206 0
3.403018 -0.486145 25.419372 206 206 206 0
3.524010 -0.489446 25.591937 203 203 203 0
3.658414 -0.494380 25.849947 203 203 203 0
3.789456 -0.498613 26.071245 203 203 203 0
3.933910 -0.504347 26.371105 199 199 199 0
4.093185 -0.511648 26.752843 199 199 199 0
4.235953 -0.516580 27.010701 195 195 195 0
4.440330 -0.528611 27.639776 191 191 191 0
4.618747 -0.537064 28.081756 177 177 177 0
4.785193 -0.543772 28.432520 94 94 94 0
-8.423739 -0.526484 34.410700 76 76 76 0
-6.142425 -0.389995 25.489885 104 104 104 0
-5.935691 -0.382948 25.029269 129 129 129 0
-5.732058 -0.375873 24.566839 142 142 142 0
-5.619383 -0.374626 24.485330 151 151 151 0
-7.439681 -0.504385 32.966351 155 155 155 0
-5.415282 -0.373468 24.409656 165 165 165 0
-5.304107 -0.372218 24.327977 167 167 167 0
-5.123597 -0.365971 23.919689 168 168 168 0
-4.965089 -0.361097 23.601135 176 176 176 0
-4.829499 -0.357741 23.381744 178 178 178 0
-4.729081 -0.356912 23.327566 178 178 178 0
-4.627380 -0.355952 23.264859 180 180 180 0
-4.572773 -0.358649 23.441104 186 186 186 0
-4.465788 -0.357263 23.350524 187 187 187 0
-4.333625 -0.353765 23.121913 187 187 187 0
-4.211768 -0.350981 22.939913 188 188 188 0
-4.112727 -0.350019 22.877080 191 191 191 0
-4.031452 -0.350561 22.912487 194 194 194 0
-3.958101 -0.351831 22.995503 194 194 194 0
-3.876654 -0.352423 23.034188 193 193 193 0
-3.773177 -0.350993 22.940732 194 194 194 0
-3.667339 -0.349270 22.828127 195 195 195 0
-3.569844 -0.348277 22.763232 199 199 199 0
-3.500543 -0.350054 22.879368 199 199 199 0
-3.415564 -0.350314 22.896357 199 199 199 0
-3.329250 -0.350447 22.905056 199 199 199 0
-3.233070 -0.349521 22.844512 199 199 199 0
-3.126820 -0.347424 22.707480 200 200 200 0
-3.020602 -0.345212 22.562856 202 202 202 0
-2.929746 -0.344676 22.527841 203 203 203 0
-2.856922 -0.346294 22.633567 204 204 204 0
-2.782434 -0.347804 22.732308 203 203 203 0
-2.686844 -0.346690 22.659447 204 204 204 0
-2.584064 -0.344542 22.519077 204 204 204 0
-2.487761 -0.343139 22.427412 204 204 204 0
-2.399523 -0.342789 22.404507 206 206 206 0
-2.313602 -0.342756 22.402343 206 206 206 0
-2.234457 -0.343763 22.468148 207 207 207 0
-2.148913 -0.343826 22.472294 207 207 207 0
-2.054586 -0.342431 22.381109 207 207 207 0
-1.967394 -0.342155 22.363101 208 208 208 0
-1.884810 -0.342693 22.398213 208 208 208 0
-1.802440 -0.343322 22.439340 207 207 207 0
-1.717204 -0.343441 22.447109 208 208 208 0
-1.629153 -0.342980 22.416964 209 209 209 0
-1.544397 -0.343199 22.431334 209 209 209 0
-1.460338 -0.343609 22.458096 210 210 210 0
-1.377538 -0.344384 22.508791 210 210 210 0
-1.290935 -0.344249 22.499951 211 211 211 0
-1.206591 -0.344740 22.532041 211 211 211 0
-1.123449 -0.345677 22.593239 211 211 211 0
-1.037653 -0.345884 22.606810 211 211 211 0
-0.948662 -0.344968 22.546925 212 212 212 0
-0.860222 -0.344089 22.489453 211 211 211 0
-0.775410 -0.344627 22.524631 212 212 212 0
-0.692761 -0.346381 22.639260 211 211 211 0
-0.605768 -0.346153 22.624370 212 212 212 0
-0.518706 -0.345804 22.601575 212 212 212 0
-0.431780 -0.345424 22.576712 213 213 213 0
-0.344941 -0.344941 22.545136 212 212 212 0
-0.259622 -0.346163 22.625047 213 213 213 0
-0.173872 -0.347745 22.728405 212 212 212 0
-0.086948 -0.347792 22.731479 213 213 213 0
0.000000 -0.347494 22.712008 213 213 213 0
0.086925 -0.347698 22.725385 213 213 213 0
0.174399 -0.348798 22.797287 213 213 213 0
0.262243 -0.349657 22.853420 213 213 213 0
0.350599 -0.350599 22.914990 213 213 213 0
0.437831 -0.350265 22.893133 213 213 213 0
0.526368 -0.350912 22.935405 213 213 213 0
0.616428 -0.352245 23.022534 213 213 213 0
0.708630 -0.354315 23.157855 213 213 213 0
0.798244 -0.354775 23.187905 213 213 213 0
0.885230 -0.354092 23.143270 213 213 213 0
0.973756 -0.354093 23.143332 213 213 213 0
1.066398 -0.355466 23.233077 213 213 213 0
1.162929 -0.357824 23.387212 214 214 214 0
1.248807 -0.356802 23.320398 212 212 212 0
1.336869 -0.356498 23.300544 213 213 213 0
1.428453 -0.357113 23.340736 213 213 213 0
1.527352 -0.359377 23.488693 213 213 213 0
1.623726 -0.360828 23.583531 213 213 213 0
1.713666 -0.360772 23.579860 213 213 213 0
1.809762 -0.361952 23.657016 212 212 212 0
1.910839 -0.363969 23.788843 213 213 213 0
2.006364 -0.364793 23.842704 212 212 212 0
2.104046 -0.365921 23.916404 212 212 212 0
2.200108 -0.366685 23.966317 211 211 211 0
2.306203 -0.368992 24.117156 211 211 211 0
2.416910 -0.371832 24.302769 211 211 211 0
2.518535 -0.373116 24.386686 210 210 210 0
2.618067 -0.374010 24.445073 209 209 209 0
2.724566 -0.375802 24.562235 209 209 209 0
2.839425 -0.378590 24.744442 209 209 209 0
2.941057 -0.379491 24.803346 209 209 209 0
3.046881 -0.380860 24.892817 208 208 208 0
3.159496 -0.382969 25.030667 207 207 207 0
3.280752 -0.385971 25.226851 206 206 206 0
3.396710 -0.388195 25.372249 206 206 206 0
3.514156 -0.390462 25.520380 204 204 204 0
3.652703 -0.394887 25.809595 202 202 202 0
3.782352 -0.398142 26.022374 203 203 203 0
3.917872 -0.401833 26.263595 200 200 200 0
4.078417 -0.407842 26.656323 199 199 199 0
4.225838 -0.412277 26.946199 196 196 196 0
4.424019 -0.421335 27.538245 193 193 193 0
4.592688 -0.427227 27.923320 183 183 183 0
4.766049 -0.433277 28.318768 118 118 118 0
-6.172778 -0.289349 25.215598 77 77 77 0
-6.126664 -0.291746 25.424482 110 110 110 0
-5.912261 -0.286077 24.930471 129 129 129 0
-5.708736 -0.280758 24.466885 146 146 146 0
-5.551614 -0.277581 24.190040 152 152 152 0
-7.897247 -0.401555 34.993896 158 158 158 0
-5.389497 -0.278767 24.293430 166 166 166 0
-5.298449 -0.278866 24.302026 166 166 166 0
-5.117918 -0.274174 23.893173 170 170 170 0
-4.966788 -0.270916 23.609212 177 177 177 0
-4.823639 -0.267980 23.353372 178 178 178 0
-4.714757 -0.266873 23.256907 177 177 177 0
-4.613662 -0.266173 23.195887 181 181 181 0
-4.566449 -0.268615 23.408682 186 186 186 0
-4.459232 -0.267554 23.316245 186 186 186 0
-4.335080 -0.265413 23.129679 187 187 187 0
-4.212534 -0.263283 22.944082 188 188 188 0
-4.104401 -0.261983 22.830764 192 192 192 0
-4.029958 -0.262823 22.903996 193 193 193 0
-3.951734 -0.263449 22.958516 193 193 193 0
-3.866911 -0.263653 22.976297 193 193 193 0
-3.771045 -0.263096 22.927767 194 194 194 0
-3.666103 -0.261864 22.820433 196 196 196 0
-3.566581 -0.260969 22.742428 198 198 198 0
-3.495754 -0.262182 22.848063 198 198 198 0
-3.412476 -0.262498 22.875655 199 199 199 0
-3.327842 -0.262724 22.895372 199 199 199 0
-3.231406 -0.262006 22.832756 199 199 199 0
-3.120250 -0.260021 22.659766 201 201 201 0
-3.018891 -0.258762 22.550074 203 203 203 0
-2.928323 -0.258381 22.516899 203 203 203 0
-2.853376 -0.259398 22.605471 203 203 203 0
-2.779599 -0.260587 22.709143 203 203 203 0
-2.682849 -0.259631 22.625756 204 204 204 0
-2.581641 -0.258164 22.497962 204 204 204 0
-2.484418 -0.257009 22.397279 205 205 205 0
-2.397187 -0.256841 22.382699 207 207 207 0
-2.312227 -0.256914 22.389034 207 207 207 0
-2.232286 -0.257572 22.446318 207 207 207 0
-2.146667 -0.257600 22.448801 207 207 207 0
-2.054221 -0.256778 22.377137 207 207 207 0
-1.966980 -0.256563 22.358392 207 207 207 0
-1.882496 -0.256704 22.370721 208 208 208 0
-1.801456 -0.257351 22.427089 208 208 208 0
-1.715755 -0.257363 22.428165 209 209 209 0
-1.628511 -0.257133 22.408126 210 210 210 0
-1.542015 -0.257002 22.396730 210 210 210 0
-1.457919 -0.257280 22.420901 211 211 211 0
-1.376417 -0.258078 22.490480 211 211 211 0
-1.289888 -0.257978 22.481710 210 210 210 0
-1.204528 -0.258113 22.493516 211 211 211 0
-1.121366 -0.258777 22.551344 211 211 211 0
-1.036139 -0.259035 22.573828 211 211 211 0
-0.947914 -0.258522 22.529157 211 211 211 0
-0.859633 -0.257890 22.474058 212 212 212 0
-0.774243 -0.258081 22.490721 212 212 212 0
-0.691599 -0.259349 22.601261 212 212 212 0
-0.605120 -0.259337 22.600179 212 212 212 0
-0.518416 -0.259208 22.588921 212 212 212 0
-0.431161 -0.258697 22.544362 212 212 212 0
-0.344625 -0.258469 22.524524 213 213 213 0
-0.259457 -0.259457 22.610607 212 212 212 0
-0.173686 -0.260529 22.704019 212 212 212 0
-0.086758 -0.260274 22.681801 213 213 213 0
0.000000 -0.260650 22.714636 213 213 213 0
0.086849 -0.260546 22.705518 213 213 213 0
0.174196 -0.261294 22.770716 213 213 213 0
0.261858 -0.261858 22.819880 213 213 213 0
0.350280 -0.262710 22.894094 213 213 213 0
0.437520 -0.262512 22.876847 214 214 214 0
0.525941 -0.262971 22.916825 213 213 213 0
0.615590 -0.263824 22.991241 213 213 213 0
0.707550 -0.265331 23.122538 213 213 213 0
0.797790 -0.265930 23.174738 213 213 213 0
0.884415 -0.265325 23.121968 213 213 213 0
0.972392 -0.265198 23.110922 214 214 214 0
1.065184 -0.266296 23.206625 214 214 214 0
1.161881 -0.268126 23.366137 213 213 213 0
1.248020 -0.267433 23.305696 213 213 213 0
1.336488 -0.267298 23.293914 213 213 213 0
1.427248 -0.267609 23.321043 213 213 213 0
1.525953 -0.269286 23.467170 213 213 213 0
1.621777 -0.270296 23.555222 212 212 212 0
1.712329 -0.270368 23.561461 212 212 212 0
1.808872 -0.271331 23.645389 212 212 212 0
1.908122 -0.272589 23.755024 212 212 212 0
2.003994 -0.273272 23.814540 212 212 212 0
2.101548 -0.274115 23.888014 212 212 212 0
2.199241 -0.274905 23.956879 211 211 211 0
2.304152 -0.276498 24.095711 211 211 211 0
2.414157 -0.278557 24.275087 211 211 211 0
2.516873 -0.279653 24.370589 211 211 211 0
2.615152 -0.280195 24.417849 210 210 210 0
2.721961 -0.281582 24.538751 209 209 209 0
2.836926 -0.283693 24.722669 209 209 209 0
2.939592 -0.284477 24.790995 209 209 209 0
3.043549 -0.285333 24.865593 208 208 208 0
3.154932 -0.286812 24.994506 207 207 207 0
3.275398 -0.289006 25.185681 206 206 206 0
3.390571 -0.290620 25.326393 206 206 206 0
3.506083 -0.292174 25.461750 205 205 205 0
3.644202 -0.295476 25.749527 203 203 203 0
3.777151 -0.298196 25.986594 203 203 203 0
3.904802 -0.300369 26.175980 201 201 201 0
4.067633 -0.305072 26.585838 198 198 198 0
4.217158 -0.308573 26.890850 197 197 197 0
4.414063 -0.315290 27.476271 193 193 193 0
4.567708 -0.318677 27.771442 187 187 187 0
4.757170 -0.324352 28.266012 137 137 137 0
-6.366664 -0.198958 26.007615 82 82 82 0
-6.091296 -0.193374 25.277710 115 115 115 0
-5.888515 -0.189952 24.830341 132 132 132 0
-5.674317 -0.186043 24.319368 148 148 148 0
-5.505723 -0.183524 23.990078 152 152 152 0
-7.876599 -0.267003 34.902401 160 160 160 0
-5.355533 -0.184674 24.140336 166 166 166 0
-5.276881 -0.185154 24.203101 167 167 167 0
-5.110034 -0.182501 23.856366 172 172 172 0
