ply
    format ascii 1.0
    element vertex 11845
    property float x
    property float y
    property float z
    property uchar red
    property uchar green
    property uchar blue
    property uchar alpha
    end_header
3.742266 -6.045200 25.086418 201 201 201 0
3.868055 -6.092187 25.281405 202 202 202 0
3.987235 -6.126727 25.424741 200 200 200 0
4.130054 -6.195080 25.708394 199 199 199 0
4.275508 -6.264116 25.994879 197 197 197 0
4.408823 -6.312633 26.196215 193 193 193 0
4.583348 -6.416688 26.628023 186 186 186 0
4.728494 -6.475981 26.874079 137 137 137 0
-3.331975 -6.260075 26.397111 87 87 87 0
-3.177328 -6.156073 25.958561 121 121 121 0
-3.033504 -6.067007 25.582996 140 140 140 0
-2.904954 -6.003572 25.315505 149 149 149 0
-2.782199 -5.948150 25.081806 158 158 158 0
-2.675311 -5.923904 24.979564 161 161 161 0
-2.564479 -5.888805 24.831561 170 170 170 0
-2.455263 -5.854858 24.688416 172 172 172 0
-2.352707 -5.834713 24.603470 173 173 173 0
-2.250327 -5.813345 24.513368 178 178 178 0
-2.149511 -5.794334 24.433204 182 182 182 0
-2.046011 -5.766030 24.313852 183 183 183 0
-1.940062 -5.727801 24.152650 183 183 183 0
-1.840995 -5.707086 24.065300 186 186 186 0
-1.746920 -5.700477 24.037431 190 190 190 0
-1.648634 -5.678628 23.945302 191 191 191 0
-1.560212 -5.690186 23.994037 191 191 191 0
-1.465956 -5.680578 23.953522 191 191 191 0
-1.367852 -5.653788 23.840559 193 193 193 0
-1.268000 -5.615431 23.678814 196 196 196 0
-1.173039 -5.594496 23.590536 197 197 197 0
-1.080522 -5.582697 23.540785 197 197 197 0
-0.993556 -5.600041 23.613919 198 198 198 0
-0.902931 -5.598174 23.606047 197 197 197 0
-0.809980 -5.579865 23.528842 198 198 198 0
-0.715869 -5.547983 23.394404 200 200 200 0
-0.623909 -5.526051 23.301922 202 202 202 0
-0.532698 -5.504545 23.211238 202 202 202 0
-0.445156 -5.519937 23.276141 202 202 202 0
-0.357049 -5.534263 23.336550 203 203 203 0
-0.267765 -5.533811 23.334644 203 203 203 0
-0.177883 -5.514384 23.252728 203 203 203 0
-0.088663 -5.497094 23.179819 204 204 204 0
0.000000 -5.503237 23.205721 203 203 203 0
0.088896 -5.511578 23.240894 204 204 204 0
0.178187 -5.523806 23.292455 205 205 205 0
0.267254 -5.523240 23.290071 204 204 204 0
0.355528 -5.510685 23.237129 205 205 205 0
0.443999 -5.505582 23.215612 207 207 207 0
0.534152 -5.519567 23.274580 207 207 207 0
0.625725 -5.542135 23.369745 207 207 207 0
0.716265 -5.551053 23.407348 207 207 207 0
0.802677 -5.529556 23.316702 208 208 208 0
0.889633 -5.515725 23.258379 207 207 207 0
0.979738 -5.522159 23.285511 208 208 208 0
1.053365 -5.442388 22.949137 208 208 208 0
1.166365 -5.562662 23.456301 208 208 208 0
1.251472 -5.542233 23.370160 207 207 207 0
1.336801 -5.525443 23.299360 208 208 208 0
1.425972 -5.525643 23.300203 209 209 209 0
1.522816 -5.553798 23.418926 208 208 208 0
1.617155 -5.570202 23.488095 209 209 209 0
1.704426 -5.561812 23.452716 208 208 208 0
1.794682 -5.563514 23.459897 209 209 209 0
1.888802 -5.576463 23.514498 209 209 209 0
1.986136 -5.597292 23.602329 209 209 209 0
2.080395 -5.608022 23.647572 208 208 208 0
2.172327 -5.611845 23.663694 209 209 209 0
2.267745 -5.624007 23.714979 208 208 208 0
2.365810 -5.641548 23.788942 209 209 209 0
2.471571 -5.675459 23.931939 209 209 209 0
2.568510 -5.687415 23.982353 209 209 209 0
2.662402 -5.692032 24.001823 208 208 208 0
2.761242 -5.706566 24.063109 207 207 207 0
2.861159 -5.722319 24.129534 206 206 206 0
2.966109 -5.746836 24.232918 207 207 207 0
3.064221 -5.757022 24.275866 208 208 208 0
3.160700 -5.763629 24.303728 207 207 207 0
3.266257 -5.785940 24.397808 205 205 205 0
3.383179 -5.826587 24.569204 205 205 205 0
3.493029 -5.853184 24.681356 205 205 205 0
3.600662 -5.874765 24.772360 205 205 205 0
3.719760 -5.913464 24.935543 203 203 203 0
3.850029 -5.967546 25.163591 202 202 202 0
3.968692 -6.001436 25.306498 202 202 202 0
4.096662 -6.047453 25.500540 200 200 200 0
4.254419 -6.134279 25.866661 198 198 198 0
4.376417 -6.166769 26.003664 196 196 196 0
4.569829 -6.296209 26.549481 192 192 192 0
4.696998 -6.330737 26.695075 180 180 180 0
4.836859 -6.380537 26.905069 114 114 114 0
-3.461425 -6.210203 26.616108 78 78 78 0
-3.293069 -6.087189 26.088883 111 111 111 0
-3.150994 -6.006582 25.743413 135 135 135 0
-3.015803 -5.934322 25.433717 144 144 144 0
-2.884527 -5.865205 25.137490 157 157 157 0
-2.767031 -5.820306 24.945059 160 160 160 0
-2.654724 -5.783506 24.787341 167 167 167 0
-2.550318 -5.761829 24.694437 172 172 172 0
-2.442321 -5.730060 24.558276 173 173 173 0
-2.340086 -5.709809 24.471483 177 177 177 0
-2.240021 -5.693386 24.401095 181 181 181 0
-2.141980 -5.680902 24.347594 183 183 183 0
-2.040285 -5.657153 24.245809 183 183 183 0
-1.933597 -5.616639 24.072169 185 185 185 0
-1.834593 -5.595509 23.981610 189 189 189 0
-1.743909 -5.598866 23.995999 190 190 190 0
-1.642971 -5.567847 23.863056 190 190 190 0
-1.553518 -5.574387 23.891083 191 191 191 0
-1.460519 -5.568230 23.864695 193 193 193 0
-1.365573 -5.553328 23.800829 195 195 195 0
-1.265579 -5.514311 23.633604 196 196 196 0
-1.169518 -5.487736 23.519711 197 197 197 0
-1.075337 -5.466296 23.427818 197 197 197 0
-0.989913 -5.489517 23.527341 197 197 197 0
-0.900030 -5.490185 23.530204 198 198 198 0
-0.808951 -5.482893 23.498954 199 199 199 0
-0.715256 -5.453830 23.374392 201 201 201 0
-0.622080 -5.420980 23.233603 202 202 202 0
-0.531726 -5.405883 23.168897 203 203 203 0
-0.444092 -5.417917 23.220474 203 203 203 0
-0.356471 -5.436176 23.298730 203 203 203 0
-0.267318 -5.435471 23.295707 203 203 203 0
-0.177631 -5.417753 23.219771 203 203 203 0
-0.088548 -5.401425 23.149793 203 203 203 0
0.000000 -5.403176 23.157294 204 204 204 0
0.088675 -5.409195 23.183091 206 206 206 0
0.177722 -5.420521 23.231633 206 206 206 0
0.266695 -5.422802 23.241410 207 207 207 0
0.354921 -5.412540 23.197427 207 207 207 0
0.443025 -5.404900 23.164685 207 207 207 0
0.532732 -5.416110 23.212727 208 208 208 0
0.623899 -5.436833 23.301546 208 208 208 0
0.714284 -5.446413 23.342602 209 209 209 0
0.801477 -5.432236 23.281843 208 208 208 0
0.888180 -5.417896 23.220383 209 209 209 0
0.976590 -5.415633 23.210684 209 209 209 0
1.070335 -5.440868 23.318838 208 208 208 0
1.163751 -5.460678 23.403741 210 210 210 0
1.248572 -5.440207 23.316007 209 209 209 0
1.333995 -5.424912 23.250455 209 209 209 0
1.422041 -5.421531 23.235963 208 208 208 0
1.518164 -5.447531 23.347394 209 209 209 0
1.612568 -5.464813 23.421463 209 209 209 0
1.701061 -5.461300 23.406406 209 209 209 0
1.790821 -5.462005 23.409429 209 209 209 0
1.884266 -5.473344 23.458025 209 209 209 0
1.979643 -5.489011 23.525175 209 209 209 0
2.075322 -5.504115 23.589906 210 210 210 0
2.167204 -5.508309 23.607884 209 209 209 0
2.259963 -5.514309 23.633598 209 209 209 0
2.359188 -5.535017 23.722350 208 208 208 0
2.463339 -5.565323 23.852234 209 209 209 0
2.563315 -5.584364 23.933843 209 209 209 0
2.656863 -5.588573 23.951882 208 208 208 0
2.752214 -5.596168 23.984433 209 209 209 0
2.850644 -5.609332 24.040851 208 208 208 0
2.961665 -5.645674 24.196611 208 208 208 0
3.055463 -5.647977 24.206482 207 207 207 0
3.152950 -5.656762 24.244133 207 207 207 0
3.255893 -5.674556 24.320393 207 207 207 0
3.370023 -5.710316 24.473658 206 206 206 0
3.485010 -5.745557 24.624694 205 205 205 0
3.588428 -5.760371 24.688186 206 206 206 0
3.702221 -5.790653 24.817969 205 205 205 0
3.830031 -5.840797 25.032881 202 202 202 0
3.949170 -5.875595 25.182021 202 202 202 0
4.066131 -5.905571 25.310496 202 202 202 0
4.216668 -5.981785 25.637136 198 198 198 0
4.348474 -6.028567 25.837638 198 198 198 0
4.482045 -6.075661 26.039475 195 195 195 0
4.661674 -6.181785 26.494312 191 191 191 0
4.819026 -6.254481 26.805876 171 171 171 0
4.974992 -6.322385 27.096905 90 90 90 0
-3.432185 -6.056797 26.391272 97 97 97 0
-3.259179 -5.925780 25.820393 127 127 127 0
-3.126030 -5.861307 25.539463 140 140 140 0
-3.000633 -5.807676 25.305780 153 153 153 0
-2.875055 -5.750109 25.054942 158 158 158 0
-2.755267 -5.700553 24.839009 164 164 164 0
-2.638599 -5.654140 24.636775 172 172 172 0
-2.532725 -5.628278 24.524089 172 172 172 0
-2.432616 -5.613729 24.460694 174 174 174 0
-2.330894 -5.594145 24.375358 180 180 180 0
-2.229857 -5.574642 24.290378 183 183 183 0
-2.133564 -5.565818 24.251932 183 183 183 0
-2.034868 -5.549640 24.181436 184 184 184 0
-1.931259 -5.517884 24.043067 189 189 189 0
-1.829962 -5.489885 23.921067 190 190 190 0
-1.739103 -5.491904 23.929863 191 191 191 0
-1.637679 -5.458928 23.786181 191 191 191 0
-1.548098 -5.463877 23.807743 192 192 192 0
-1.457737 -5.466514 23.819234 195 195 195 0
-1.361274 -5.445095 23.725906 196 196 196 0
-1.263288 -5.414090 23.590808 196 196 196 0
-1.166398 -5.383374 23.456967 197 197 197 0
-1.070927 -5.354636 23.331746 197 197 197 0
-0.823240 -4.490398 19.566006 198 198 198 0
-0.898591 -5.391548 23.492582 200 200 200 0
-0.807769 -5.385125 23.464598 201 201 201 0
-0.713515 -5.351365 23.317497 201 201 201 0
-0.621531 -5.327405 23.213092 201 201 201 0
-0.530617 -5.306174 23.120582 202 202 202 0
-0.442248 -5.306976 23.124079 203 203 203 0
-0.355246 -5.328688 23.218686 203 203 203 0
-0.266693 -5.333864 23.241238 203 203 203 0
-0.177280 -5.318385 23.173792 204 204 204 0
-0.088446 -5.306776 23.123207 206 206 206 0
0.000000 -5.301271 23.099221 206 206 206 0
0.088478 -5.308665 23.131438 206 206 206 0
0.177237 -5.317097 23.168177 207 207 207 0
0.266238 -5.324756 23.201549 207 207 207 0
0.354391 -5.315860 23.162789 207 207 207 0
0.442237 -5.306848 23.123521 207 207 207 0
0.530552 -5.305525 23.117755 208 208 208 0
0.622443 -5.335225 23.247166 208 208 208 0
0.712612 -5.344594 23.287989 208 208 208 0
0.800426 -5.336174 23.251301 208 208 208 0
0.886808 -5.320846 23.184515 208 208 208 0
0.974784 -5.317003 23.167771 209 209 209 0
1.066749 -5.333744 23.240716 209 209 209 0
1.161810 -5.362199 23.364701 209 209 209 0
1.246076 -5.340325 23.269388 209 209 209 0
1.331768 -5.327071 23.211636 210 210 210 0
1.419732 -5.323995 23.198233 210 210 210 0
1.511092 -5.333267 23.238634 210 210 210 0
1.608965 -5.363217 23.369136 209 209 209 0
1.698286 -5.363008 23.368226 209 209 209 0
1.787626 -5.362878 23.367659 210 210 210 0
1.878909 -5.368310 23.391329 210 210 210 0
1.975799 -5.388543 23.479490 210 210 210 0
2.069445 -5.398553 23.523106 210 210 210 0
2.162832 -5.407080 23.560260 210 210 210 0
2.255552 -5.413324 23.587467 210 210 210 0
2.352817 -5.429577 23.658289 210 210 210 0
2.456367 -5.458594 23.784724 209 209 209 0
2.557191 -5.479694 23.876664 209 209 209 0
2.650936 -5.484694 23.898450 208 208 208 0
2.745642 -5.491284 23.927166 209 209 209 0
2.844609 -5.505696 23.989959 209 209 209 0
2.954499 -5.539686 24.138063 208 208 208 0
3.048348 -5.542450 24.150110 208 208 208 0
3.145117 -5.550206 24.183906 207 207 207 0
3.247141 -5.566528 24.255024 208 208 208 0
3.360091 -5.600152 24.401536 208 208 208 0
3.474523 -5.634362 24.550598 206 206 206 0
3.577861 -5.649254 24.615484 205 205 205 0
3.685781 -5.670433 24.707767 205 205 205 0
3.811561 -5.717342 24.912165 205 205 205 0
3.933809 -5.756793 25.084068 203 203 203 0
4.046574 -5.780820 25.188758 203 203 203 0
4.187339 -5.842798 25.458816 202 202 202 0
4.329897 -5.904405 25.727257 199 199 199 0
4.460814 -5.947751 25.916128 198 198 198 0
4.634521 -6.045027 26.339986 195 195 195 0
4.778210 -6.099842 26.578834 189 189 189 0
4.957493 -6.196866 27.001595 147 147 147 0
5.074897 -6.214160 27.076948 76 76 76 0
-3.574723 -6.025962 26.701947 84 84 84 0
-3.382685 -5.869954 26.010651 117 117 117 0
-3.229891 -5.774654 25.588364 137 137 137 0
-3.101397 -5.718200 25.338209 147 147 147 0
-2.986373 -5.683743 25.185522 157 157 157 0
-2.863368 -5.631291 24.953100 160 160 160 0
-2.747479 -5.589698 24.768798 168 168 168 0
-2.629786 -5.541335 24.554491 172 172 172 0
-2.523412 -5.514123 24.433910 173 173 173 0
-2.419796 -5.491077 24.331789 179 179 179 0
-2.320709 -5.476872 24.268848 182 182 182 0
-2.221700 -5.461678 24.201520 183 183 183 0
-2.125200 -5.451599 24.156860 184 184 184 0
-2.029025 -5.441476 24.112004 187 187 187 0
-1.926759 -5.413276 23.987045 190 190 190 0
-1.825327 -5.384713 23.860478 191 191 191 0
-1.734594 -5.386371 23.867822 190 190 190 0
-1.633404 -5.353935 23.724093 191 191 191 0
-1.543996 -5.358576 23.744659 195 195 195 0
-1.454186 -5.362311 23.761209 197 197 197 0
-1.358718 -5.344290 23.681354 196 196 196 0
-1.260626 -5.312639 23.541106 196 196 196 0
-1.164417 -5.284663 23.417140 197 197 197 0
-1.069780 -5.259751 23.306752 199 199 199 0
-0.981316 -5.263420 23.323010 201 201 201 0
-0.897564 -5.295626 23.465718 201 201 201 0
-0.805878 -5.282976 23.409667 202 202 202 0
-0.712731 -5.256393 23.291869 201 201 201 0
-0.620330 -5.228492 23.168237 202 202 202 0
-0.529553 -5.207272 23.074208 203 203 203 0
-0.440915 -5.202802 23.054400 202 202 202 0
-0.354602 -5.230376 23.176584 203 203 203 0
-0.266207 -5.235409 23.198886 205 205 205 0
-0.176952 -5.220085 23.130983 205 205 205 0
-0.088266 -5.207720 23.076192 206 206 206 0
0.000000 -5.201857 23.050215 207 207 207 0
0.088289 -5.209075 23.082196 206 206 206 0
0.176861 -5.217412 23.119140 207 207 207 0
0.265628 -5.224011 23.148382 207 207 207 0
0.353824 -5.218903 23.125749 207 207 207 0
0.441480 -5.209466 23.083930 207 207 207 0
0.529035 -5.202177 23.051630 208 208 208 0
0.620744 -5.231984 23.183711 208 208 208 0
0.711330 -5.246058 23.246074 208 208 208 0
0.799247 -5.239508 23.217050 208 208 208 0
0.885104 -5.222116 23.139986 208 208 208 0
0.973132 -5.219528 23.128517 209 209 209 0
1.063737 -5.230039 23.175095 210 210 210 0
1.158980 -5.259985 23.307788 209 209 209 0
1.243872 -5.242033 23.228240 210 210 210 0
1.329469 -5.229244 23.171569 210 210 210 0
1.417310 -5.226329 23.158654 210 210 210 0
1.507974 -5.233556 23.190676 210 210 210 0
1.605584 -5.262747 23.320027 211 211 211 0
1.696363 -5.267652 23.341762 210 210 210 0
1.784504 -5.264288 23.326855 210 210 210 0
1.876066 -5.270853 23.355944 210 210 210 0
1.971724 -5.287806 23.431065 209 209 209 0
2.066267 -5.300424 23.486977 210 210 210 0
2.158879 -5.307244 23.517199 210 210 210 0
2.252954 -5.316971 23.560300 211 211 211 0
2.348252 -5.328725 23.612385 210 210 210 0
2.448457 -5.350332 23.708131 209 209 209 0
2.551630 -5.376649 23.824745 210 210 210 0
2.647308 -5.385903 23.865751 210 210 210 0
2.740937 -5.390510 23.886163 210 210 210 0
2.838405 -5.402125 23.937633 209 209 209 0
2.953389 -5.445310 24.128992 208 208 208 0
3.043473 -5.441361 24.111493 208 208 208 0
3.139329 -5.447659 24.139401 208 208 208 0
3.238509 -5.459201 24.190542 208 208 208 0
3.349846 -5.490026 24.327135 208 208 208 0
3.459401 -5.516342 24.443746 208 208 208 0
3.566511 -5.537478 24.537399 206 206 206 0
3.673880 -5.557921 24.627989 206 206 206 0
3.793411 -5.595282 24.793538 206 206 206 0
3.919355 -5.640048 24.991904 205 205 205 0
4.033254 -5.665762 25.105847 203 203 203 0
4.163464 -5.712660 25.313659 203 203 203 0
4.313092 -5.783465 25.627406 201 201 201 0
4.430792 -5.809260 25.741708 199 199 199 0
4.608142 -5.910443 26.190064 196 196 196 0
4.747240 -5.959302 26.406565 193 193 193 0
4.912979 -6.038870 26.759145 182 182 182 0
5.067344 -6.101496 27.036651 108 108 108 0
-3.762171 -6.061275 27.321503 74 74 74 0
-3.510370 -5.817184 26.221249 104 104 104 0
-3.354356 -5.722136 25.792815 131 131 131 0
-3.208610 -5.639376 25.419770 142 142 142 0
-3.085668 -5.592773 25.209704 155 155 155 0
-2.968899 -5.554714 25.038152 159 159 159 0
-2.856535 -5.522634 24.893550 165 165 165 0
-2.735000 -5.469999 24.656297 171 171 171 0
-2.617985 -5.422969 24.444307 172 172 172 0
-2.509811 -5.391445 24.302209 176 176 176 0
-2.410885 -5.378128 24.242180 181 181 181 0
-2.312704 -5.365474 24.185144 182 182 182 0
-2.214816 -5.352472 24.126537 182 182 182 0
-2.117808 -5.340559 24.072837 186 186 186 0
-2.021797 -5.330193 24.026112 190 190 190 0
-1.921651 -5.307418 23.923452 190 190 190 0
-1.821797 -5.283211 23.814338 190 190 190 0
-1.730002 -5.281058 23.804635 190 190 190 0
-1.630160 -5.252736 23.676972 193 193 193 0
-1.538765 -5.249903 23.664202 195 195 195 0
-1.450400 -5.257701 23.699352 196 196 196 0
-1.356402 -5.244756 23.641000 196 196 196 0
-1.258880 -5.215358 23.508489 196 196 196 0
-1.163703 -5.191907 23.402782 198 198 198 0
-1.069350 -5.168523 23.297375 200 200 200 0
-0.981625 -5.175840 23.330360 201 201 201 0
-0.896681 -5.200750 23.442642 201 201 201 0
-0.805018 -5.187893 23.384688 201 201 201 0
-0.711620 -5.159247 23.255566 202 202 202 0
-0.619913 -5.136425 23.152692 201 201 201 0
-0.529250 -5.116088 23.061021 202 202 202 0
-0.439764 -5.101262 22.994193 204 204 204 0
-0.353532 -5.126216 23.106677 206 206 206 0
-0.265780 -5.138412 23.161648 206 206 206 0
-0.176765 -5.126179 23.106509 206 206 206 0
-0.088063 -5.107655 23.023010 206 206 206 0
0.000000 -5.104691 23.009652 206 206 206 0
0.087983 -5.102988 23.001973 206 206 206 0
0.176471 -5.117652 23.068071 207 207 207 0
0.265219 -5.127564 23.112754 207 207 207 0
0.353317 -5.123090 23.092585 207 207 207 0
0.440868 -5.114064 23.051902 207 207 207 0
0.528290 -5.106805 23.019178 207 207 207 0
0.619358 -5.131823 23.131948 208 208 208 0
0.710579 -5.151694 23.221521 208 208 208 0
0.798357 -5.144969 23.191204 209 209 209 0
0.884218 -5.128467 23.116821 208 208 208 0
0.971394 -5.121893 23.087191 209 209 209 0
1.061763 -5.131853 23.132085 210 210 210 0
1.156060 -5.157806 23.249071 210 210 210 0
1.242897 -5.149145 23.210030 210 210 210 0
1.328138 -5.135466 23.148373 210 210 210 0
1.414289 -5.126798 23.109300 210 210 210 0
1.504495 -5.132982 23.137173 210 210 210 0
1.602278 -5.162895 23.272007 210 210 210 0
1.694412 -5.172415 23.314919 211 211 211 0
1.781788 -5.167186 23.291348 210 210 210 0
1.872917 -5.172818 23.316739 210 210 210 0
1.968596 -5.189934 23.393887 210 210 210 0
2.061805 -5.199335 23.436264 210 210 210 0
2.155332 -5.208719 23.478563 210 210 210 0
2.248395 -5.216276 23.512625 211 211 211 0
2.343507 -5.227824 23.564679 210 210 210 0
2.440559 -5.242682 23.631652 211 211 211 0
2.546230 -5.274334 23.774327 210 210 210 0
2.643511 -5.287022 23.831519 210 210 210 0
2.737922 -5.293315 23.859883 209 209 209 0
2.830940 -5.296598 23.874680 210 210 210 0
3.146741 -5.703469 25.708671 209 209 209 0
3.035278 -5.334731 24.046569 209 209 209 0
3.133826 -5.345938 24.097085 209 209 209 0
3.230108 -5.352750 24.127787 208 208 208 0
3.338546 -5.378768 24.245068 208 208 208 0
3.450224 -5.408459 24.378899 208 208 208 0
3.558466 -5.431343 24.482051 207 207 207 0
3.663426 -5.448172 24.557907 207 207 207 0
3.773900 -5.472154 24.666010 206 206 206 0
3.899704 -5.516654 24.866594 206 206 206 0
4.016100 -5.546042 24.999064 204 204 204 0
4.139309 -5.583254 25.166797 204 204 204 0
4.286781 -5.650756 25.471068 203 203 203 0
4.410877 -5.685130 25.626009 200 200 200 0
4.549969 -5.736918 25.859444 198 198 198 0
4.717943 -5.822142 26.243599 195 195 195 0
4.873812 -5.889189 26.545815 191 191 191 0
5.051830 -5.979717 26.953875 163 163 163 0
5.150362 -5.974420 26.929998 79 79 79 0
-3.624001 -5.738002 26.318093 88 88 88 0
-3.457802 -5.631278 25.828589 120 120 120 0
-3.319437 -5.564938 25.524313 137 137 137 0
-3.187963 -5.506481 25.256191 150 150 150 0
-3.065868 -5.461077 25.047941 158 158 158 0
-2.954956 -5.433306 24.920563 162 162 162 0
-2.846450 -5.408255 24.805663 169 169 169 0
-2.728852 -5.363605 24.600872 171 171 171 0
-2.612752 -5.318817 24.395444 173 173 173 0
-2.500868 -5.279611 24.215622 179 179 179 0
-2.401088 -5.263924 24.143671 182 182 182 0
-2.305728 -5.257060 24.112189 181 181 181 0
-2.207691 -5.243266 24.048921 183 183 183 0
-2.111907 -5.233855 24.005757 189 189 189 0
-2.015397 -5.221710 23.950052 190 190 190 0
-1.916848 -5.202874 23.863656 190 190 190 0
-1.814966 -5.172654 23.725051 190 190 190 0
-1.723575 -5.170726 23.716209 193 193 193 0
-1.629883 -5.161297 23.672961 196 196 196 0
-1.534867 -5.146318 23.604256 196 196 196 0
-1.446516 -5.153214 23.635887 197 197 197 0
-1.352374 -5.139022 23.570792 196 196 196 0
-1.257006 -5.117809 23.473494 198 198 198 0
-1.160917 -5.090176 23.346754 200 200 200 0
-1.067273 -5.069547 23.252138 201 201 201 0
-0.978818 -5.072059 23.263659 201 201 201 0
-0.895014 -5.101582 23.399070 201 201 201 0
-0.803427 -5.088373 23.338482 202 202 202 0
-0.710462 -5.062042 23.217713 202 202 202 0
-0.619001 -5.040433 23.118601 203 203 203 0
-0.528382 -5.019632 23.023195 205 205 205 0
-0.439146 -5.006260 22.961861 205 205 205 0
-0.352788 -5.027230 23.058045 205 205 205 0
-0.265263 -5.039995 23.116590 205 205 205 0
-0.176569 -5.032207 23.080872 205 205 205 0
-0.087924 -5.011680 22.986722 207 207 207 0
0.000000 -5.003885 22.950967 206 206 206 0
0.087903 -5.010484 22.981235 207 207 207 0
0.176146 -5.020158 23.025606 207 207 207 0
0.264712 -5.029519 23.068545 207 207 207 0
0.352834 -5.027882 23.061034 208 208 208 0
0.440124 -5.017414 23.013021 208 208 208 0
0.527015 -5.006647 22.963637 209 209 209 0
0.617999 -5.032280 23.081208 209 209 209 0
0.709076 -5.052168 23.172424 209 209 209 0
0.797553 -5.051167 23.167833 210 210 210 0
0.882660 -5.031164 23.076088 210 210 210 0
0.970189 -5.027345 23.058571 209 209 209 0
1.059915 -5.034595 23.091825 209 209 209 0
1.154031 -5.059982 23.208265 210 210 210 0
1.240956 -5.052464 23.173783 210 210 210 0
1.327059 -5.042824 23.129569 210 210 210 0
1.412266 -5.031199 23.076246 210 210 210 0
1.501418 -5.034166 23.089855 210 210 210 0
1.599729 -5.065809 23.234991 211 211 211 0
1.690362 -5.071087 23.259201 211 211 211 0
1.778780 -5.069523 23.252026 212 212 212 0
1.867381 -5.068605 23.247818 211 211 211 0
1.964912 -5.090908 23.350111 210 210 210 0
2.059569 -5.104148 23.410839 211 211 211 0
2.151308 -5.109357 23.434730 210 210 210 0
2.244234 -5.116853 23.469113 211 211 211 0
2.339235 -5.128322 23.521716 211 211 211 0
2.436368 -5.143444 23.591074 211 211 211 0
2.539860 -5.170429 23.714844 210 210 210 0
2.637382 -5.183820 23.776265 211 211 211 0
2.729922 -5.186851 23.790167 209 209 209 0
2.825633 -5.195519 23.829922 210 210 210 0
2.929421 -5.218031 23.933175 210 210 210 0
3.033516 -5.239709 24.032606 210 210 210 0
3.128481 -5.244806 24.055987 209 209 209 0
3.219937 -5.243897 24.051814 208 208 208 0
3.327378 -5.268349 24.163967 208 208 208 0
3.441594 -5.301915 24.317922 208 208 208 0
3.549426 -5.324140 24.419858 209 209 209 0
3.653338 -5.339495 24.490286 206 206 206 0
3.759812 -5.357732 24.573936 206 206 206 0
3.883584 -5.399129 24.763806 206 206 206 0
4.000413 -5.429131 24.901417 205 205 205 0
4.120606 -5.462199 25.053086 203 203 203 0
4.264005 -5.523825 25.335741 202 202 202 0
4.393229 -5.564756 25.523478 202 202 202 0
4.522359 -5.603793 25.702525 200 200 200 0
4.686659 -5.683821 26.069583 198 198 198 0
4.827361 -5.732491 26.292816 195 195 195 0
5.024125 -5.844391 26.806057 187 187 187 0
5.164467 -5.887492 27.003748 130 130 130 0
-3.816107 -5.775730 26.964191 73 73 73 0
-3.594873 -5.592025 26.106559 103 103 103 0
-3.430155 -5.488249 25.622075 131 131 131 0
-3.288631 -5.416569 25.287439 141 141 141 0
-3.171588 -5.382088 25.126463 155 155 155 0
-3.051639 -5.340368 24.931690 158 158 158 0
-2.940266 -5.311449 24.796680 165 165 165 0
-2.832847 -5.287981 24.687120 170 170 170 0
-2.720503 -5.253385 24.525608 172 172 172 0
-2.607201 -5.214401 24.343610 177 177 177 0
-2.493216 -5.171116 24.141530 181 181 181 0
-2.393217 -5.154622 24.064529 181 181 181 0
-2.298048 -5.147627 24.031873 182 182 182 0
-2.201317 -5.136406 23.979487 187 187 187 0
-2.104510 -5.124025 23.921685 189 189 189 0
-2.007673 -5.110439 23.858261 189 189 189 0
-1.910745 -5.095319 23.787672 189 189 189 0
-1.813100 -5.076681 23.700657 191 191 191 0
-1.717734 -5.062796 23.635835 195 195 195 0
-1.625419 -5.056859 23.608119 195 195 195 0
-1.530729 -5.042402 23.540628 195 195 195 0
-1.442019 -5.047066 23.562401 196 196 196 0
-1.350955 -5.043564 23.546051 197 197 197 0
-1.255026 -5.020104 23.436526 199 199 199 0
-1.159512 -4.994820 23.318487 201 201 201 0
-1.065205 -4.970955 23.207073 201 201 201 0
-0.976275 -4.970128 23.203214 201 201 201 0
-0.892975 -5.000660 23.345752 201 201 201 0
-0.802009 -4.990278 23.297283 201 201 201 0
-0.709812 -4.968681 23.196458 203 203 203 0
-0.618540 -4.948321 23.101405 204 204 204 0
-0.528290 -4.930710 23.019188 205 205 205 0
-0.438609 -4.912416 22.933782 205 205 205 0
-0.352131 -4.929827 23.015067 205 205 205 0
-0.264804 -4.943012 23.076619 206 206 206 0
-0.176150 -4.932206 23.026173 205 205 205 0
-0.087815 -4.917626 22.958103 206 206 206 0
0.000000 -4.906725 22.907215 206 206 206 0
0.087718 -4.912185 22.932702 207 207 207 0
0.175790 -4.922116 22.979065 208 208 208 0
0.264308 -4.933742 23.033344 208 208 208 0
0.352325 -4.932555 23.027800 209 209 209 0
0.439652 -4.924101 22.988333 209 209 209 0
0.526749 -4.916324 22.952025 209 209 209 0
0.617040 -4.936318 23.045370 209 209 209 0
0.708111 -4.956775 23.140872 209 209 209 0
0.796692 -4.957197 23.142841 210 210 210 0
0.882156 -4.940074 23.062902 210 210 210 0
0.968914 -4.932654 23.028262 211 211 211 0
1.057427 -4.934661 23.037631 211 211 211 0
1.152269 -4.963621 23.172832 211 211 211 0
1.239734 -4.958936 23.150960 210 210 210 0
1.324652 -4.945367 23.087614 210 210 210 0
1.410230 -4.935807 23.042982 211 211 211 0
1.500039 -4.941304 23.068645 211 211 211 0
1.595487 -4.963737 23.173376 211 211 211 0
1.688001 -4.975161 23.226708 211 211 211 0
1.775017 -4.970049 23.202841 211 211 211 0
1.862810 -4.967492 23.190906 211 211 211 0
1.959221 -4.987109 23.282489 212 212 212 0
2.055086 -5.003688 23.359886 212 212 212 0
2.147298 -5.010361 23.391043 211 211 211 0
2.240147 -5.017928 23.426369 211 211 211 0
2.333189 -5.025331 23.460928 211 211 211 0
2.429009 -5.037944 23.519815 210 210 210 0
2.534036 -5.068073 23.660470 211 211 211 0
2.634201 -5.086733 23.747588 212 212 212 0
2.725904 -5.088354 23.755154 211 211 211 0
2.823895 -5.101230 23.815268 210 210 210 0
2.920005 -5.110009 23.856250 211 211 211 0
3.030338 -5.142392 24.007432 210 210 210 0
3.117477 -5.134668 23.971374 210 210 210 0
3.213821 -5.142113 24.006131 210 210 210 0
3.316774 -5.159426 24.086954 209 209 209 0
3.428441 -5.188992 24.224984 209 209 209 0
3.541081 -5.218435 24.362440 208 208 208 0
3.646227 -5.235608 24.442614 207 207 207 0
3.752012 -5.252817 24.522955 207 207 207 0
3.874069 -5.291412 24.703136 206 206 206 0
3.987023 -5.316030 24.818069 205 205 205 0
4.101535 -5.341534 24.937133 204 204 204 0
4.243907 -5.401337 25.216324 204 204 204 0
4.378871 -5.449262 25.440066 203 203 203 0
4.495771 -5.473113 25.551414 200 200 200 0
4.663216 -5.556173 25.939181 199 199 199 0
4.798117 -5.597803 26.133534 196 196 196 0
4.984305 -5.696349 26.593598 193 193 193 0
5.166827 -5.786846 27.016087 171 171 171 0
5.281210 -5.798975 27.072714 81 81 81 0
-3.739785 -5.559139 26.424905 85 85 85 0
-3.564658 -5.446005 25.887131 117 117 117 0
-3.407973 -5.355386 25.456378 137 137 137 0
-3.276364 -5.300001 25.193113 148 148 148 0
-3.156276 -5.260460 25.005156 157 157 157 0
-3.038224 -5.221947 24.822090 160 160 160 0
-2.927165 -5.193357 24.686191 169 169 169 0
-2.820828 -5.171517 24.582375 171 171 171 0
-2.713807 -5.146875 24.465241 172 172 172 0
-2.598797 -5.104779 24.265142 180 180 180 0
-2.488047 -5.068243 24.091471 181 181 181 0
-2.385862 -5.047017 23.990573 181 181 181 0
-2.292016 -5.042435 23.968793 184 184 184 0
-2.195071 -5.030371 23.911448 188 188 188 0
-2.097075 -5.014745 23.837170 189 189 189 0
-1.999781 -4.999454 23.764486 189 189 189 0
-1.907720 -4.996409 23.750012 190 190 190 0
-1.808669 -4.973841 23.642736 193 193 193 0
-1.714473 -4.962947 23.590955 195 195 195 0
-1.622970 -4.959076 23.572554 195 195 195 0
-1.526557 -4.938859 23.476456 196 196 196 0
-1.437413 -4.941108 23.487144 196 196 196 0
-1.348816 -4.945660 23.508781 199 199 199 0
-1.253517 -4.924533 23.408355 200 200 200 0
-1.158727 -4.902308 23.302710 201 201 201 0
-1.064001 -4.876673 23.180858 200 200 200 0
-0.974117 -4.870586 23.151925 201 201 201 0
-0.890540 -4.897969 23.282085 201 201 201 0
-0.800265 -4.890508 23.246619 203 203 203 0
-0.709116 -4.875171 23.173717 205 205 205 0
-0.617333 -4.850475 23.056330 204 204 204 0
-0.527225 -4.832895 22.972765 205 205 205 0
-0.438119 -4.819314 22.908207 205 205 205 0
-0.351584 -4.834286 22.979376 206 206 206 0
-0.264286 -4.845250 23.031491 205 205 205 0
-0.176026 -4.840718 23.009950 205 205 205 0
-0.087706 -4.823810 22.929578 207 207 207 0
0.000000 -4.812645 22.876508 208 208 208 0
0.087570 -4.816356 22.894146 208 208 208 0
0.175615 -4.829423 22.956259 209 209 209 0
0.263943 -4.838951 23.001549 209 209 209 0
0.352071 -4.840978 23.011186 209 209 209 0
0.439104 -4.830140 22.959666 209 209 209 0
0.525764 -4.819507 22.909126 209 209 209 0
0.615901 -4.839225 23.002851 209 209 209 0
0.707063 -4.861056 23.106622 210 210 210 0
0.795657 -4.862350 23.112774 210 210 210 0
0.881094 -4.846016 23.035131 210 210 210 0
0.967798 -4.838991 23.001740 211 211 211 0
1.054763 -4.834330 22.979586 210 210 210 0
1.158683 -4.902121 23.301823 211 211 211 0
1.239107 -4.867919 23.139248 211 211 211 0
1.324219 -4.855471 23.080078 211 211 211 0
1.408897 -4.843084 23.021197 211 211 211 0
1.497076 -4.843481 23.023084 211 211 211 0
1.591237 -4.862112 23.111645 211 211 211 0
1.685327 -4.878578 23.189912 211 211 211 0
1.773165 -4.876204 23.178629 211 211 211 0
1.860743 -4.873375 23.165183 212 212 212 0
1.954778 -4.886946 23.229690 212 212 212 0
2.051812 -4.906506 23.322668 211 211 211 0
2.144677 -4.914886 23.362498 212 212 212 0
2.236558 -4.920428 23.388844 211 211 211 0
2.328712 -4.926122 23.415910 211 211 211 0
2.425192 -4.940206 23.482857 211 211 211 0
2.529044 -4.967764 23.613852 211 211 211 0
2.627874 -4.983900 23.690552 211 211 211 0
2.722176 -4.990657 23.722670 211 211 211 0
2.818638 -5.000809 23.770930 211 211 211 0
2.913895 -5.008258 23.806336 210 210 210 0
3.022855 -5.038092 23.948151 211 211 211 0
3.113625 -5.036746 23.941752 210 210 210 0
3.207568 -5.040464 23.959426 210 210 210 0
3.308200 -5.054194 24.024690 209 209 209 0
3.420172 -5.084040 24.166558 209 209 209 0
3.530019 -5.109238 24.286338 209 209 209 0
3.633267 -5.123837 24.355733 208 208 208 0
3.741911 -5.145128 24.456938 207 207 207 0
3.861334 -5.179838 24.621926 207 207 207 0
3.980702 -5.212824 24.778724 206 206 206 0
4.091923 -5.233855 24.878693 206 206 206 0
4.219299 -5.274124 25.070110 204 204 204 0
4.364100 -5.333900 25.354246 204 204 204 0
4.475141 -5.350712 25.434163 202 202 202 0
4.656008 -5.448520 25.899087 200 200 200 0
4.776955 -5.473594 26.018271 198 198 198 0
4.931286 -5.535117 26.310715 196 196 196 0
5.120896 -5.632986 26.775928 188 188 188 0
5.280771 -5.694949 27.070466 129 129 129 0
-3.717622 -5.425718 26.268303 102 102 102 0
-3.541203 -5.311804 25.716794 130 130 130 0
-3.385261 -5.222974 25.286729 141 141 141 0
-3.255326 -5.170224 25.031345 155 155 155 0
-3.141236 -5.140205 24.886006 158 158 158 0
-3.027818 -5.109443 24.737076 165 165 165 0
-2.911696 -5.071986 24.555732 171 171 171 0
-2.811703 -5.061065 24.502855 171 171 171 0
-2.705660 -5.038125 24.391795 176 176 176 0
-2.592221 -4.999282 24.203740 181 181 181 0
-2.479442 -4.958885 24.008156 181 181 181 0
-2.383025 -4.949360 23.962044 181 181 181 0
-2.284196 -4.933864 23.887021 187 187 187 0
-2.186027 -4.918561 23.812930 189 189 189 0
-2.089750 -4.906369 23.753905 190 190 190 0
-1.995801 -4.898783 23.717178 190 190 190 0
-1.902799 -4.892912 23.688752 192 192 192 0
-1.806457 -4.877435 23.613821 195 195 195 0
-1.708524 -4.855804 23.509097 195 195 195 0
-1.621030 -4.863091 23.544378 196 196 196 0
-1.522146 -4.835053 23.408630 196 196 196 0
-1.435290 -4.844103 23.452448 197 197 197 0
-1.346810 -4.848514 23.473805 199 199 199 0
-1.253018 -4.833071 23.399035 200 200 200 0
-1.157359 -4.807490 23.275186 201 201 201 0
-1.063022 -4.783601 23.159531 200 200 200 0
-0.972297 -4.773093 23.108655 202 202 202 0
-0.888577 -4.798318 23.230781 202 202 202 0
-0.798475 -4.790851 23.194630 205 205 205 0
-0.708006 -4.779042 23.137459 204 204 204 0
-0.617062 -4.760192 23.046195 204 204 204 0
-0.526864 -4.741776 22.957036 205 205 205 0
-0.437637 -4.726476 22.882964 205 205 205 0
-0.350711 -4.734599 22.922292 205 205 205 0
-0.263997 -4.751945 23.006270 205 205 205 0
-0.175875 -4.748613 22.990139 207 207 207 0
-0.087592 -4.729973 22.899893 208 208 208 0
0.000000 -4.720854 22.855744 208 208 208 0
0.087497 -4.724813 22.874910 208 208 208 0
0.175273 -4.732377 22.911534 209 209 209 0
0.263515 -4.743268 22.964262 209 209 209 0
0.351166 -4.740737 22.952009 209 209 209 0
0.438400 -4.734719 22.922871 209 209 209 0
0.525320 -4.727883 22.889775 209 209 209 0
0.615126 -4.745256 22.973884 210 210 210 0
0.705746 -4.763784 23.063586 210 210 210 0
0.794763 -4.768579 23.086800 210 210 210 0
0.879604 -4.749860 22.996176 210 210 210 0
0.966089 -4.742619 22.961119 210 210 210 0
1.053422 -4.740401 22.950381 211 211 211 0
1.128479 -4.687530 22.694407 211 211 211 0
1.238617 -4.777522 23.130102 211 211 211 0
1.323471 -4.764497 23.067038 211 211 211 0
1.407021 -4.748695 22.990536 212 212 212 0
1.494750 -4.748029 22.987309 212 212 212 0
1.587466 -4.762398 23.056878 212 212 212 0
1.682157 -4.780868 23.146299 211 211 211 0
1.772102 -4.784677 23.164738 211 211 211 0
1.857108 -4.775420 23.119924 212 212 212 0
1.950463 -4.787501 23.178410 212 212 212 0
2.047633 -4.807487 23.275171 213 213 213 0
2.139219 -4.813243 23.303040 212 212 212 0
2.232424 -4.822036 23.345609 212 212 212 0
2.325135 -4.829127 23.379942 211 211 211 0
2.421288 -4.842576 23.445056 211 211 211 0
2.524862 -4.869376 23.574805 211 211 211 0
2.624354 -4.886728 23.658811 212 212 212 0
2.718704 -4.893667 23.692406 212 212 212 0
2.814330 -4.902381 23.734597 211 211 211 0
2.910141 -4.910863 23.775661 211 211 211 0
3.016618 -4.936283 23.898733 211 211 211 0
3.107710 -4.935775 23.896274 210 210 210 0
3.202149 -4.940458 23.918946 210 210 210 0
3.302445 -4.953668 23.982900 210 210 210 0
3.412628 -4.980593 24.113256 209 209 209 0
3.519711 -5.001695 24.215418 209 209 209 0
3.621780 -5.014772 24.278733 209 209 209 0
3.731613 -5.037677 24.389626 209 209 209 0
3.850860 -5.071865 24.555144 208 208 208 0
3.970898 -5.105441 24.717699 207 207 207 0
4.080339 -5.124146 24.808262 207 207 207 0
4.200645 -5.155338 24.959272 205 205 205 0
4.347379 -5.216855 25.257104 204 204 204 0
4.463314 -5.239543 25.366945 204 204 204 0
4.560874 -5.240154 25.369904 201 201 201 0
4.753139 -5.347282 25.888559 199 199 199 0
4.896377 -5.396008 26.124461 196 196 196 0
5.087272 -5.494254 26.600117 193 193 193 0
5.257293 -5.566545 26.950111 169 169 169 0
5.390943 -5.598287 27.103788 81 81 81 0
-3.872000 -5.400422 26.639150 84 84 84 0
-3.697302 -5.296135 26.124727 114 114 114 0
-3.525285 -5.190003 25.601200 136 136 136 0
-3.374372 -5.109764 25.205396 147 147 147 0
-3.238899 -5.048871 24.905026 156 156 156 0
-3.122467 -5.014870 24.737307 160 160 160 0
-3.010704 -4.986478 24.597255 169 169 169 0
-2.903339 -4.963774 24.485258 171 171 171 0
-2.804116 -4.953938 24.436741 173 173 173 0
-2.698352 -4.931470 24.325910 180 180 180 0
-2.585036 -4.893103 24.136653 181 181 181 0
-2.478308 -4.864827 23.997172 181 181 181 0
-2.374856 -4.841052 23.879895 184 184 184 0
-2.277763 -4.828857 23.819741 188 188 188 0
-2.182108 -4.818823 23.770243 189 189 189 0
-2.085056 -4.804694 23.700550 189 189 189 0
-1.991788 -4.798399 23.669497 190 190 190 0
-1.897041 -4.787770 23.617069 194 194 194 0
-1.803134 -4.778306 23.570382 195 195 195 0
-1.707708 -4.763606 23.497874 195 195 195 0
-1.615953 -4.758083 23.470625 195 195 195 0
-1.519324 -4.736715 23.365223 196 196 196 0
-1.432422 -4.744899 23.405593 199 199 199 0
-1.344492 -4.750539 23.433414 200 200 200 0
-1.251232 -4.736806 23.365675 200 200 200 0
-1.156380 -4.714473 23.255508 201 201 201 0
-1.061127 -4.686645 23.118240 201 201 201 0
-0.971266 -4.679734 23.084149 201 201 201 0
-0.886339 -4.697595 23.172251 203 203 203 0
-0.797476 -4.696249 23.165612 205 205 205 0
-0.706889 -4.683140 23.100950 205 205 205 0
-0.616458 -4.667465 23.023627 205 205 205 0
-0.526238 -4.648435 22.929759 206 206 206 0
-0.437111 -4.633373 22.855457 205 205 205 0
-0.350123 -4.639126 22.883837 206 206 206 0
-0.263046 -4.647152 22.923426 207 207 207 0
-0.175562 -4.652392 22.949275 208 208 208 0
-0.087461 -4.635424 22.865576 208 208 208 0
0.000000 -4.630189 22.839755 208 208 208 0
0.087404 -4.632422 22.850769 208 208 208 0
0.175237 -4.643769 22.906742 209 209 209 0
0.263154 -4.649062 22.932848 209 209 209 0
0.350833 -4.648536 22.930257 209 209 209 0
0.437951 -4.642284 22.899417 209 209 209 0
0.524889 -4.636518 22.870971 209 209 209 0
0.614385 -4.651772 22.946219 210 210 210 0
0.704594 -4.667937 23.025956 210 210 210 0
0.793654 -4.673738 23.054574 211 211 211 0
0.878729 -4.657263 22.973305 210 210 210 0
0.965587 -4.652376 22.949198 211 211 211 0
1.053045 -4.650947 22.942149 211 211 211 0
1.147029 -4.676350 23.067458 211 211 211 0
1.237294 -4.684042 23.105399 211 211 211 0
1.321950 -4.670890 23.040521 211 211 211 0
1.405313 -4.655098 22.962624 211 211 211 0
1.493237 -4.655384 22.964037 212 212 212 0
1.585320 -4.667887 23.025710 212 212 212 0
1.679947 -4.686168 23.115886 212 212 212 0
1.769890 -4.690208 23.135812 212 212 212 0
1.855085 -4.681881 23.094737 212 212 212 0
1.948450 -4.693993 23.154484 213 213 213 0
2.044376 -4.710954 23.238149 212 212 212 0
2.136078 -4.717173 23.268828 212 212 212 0
2.229210 -4.725925 23.311997 213 213 213 0
2.323882 -4.737143 23.367336 213 213 213 0
2.418164 -4.746767 23.414810 211 211 211 0
2.519782 -4.769588 23.527378 212 212 212 0
2.620387 -4.788984 23.623055 212 212 212 0
2.714852 -4.796239 23.658844 212 212 212 0
2.810601 -4.805222 23.703152 212 212 212 0
2.905327 -4.811949 23.736335 211 211 211 0
3.014176 -4.840950 23.879392 211 211 211 0
3.104258 -4.838990 23.869725 211 211 211 0
3.199984 -4.845689 23.902771 211 211 211 0
3.297755 -4.855028 23.948835 211 211 211 0
3.405723 -4.878468 24.064460 210 210 210 0
3.514333 -4.901570 24.178420 210 210 210 0
3.614714 -4.912304 24.231367 209 209 209 0
3.724207 -4.934574 24.341219 210 210 210 0
3.839333 -4.963040 24.481638 207 207 207 0
3.960325 -4.997553 24.651883 208 208 208 0
4.069931 -5.016426 24.744982 207 207 207 0
4.185856 -5.042053 24.871394 206 206 206 0
4.331043 -5.101006 25.162197 204 204 204 0
4.451671 -5.129099 25.300773 204 204 204 0
4.586666 -5.172198 25.513371 202 202 202 0
4.739884 -5.233622 25.816360 201 201 201 0
4.868864 -5.266322 25.977664 198 198 198 0
5.046000 -5.348760 26.384313 195 195 195 0
5.230402 -5.435516 26.812262 186 186 186 0
5.415256 -5.519395 27.226022 126 126 126 0
-3.853622 -5.273377 26.512707 96 96 96 0
-3.682955 -5.176045 26.023355 125 125 125 0
-3.513207 -5.074633 25.513487 138 138 138 0
-3.360401 -4.992597 25.101038 152 152 152 0
-3.230039 -4.940060 24.836904 156 156 156 0
-3.106430 -4.894981 24.610259 163 163 163 0
-3.001664 -4.877703 24.523395 170 170 170 0
-2.895699 -4.857301 24.420822 171 171 171 0
-2.793177 -4.841507 24.341413 175 175 175 0
-2.688734 -4.821178 24.239203 180 180 180 0
-2.579753 -4.790970 24.087331 180 180 180 0
-2.470412 -4.757830 23.920712 182 182 182 0
-2.369454 -4.738909 23.825585 186 186 186 0
-2.276039 -4.734161 23.801714 189 189 189 0
-2.177929 -4.718845 23.724713 189 189 189 0
-2.081449 -4.705885 23.659553 189 189 189 0
-1.985023 -4.691872 23.589100 191 191 191 0
-1.893289 -4.688144 23.570355 195 195 195 0
-1.800418 -4.681087 23.534877 195 195 195 0
-1.704388 -4.664640 23.452185 195 195 195 0
-1.613517 -4.661271 23.435247 196 196 196 0
-1.516860 -4.639808 23.327339 198 198 198 0
-1.429768 -4.646745 23.362216 199 199 199 0
-1.343760 -4.658367 23.420648 200 200 200 0
-1.249513 -4.641048 23.333577 200 200 200 0
-1.155330 -4.621320 23.234388 201 201 201 0
-1.060922 -4.597329 23.113769 201 201 201 0
-0.969381 -4.582528 23.039355 203 203 203 0
-0.888488 -4.620140 23.228454 204 204 204 0
-0.796568 -4.602394 23.139235 204 204 204 0
-0.706434 -4.591819 23.086070 204 204 204 0
-0.615789 -4.574435 22.998669 205 205 205 0
-0.525308 -4.552673 22.889258 204 204 204 0
-0.436420 -4.538771 22.819363 205 205 205 0
-0.349518 -4.543739 22.844339 207 207 207 0
-0.262981 -4.558340 22.917746 207 207 207 0
-0.175314 -4.558168 22.916882 208 208 208 0
-0.087384 -4.543961 22.845454 208 208 208 0
0.000000 -4.538616 22.818582 208 208 208 0
0.087303 -4.539765 22.824360 209 209 209 0
0.174905 -4.547528 22.863390 208 208 208 0
0.262738 -4.554128 22.896572 209 209 209 0
0.350531 -4.556908 22.910549 209 209 209 0
0.437302 -4.547941 22.865468 209 209 209 0
0.524659 -4.547045 22.860959 210 210 210 0
0.613326 -4.556136 22.906666 209 209 209 0
0.703662 -4.573804 22.995496 210 210 210 0
0.792988 -4.581710 23.035245 210 210 210 0
0.878287 -4.567092 22.961748 211 211 211 0
0.964023 -4.557201 22.912019 210 210 210 0
1.051004 -4.554350 22.897689 211 211 211 0
1.143234 -4.572935 22.991125 211 211 211 0
1.235931 -4.590602 23.079951 211 211 211 0
1.320635 -4.578202 23.017609 211 211 211 0
1.404198 -4.563645 22.944418 212 212 212 0
1.492349 -4.564832 22.950387 212 212 212 0
1.584136 -4.576392 23.008508 212 212 212 0
1.678567 -4.593972 23.096891 212 212 212 0
1.768230 -4.597399 23.114121 212 212 212 0
1.853009 -4.588402 23.068890 212 212 212 0
1.945565 -4.598608 23.120199 212 212 212 0
2.041195 -4.614875 23.201984 212 212 212 0
2.133997 -4.623660 23.246152 213 213 213 0
2.225503 -4.629046 23.273234 212 212 212 0
2.320252 -4.640504 23.330840 212 212 212 0
2.415893 -4.652831 23.392813 212 212 212 0
2.516913 -4.674266 23.500585 212 212 212 0
2.617107 -4.692744 23.593486 211 211 211 0
2.711392 -4.699746 23.628688 212 212 212 0
2.805833 -4.706558 23.662938 212 212 212 0
2.901467 -4.714884 23.704795 212 212 212 0
3.008945 -4.741368 23.837948 211 211 211 0
3.100931 -4.742601 23.844147 211 211 211 0
3.195482 -4.747574 23.869150 211 211 211 0
3.294953 -4.759377 23.928491 210 210 210 0
3.399722 -4.777987 24.022057 211 211 211 0
3.508767 -4.801471 24.140127 209 209 209 0
3.610393 -4.813857 24.202397 209 209 209 0
3.719771 -4.835703 24.312230 209 209 209 0
3.829812 -4.857322 24.420926 208 208 208 0
3.951158 -4.891909 24.594819 207 207 207 0
4.056833 -4.905938 24.665348 207 207 207 0
4.176687 -4.936085 24.816916 206 206 206 0
4.317175 -4.988736 25.081629 205 205 205 0
4.444115 -5.023782 25.257828 205 205 205 0
4.568671 -5.054700 25.413274 204 204 204 0
4.719667 -5.112972 25.706245 201 201 201 0
4.843935 -5.140503 25.844659 200 200 200 0
4.997302 -5.197194 26.129685 196 196 196 0
5.197741 -5.299658 26.644837 193 193 193 0
5.390406 -5.390406 27.101085 164 164 164 0
-4.016901 -5.252870 26.927438 75 75 75 0
-3.822652 -5.130401 26.299634 106 106 106 0
-3.665730 -5.052763 25.901642 133 133 133 0
-3.504840 -4.965190 25.452724 142 142 142 0
-3.352949 -4.885726 25.045373 155 155 155 0
-3.221646 -4.832469 24.772365 157 157 157 0
-3.097356 -4.786823 24.538372 167 167 167 0
-2.993951 -4.771609 24.460380 170 170 170 0
-2.888300 -4.751720 24.358425 171 171 171 0
-2.781846 -4.729138 24.242667 178 178 178 0
-2.680669 -4.714280 24.166503 180 180 180 0
-2.574856 -4.689916 24.041603 181 181 181 0
-2.470099 -4.665743 23.917688 182 182 182 0
-2.364824 -4.638694 23.779029 187 187 187 0
-2.270002 -4.630804 23.738584 189 189 189 0
-2.174406 -4.620612 23.686337 189 189 189 0
-2.076940 -4.605389 23.608299 190 190 190 0
-1.981780 -4.594126 23.550564 193 193 193 0
-1.890201 -4.590487 23.531908 195 195 195 0
-1.797858 -4.584539 23.501418 195 195 195 0
-1.701737 -4.567821 23.415719 195 195 195 0
-1.610877 -4.564152 23.396909 196 196 196 0
-1.516126 -4.548378 23.316048 199 199 199 0
-1.427972 -4.551661 23.332876 200 200 200 0
-1.341444 -4.560911 23.380294 200 200 200 0
-1.248492 -4.548076 23.314501 201 201 201 0
-1.154180 -4.527936 23.211256 201 201 201 0
-1.059845 -4.504343 23.090315 202 202 202 0
-0.967060 -4.483640 22.984184 204 204 204 0
-0.748943 -3.819612 19.580221 204 204 204 0
-0.797090 -4.516846 23.154406 204 204 204 0
-0.706328 -4.502840 23.082608 204 204 204 0
-0.614929 -4.480201 22.966554 204 204 204 0
-0.525143 -4.463718 22.882061 205 205 205 0
-0.436134 -4.448568 22.804400 207 207 207 0
-0.348684 -4.445722 22.789807 208 208 208 0
-0.262504 -4.462573 22.876194 208 208 208 0
-0.175244 -4.468710 22.907651 208 208 208 0
-0.087327 -4.453659 22.830495 208 208 208 0
0.000000 -4.448655 22.804844 208 208 208 0
0.087272 -4.450874 22.816219 208 208 208 0
0.174734 -4.455707 22.840995 208 208 208 0
0.262595 -4.464120 22.884123 209 209 209 0
0.350260 -4.465817 22.892820 210 210 210 0
0.437010 -4.457505 22.850211 210 210 210 0
0.524274 -4.456330 22.844191 210 210 210 0
0.612515 -4.462611 22.876387 211 211 211 0
0.702279 -4.477027 22.950287 211 211 211 0
0.791859 -4.487203 23.002450 212 212 212 0
0.877607 -4.475798 22.943986 211 211 211 0
0.962993 -4.464786 22.887534 211 211 211 0
1.049536 -4.460526 22.865699 212 212 212 0
1.140983 -4.476164 22.945859 211 211 211 0
1.235285 -4.499965 23.067874 212 212 212 0
1.319540 -4.486435 22.998515 212 212 212 0
1.403871 -4.474839 22.939072 212 212 212 0
1.490210 -4.470630 22.917494 212 212 212 0
1.581920 -4.482106 22.976322 212 212 212 0
1.676309 -4.499566 23.065824 213 213 213 0
1.766610 -4.504855 23.092941 212 212 212 0
1.851350 -4.496136 23.048245 212 212 212 0
1.943425 -4.505212 23.094767 213 213 213 0
2.038671 -4.520532 23.173302 213 213 213 0
2.131840 -4.530161 23.222662 212 212 212 0
2.223208 -4.535345 23.249236 212 212 212 0
2.317860 -4.546572 23.306788 213 213 213 0
2.413987 -4.559753 23.374361 213 213 213 0
2.512194 -4.575782 23.456529 212 212 212 0
2.612368 -4.594164 23.550755 212 212 212 0
2.707988 -4.603580 23.599027 212 212 212 0
2.801075 -4.608221 23.622817 212 212 212 0
2.899059 -4.620375 23.685122 212 212 212 0
3.005587 -4.644998 23.811345 212 212 212 0
3.096412 -4.644617 23.809393 211 211 211 0
3.194403 -4.654701 23.861086 211 211 211 0
3.292162 -4.663897 23.908224 211 211 211 0
3.394710 -4.679195 23.986644 210 210 210 0
3.503287 -4.701781 24.102425 209 209 209 0
3.604883 -4.714077 24.165462 210 210 210 0
3.714626 -4.736148 24.278603 210 210 210 0
3.825848 -4.758981 24.395648 210 210 210 0
3.944683 -4.789972 24.554516 207 207 207 0
4.052213 -4.806113 24.637256 208 208 208 0
4.170482 -4.833968 24.780048 208 208 208 0
4.307299 -4.881605 25.024249 206 206 206 0
4.433087 -4.914945 25.195154 204 204 204 0
4.554384 -4.941991 25.333802 204 204 204 0
4.709850 -5.004215 25.652775 202 202 202 0
4.831584 -5.028791 25.778758 201 201 201 0
4.971705 -5.071139 25.995842 198 198 198 0
5.160090 -5.160090 26.451825 195 195 195 0
5.365327 -5.262147 26.974996 182 182 182 0
5.500894 -5.293313 27.134761 103 103 103 0
-3.975024 -5.096185 26.646720 86 86 86 0
-3.799448 -4.999274 26.139994 117 117 117 0
-3.647413 -4.928936 25.772215 135 135 135 0
-3.493719 -4.852387 25.371959 148 148 148 0
-3.346095 -4.780136 24.994175 156 156 156 0
-3.213212 -4.725312 24.707515 160 160 160 0
-3.093414 -4.686991 24.507144 169 169 169 0
-2.991779 -4.674654 24.442637 171 171 171 0
-2.880622 -4.646165 24.293674 173 173 173 0
-2.775198 -4.625330 24.184733 179 179 179 0
-2.672581 -4.607899 24.093588 181 181 181 0
-2.571476 -4.591921 24.010047 181 181 181 0
-2.465814 -4.566322 23.876193 184 184 184 0
-2.360396 -4.539224 23.734504 188 188 188 0
-2.264246 -4.528492 23.678390 189 189 189 0
-2.170817 -4.522535 23.647244 190 190 190 0
-2.075010 -4.510892 23.586362 191 191 191 0
-1.978595 -4.496808 23.512719 194 194 194 0
-1.885079 -4.488284 23.468152 194 194 194 0
-1.794028 -4.485069 23.451342 195 195 195 0
-1.698558 -4.469890 23.371973 196 196 196 0
-1.607148 -4.464299 23.342742 197 197 197 0
-1.513968 -4.452848 23.282866 200 200 200 0
-1.426385 -4.457452 23.306941 199 199 199 0
-1.340206 -4.467355 23.358718 200 200 200 0
-1.247322 -4.454721 23.292659 201 201 201 0
-1.153193 -4.435358 23.191412 201 201 201 0
-1.057790 -4.407458 23.045533 203 203 203 0
-0.965251 -4.387505 22.941201 204 204 204 0
-0.867970 -4.339850 22.692027 205 205 205 0
-0.796478 -4.424878 23.136617 204 204 204 0
-0.705408 -4.408803 23.052564 205 205 205 0
-0.614427 -4.388767 22.947802 204 204 204 0
-0.524758 -4.372982 22.865263 206 206 206 0
-0.435592 -4.355919 22.776046 207 207 207 0
-0.348447 -4.355589 22.774319 208 208 208 0
-0.262223 -4.370377 22.851646 207 207 207 0
-0.175104 -4.377612 22.889475 208 208 208 0
-0.087283 -4.364138 22.819024 207 207 207 0
0.000000 -4.357673 22.785220 208 208 208 0
0.087150 -4.357511 22.784371 208 208 208 0
0.174608 -4.365208 22.824618 210 210 210 0
0.262100 -4.368328 22.840930 210 210 210 0
