ply
    format ascii 1.0
    element vertex 16969
    property float x
    property float y
    property float z
    property uchar red
    property uchar green
    property uchar blue
    property uchar alpha
    end_header
3.684992 2.601171 28.335193 204 204 204 0
3.792349 2.600468 28.327537 205 205 205 0
3.887628 2.591752 28.232590 205 205 205 0
3.980564 2.581987 28.126223 205 205 205 0
4.081689 2.577909 28.081794 205 205 205 0
4.197212 2.582900 28.136163 205 205 205 0
4.298573 2.579144 28.095246 206 206 206 0
4.393721 2.571934 28.016714 206 206 206 0
4.483986 2.562278 27.911525 206 206 206 0
4.575425 2.553726 27.818363 205 205 205 0
4.680580 2.553043 27.810930 206 206 206 0
4.796074 2.557906 27.863901 206 206 206 0
4.898742 2.555865 27.841672 206 206 206 0
4.985858 2.545970 27.733879 206 206 206 0
5.081265 2.540633 27.675737 205 205 205 0
5.185784 2.539976 27.668583 206 206 206 0
5.289327 2.538877 27.656610 206 206 206 0
5.393755 2.538238 27.649649 207 207 207 0
5.487077 2.532497 27.587112 206 206 206 0
5.578924 2.526305 27.519666 206 206 206 0
5.676069 2.522697 27.480363 206 206 206 0
5.790215 2.526639 27.523305 206 206 206 0
5.896138 2.526916 27.526321 207 207 207 0
5.990552 2.522338 27.476445 207 207 207 0
6.075244 2.513894 27.384467 207 207 207 0
6.166313 2.508331 27.323865 207 207 207 0
6.263467 2.505387 27.291793 207 207 207 0
6.385050 2.512151 27.365477 207 207 207 0
6.468578 2.503966 27.276314 208 208 208 0
6.552950 2.496362 27.193486 207 207 207 0
6.636879 2.488830 27.111433 207 207 207 0
6.727278 2.483918 27.057932 207 207 207 0
6.825865 2.482133 27.038483 207 207 207 0
6.928376 2.481806 27.034927 208 208 208 0
7.020022 2.477655 26.989702 208 208 208 0
7.106786 2.471926 26.927295 208 208 208 0
7.204699 2.470182 26.908306 207 207 207 0
7.302174 2.468341 26.888241 208 208 208 0
7.393962 2.464654 26.848083 208 208 208 0
7.484009 2.460496 26.802790 208 208 208 0
7.581885 2.458990 26.786379 208 208 208 0
7.666915 2.453413 26.725631 209 209 209 0
7.762940 2.451455 26.704299 208 208 208 0
7.856354 2.448734 26.674660 208 208 208 0
7.939103 2.442801 26.610033 209 209 209 0
8.046713 2.444571 26.629314 209 209 209 0
-8.740189 3.310678 34.621467 74 74 74 0
-7.881977 3.031529 31.702269 103 103 103 0
-7.595357 2.966936 31.026784 127 127 127 0
-7.236305 2.871550 30.029278 142 142 142 0
-6.963722 2.807953 29.364210 149 149 149 0
-6.742831 2.763455 28.898880 159 159 159 0
-6.589865 2.745777 28.714008 163 163 163 0
-6.507847 2.757562 28.837253 164 164 164 0
-6.416196 2.765602 28.921324 171 171 171 0
-6.246694 2.739778 28.651275 174 174 174 0
-6.050554 2.701140 28.247218 173 173 173 0
-5.906239 2.684654 28.074815 177 177 177 0
-5.798637 2.684554 28.073769 181 181 181 0
-5.737207 2.706230 28.300440 182 182 182 0
-5.640050 2.711563 28.356210 183 183 183 0
-5.500481 2.696314 28.196750 184 184 184 0
-5.337216 2.668608 27.907014 188 188 188 0
-5.209010 2.657658 27.792504 189 189 189 0
-5.148145 2.681326 28.040007 190 190 190 0
-5.055663 2.689182 28.122170 189 189 189 0
-4.931850 2.680354 28.029841 191 191 191 0
-4.785691 2.658717 27.803578 192 192 192 0
-4.650119 2.642113 27.629938 194 194 194 0
-4.537841 2.638279 27.589851 195 195 195 0
-4.453882 2.651120 27.724134 195 195 195 0
-4.381306 2.671528 27.937548 196 196 196 0
-4.242453 2.651533 27.728449 196 196 196 0
-4.107470 2.632993 27.534572 196 196 196 0
-3.996016 2.628958 27.492372 197 197 197 0
-3.894477 2.631403 27.517942 198 198 198 0
-3.801091 2.639647 27.604147 199 199 199 0
-3.689281 2.635201 27.557654 200 200 200 0
-3.573669 2.627698 27.479194 201 201 201 0
-3.477634 2.634572 27.551075 201 201 201 0
-3.374954 2.636683 27.573157 201 201 201 0
-3.269969 2.637072 27.577222 201 201 201 0
-3.169175 2.640979 27.618080 202 202 202 0
-3.065343 2.642537 27.634376 201 201 201 0
-2.965889 2.648116 27.692712 203 203 203 0
-2.854658 2.643202 27.641323 203 203 203 0
-2.754503 2.648561 27.697366 203 203 203 0
-2.660536 2.660536 27.822602 203 203 203 0
-2.559213 2.665847 27.878142 203 203 203 0
-2.445116 2.657734 27.793301 204 204 204 0
-2.333163 2.651321 27.726233 204 204 204 0
-2.215646 2.637674 27.583520 205 205 205 0
-2.138727 2.673409 27.957220 204 204 204 0
-2.032578 2.674444 27.968044 205 205 205 0
-1.919133 2.665462 27.874114 205 205 205 0
-1.808391 2.659399 27.810705 206 206 206 0
-1.709969 2.671827 27.940671 206 206 206 0
-1.612965 2.688276 28.112686 205 205 205 0
-1.504374 2.686383 28.092890 205 205 205 0
-1.394890 2.682481 28.052088 205 205 205 0
-1.288560 2.684500 28.073200 206 206 206 0
-1.189015 2.702308 28.259426 207 207 207 0
-1.087138 2.717844 28.421902 206 206 206 0
-0.976214 2.711705 28.357704 207 207 207 0
-0.867808 2.711901 28.359749 207 207 207 0
-0.764430 2.730105 28.550122 206 206 206 0
-0.659919 2.749663 28.754643 207 207 207 0
-0.548792 2.743962 28.695029 207 207 207 0
-0.437715 2.735717 28.608810 207 207 207 0
-0.330384 2.753199 28.791625 207 207 207 0
-0.222330 2.779128 29.062775 207 207 207 0
-0.111020 2.775504 29.024883 207 207 207 0
0.000000 2.766679 28.932587 208 208 208 0
0.111130 2.778256 29.053659 207 207 207 0
0.224246 2.803075 29.313198 208 208 208 0
0.336396 2.803298 29.315539 209 209 209 0
0.447894 2.799339 29.274137 208 208 208 0
0.559965 2.799825 29.279219 206 206 206 0
0.672166 2.800690 29.288264 205 205 205 0
0.782908 2.796101 29.240269 205 205 205 0
0.894246 2.794519 29.223726 204 204 204 0
1.001819 2.782832 29.101509 204 204 204 0
1.114169 2.785424 29.128613 205 205 205 0
1.227080 2.788818 29.164107 205 205 205 0
1.339007 2.789598 29.172263 204 204 204 0
1.448264 2.785123 29.125469 204 204 204 0
1.555491 2.777662 29.047448 204 204 204 0
1.665654 2.776089 29.030999 204 204 204 0
1.774833 2.773176 29.000538 204 204 204 0
2.260994 3.324992 34.771155 204 204 204 0
1.989180 2.762750 28.891505 204 204 204 0
2.098222 2.760819 28.871306 204 204 204 0
2.201422 2.751777 28.776758 204 204 204 0
2.305772 2.744967 28.705533 205 205 205 0
2.410402 2.739093 28.644109 204 204 204 0
2.519760 2.738869 28.641772 204 204 204 0
2.629429 2.738989 28.643019 205 205 205 0
2.733888 2.733888 28.589677 204 204 204 0
2.835927 2.726853 28.516106 204 204 204 0
2.939112 2.721400 28.459087 204 204 204 0
3.046879 2.720428 28.448921 204 204 204 0
3.158757 2.723066 28.476508 205 205 205 0
3.263922 2.719935 28.443767 205 205 205 0
3.364692 2.713462 28.376069 205 205 205 0
3.463900 2.706172 28.299834 205 205 205 0
3.571965 2.706034 28.298396 205 205 205 0
3.686081 2.710354 28.343566 205 205 205 0
3.793595 2.709711 28.336845 204 204 204 0
3.884393 2.697495 28.209101 206 206 206 0
3.977338 2.687391 28.103431 205 205 205 0
4.080330 2.684428 28.072445 205 205 205 0
4.197557 2.690742 28.138476 206 206 206 0
4.299345 2.687090 28.100292 205 205 205 0
4.393616 2.679034 28.016042 206 206 206 0
4.483611 2.668816 27.909185 205 205 205 0
4.576414 2.660706 27.824375 206 206 206 0
4.680796 2.659543 27.812216 205 205 205 0
4.795523 2.664179 27.860698 206 206 206 0
4.897575 2.661725 27.835036 206 206 206 0
4.983803 2.650959 27.722448 207 207 207 0
5.079694 2.645674 27.667177 206 206 206 0
5.182083 2.643920 27.648836 206 206 206 0
5.291518 2.645759 27.668070 206 206 206 0
5.388734 2.641536 27.623908 206 206 206 0
5.483574 2.636334 27.569503 206 206 206 0
5.577110 2.630712 27.510719 207 207 207 0
5.675134 2.627377 27.475836 207 207 207 0
5.787773 2.630806 27.511696 207 207 207 0
5.895499 2.631919 27.523340 206 206 206 0
5.989953 2.627173 27.473699 207 207 207 0
6.072528 2.617469 27.372223 207 207 207 0
6.165809 2.612631 27.321631 207 207 207 0
6.259061 2.607942 27.272596 207 207 207 0
6.398863 2.622485 27.424677 207 207 207 0
6.466156 2.607321 27.266100 207 207 207 0
6.553008 2.600400 27.193727 208 208 208 0
6.635174 2.591865 27.104470 207 207 207 0
6.727442 2.587478 27.058590 207 207 207 0
6.824736 2.585127 27.034010 207 207 207 0
6.929250 2.585541 27.038338 207 207 207 0
7.021787 2.581540 26.996492 207 207 207 0
7.108533 2.575555 26.933913 208 208 208 0
7.201820 2.572079 26.897554 207 207 207 0
7.299467 2.570235 26.878274 208 208 208 0
7.393597 2.567221 26.846756 208 208 208 0
7.483454 2.562827 26.800804 208 208 208 0
7.581321 2.561257 26.784389 208 208 208 0
7.664358 2.554786 26.716716 209 209 209 0
7.763117 2.553657 26.704909 208 208 208 0
7.853909 2.549970 26.666358 209 209 209 0
7.940517 2.545038 26.614772 208 208 208 0
8.042017 2.544942 26.613774 208 208 208 0
-7.881977 3.152791 31.702269 86 86 86 0
-7.661184 3.112356 31.295684 120 120 120 0
-7.274043 3.001986 30.185884 137 137 137 0
-6.999504 2.935276 29.515092 148 148 148 0
-6.794290 2.895927 29.119424 153 153 153 0
-6.651664 2.882388 28.983285 161 161 161 0
-6.575433 2.897648 29.136736 163 163 163 0
-6.449852 2.891313 29.073033 167 167 167 0
-6.265490 2.857943 28.737482 173 173 173 0
-6.071255 2.818797 28.343860 174 174 174 0
-5.913407 2.795429 28.108887 175 175 175 0
-5.820508 2.802467 28.179654 179 179 179 0
-5.750729 2.821112 28.367144 182 182 182 0
-5.652099 2.826050 28.416789 182 182 182 0
-5.506494 2.807232 28.227576 183 183 183 0
-5.349282 2.781627 27.970104 185 185 185 0
-5.225402 2.772662 27.879964 188 188 188 0
-5.160355 2.795192 28.106510 189 189 189 0
-5.073526 2.806632 28.221534 189 189 189 0
-4.941929 2.793264 28.087119 190 190 190 0
-4.796135 2.771100 27.864255 191 191 191 0
-4.656927 2.751820 27.670391 192 192 192 0
-4.545277 2.748307 27.635062 195 195 195 0
-4.456570 2.758829 27.740867 196 196 196 0
-4.388299 2.782824 27.982142 195 195 195 0
-4.248875 2.761769 27.770423 195 195 195 0
-4.116962 2.744641 27.598202 196 196 196 0
-4.005207 2.740405 27.555601 197 197 197 0
-3.902111 2.742024 27.571888 197 197 197 0
-3.807279 2.749701 27.649084 198 198 198 0
-3.699223 2.747994 27.631915 199 199 199 0
-3.580597 2.738103 27.532463 201 201 201 0
-3.484159 2.745095 27.602763 201 201 201 0
-3.382495 2.748278 27.634767 202 202 202 0
-3.275636 2.747308 27.625015 201 201 201 0
-3.176019 2.752550 27.677727 201 201 201 0
-3.074456 2.756409 27.716528 203 203 203 0
-2.972144 2.759848 27.751112 203 203 203 0
-2.858854 2.752970 27.681953 202 202 202 0
-2.761465 2.761465 27.767370 202 202 202 0
-2.663211 2.769739 27.850570 203 203 203 0
-2.564394 2.778093 27.934574 203 203 203 0
-2.453397 2.773405 27.887433 204 204 204 0
-2.341812 2.767596 27.829017 205 205 205 0
-2.461093 3.047068 30.639195 205 205 205 0
-2.141057 2.783374 27.987674 204 204 204 0
-2.034927 2.784637 28.000376 205 205 205 0
-1.920569 2.774155 27.894970 204 204 204 0
-1.811041 2.769827 27.851451 204 204 204 0
-1.714262 2.785675 28.010814 205 205 205 0
-1.617588 2.803820 28.193259 206 206 206 0
-1.507667 2.799954 28.154385 206 206 206 0
-1.397933 2.795867 28.113289 206 206 206 0
-1.291084 2.797349 28.128192 206 206 206 0
-1.192714 2.819141 28.347324 207 207 207 0
-1.087398 2.827235 28.428713 206 206 206 0
-0.976858 2.822033 28.376398 207 207 207 0
-0.868630 2.823047 28.386598 206 206 206 0
-0.766144 2.845677 28.614150 205 205 205 0
-0.660638 2.862767 28.785990 205 205 205 0
-0.549927 2.859618 28.754330 207 207 207 0
-0.438648 2.851215 28.669835 207 207 207 0
-0.331198 2.870384 28.862585 207 207 207 0
-0.222915 2.897901 29.139276 207 207 207 0
-0.111232 2.892029 29.080236 207 207 207 0
0.000000 2.884507 29.004595 207 207 207 0
0.111566 2.900716 29.167579 208 208 208 0
0.224968 2.924583 29.407570 208 208 208 0
0.336695 2.918024 29.341622 209 209 209 0
0.448215 2.913398 29.295099 206 206 206 0
0.559649 2.910175 29.262694 205 205 205 0
0.672249 2.913079 29.291892 204 204 204 0
0.783652 2.910708 29.268056 204 204 204 0
0.893543 2.904014 29.200744 205 205 205 0
1.002503 2.896121 29.121378 204 204 204 0
1.114070 2.896581 29.126007 204 204 204 0
1.227142 2.900518 29.165593 204 204 204 0
1.339815 2.902933 29.189875 203 203 203 0
1.448195 2.896389 29.124074 204 204 204 0
1.555603 2.888977 29.049543 203 203 203 0
1.666049 2.887819 29.037894 203 203 203 0
1.770621 2.877260 28.931722 204 204 204 0
1.648343 2.520995 25.349368 204 204 204 0
1.988909 2.872868 28.887564 204 204 204 0
2.098617 2.871792 28.876745 204 204 204 0
2.201524 2.861981 28.778090 204 204 204 0
2.305783 2.854779 28.705673 205 205 205 0
2.409290 2.847342 28.630893 204 204 204 0
2.519453 2.848077 28.638285 204 204 204 0
2.629504 2.848630 28.643839 203 203 203 0
2.733023 2.842343 28.580628 204 204 204 0
2.834870 2.834870 28.505485 204 204 204 0
2.938212 2.829389 28.450369 205 205 205 0
3.046358 2.828761 28.444052 205 205 205 0
3.157446 2.830814 28.464692 204 204 204 0
3.263212 2.828117 28.437576 205 205 205 0
3.363743 2.821204 28.368062 205 205 205 0
3.464484 2.814893 28.304605 205 205 205 0
3.571395 2.813826 28.293878 205 205 205 0
3.685769 2.818529 28.341165 205 205 205 0
3.792162 2.817035 28.326144 206 206 206 0
3.887251 2.807459 28.229853 205 205 205 0
3.980097 2.796825 28.122927 205 205 205 0
4.080747 2.792090 28.075317 205 205 205 0
4.194078 2.796052 28.115155 205 205 205 0
4.297546 2.793405 28.088539 205 205 205 0
4.392450 2.785456 28.008611 205 205 205 0
4.485290 2.776608 27.919641 206 206 206 0
4.576141 2.766969 27.822713 206 206 206 0
4.678280 2.764438 27.797265 205 205 205 0
4.796311 2.771202 27.865276 206 206 206 0
4.898378 2.768648 27.839600 206 206 206 0
4.984979 2.757648 27.728990 206 206 206 0
5.076386 2.749709 27.649162 207 207 207 0
5.181592 2.749416 27.646217 207 207 207 0
5.290103 2.750853 27.660667 207 207 207 0
5.387606 2.746622 27.618124 206 206 206 0
5.482714 2.741357 27.565179 206 206 206 0
5.570731 2.732811 27.479250 207 207 207 0
5.675038 2.732426 27.475373 207 207 207 0
5.787055 2.735699 27.508281 207 207 207 0
5.893151 2.736106 27.512375 206 206 206 0
5.986951 2.730890 27.459928 206 206 206 0
6.070594 2.721301 27.363508 206 206 206 0
6.163369 2.716061 27.310818 207 207 207 0
6.264629 2.714673 27.296859 207 207 207 0
6.442085 2.745807 27.609923 207 207 207 0
6.464761 2.711029 27.260221 208 208 208 0
6.550854 2.703527 27.184789 207 207 207 0
6.633754 2.694962 27.098667 207 207 207 0
6.724881 2.689952 27.048288 208 208 208 0
6.825696 2.688911 27.037814 208 208 208 0
6.926449 2.687876 27.027410 208 208 208 0
7.020544 2.684326 26.991711 207 207 207 0
7.107773 2.678291 26.931034 207 207 207 0
7.202370 2.675166 26.899608 207 207 207 0
7.297615 2.672366 26.871453 208 208 208 0
7.390217 2.668690 26.834486 208 208 208 0
7.481947 2.664803 26.795405 208 208 208 0
7.581209 2.663668 26.783993 208 208 208 0
7.665247 2.657286 26.719814 208 208 208 0
7.763301 2.655866 26.705544 208 208 208 0
7.853234 2.651741 26.664066 208 208 208 0
7.942279 2.647426 26.620678 208 208 208 0
8.043862 2.647347 26.619880 208 208 208 0
-8.610583 3.576704 34.632812 76 76 76 0
-7.713389 3.254086 31.508941 106 106 106 0
-7.331637 3.142130 30.424887 130 130 130 0
-7.036450 3.064260 29.670881 143 143 143 0
-6.842342 3.028578 29.325370 149 149 149 0
-6.698973 3.014538 29.189423 157 157 157 0
-6.629950 3.034045 29.378310 162 162 162 0
-6.468321 3.011115 29.156281 164 164 164 0
-6.263063 2.966714 28.726354 171 171 171 0
-6.080765 2.931798 28.388261 174 174 174 0
-5.924516 2.908399 28.161690 175 175 175 0
-5.822802 2.911401 28.190761 176 176 176 0
-5.766450 2.937626 28.444691 181 181 181 0
-5.662616 2.940205 28.469664 183 183 183 0
-5.508736 2.916390 28.239068 183 183 183 0
-5.353913 2.891113 27.994317 183 183 183 0
-5.236187 2.885246 27.937505 185 185 185 0
-5.187599 2.918024 28.254896 188 188 188 0
-5.088417 2.923133 28.304364 190 190 190 0
-4.956622 2.909322 28.170631 190 190 190 0
-4.807416 2.884450 27.929797 190 190 190 0
-4.671621 2.866676 27.757698 191 191 191 0
-4.566089 2.867079 27.761600 192 192 192 0
-4.155185 2.671191 25.864832 195 195 195 0
-4.394437 2.893897 28.021277 195 195 195 0
-4.255523 2.872478 27.813877 196 196 196 0
-4.124097 2.855144 27.646032 196 196 196 0
-4.014899 2.852691 27.622282 197 197 197 0
-3.910170 2.853367 27.628829 197 197 197 0
-3.817833 2.863375 27.725732 197 197 197 0
-3.707247 2.859876 27.691854 197 197 197 0
-3.588468 2.849666 27.592986 199 199 199 0
-3.495424 2.859892 27.692011 199 199 199 0
-3.390942 2.861107 27.703772 200 200 200 0
-3.285523 2.861584 27.708392 201 201 201 0
-3.182389 2.864150 27.733234 202 202 202 0
-3.078132 2.865847 27.749671 202 202 202 0
-2.976495 2.870192 27.791739 202 202 202 0
-2.867254 2.867254 27.763294 202 202 202 0
-2.769793 2.876323 27.851111 203 203 203 0
-2.674048 2.887972 27.963905 204 204 204 0
-2.569996 2.891245 27.995596 203 203 203 0
-2.454650 2.881546 27.901679 203 203 203 0
-2.348054 2.881703 27.903195 204 204 204 0
-2.256239 2.900878 28.088870 203 203 203 0
-2.146009 2.897112 28.052400 203 203 203 0
-2.038201 2.896390 28.045416 204 204 204 0
-1.924655 2.886982 27.954317 204 204 204 0
-1.813472 2.880221 27.888849 205 205 205 0
-1.719841 2.902232 28.101985 204 204 204 0
-1.621535 2.918764 28.262056 205 205 205 0
-1.511920 2.915845 28.233798 205 205 205 0
-1.400311 2.908338 28.161103 206 206 206 0
-1.293711 2.910850 28.185426 206 206 206 0
-1.196133 2.935963 28.428593 206 206 206 0
-1.089773 2.942388 28.490802 206 206 206 0
-0.978091 2.934272 28.412221 205 205 205 0
-0.869733 2.935350 28.422660 206 206 206 0
-0.768401 2.963833 28.698456 206 206 206 0
-0.661515 2.976819 28.824194 206 206 206 0
-0.550617 2.973334 28.790450 206 206 206 0
-0.439650 2.967639 28.735310 206 206 206 0
-0.331656 2.984908 28.902520 206 206 206 0
-0.223452 3.016601 29.209400 206 206 206 0
-0.111482 3.010024 29.145716 207 207 207 0
0.000000 3.005301 29.099986 207 207 207 0
0.112207 3.029598 29.335249 208 208 208 0
0.225524 3.044578 29.480305 209 209 209 0
0.336993 3.032939 29.367596 207 207 207 0
0.448258 3.025740 29.297898 206 206 206 0
0.559041 3.018824 29.230923 205 205 205 0
0.671856 3.023354 29.274792 204 204 204 0
0.783632 3.022582 29.267311 205 205 205 0
0.893591 3.015871 29.202330 203 203 203 0
1.003154 3.009462 29.140272 204 204 204 0
1.114445 3.009002 29.135820 204 204 204 0
1.226636 3.010833 29.153554 204 204 204 0
1.338992 3.012732 29.171937 204 204 204 0
1.448349 3.008109 29.127179 203 203 203 0
1.554290 2.997560 29.025030 203 203 203 0
1.663706 2.994671 28.997055 203 203 203 0
1.767377 2.982449 28.878709 203 203 203 0
1.712210 2.719392 26.331559 204 204 204 0
1.990853 2.986280 28.915810 204 204 204 0
2.099889 2.984053 28.894246 204 204 204 0
2.200453 2.970611 28.764089 204 204 204 0
2.305310 2.963969 28.699776 204 204 204 0
2.409682 2.957338 28.635561 204 204 204 0
2.520215 2.958514 28.646948 204 204 204 0
2.630501 2.959314 28.654698 204 204 204 0
2.732164 2.950737 28.571649 204 204 204 0
2.833393 2.942370 28.490631 204 204 204 0
2.939105 2.939105 28.459019 204 204 204 0
3.044693 2.935954 28.428504 204 204 204 0
3.156572 2.938877 28.456809 204 204 204 0
3.262277 2.936049 28.429429 206 206 206 0
3.364317 2.930211 28.372899 205 205 205 0
3.464840 2.923459 28.307515 204 204 204 0
3.570677 2.921463 28.288191 205 205 205 0
3.685078 2.926386 28.335857 205 205 205 0
3.792666 2.925771 28.329904 205 205 205 0
3.887738 2.915803 28.233390 205 205 205 0
3.979310 2.903821 28.117367 205 205 205 0
4.080013 2.898957 28.070268 205 205 205 0
4.194404 2.903818 28.117340 205 205 205 0
4.298724 2.901639 28.096233 206 206 206 0
4.393306 2.893153 28.014068 206 206 206 0
4.483784 2.882432 27.910262 206 206 206 0
4.573764 2.871898 27.808261 205 205 205 0
4.675816 2.869251 27.782626 206 206 206 0
4.795427 2.877256 27.860140 206 206 206 0
4.895324 2.873343 27.822247 206 206 206 0
4.981426 2.861670 27.709224 206 206 206 0
5.075449 2.854940 27.644060 206 206 206 0
5.180436 2.854526 27.640050 206 206 206 0
5.287755 2.855388 27.648394 206 206 206 0
5.391968 2.854571 27.640489 207 207 207 0
5.486460 2.848739 27.584013 207 207 207 0
5.575551 2.840375 27.503025 207 207 207 0
5.673693 2.836846 27.468859 207 207 207 0
5.786860 2.840822 27.507358 206 206 206 0
5.891943 2.840758 27.506737 207 207 207 0
5.988437 2.836628 27.466745 207 207 207 0
6.070465 2.825906 27.362924 206 206 206 0
6.164656 2.821114 27.316522 207 207 207 0
6.270097 2.821544 27.320684 207 207 207 0
6.653825 2.945136 28.517410 207 207 207 0
6.460092 2.813266 27.240532 207 207 207 0
6.550943 2.807547 27.185156 208 208 208 0
6.634547 2.798949 27.101906 207 207 207 0
6.725913 2.793841 27.052439 207 207 207 0
6.822295 2.790939 27.024341 208 208 208 0
6.925401 2.790833 27.023320 208 208 208 0
7.018969 2.786944 26.985656 208 208 208 0
7.104597 2.780060 26.918998 208 208 208 0
7.201796 2.777836 26.897466 208 208 208 0
7.296300 2.774649 26.866610 208 208 208 0
7.388894 2.770835 26.829679 208 208 208 0
7.480957 2.766929 26.791861 208 208 208 0
7.577329 2.764701 26.770286 208 208 208 0
7.661121 2.758004 26.705433 208 208 208 0
7.760492 2.757017 26.695879 209 209 209 0
7.851854 2.753248 26.659381 208 208 208 0
7.938672 2.748002 26.608586 208 208 208 0
8.042123 2.748574 26.614125 208 208 208 0
-7.805807 3.415041 31.886466 84 84 84 0
-7.390149 3.284510 30.667698 118 118 118 0
-7.080382 3.197592 29.856135 134 134 134 0
-6.867557 3.152321 29.433439 147 147 147 0
-6.750358 3.150167 29.413324 152 152 152 0
-6.665503 3.163290 29.535850 161 161 161 0
-6.497146 3.136553 29.286213 164 164 164 0
-6.288972 3.089320 28.845188 165 165 165 0
-6.096933 3.048467 28.463741 172 172 172 0
-5.936124 3.022027 28.216871 174 174 174 0
-5.851671 3.034200 28.330532 175 175 175 0
-5.778589 3.052840 28.504571 178 178 178 0
-5.673306 3.054857 28.523409 182 182 182 0
-5.520548 3.030889 28.299616 184 184 184 0
-5.369261 3.006786 28.074568 183 183 183 0
-5.260817 3.006181 28.068918 184 184 184 0
-5.197154 3.031673 28.306937 186 186 186 0
-5.099640 3.038083 28.366790 189 189 189 0
-4.971075 3.025872 28.252769 190 190 190 0
-4.819384 2.998728 27.999326 190 190 190 0
-4.690347 2.984766 27.868968 192 192 192 0
-4.598544 2.994401 27.958926 191 191 191 0
-4.777334 3.184889 29.737526 192 192 192 0
-4.399157 3.004302 28.051377 195 195 195 0
-4.267031 2.986922 27.889093 195 195 195 0
-4.130180 2.965257 27.686808 196 196 196 0
-4.029366 2.969007 27.721819 197 197 197 0
-3.925760 2.970845 27.738986 197 197 197 0
-3.826019 2.975793 27.785178 197 197 197 0
-3.714339 2.971471 27.744832 198 198 198 0
-3.600101 2.964789 27.682439 198 198 198 0
-3.499826 2.969549 27.726884 199 199 199 0
-3.397316 2.972652 27.755854 199 199 199 0
-3.293439 2.974719 27.775158 200 200 200 0
-3.191592 2.978819 27.813435 200 200 200 0
-3.086454 2.980025 27.824695 200 200 200 0
-2.983986 2.983986 27.861680 200 200 200 0
-2.873115 2.979527 27.820042 201 201 201 0
-2.774060 2.987449 27.894018 201 201 201 0
-2.679590 3.001141 28.021856 201 201 201 0
-2.572982 3.001812 28.028127 202 202 202 0
-2.460065 2.994862 27.963231 202 202 202 0
-2.351096 2.992304 27.939347 202 202 202 0
-2.256630 3.008840 28.093745 202 202 202 0
-2.151029 3.011441 28.118032 203 203 203 0
-2.040813 3.007514 28.081361 205 205 205 0
-1.926244 2.996380 27.977401 204 204 204 0
-1.816955 2.992632 27.942405 205 205 205 0
-1.723065 3.015364 28.154655 205 205 205 0
-1.624890 3.033128 28.320526 204 204 204 0
-1.514278 3.028556 28.277832 205 205 205 0
-1.401173 3.017911 28.178438 205 205 205 0
-1.297740 3.028059 28.273198 205 205 205 0
-1.198519 3.050776 28.485306 205 205 205 0
-1.091777 3.056976 28.543192 205 205 205 0
-0.980591 3.050729 28.484863 205 205 205 0
-0.871568 3.050489 28.482619 205 205 205 0
-0.770523 3.082092 28.777706 206 206 206 0
-0.662775 3.092949 28.879076 206 206 206 0
-0.551205 3.086748 28.821180 206 206 206 0
-0.440332 3.082324 28.779868 205 205 205 0
-0.319733 2.984177 27.863465 207 207 207 0
-0.223855 3.133972 29.262113 206 206 206 0
-0.111666 3.126636 29.193610 206 206 206 0
0.000000 3.124865 29.177078 208 208 208 0
0.112579 3.152218 29.432479 208 208 208 0
0.225875 3.162246 29.526109 207 207 207 0
0.337248 3.147644 29.389767 205 205 205 0
0.448114 3.136800 29.288514 205 205 205 0
0.558456 3.127356 29.200336 205 205 205 0
0.671350 3.132966 29.252719 205 205 205 0
0.783414 3.133656 29.259156 204 204 204 0
0.894116 3.129408 29.219493 204 204 204 0
1.003349 3.121529 29.145932 204 204 204 0
1.115432 3.123209 29.161612 205 205 205 0
1.227470 3.124470 29.173387 204 204 204 0
1.338706 3.123648 29.165713 203 203 203 0
1.448449 3.119736 29.129185 204 204 204 0
1.554839 3.109679 29.035281 204 204 204 0
1.663105 3.104462 28.986573 204 204 204 0
1.767977 3.093960 28.888515 204 204 204 0
1.762232 2.902500 27.100838 203 203 203 0
1.994368 3.102350 28.966849 204 204 204 0
2.098818 3.092995 28.879503 203 203 203 0
2.200192 3.080269 28.760685 205 205 205 0
2.305936 3.074581 28.707574 204 204 204 0
2.409920 3.067170 28.638380 204 204 204 0
2.520395 3.068307 28.648995 204 204 204 0
2.631168 3.069696 28.661963 204 204 204 0
2.732025 3.059868 28.570199 204 204 204 0
2.834002 3.052002 28.496750 204 204 204 0
2.938303 3.047129 28.451248 204 204 204 0
3.044740 3.044740 28.428949 204 204 204 0
3.156108 3.047277 28.452633 205 205 205 0
3.262720 3.045206 28.433292 205 205 205 0
3.360716 3.035485 28.342531 204 204 204 0
3.462251 3.029470 28.286364 205 205 205 0
3.570243 3.029297 28.284752 205 205 205 0
3.684154 3.034009 28.328750 205 205 205 0
3.792919 3.034335 28.331797 204 204 204 0
3.887336 3.023484 28.230474 205 205 205 0
3.977877 3.010286 28.107241 205 205 205 0
4.079859 3.006212 28.069203 205 205 205 0
4.196229 3.012677 28.129572 205 205 205 0
4.297440 3.008208 28.087845 206 206 206 0
4.391967 2.999392 28.005526 205 205 205 0
4.483893 2.989262 27.910946 206 206 206 0
4.575651 2.979494 27.819736 205 205 205 0
4.675232 2.975147 27.779154 206 206 206 0
4.792620 2.982075 27.843837 206 206 206 0
4.894348 2.979168 27.816699 206 206 206 0
4.982317 2.968189 27.714179 206 206 206 0
5.075682 2.960815 27.645329 206 206 206 0
5.182510 2.961435 27.651116 205 205 205 0
5.290238 2.962533 27.661377 206 206 206 0
5.390050 2.959243 27.630655 206 206 206 0
5.483574 2.952694 27.569503 206 206 206 0
5.576097 2.945863 27.505722 207 207 207 0
5.671495 2.940775 27.458216 206 206 206 0
5.786581 2.945896 27.506029 206 206 206 0
5.892793 2.946397 27.510707 207 207 207 0
5.990152 2.942531 27.474612 208 208 208 0
6.070362 2.930519 27.362460 207 207 207 0
6.166012 2.926243 27.322532 207 207 207 0
6.268419 2.925262 27.313372 207 207 207 0
5.857599 2.688734 25.104891 207 207 207 0
6.471621 2.922667 27.289145 207 207 207 0
6.549664 2.910962 27.179847 207 207 207 0
6.630765 2.900960 27.086459 208 208 208 0
6.724796 2.896835 27.047948 207 207 207 0
6.819364 2.893063 27.012729 207 207 207 0
6.924031 2.893625 27.017972 208 208 208 0
7.016830 2.889283 26.977432 208 208 208 0
7.102189 2.882048 26.909877 208 208 208 0
7.198471 2.879388 26.885046 208 208 208 0
7.296139 2.877351 26.866019 208 208 208 0
7.387293 2.872836 26.823867 208 208 208 0
7.480451 2.869214 26.790049 208 208 208 0
7.573104 2.865499 26.755359 208 208 208 0
7.661221 2.860189 26.705782 209 209 209 0
7.759008 2.858582 26.690773 208 208 208 0
7.852288 2.855378 26.660855 208 208 208 0
7.937324 2.849296 26.604069 208 208 208 0
8.039550 2.849461 26.605608 208 208 208 0
-7.514848 3.459216 31.185176 99 99 99 0
-7.145678 3.342333 30.131468 126 126 126 0
-6.915022 3.287470 29.636867 141 141 141 0
-6.789414 3.281550 29.583502 151 151 151 0
-6.693362 3.289958 29.659298 155 155 155 0
-6.518264 3.259132 29.381401 163 163 163 0
-6.316495 3.213655 28.971425 165 165 165 0
-6.110365 3.164296 28.526448 168 168 168 0
-5.965643 3.145521 28.357186 173 173 173 0
-5.871248 3.153077 28.425309 176 176 176 0
-5.800833 3.174041 28.614296 176 176 176 0
-5.691661 3.174195 28.615690 179 179 179 0
-5.535725 3.147765 28.377420 182 182 182 0
-5.385416 3.123541 28.159039 184 184 184 0
-5.291951 3.131971 28.235034 185 185 185 0
-5.221499 3.154656 28.439538 185 185 185 0
-5.114938 3.156026 28.451890 186 186 186 0
-4.975123 3.136490 28.275776 189 189 189 0
-4.830360 3.112899 28.063096 191 191 191 0
-4.696656 3.095523 27.906452 191 191 191 0
-4.612849 3.110991 28.045898 191 191 191 0
-4.539851 3.134659 28.259265 191 191 191 0
-4.413807 3.121961 28.144792 192 192 192 0
-4.272949 3.097888 27.927770 193 193 193 0
-4.143155 3.080808 27.773791 196 196 196 0
-4.036612 3.080572 27.771668 197 197 197 0
-3.936200 3.085130 27.812754 197 197 197 0
-3.836451 3.090475 27.860938 197 197 197 0
-3.724273 3.085826 27.819029 198 198 198 0
-3.611859 3.080703 27.772849 198 198 198 0
-3.509673 3.084258 27.804894 198 198 198 0
-3.407261 3.087830 27.837098 198 198 198 0
-3.302029 3.088995 27.847596 199 199 199 0
-3.201933 3.095202 27.903555 199 199 199 0
-3.097672 3.097672 27.925828 200 200 200 0
-2.990952 3.097772 27.926724 200 200 200 0
-2.881377 3.094812 27.900040 200 200 200 0
-2.783755 3.104958 27.991505 201 201 201 0
-2.689850 3.120226 28.129147 201 201 201 0
-2.579561 3.116970 28.099794 202 202 202 0
-2.464889 3.107903 28.018057 202 202 202 0
-2.356610 3.106441 28.004874 202 202 202 0
-2.263484 3.125763 28.179071 203 203 203 0
-2.155774 3.125873 28.180055 203 203 203 0
-2.044863 3.121106 28.137087 203 203 203 0
-1.932066 3.112774 28.061967 203 203 203 0
-1.823043 3.109896 28.036026 204 204 204 0
-1.728358 3.132649 28.241146 204 204 204 0
-1.627087 3.145701 28.358814 204 204 204 0
-1.517802 3.144019 28.343644 205 205 205 0
-1.405855 3.136138 28.272598 204 204 204 0
-1.303344 3.149749 28.395300 204 204 204 0
-1.201502 3.167596 28.556197 203 203 203 0
-1.094457 3.173925 28.613256 204 204 204 0
-0.983052 3.167612 28.556343 205 205 205 0
-0.874111 3.168654 28.565735 205 205 205 0
-0.773221 3.203346 28.878486 206 206 206 0
-0.664819 3.213294 28.968170 206 206 206 0
-0.552640 3.205309 28.896183 205 205 205 0
-0.442075 3.205044 28.893793 205 205 205 0
-0.350200 3.385266 30.518516 205 205 205 0
-0.224420 3.254087 29.335923 206 206 206 0
-0.111947 3.246467 29.267221 207 207 207 0
0.000000 3.245890 29.262026 207 207 207 0
0.112812 3.271553 29.493382 208 208 208 0
0.225962 3.276450 29.537524 206 206 206 0
0.336921 3.256901 29.361292 205 205 205 0
0.447441 3.243949 29.244522 205 205 205 0
0.558044 3.236654 29.178764 205 205 205 0
0.671365 3.244930 29.253370 204 204 204 0
0.783000 3.243858 29.243707 204 204 204 0
0.893948 3.240561 29.213984 204 204 204 0
1.003711 3.234179 29.156444 204 204 204 0
1.114829 3.233003 29.145851 204 204 204 0
1.227203 3.235352 29.167025 204 204 204 0
1.338691 3.235171 29.165392 204 204 204 0
1.449009 3.232406 29.140462 204 204 204 0
1.555330 3.221755 29.044445 204 204 204 0
1.663966 3.217001 29.001585 203 203 203 0
1.768552 3.205500 28.897905 204 204 204 0
1.803990 3.077395 27.743027 203 203 203 0
1.995349 3.214728 28.981098 204 204 204 0
2.099314 3.204217 28.886334 204 204 204 0
2.198334 3.187585 28.736398 204 204 204 0
2.305536 3.183836 28.702599 204 204 204 0
2.409374 3.175993 28.631892 204 204 204 0
2.518945 3.176061 28.632509 203 203 203 0
2.628990 3.176696 28.638230 204 204 204 0
2.732778 3.170022 28.578070 205 205 205 0
2.833003 3.159888 28.486705 205 205 205 0
2.938373 3.156030 28.451930 204 204 204 0
3.044291 3.153016 28.424754 204 204 204 0
3.153646 3.153646 28.430432 204 204 204 0
3.260585 3.151898 28.414681 205 205 205 0
3.359019 3.142308 28.328220 205 205 205 0
3.461595 3.137070 28.281001 204 204 204 0
3.569546 3.136873 28.279229 205 205 205 0
3.684868 3.142975 28.334239 205 205 205 0
3.792447 3.142313 28.328266 205 205 205 0
3.886151 3.130510 28.221865 205 205 205 0
3.978571 3.118339 28.112140 205 205 205 0
4.078368 3.112439 28.058950 205 205 205 0
4.195420 3.119671 28.124149 205 205 205 0
4.296921 3.115268 28.084454 205 205 205 0
4.391496 3.106180 28.002524 206 206 206 0
4.482253 3.094889 27.900732 205 205 205 0
4.573257 3.084289 27.805178 206 206 206 0
4.673895 3.080522 27.771212 206 206 206 0
4.790585 3.087266 27.832014 206 206 206 0
4.893997 3.085346 27.814705 206 206 206 0
4.983286 3.074793 27.719571 206 206 206 0
5.074372 3.065766 27.638189 206 206 206 0
5.181651 3.066691 27.646529 206 206 206 0
5.289358 3.067828 27.656774 206 206 206 0
5.390706 3.065303 27.634018 206 206 206 0
5.483620 3.058172 27.569731 207 207 207 0
5.576088 3.051067 27.505675 206 206 206 0
5.671915 3.046029 27.460253 206 206 206 0
5.785116 3.050334 27.499068 207 207 207 0
5.892296 3.051368 27.508387 207 207 207 0
5.986877 3.045955 27.459589 207 207 207 0
6.070311 3.035156 27.362233 207 207 207 0
6.158252 3.026937 27.288145 207 207 207 0
6.254798 3.023152 27.254023 206 206 206 0
6.169864 2.933214 26.443217 207 207 207 0
6.466305 3.024562 27.266732 208 208 208 0
6.550085 3.015119 27.181596 208 208 208 0
6.629777 3.004118 27.082421 207 207 207 0
6.720982 2.998592 27.032608 208 208 208 0
6.819806 2.996581 27.014482 207 207 207 0
6.921181 2.995735 27.006851 207 207 207 0
7.017080 2.992578 26.978392 208 208 208 0
7.102211 2.984987 26.909959 208 208 208 0
7.198311 2.982157 26.884448 207 207 207 0
7.291315 2.978143 26.848257 208 208 208 0
7.382194 2.973384 26.805353 208 208 208 0
7.476309 2.970040 26.775212 208 208 208 0
7.569219 2.966316 26.741633 208 208 208 0
7.657802 2.961017 26.693865 208 208 208 0
7.756349 2.959659 26.681626 208 208 208 0
7.847734 2.955640 26.645390 209 209 209 0
7.935596 2.950414 26.598277 208 208 208 0
8.038625 2.950888 26.602547 209 209 209 0
-7.727045 3.679545 32.065755 80 80 80 0
-7.219027 3.493078 30.440763 114 114 114 0
-6.976785 3.431206 29.901577 134 134 134 0
-6.864891 3.432446 29.912381 146 146 146 0
-6.741863 3.428066 29.874215 151 151 151 0
-6.536487 3.380941 29.463542 158 158 158 0
-6.344123 3.339012 29.098143 164 164 164 0
-6.142958 3.290870 28.678608 165 165 165 0
-6.018140 3.282622 28.606725 170 170 170 0
-5.907791 3.282106 28.602231 175 175 175 0
-5.825869 3.297662 28.737795 175 175 175 0
-5.699973 3.288446 28.657480 176 176 176 0
-5.546857 3.262857 28.434483 179 179 179 0
-5.389996 3.233997 28.182985 183 183 183 0
-5.318346 3.256130 28.375865 184 184 184 0
-5.242110 3.276319 28.551799 184 184 184 0
-5.135389 3.277908 28.565647 184 184 184 0
-4.986369 3.251980 28.339691 186 186 186 0
-4.843477 3.228985 28.139302 190 190 190 0
-4.713826 3.213973 28.008476 190 190 190 0
-4.628032 3.228859 28.138209 191 191 191 0
-4.556435 3.254596 28.362496 192 192 192 0
-4.426388 3.238820 28.225014 192 192 192 0
-4.276406 3.207305 27.950368 193 193 193 0
-4.151017 3.193090 27.826494 193 193 193 0
-4.047327 3.195258 27.845387 194 194 194 0
-3.954027 3.205968 27.938718 195 195 195 0
-3.847047 3.205873 27.937889 197 197 197 0
-3.733790 3.200391 27.890121 198 198 198 0
-3.626746 3.200070 27.887318 198 198 198 0
-3.522902 3.202639 27.909704 198 198 198 0
-3.419401 3.205689 27.936286 199 199 199 0
-3.310357 3.203571 27.917828 199 199 199 0
-3.208106 3.208106 27.957355 200 200 200 0
-3.100523 3.207437 27.951524 200 200 200 0
-2.997014 3.211086 27.983323 200 200 200 0
-2.890395 3.211549 27.987359 201 201 201 0
-2.788578 3.217590 28.040004 201 201 201 0
-2.696248 3.235498 28.196057 201 201 201 0
-2.585747 3.232184 28.167183 201 201 201 0
-2.468757 3.220118 28.062029 202 202 202 0
-2.360890 3.219396 28.055735 202 202 202 0
-2.270272 3.243245 28.263576 203 203 203 0
-2.161626 3.242439 28.256546 203 203 203 0
-2.047670 3.233164 28.175718 203 203 203 0
-1.934795 3.224659 28.101602 204 204 204 0
-1.826872 3.223891 28.094911 204 204 204 0
-1.732829 3.249055 28.314205 204 204 204 0
-1.631315 3.262630 28.432505 203 203 203 0
-1.521671 3.260724 28.415891 203 203 203 0
-1.410452 3.254889 28.365046 203 203 203 0
-1.307874 3.269686 28.493995 203 203 203 0
-1.206369 3.290097 28.671865 204 204 204 0
-1.096925 3.290774 28.677768 204 204 204 0
-0.985597 3.285323 28.630263 205 205 205 0
-0.877473 3.290522 28.675573 205 205 205 0
-0.775012 3.321479 28.945354 204 204 204 0
-0.665987 3.329937 29.019060 204 204 204 0
-0.553414 3.320487 28.936703 204 204 204 0
-0.443764 3.328231 29.004192 205 205 205 0
-0.338138 3.381378 29.467347 206 206 206 0
-0.224806 3.372093 29.386430 206 206 206 0
-0.112076 3.362287 29.300979 206 206 206 0
0.000000 3.357510 29.259346 206 206 206 0
0.112796 3.383889 29.489232 206 206 206 0
0.225589 3.383841 29.488806 205 205 205 0
0.336409 3.364087 29.316664 205 205 205 0
0.447442 3.355812 29.244549 204 204 204 0
0.557827 3.346960 29.167406 204 204 204 0
0.671282 3.356412 29.249778 204 204 204 0
0.783667 3.358575 29.268626 203 203 203 0
0.894080 3.352799 29.218292 204 204 204 0
1.003268 3.344226 29.143585 203 203 203 0
1.114497 3.343491 29.137176 203 203 203 0
1.226692 3.345525 29.154899 204 204 204 0
1.338961 3.347402 29.171258 204 204 204 0
1.448739 3.343243 29.135018 204 204 204 0
1.555939 3.334154 29.055809 204 204 204 0
1.663664 3.327327 28.996316 204 204 204 0
1.768021 3.315039 28.889232 203 203 203 0
1.830751 3.230738 28.154577 203 203 203 0
1.994595 3.324325 28.970149 204 204 204 0
2.098574 3.313537 28.876141 205 205 205 0
2.198693 3.298039 28.741082 204 204 204 0
2.304221 3.291744 28.686224 204 204 204 0
2.408917 3.284887 28.626467 205 205 205 0
2.518053 3.284417 28.622373 204 204 204 0
2.630215 3.287769 28.651581 204 204 204 0
2.733159 3.279790 28.582051 204 204 204 0
2.830824 3.266335 28.464792 204 204 204 0
2.939683 3.266315 28.464617 203 203 203 0
3.045204 3.262719 28.433277 204 204 204 0
3.150941 3.259594 28.406048 204 204 204 0
3.256331 3.256331 28.377611 205 205 205 0
3.358440 3.250104 28.323343 204 204 204 0
3.462517 3.246110 28.288539 205 205 205 0
3.569354 3.244868 28.277713 205 205 205 0
3.682319 3.249105 28.314637 205 205 205 0
3.791988 3.250275 28.324837 205 205 205 0
3.885717 3.238098 28.218718 204 204 204 0
3.975890 3.223695 28.093202 205 205 205 0
4.076980 3.218669 28.049400 205 205 205 0
4.193127 3.225482 28.108777 205 205 205 0
4.295372 3.221529 28.074327 205 205 205 0
4.391849 3.213548 28.004779 206 206 206 0
4.480473 3.200338 27.889654 206 206 206 0
4.571310 3.189286 27.793341 206 206 206 0
4.672638 3.185889 27.763743 206 206 206 0
4.790245 3.193497 27.830038 206 206 206 0
4.895522 3.192732 27.823370 206 206 206 0
4.982217 3.180139 27.713626 206 206 206 0
5.073034 3.170646 27.630902 206 206 206 0
5.181862 3.172569 27.647657 206 206 206 0
5.286914 3.172148 27.643996 206 206 206 0
5.385899 3.168176 27.609376 206 206 206 0
5.481342 3.162313 27.558283 206 206 206 0
5.570132 3.152905 27.476295 207 207 207 0
5.673311 3.151840 27.467011 206 206 206 0
5.785820 3.155902 27.502412 207 207 207 0
5.889599 3.155142 27.495795 206 206 206 0
5.983733 3.149333 27.445168 206 206 206 0
6.068965 3.139120 27.356165 207 207 207 0
6.159718 3.132060 27.294642 207 207 207 0
6.253193 3.126597 27.247030 207 207 207 0
6.331189 3.113700 27.134637 207 207 207 0
6.462093 3.126819 27.248967 207 207 207 0
6.550803 3.119430 27.184576 208 208 208 0
6.627858 3.106809 27.074584 208 208 208 0
6.722753 3.102809 27.039732 207 207 207 0
6.817108 3.098686 27.003796 208 208 208 0
6.924053 3.100322 27.018058 208 208 208 0
7.016270 3.095413 26.975279 207 207 207 0
7.101717 3.087703 26.908089 208 208 208 0
7.197657 3.084710 26.882007 207 207 207 0
7.290252 3.080388 26.844343 208 208 208 0
7.385135 3.077140 26.816032 208 208 208 0
7.475546 3.072142 26.772482 208 208 208 0
7.572008 3.069733 26.751486 209 209 209 0
7.659714 3.063886 26.700528 209 209 209 0
7.754047 3.060808 26.673707 209 209 209 0
7.849110 3.058095 26.650064 208 208 208 0
7.932250 3.050865 26.587061 209 209 209 0
8.036065 3.051670 26.594077 208 208 208 0
-7.385553 3.692777 31.142961 94 94 94 0
-7.104605 3.610537 30.449395 125 125 125 0
-6.959803 3.595898 30.325939 137 137 137 0
-6.775872 3.560204 30.024910 149 149 149 0
-6.562953 3.507785 29.582841 152 152 152 0
-6.353438 3.455379 29.140871 161 161 161 0
-6.179322 3.420696 28.848375 165 165 165 0
-6.048917 3.409390 28.753023 167 167 167 0
-5.946169 3.413541 28.788036 171 171 171 0
-5.852440 3.423125 28.868862 175 175 175 0
-5.723196 3.411906 28.774240 176 176 176 0
-5.556465 3.377459 28.483735 177 177 177 0
-5.416437 3.358191 28.321237 179 179 179 0
-5.349760 3.384542 28.543473 183 183 183 0
-5.267828 3.402139 28.691873 185 185 185 0
-5.155918 3.400712 28.679838 186 186 186 0
-5.000247 3.369732 28.418570 186 186 186 0
-4.855262 3.344736 28.207769 187 187 187 0
-4.729780 3.332345 28.103267 189 189 189 0
-4.644563 3.348406 28.238715 191 191 191 0
-4.571103 3.373910 28.453802 192 192 192 0
-4.430124 3.349606 28.248838 192 192 192 0
-4.285873 3.321552 28.012244 192 192 192 0
-4.166091 3.311508 27.927543 193 193 193 0
-4.064235 3.315560 27.961716 194 194 194 0
-3.965716 3.322627 28.021308 194 194 194 0
-3.861266 3.324979 28.041145 195 195 195 0
-3.743291 3.315487 27.961093 196 196 196 0
-3.636141 3.315305 27.959560 198 198 198 0
-3.533879 3.319705 27.996668 198 198 198 0
-3.430271 3.323075 28.025087 199 199 199 0
-3.319802 3.319802 27.997484 199 199 199 0
-3.218022 3.325289 28.043764 199 199 199 0
-3.109393 3.323834 28.031493 200 200 200 0
-3.005845 3.327900 28.065784 200 200 200 0
-2.898624 3.328050 28.067046 201 201 201 0
-2.801382 3.340109 28.168745 200 200 200 0
-2.704735 3.353871 28.284807 201 201 201 0
-2.590285 3.345785 28.216613 202 202 202 0
-2.474351 3.334995 28.125617 202 202 202 0
-2.366022 3.333940 28.116719 202 202 202 0
-2.277947 3.362683 28.359122 202 202 202 0
-2.166853 3.358623 28.324882 203 203 203 0
-2.050555 3.345642 28.215409 202 202 202 0
-1.938917 3.339246 28.161467 203 203 203 0
-1.832963 3.342462 28.188592 203 203 203 0
-1.739099 3.369505 28.416653 203 203 203 0
-1.633832 3.376587 28.476382 203 203 203 0
-1.525086 3.376976 28.479662 203 203 203 0
-1.414232 3.372400 28.441074 203 203 203 0
-1.313717 3.393768 28.621277 204 204 204 0
-1.209402 3.408313 28.743946 204 204 204 0
-1.098774 3.406200 28.726125 204 204 204 0
-0.986830 3.399082 28.666096 204 204 204 0
-0.880318 3.411231 28.768554 204 204 204 0
-0.777848 3.444754 29.051265 204 204 204 0
-0.667954 3.451093 29.104728 203 203 203 0
-0.555069 3.441430 29.023234 204 204 204 0
-0.445568 3.453151 29.122080 205 205 205 0
-0.338278 3.495540 29.479566 206 206 206 0
-0.225227 3.491015 29.441408 205 205 205 0
-0.112126 3.475907 29.313997 206 206 206 0
0.000000 3.471823 29.279551 207 207 207 0
0.112508 3.487733 29.413727 206 206 206 0
0.225247 3.491328 29.444051 205 205 205 0
0.336216 3.474227 29.299827 205 205 205 0
0.447184 3.465672 29.227681 204 204 204 0
0.557494 3.456461 29.149999 204 204 204 0
0.670849 3.466054 29.230898 204 204 204 0
0.782619 3.465885 29.229477 204 204 204 0
0.894067 3.464508 29.217864 203 203 203 0
1.004168 3.458800 29.169722 204 204 204 0
1.114544 3.455088 29.138416 204 204 204 0
1.227009 3.457933 29.162413 203 203 203 0
1.338209 3.457040 29.154885 204 204 204 0
1.448110 3.453185 29.122369 203 203 203 0
1.555104 3.443445 29.040230 204 204 204 0
1.663815 3.438551 28.998950 203 203 203 0
1.768758 3.426968 28.901268 204 204 204 0
1.858242 3.388559 28.577347 204 204 204 0
1.993363 3.433014 28.952259 204 204 204 0
2.098576 3.423993 28.876181 204 204 204 0
2.199710 3.409551 28.754380 204 204 204 0
2.304643 3.402091 28.691473 203 203 203 0
2.408593 3.393926 28.622611 204 204 204 0
2.518501 3.394501 28.627460 204 204 204 0
2.628251 3.394824 28.630184 203 203 203 0
2.731313 3.386828 28.562749 204 204 204 0
2.832805 3.377575 28.484714 204 204 204 0
2.936012 3.370977 28.429067 205 205 205 0
3.041894 3.367811 28.402367 204 204 204 0
3.149096 3.366275 28.389414 204 204 204 0
3.258604 3.367224 28.397423 205 205 205 0
3.357154 3.357154 28.312496 205 205 205 0
3.461517 3.353344 28.280365 205 205 205 0
3.568904 3.352606 28.274142 205 205 205 0
3.682343 3.357431 28.314826 205 205 205 0
3.788953 3.355930 28.302174 205 205 205 0
3.885456 3.345810 28.216821 205 205 205 0
3.976124 3.331347 28.094853 206 206 206 0
4.074817 3.324193 28.034515 205 205 205 0
4.195921 3.335219 28.127506 205 205 205 0
4.295547 3.329049 28.075471 205 205 205 0
4.391589 3.320470 28.003119 206 206 206 0
4.481216 3.307564 27.894278 205 205 205 0
4.572242 3.296268 27.799011 206 206 206 0
4.673826 3.292923 27.770799 206 206 206 0
4.790395 3.300050 27.830911 206 206 206 0
4.894372 3.298381 27.816834 206 206 206 0
4.981090 3.285400 27.707357 206 206 206 0
5.074645 3.277375 27.639676 206 206 206 0
5.179715 3.276963 27.636202 207 207 207 0
5.286753 3.277787 27.643152 207 207 207 0
5.386437 3.274109 27.612133 206 206 206 0
5.479933 3.266883 27.551195 207 207 207 0
5.568520 3.257059 27.468343 207 207 207 0
5.669989 3.254994 27.450928 206 206 206 0
5.783411 3.259741 27.490959 207 207 207 0
5.888235 3.259559 27.489427 206 206 206 0
5.983828 3.254362 27.445604 207 207 207 0
6.070004 3.244312 27.360846 206 206 206 0
6.158054 3.235588 27.287267 207 207 207 0
6.252860 3.230645 27.245579 207 207 207 0
6.359474 3.231864 27.255864 207 207 207 0
6.463318 3.231659 27.254136 207 207 207 0
6.546709 3.221397 27.167587 208 208 208 0
6.626346 3.209636 27.068407 208 208 208 0
6.717668 3.203811 27.019279 207 207 207 0
6.818710 3.202727 27.010141 207 207 207 0
6.921994 3.202714 27.010026 208 208 208 0
7.014270 3.197682 26.967590 208 208 208 0
7.102418 3.190941 26.910743 208 208 208 0
7.196281 3.186925 26.876868 208 208 208 0
7.289606 3.182786 26.841962 208 208 208 0
7.382143 3.178423 26.805168 207 207 207 0
7.475336 3.174458 26.771730 208 208 208 0
7.571168 3.171706 26.748520 208 208 208 0
7.658677 3.165586 26.696912 208 208 208 0
7.755758 3.163533 26.679594 209 209 209 0
7.844625 3.158226 26.634835 208 208 208 0
7.930031 3.151679 26.579625 209 209 209 0
8.035947 3.153346 26.593687 208 208 208 0
-7.385553 3.811898 31.142961 75 75 75 0
-7.313526 3.836604 31.344802 103 103 103 0
-7.050499 3.760266 30.721127 128 128 128 0
-6.825022 3.701707 30.242705 140 140 140 0
-6.611607 3.647783 29.802149 151 151 151 0
-6.385377 3.584773 29.287362 155 155 155 0
-6.210297 3.548741 28.992986 163 163 163 0
-6.099298 3.548682 28.992503 165 165 165 0
-6.014790 3.564320 29.120260 167 167 167 0
-5.889254 3.555776 29.050455 172 172 172 0
-5.745589 3.535747 28.886824 176 176 176 0
-5.574559 3.497763 28.576492 178 178 178 0
-5.441667 3.482667 28.453158 178 178 178 0
-5.362399 3.501975 28.610906 179 179 179 0
-5.285423 3.523616 28.787709 184 184 184 0
-5.169069 3.519366 28.752993 186 186 186 0
-5.007041 3.483159 28.457181 185 185 185 0
-4.865235 3.459722 28.265706 185 185 185 0
-4.741245 3.448178 28.171391 187 187 187 0
-4.656156 3.465046 28.309201 188 188 188 0
-4.587270 3.495063 28.554433 190 190 190 0
-4.451021 3.473968 28.382090 191 191 191 0
-4.292450 3.433960 28.055230 193 193 193 0
-4.177663 3.427826 28.005114 193 193 193 0
-4.071734 3.428828 28.013303 194 194 194 0
-3.982111 3.443988 28.137153 194 194 194 0
-3.871493 3.441327 28.115419 194 194 194 0
-3.750059 3.428626 28.011647 194 194 194 0
-3.648106 3.433512 28.051565 196 196 196 0
-3.543264 3.435893 28.071018 196 196 196 0
-3.440903 3.440903 28.111952 196 196 196 0
-3.331040 3.438493 28.092262 198 198 198 0
-3.229768 3.445086 28.146123 198 198 198 0
-3.123076 3.446152 28.154839 199 199 199 0
-3.010704 3.440804 28.111145 200 200 200 0
-2.905411 3.443450 28.132763 199 199 199 0
-2.807288 3.455124 28.228134 201 201 201 0
-2.709789 3.468530 28.337665 201 201 201 0
-2.595233 3.460311 28.270512 200 200 200 0
-2.478574 3.448451 28.173618 201 201 201 0
-2.372413 3.450783 28.192672 201 201 201 0
-2.286275 3.483848 28.462812 201 201 201 0
-2.172213 3.475540 28.394936 200 200 200 0
-2.055489 3.461875 28.283296 201 201 201 0
-1.943758 3.455570 28.231783 201 201 201 0
-1.841198 3.465785 28.315240 202 202 202 0
-1.746909 3.493817 28.544260 202 202 202 0
-1.637135 3.492554 28.533935 203 203 203 0
-1.526771 3.489762 28.511125 203 203 203 0
-1.418291 3.491177 28.522689 203 203 203 0
-1.316167 3.509778 28.674654 203 203 203 0
-1.213118 3.529070 28.832274 204 204 204 0
-1.100632 3.522022 28.774691 204 204 204 0
-0.989555 3.518416 28.745229 203 203 203 0
-0.884344 3.537376 28.900131 202 202 202 0
-0.780624 3.568565 29.154946 203 203 203 0
-0.669325 3.569734 29.164497 204 204 204 0
-0.555988 3.558324 29.071275 203 203 203 0
-0.447395 3.579157 29.241480 204 204 204 0
-0.339228 3.618434 29.562372 205 205 205 0
-0.225808 3.612933 29.517424 205 205 205 0
-0.112241 3.591703 29.343980 205 205 205 0
0.000000 3.585781 29.295597 207 207 207 0
0.112425 3.597599 29.392147 205 205 205 0
0.225061 3.600975 29.419728 204 204 204 0
0.336724 3.591728 29.344181 204 204 204 0
0.447228 3.577825 29.230592 204 204 204 0
0.557322 3.566862 29.141032 203 203 203 0
0.670640 3.576744 29.221767 204 204 204 0
0.782788 3.578458 29.235771 203 203 203 0
0.893741 3.574965 29.207227 203 203 203 0
