ply
    format ascii 1.0
    element vertex 17852
    property float x
    property float y
    property float z
    property uchar red
    property uchar green
    property uchar blue
    property uchar alpha
    end_header
-2.480364 -1.417351 23.159329 190 190 190 0
-2.395809 -1.419738 23.198341 190 190 190 0
-2.301792 -1.416488 23.145222 190 190 190 0
-2.198474 -1.407024 22.990580 190 190 190 0
-2.105694 -1.403796 22.937847 193 193 193 0
-2.014973 -1.401720 22.903927 196 196 196 0
-1.922952 -1.398511 22.851479 197 197 197 0
-1.830539 -1.394696 22.789156 196 196 196 0
-1.739423 -1.391538 22.737552 197 197 197 0
-1.650743 -1.390100 22.714045 197 197 197 0
-1.561686 -1.388165 22.682441 197 197 197 0
-1.470361 -1.383869 22.612238 198 198 198 0
-1.382529 -1.382529 22.590349 201 201 201 0
-1.293222 -1.379437 22.539818 201 201 201 0
-1.207828 -1.380375 22.555148 202 202 202 0
-1.123763 -1.383093 22.599554 202 202 202 0
-1.034760 -1.379680 22.543790 202 202 202 0
-0.944925 -1.374436 22.458101 202 202 202 0
-0.854056 -1.366490 22.328265 203 203 203 0
-0.766854 -1.363297 22.276090 204 204 204 0
-0.681235 -1.362470 22.262575 205 205 205 0
-0.599356 -1.369958 22.384928 205 205 205 0
-0.511606 -1.364283 22.292212 206 206 206 0
-0.425149 -1.360477 22.230017 207 207 207 0
-0.339024 -1.356097 22.158441 206 206 206 0
-0.253176 -1.350274 22.063297 207 207 207 0
-0.168517 -1.348133 22.028309 207 207 207 0
-0.084561 -1.352971 22.107367 207 207 207 0
0.000000 -1.354714 22.135857 207 207 207 0
0.084489 -1.351825 22.088642 207 207 207 0
0.168396 -1.347172 22.012613 209 209 209 0
0.251815 -1.343013 21.944664 209 209 209 0
0.335697 -1.342789 21.941002 209 209 209 0
0.419949 -1.343838 21.958131 209 209 209 0
0.504287 -1.344766 21.973303 210 210 210 0
0.588236 -1.344540 21.969602 210 210 210 0
0.671285 -1.342571 21.937428 210 210 210 0
0.754448 -1.341241 21.915698 211 211 211 0
0.837972 -1.340756 21.907777 210 210 210 0
0.926130 -1.347098 22.011409 212 212 212 0
1.012699 -1.350265 22.063156 211 211 211 0
1.094239 -1.346755 22.005808 212 212 212 0
1.174005 -1.341720 21.923533 202 202 202 0
1.224975 -1.306640 21.350333 129 129 129 0
1.318624 -1.318624 21.546144 207 207 207 0
1.411687 -1.328646 21.709904 215 215 215 0
1.567668 -1.393483 22.769324 215 215 215 0
1.580265 -1.330750 21.744276 216 216 216 0
1.660823 -1.328659 21.710107 215 215 215 0
1.741324 -1.326723 21.678482 215 215 215 0
1.826445 -1.328324 21.704640 215 215 215 0
1.918272 -1.334450 21.804742 216 216 216 0
2.007292 -1.338195 21.865930 215 215 215 0
2.089260 -1.337127 21.848473 215 215 215 0
2.176115 -1.339148 21.881501 216 216 216 0
2.264628 -1.342002 21.928136 215 215 215 0
2.353911 -1.345092 21.978623 215 215 215 0
2.438073 -1.345144 21.979471 214 214 214 0
2.524961 -1.346646 22.004016 214 214 214 0
2.610721 -1.347469 22.017463 214 214 214 0
2.703947 -1.351974 22.091071 214 214 214 0
2.795509 -1.355398 22.147034 215 215 215 0
2.884849 -1.357576 22.182617 215 215 215 0
2.974550 -1.359794 22.218863 214 214 214 0
3.059454 -1.359757 22.218257 214 214 214 0
3.144996 -1.359998 22.222193 214 214 214 0
3.233997 -1.361683 22.249722 215 215 215 0
3.329069 -1.365772 22.316534 215 215 215 0
3.412950 -1.365180 22.306861 215 215 215 0
3.497334 -1.364813 22.300871 215 215 215 0
3.583975 -1.365324 22.309215 215 215 215 0
3.675634 -1.367678 22.347678 215 215 215 0
3.772991 -1.371997 22.418244 215 215 215 0
3.869510 -1.375826 22.480813 215 215 215 0
3.960679 -1.377628 22.510256 214 214 214 0
4.049544 -1.378568 22.525625 215 215 215 0
4.145163 -1.381721 22.577141 215 215 215 0
4.238478 -1.383993 22.614261 214 214 214 0
4.337942 -1.388142 22.682052 214 214 214 0
4.430168 -1.389857 22.710077 215 215 215 0
4.526963 -1.392912 22.759993 215 215 215 0
4.643799 -1.401902 22.906889 214 214 214 0
4.749341 -1.407212 22.993661 215 215 215 0
4.840116 -1.408034 23.007087 215 215 215 0
4.927974 -1.407993 23.006415 214 214 214 0
5.028506 -1.411510 23.063895 213 213 213 0
5.143636 -1.418934 23.185198 214 214 214 0
5.227880 -1.417730 23.165527 216 216 216 0
5.311564 -1.416417 23.144069 215 215 215 0
5.408153 -1.418532 23.178627 215 215 215 0
5.524450 -1.425664 23.295171 215 215 215 0
5.633494 -1.430729 23.377917 215 215 215 0
5.720574 -1.430144 23.368360 215 215 215 0
5.815319 -1.431463 23.389919 215 215 215 0
5.924671 -1.436284 23.468692 215 215 215 0
6.022369 -1.438178 23.499635 215 215 215 0
6.119311 -1.439838 23.526763 214 214 214 0
6.212544 -1.440590 23.539052 214 214 214 0
6.319737 -1.444511 23.603126 215 215 215 0
6.444586 -1.452301 23.730408 215 215 215 0
6.547626 -1.455028 23.774966 214 214 214 0
6.636311 -1.454534 23.766894 215 215 215 0
6.729009 -1.454921 23.773216 214 214 214 0
6.838717 -1.458926 23.838665 215 215 215 0
6.947391 -1.462609 23.898833 215 215 215 0
7.030831 -1.460952 23.871764 215 215 215 0
7.123884 -1.461309 23.877606 215 215 215 0
7.228783 -1.464057 23.922506 215 215 215 0
-7.319390 -1.829848 31.892767 94 94 94 0
-6.996321 -1.778726 31.001753 124 124 124 0
-6.754727 -1.746912 30.447270 136 136 136 0
-6.549683 -1.723601 30.040973 148 148 148 0
-6.415541 -1.718449 29.951173 150 150 150 0
-6.289893 -1.715425 29.898481 161 161 161 0
-6.165883 -1.712745 29.851771 163 163 163 0
-5.993354 -1.696232 29.563962 164 164 164 0
-5.801632 -1.673548 29.168587 172 172 172 0
-5.591006 -1.644414 28.660804 173 173 173 0
-5.395522 -1.618656 28.211878 160 160 160 0
-5.094265 -1.559469 27.180284 77 77 77 0
-4.909691 -1.534278 26.741237 75 75 75 0
-4.767551 -1.521559 26.519544 101 101 101 0
-4.600835 -1.500272 26.148537 121 121 121 0
-4.486538 -1.495513 26.065582 135 135 135 0
-4.320307 -1.472832 25.670271 139 139 139 0
-4.174790 -1.456322 25.382519 154 154 154 0
-4.051626 -1.447009 25.220205 157 157 157 0
-3.914169 -1.432013 24.958830 157 157 157 0
-3.776525 -1.416197 24.683171 165 165 165 0
-3.643359 -1.401292 24.423386 170 170 170 0
-3.508344 -1.384873 24.137217 171 171 171 0
-3.388326 -1.373646 23.941535 171 171 171 0
-3.299066 -1.374611 23.958360 174 174 174 0
-3.222693 -1.381154 24.072405 181 181 181 0
-3.127424 -1.379746 24.047860 181 181 181 0
-3.008206 -1.367367 23.832097 182 182 182 0
-2.884103 -1.351923 23.562930 182 182 182 0
-2.768613 -1.339652 23.349047 183 183 183 0
-2.659741 -1.329871 23.178571 189 189 189 0
-2.565046 -1.326748 23.124148 189 189 189 0
-2.475275 -1.326040 23.111814 190 190 190 0
-2.390825 -1.328236 23.150084 190 190 190 0
-2.298330 -1.325960 23.110409 190 190 190 0
-2.195462 -1.317277 22.959076 191 191 191 0
-2.102740 -1.314212 22.905664 194 194 194 0
-2.011079 -1.311573 22.859668 196 196 196 0
-1.921174 -1.309891 22.830347 196 196 196 0
-1.827978 -1.305699 22.757276 196 196 196 0
-1.737241 -1.302931 22.709038 197 197 197 0
-1.647163 -1.300391 22.664775 196 196 196 0
-1.558897 -1.299081 22.641932 197 197 197 0
-1.468754 -1.295959 22.587521 200 200 200 0
-1.381763 -1.295403 22.577834 202 202 202 0
-1.292120 -1.292120 22.520606 201 201 201 0
-1.206236 -1.292396 22.525423 202 202 202 0
-1.122272 -1.294930 22.569581 202 202 202 0
-1.034297 -1.292871 22.533700 202 202 202 0
-0.943107 -1.286054 22.414891 202 202 202 0
-0.853834 -1.280751 22.322462 203 203 203 0
-0.766281 -1.277136 22.259446 204 204 204 0
-0.680767 -1.276439 22.247299 205 205 205 0
-0.598213 -1.281885 22.342224 206 206 206 0
-0.511286 -1.278214 22.278244 206 206 206 0
-0.424798 -1.274393 22.211640 206 206 206 0
-0.338606 -1.269773 22.131113 206 206 206 0
-0.253002 -1.265009 22.048084 207 207 207 0
-0.168366 -1.262743 22.008600 207 207 207 0
-0.084488 -1.267313 22.088247 207 207 207 0
0.000000 -1.268502 22.108968 207 207 207 0
0.084349 -1.265237 22.052063 209 209 209 0
0.168140 -1.261053 21.979144 209 209 209 0
0.251540 -1.257700 21.920698 210 210 210 0
0.335455 -1.257955 21.925135 210 210 210 0
0.419626 -1.258877 21.941218 210 210 210 0
0.503608 -1.259020 21.943705 210 210 210 0
0.587534 -1.259002 21.943387 210 210 210 0
0.670561 -1.257302 21.913764 210 210 210 0
0.753205 -1.255342 21.879593 211 211 211 0
0.836800 -1.255200 21.877119 211 211 211 0
0.923961 -1.259946 21.959849 211 211 211 0
1.011593 -1.264491 22.039059 211 211 211 0
1.094706 -1.263122 22.015207 212 212 212 0
1.175166 -1.259107 21.945216 205 205 205 0
1.225073 -1.225073 21.352032 140 140 140 0
1.319125 -1.236680 21.554331 207 207 207 0
1.412265 -1.246117 21.718807 215 215 215 0
1.557193 -1.297661 22.617182 215 215 215 0
1.580308 -1.247612 21.744863 215 215 215 0
1.660999 -1.245749 21.712400 215 215 215 0
1.741795 -1.244140 21.684349 216 216 216 0
1.826445 -1.245304 21.704637 216 216 216 0
1.918398 -1.251129 21.806167 215 215 215 0
2.007263 -1.254539 21.865609 216 216 216 0
2.088883 -1.253330 21.844525 215 215 215 0
2.178287 -1.256704 21.903336 215 215 215 0
2.264482 -1.258045 21.926718 216 216 216 0
2.353220 -1.260653 21.972173 215 215 215 0
2.439821 -1.261976 21.995228 215 215 215 0
2.523121 -1.261561 21.987985 214 214 214 0
2.609112 -1.262474 22.003900 215 215 215 0
2.700469 -1.265845 22.062653 215 215 215 0
2.792618 -1.269372 22.124125 214 214 214 0
2.883273 -1.272032 22.170496 215 215 215 0
2.972072 -1.273745 22.200354 214 214 214 0
3.056245 -1.273435 22.194954 215 215 215 0
3.142477 -1.273977 22.204395 215 215 215 0
3.232151 -1.275849 22.237020 215 215 215 0
3.326816 -1.279545 22.301432 215 215 215 0
3.409535 -1.278576 22.284542 215 215 215 0
3.492963 -1.277913 22.273000 215 215 215 0
3.580256 -1.278663 22.286066 215 215 215 0
3.672187 -1.280995 22.326716 214 214 214 0
3.768048 -1.284562 22.388875 215 215 215 0
3.866037 -1.288679 22.460636 214 214 214 0
3.958675 -1.290872 22.498862 214 214 214 0
4.050513 -1.292717 22.531015 215 215 215 0
4.140449 -1.293890 22.551466 215 215 215 0
4.232240 -1.295584 22.580980 214 214 214 0
4.333341 -1.300002 22.657992 214 214 214 0
4.423230 -1.300950 22.674510 214 214 214 0
4.522906 -1.304684 22.739597 215 215 215 0
4.633664 -1.311414 22.856896 215 215 215 0
4.740919 -1.316922 22.952888 215 215 215 0
4.836317 -1.318996 22.989030 214 214 214 0
4.924297 -1.319008 22.989247 214 214 214 0
5.025317 -1.322452 23.049268 214 214 214 0
5.144621 -1.330505 23.189638 214 214 214 0
5.226729 -1.328829 23.160425 214 214 214 0
5.311573 -1.327893 23.144109 215 215 215 0
5.407746 -1.329774 23.176881 215 215 215 0
5.522136 -1.336001 23.285415 216 216 216 0
5.629447 -1.340345 23.361126 216 216 216 0
5.722118 -1.341121 23.374666 215 215 215 0
5.816572 -1.342286 23.394961 215 215 215 0
5.922094 -1.345930 23.458482 215 215 215 0
6.020500 -1.347873 23.492342 216 216 216 0
6.118715 -1.349716 23.524470 215 215 215 0
6.213910 -1.350850 23.544225 215 215 215 0
6.320726 -1.354441 23.606818 215 215 215 0
6.444788 -1.361575 23.731154 215 215 215 0
6.547590 -1.364081 23.774835 215 215 215 0
6.634023 -1.363155 23.758700 216 216 216 0
6.731185 -1.364429 23.780903 215 215 215 0
6.840537 -1.368107 23.845009 215 215 215 0
6.946195 -1.370959 23.894719 214 214 214 0
7.030696 -1.369616 23.871306 215 215 215 0
7.124522 -1.370100 23.879746 215 215 215 0
7.229827 -1.372752 23.925958 214 214 214 0
-8.092361 -1.857263 34.682788 75 75 75 0
-7.231533 -1.687358 31.509946 103 103 103 0
-6.935841 -1.645793 30.733760 126 126 126 0
-6.714664 -1.620781 30.266684 140 140 140 0
-6.516519 -1.600549 29.888862 148 148 148 0
-6.362927 -1.590732 29.705540 153 153 153 0
-6.246801 -1.590095 29.693646 162 162 162 0
-6.114555 -1.585255 29.603270 163 163 163 0
-5.956983 -1.573543 29.384548 167 167 167 0
-5.756776 -1.549901 28.943068 173 173 173 0
-5.565919 -1.527899 28.532200 173 173 173 0
-5.349308 -1.497806 27.970239 147 147 147 0
-4.907809 -1.431444 26.730987 83 83 83 0
-4.719016 -1.405664 26.249569 104 104 104 0
-4.563459 -1.388879 25.936112 127 127 127 0
-4.444810 -1.382830 25.823154 136 136 136 0
-4.298757 -1.367786 25.542227 141 141 141 0
-4.161189 -1.354806 25.299826 156 156 156 0
-4.037919 -1.345973 25.134883 156 156 156 0
-3.903489 -1.332899 24.890732 158 158 158 0
-3.772847 -1.320497 24.659132 167 167 167 0
-3.640738 -1.306931 24.405817 171 171 171 0
-3.501197 -1.289915 24.088042 171 171 171 0
-3.388558 -1.282157 23.943179 171 171 171 0
-3.300173 -1.283401 23.966398 176 176 176 0
-3.242048 -1.296819 24.216977 181 181 181 0
-3.121202 -1.285201 24.000016 181 181 181 0
-3.007160 -1.275765 23.823806 182 182 182 0
-2.882481 -1.261085 23.549680 182 182 182 0
-2.765329 -1.248858 23.321348 184 184 184 0
-2.657158 -1.240007 23.156060 189 189 189 0
-2.561014 -1.236351 23.087795 190 190 190 0
-2.469475 -1.234738 23.057659 189 189 189 0
-2.386687 -1.237542 23.110022 190 190 190 0
-2.295832 -1.236217 23.085284 191 191 191 0
-2.194241 -1.228775 22.946314 191 191 191 0
-2.098542 -1.224150 22.859936 196 196 196 0
-2.007816 -1.222149 22.822572 196 196 196 0
-1.918136 -1.220632 22.794254 196 196 196 0
-1.827153 -1.218102 22.747007 196 196 196 0
-1.734460 -1.214122 22.672677 197 197 197 0
-1.645869 -1.212745 22.646974 196 196 196 0
-1.558218 -1.211947 22.632068 197 197 197 0
-1.466516 -1.207719 22.553118 200 200 200 0
-1.379511 -1.207073 22.541037 201 201 201 0
-1.291114 -1.205039 22.503070 202 202 202 0
-1.205009 -1.205009 22.502506 202 202 202 0
-1.120923 -1.207148 22.542443 202 202 202 0
-1.033239 -1.205445 22.510645 202 202 202 0
-0.942934 -1.200098 22.410802 203 203 203 0
-0.852421 -1.193389 22.285516 202 202 202 0
-0.765432 -1.190672 22.234765 205 205 205 0
-0.680882 -1.191543 22.251038 206 206 206 0
-0.597392 -1.194783 22.311543 206 206 206 0
-0.510748 -1.191746 22.254823 206 206 206 0
-0.424526 -1.188674 22.197454 206 206 206 0
-0.338364 -1.184275 22.115319 207 207 207 0
-0.252829 -1.179870 22.033044 206 206 206 0
-0.168223 -1.177559 21.989906 206 206 206 0
-0.084380 -1.181322 22.060163 207 207 207 0
0.000000 -1.182532 22.082761 208 208 208 0
0.084285 -1.179996 22.035409 209 209 209 0
0.168155 -1.177088 21.981103 209 209 209 0
0.251224 -1.172379 21.893158 209 209 209 0
0.335355 -1.173742 21.918627 210 210 210 0
0.418738 -1.172467 21.894800 210 210 210 0
0.503052 -1.173788 21.919468 210 210 210 0
0.587317 -1.174635 21.935292 211 211 211 0
0.669999 -1.172498 21.895389 210 210 210 0
0.752135 -1.169987 21.848504 210 210 210 0
0.835423 -1.169592 21.841119 211 211 211 0
0.923121 -1.174881 21.939891 211 211 211 0
1.010995 -1.179494 22.026041 212 212 212 0
1.094141 -1.178306 22.003850 213 213 213 0
1.175570 -1.175570 21.952747 206 206 206 0
1.222070 -1.140599 21.299700 140 140 140 0
1.317665 -1.152957 21.530471 207 207 207 0
1.409925 -1.161115 21.682815 215 215 215 0
1.575304 -1.225237 22.880237 215 215 215 0
1.580614 -1.164663 21.749071 215 215 215 0
1.660798 -1.162558 21.709772 215 215 215 0
1.741321 -1.160880 21.678441 216 216 216 0
1.826529 -1.162336 21.705630 215 215 215 0
1.917881 -1.167406 21.800300 216 216 216 0
2.007383 -1.170974 21.866922 215 215 215 0
2.088823 -1.169741 21.843901 216 216 216 0
2.176956 -1.172207 21.889956 215 215 215 0
2.266047 -1.174987 21.941872 215 215 215 0
2.351721 -1.175860 21.958176 215 215 215 0
2.437218 -1.176588 21.971764 215 215 215 0
2.522720 -1.177270 21.984492 214 214 214 0
2.606744 -1.177239 21.983925 215 215 215 0
2.696383 -1.179668 22.029274 215 215 215 0
2.788729 -1.183097 22.093319 214 214 214 0
2.880870 -1.186241 22.152018 214 214 214 0
2.971051 -1.188420 22.192724 215 215 215 0
3.054331 -1.187795 22.181051 214 214 214 0
3.141061 -1.188510 22.194392 215 215 215 0
3.228391 -1.189407 22.211151 215 215 215 0
3.321587 -1.192365 22.266382 215 215 215 0
3.405701 -1.191995 22.259484 215 215 215 0
3.490217 -1.191781 22.255487 215 215 215 0
3.576057 -1.192019 22.259924 215 215 215 0
3.667145 -1.193954 22.296062 214 214 214 0
3.764188 -1.197696 22.365940 215 215 215 0
3.861627 -1.201395 22.435016 214 214 214 0
3.954909 -1.203668 22.477457 215 215 215 0
4.044506 -1.204747 22.497601 214 214 214 0
4.135276 -1.206122 22.523290 215 215 215 0
4.225754 -1.207358 22.546373 215 215 215 0
4.326358 -1.211380 22.621481 215 215 215 0
4.418076 -1.212805 22.648087 214 214 214 0
4.518515 -1.216523 22.717523 214 214 214 0
4.625623 -1.221863 22.817231 215 215 215 0
4.736752 -1.228047 22.932712 214 214 214 0
4.833624 -1.230377 22.976227 214 214 214 0
4.918388 -1.229597 22.961660 214 214 214 0
5.020143 -1.233018 23.025540 215 215 215 0
5.141596 -1.241075 23.176003 214 214 214 0
5.226699 -1.240234 23.160293 213 213 213 0
5.309965 -1.238992 23.137104 215 215 215 0
5.407511 -1.241068 23.175874 215 215 215 0
5.524496 -1.247467 23.295365 215 215 215 0
5.629473 -1.250994 23.361231 215 215 215 0
5.720594 -1.251380 23.368439 215 215 215 0
5.816263 -1.252733 23.393716 215 215 215 0
5.925598 -1.256945 23.472365 215 215 215 0
6.022689 -1.258472 23.500885 215 215 215 0
6.117257 -1.259435 23.518867 215 215 215 0
6.209275 -1.259853 23.526665 215 215 215 0
6.319064 -1.263813 23.600613 215 215 215 0
6.444181 -1.270684 23.728920 215 215 215 0
6.546818 -1.272992 23.772034 215 215 215 0
6.635123 -1.272489 23.762641 215 215 215 0
6.728543 -1.272968 23.771571 215 215 215 0
6.839967 -1.276794 23.843023 215 215 215 0
6.944269 -1.279207 23.888093 215 215 215 0
7.031179 -1.278396 23.872943 215 215 215 0
7.123473 -1.278572 23.876229 215 215 215 0
7.231155 -1.281471 23.930355 214 214 214 0
-7.492511 -1.596765 32.111907 81 81 81 0
-7.179976 -1.555662 31.285300 111 111 111 0
-6.876564 -1.515175 30.471095 128 128 128 0
-6.681025 -1.497471 30.115055 143 143 143 0
-6.497308 -1.481842 29.800746 147 147 147 0
-6.335660 -1.470778 29.578244 156 156 156 0
-6.199753 -1.465396 29.470010 162 162 162 0
-6.069225 -1.461110 29.383805 163 163 163 0
-5.921995 -1.452565 29.211963 169 169 169 0
-5.736427 -1.434107 28.840759 173 173 173 0
-5.543241 -1.412983 28.415950 171 171 171 0
-5.323897 -1.384213 27.837372 129 129 129 0
-4.887503 -1.323699 26.620389 92 92 92 0
-4.688565 -1.296837 26.080186 108 108 108 0
-4.542981 -1.283886 25.819725 132 132 132 0
-4.414540 -1.275312 25.647291 137 137 137 0
-4.287967 -1.266899 25.478114 145 145 145 0
-4.145274 -1.253222 25.203066 156 156 156 0
-4.024167 -1.245576 25.049283 157 157 157 0
-3.896252 -1.235397 24.844587 159 159 159 0
-3.763783 -1.223229 24.599888 169 169 169 0
-3.634879 -1.211626 24.366545 170 170 170 0
-3.497860 -1.196636 24.065085 171 171 171 0
-3.388997 -1.190729 23.946277 172 172 172 0
-3.302493 -1.192567 23.983249 178 178 178 0
-3.544273 -1.316444 26.474493 182 182 182 0
-3.113051 -1.190284 23.937339 182 182 182 0
-3.003773 -1.183304 23.796970 181 181 181 0
-2.880921 -1.170374 23.536937 182 182 182 0
-2.763179 -1.158752 23.303217 186 186 186 0
-2.656241 -1.151038 23.148071 189 189 189 0
-2.558550 -1.146936 23.065581 190 190 190 0
-2.467798 -1.145763 23.041999 189 189 189 0
-2.383733 -1.147723 23.081411 191 191 191 0
-2.293060 -1.146530 23.057416 190 190 190 0
-2.191678 -1.139672 22.919505 194 194 194 0
-2.097162 -1.135963 22.844906 196 196 196 0
-2.005021 -1.133273 22.790805 196 196 196 0
-1.916732 -1.132614 22.777562 196 196 196 0
-1.823850 -1.129050 22.705877 197 197 197 0
-1.732152 -1.125899 22.642504 197 197 197 0
-1.644730 -1.125341 22.631300 197 197 197 0
-1.557065 -1.124547 22.615321 199 199 199 0
-1.466355 -1.121330 22.550638 200 200 200 0
-1.377443 -1.119172 22.507237 201 201 201 0
-1.290447 -1.118387 22.491444 201 201 201 0
-1.204150 -1.118139 22.486465 202 202 202 0
-1.119476 -1.119476 22.513341 202 202 202 0
-1.031632 -1.117602 22.475651 202 202 202 0
-0.941891 -1.113144 22.386004 202 202 202 0
-0.852593 -1.108371 22.290010 204 204 204 0
-0.764366 -1.104084 22.203811 206 206 206 0
-0.679874 -1.104795 22.218097 206 206 206 0
-0.596745 -1.108240 22.287381 206 206 206 0
-0.510245 -1.105531 22.232900 206 206 206 0
-0.424189 -1.102891 22.179803 206 206 206 0
-0.338060 -1.098696 22.095436 207 207 207 0
-0.252656 -1.094843 22.017963 206 206 206 0
-0.168090 -1.092588 21.972612 207 207 207 0
-0.084274 -1.095568 22.032547 207 207 207 0
0.000000 -1.096704 22.055394 209 209 209 0
0.084205 -1.094667 22.014419 209 209 209 0
0.167939 -1.091601 21.952752 209 209 209 0
0.251187 -1.088475 21.889899 209 209 209 0
0.334819 -1.088163 21.883611 209 209 209 0
0.418323 -1.087639 21.873086 210 210 210 0
0.502645 -1.089065 21.901762 211 211 211 0
0.586648 -1.089490 21.910300 209 209 209 0
0.669483 -1.087910 21.878523 210 210 210 0
0.751039 -1.084835 21.816688 210 210 210 0
0.834612 -1.084995 21.819916 211 211 211 0
0.922207 -1.089880 21.918160 212 212 212 0
1.010139 -1.094318 22.007396 212 212 212 0
1.094153 -1.094153 22.004075 213 213 213 0
1.175510 -1.091545 21.951637 209 209 209 0
1.223571 -1.060428 21.325862 140 140 140 0
1.316686 -1.069807 21.514475 207 207 207 0
1.407776 -1.076535 21.649766 216 216 216 0
1.604300 -1.158661 23.301374 215 215 215 0
1.579506 -1.080715 21.733835 216 216 216 0
1.660494 -1.079321 21.705804 215 215 215 0
1.741041 -1.077787 21.674960 215 215 215 0
1.826262 -1.079155 21.702458 216 216 216 0
1.918767 -1.084520 21.810365 215 215 215 0
2.007676 -1.087491 21.870114 216 216 216 0
2.090170 -1.086888 21.857986 215 215 215 0
2.177563 -1.088782 21.896061 216 216 216 0
2.265043 -1.090576 21.932155 215 215 215 0
2.351456 -1.091747 21.955704 214 214 214 0
2.437139 -1.092511 21.971057 215 215 215 0
2.523450 -1.093495 21.990853 215 215 215 0
2.604959 -1.092402 21.968876 214 214 214 0
2.694495 -1.094639 22.013848 215 215 215 0
2.784285 -1.096840 22.058114 215 215 215 0
2.878856 -1.100739 22.136532 215 215 215 0
2.967867 -1.102350 22.168938 215 215 215 0
3.052272 -1.102209 22.166097 214 214 214 0
3.139549 -1.103085 22.183705 216 216 216 0
3.226094 -1.103664 22.195350 215 215 215 0
3.321544 -1.107181 22.266091 216 216 216 0
3.403860 -1.106254 22.247448 215 215 215 0
3.486968 -1.105624 22.234769 215 215 215 0
3.573882 -1.106202 22.246388 215 215 215 0
3.661878 -1.107080 22.264043 215 215 215 0
3.760671 -1.111107 22.345045 215 215 215 0
3.856611 -1.114132 22.405875 215 215 215 0
3.950962 -1.116576 22.455025 215 215 215 0
4.039332 -1.117262 22.468821 214 214 214 0
4.133482 -1.119485 22.513520 215 215 215 0
4.221437 -1.119973 22.523343 215 215 215 0
4.321933 -1.123703 22.598343 215 215 215 0
4.415948 -1.125634 22.637180 215 215 215 0
4.512101 -1.128025 22.685274 215 215 215 0
4.618296 -1.132790 22.781086 214 214 214 0
4.729343 -1.138545 22.896842 215 215 215 0
4.828014 -1.141167 22.949559 215 215 215 0
4.914463 -1.140857 22.943336 214 214 214 0
5.016255 -1.144058 23.007704 215 215 215 0
5.137102 -1.151419 23.155744 215 215 215 0
5.223811 -1.151009 23.147496 214 214 214 0
5.310990 -1.150715 23.141569 215 215 215 0
5.407338 -1.152383 23.175132 215 215 215 0
5.522429 -1.157929 23.286648 215 215 215 0
5.628992 -1.161538 23.359237 214 214 214 0
5.722225 -1.162327 23.375100 215 215 215 0
5.817063 -1.163413 23.396934 215 215 215 0
5.924513 -1.166949 23.468063 215 215 215 0
6.024165 -1.168868 23.506644 215 215 215 0
6.120319 -1.170061 23.530637 215 215 215 0
6.212590 -1.170488 23.539227 215 215 215 0
6.320000 -1.173714 23.604110 215 215 215 0
6.443717 -1.179836 23.727211 214 214 214 0
6.546380 -1.181985 23.770443 215 215 215 0
6.635723 -1.181704 23.764788 215 215 215 0
6.730400 -1.182368 23.778130 215 215 215 0
6.839583 -1.185528 23.841683 215 215 215 0
6.945789 -1.188095 23.893322 214 214 214 0
7.032038 -1.187227 23.875860 215 215 215 0
7.123530 -1.187255 23.876420 215 215 215 0
7.230387 -1.189811 23.927815 215 215 215 0
-7.436348 -1.462888 31.871203 87 87 87 0
-7.139349 -1.427870 31.108272 118 118 118 0
-6.856170 -1.394475 30.380726 131 131 131 0
-6.649701 -1.375800 29.973862 146 146 146 0
-6.469192 -1.361935 29.671789 149 149 149 0
-6.285018 -1.346790 29.341822 159 159 159 0
-6.161484 -1.344324 29.288102 162 162 162 0
-6.015354 -1.336745 29.122991 163 163 163 0
-5.866013 -1.328154 28.935815 170 170 170 0
-5.684588 -1.311828 28.580132 173 173 173 0
-5.480204 -1.289460 28.092805 162 162 162 0
-5.288473 -1.269234 27.652147 111 111 111 0
-4.829736 -1.207434 26.305753 95 95 95 0
-4.671567 -1.192741 25.985634 112 112 112 0
-4.494149 -1.172387 25.542194 133 133 133 0
-4.373752 -1.166334 25.410325 136 136 136 0
-4.266498 -1.163590 25.350551 150 150 150 0
-4.133782 -1.153614 25.133197 156 156 156 0
-4.012034 -1.146295 24.973754 156 156 156 0
-3.890788 -1.138767 24.809745 161 161 161 0
-3.759333 -1.127800 24.570805 170 170 170 0
-3.629358 -1.116725 24.329530 170 170 170 0
-3.491254 -1.102501 24.019632 171 171 171 0
-3.390024 -1.099467 23.953532 172 172 172 0
-3.295111 -1.098370 23.929634 179 179 179 0
-2.683598 -0.920091 20.045547 181 181 181 0
-3.095673 -1.092590 23.803712 182 182 182 0
-2.991916 -1.087970 23.703042 182 182 182 0
-2.877906 -1.079215 23.512300 182 182 182 0
-2.761478 -1.068959 23.288870 188 188 188 0
-2.652659 -1.061064 23.116852 189 189 189 0
-2.557149 -1.058131 23.052955 190 190 190 0
-2.465760 -1.056754 23.022974 189 189 189 0
-2.382587 -1.058927 23.070314 190 190 190 0
-2.289777 -1.056820 23.024403 190 190 190 0
-2.188479 -1.050470 22.886058 194 194 194 0
-2.092444 -1.046222 22.793503 196 196 196 0
-2.002704 -1.044889 22.764462 196 196 196 0
-1.913204 -1.043566 22.735643 196 196 196 0
-1.822658 -1.041519 22.691043 197 197 197 0
-1.730649 -1.038389 22.622861 197 197 197 0
-1.643705 -1.038130 22.617204 198 198 198 0
-1.554734 -1.036489 22.581470 200 200 200 0
-1.464424 -1.033711 22.520941 201 201 201 0
-1.376844 -1.032633 22.497457 202 202 202 0
-1.290166 -1.032133 22.486553 202 202 202 0
-1.202727 -1.030909 22.459886 202 202 202 0
-1.117637 -1.031665 22.476360 201 201 201 0
-1.031209 -1.031209 22.466422 202 202 202 0
-0.941028 -1.026576 22.365490 202 202 202 0
-0.851941 -1.022329 22.272968 205 205 205 0
-0.764256 -1.019007 22.200597 205 205 205 0
-0.679252 -1.018877 22.197767 206 206 206 0
-0.595720 -1.021235 22.249127 206 206 206 0
-0.510221 -1.020442 22.231858 206 206 206 0
-0.424048 -1.017716 22.172461 206 206 206 0
-0.338071 -1.014213 22.096141 206 206 206 0
-0.252688 -1.010750 22.020707 206 206 206 0
-0.167998 -1.007988 21.960530 207 207 207 0
-0.084225 -1.010699 22.019577 209 209 209 0
0.000000 -1.011725 22.041929 209 209 209 0
0.084143 -1.009717 21.998196 209 209 209 0
0.167935 -1.007608 21.952250 209 209 209 0
0.250956 -1.003826 21.869838 209 209 209 0
0.334628 -1.003884 21.871102 209 209 209 0
0.418234 -1.003761 21.868421 209 209 209 0
0.502321 -1.004641 21.887611 210 210 210 0
0.586957 -1.006211 21.921816 210 210 210 0
0.669143 -1.003714 21.867411 210 210 210 0
0.751631 -1.002175 21.833869 211 211 211 0
0.833982 -1.000779 21.803457 212 212 212 0
0.921826 -1.005628 21.909110 211 211 211 0
1.009912 -1.009912 22.002449 212 212 212 0
1.094034 -1.009878 22.001694 214 214 214 0
1.175039 -1.007176 21.942833 208 208 208 0
1.223695 -0.978956 21.328014 151 151 151 0
1.316761 -0.987571 21.515701 207 207 207 0
1.406812 -0.993044 21.634947 216 216 216 0
1.625669 -1.083779 23.611746 215 215 215 0
1.578392 -0.996879 21.718502 215 215 215 0
1.661673 -0.997004 21.721209 215 215 215 0
1.741194 -0.994968 21.676862 215 215 215 0
1.825821 -0.995902 21.697213 215 215 215 0
1.917983 -1.000687 21.801451 215 215 215 0
2.007886 -1.003943 21.872401 216 216 216 0
2.090215 -1.003303 21.858458 215 215 215 0
2.177536 -1.005017 21.895785 215 215 215 0
2.263631 -1.006058 21.918480 214 214 214 0
2.351100 -1.007614 21.952378 214 214 214 0
2.435910 -1.007963 21.959973 214 214 214 0
2.522191 -1.008877 21.979882 215 215 215 0
2.606065 -1.008800 21.978203 215 215 215 0
2.693028 -1.009886 22.001864 214 214 214 0
2.780409 -1.011058 22.027407 215 215 215 0
2.876865 -1.015364 22.121221 215 215 215 0
2.965591 -1.016774 22.151938 215 215 215 0
3.050821 -1.016940 22.155563 215 215 215 0
3.136480 -1.017237 22.162019 215 215 215 0
3.221722 -1.017386 22.165270 215 215 215 0
3.318220 -1.020991 22.243809 215 215 215 0
3.401325 -1.020398 22.230884 216 216 216 0
3.485535 -1.020157 22.225636 215 215 215 0
3.571488 -1.020425 22.231487 215 215 215 0
3.660939 -1.021657 22.258333 215 215 215 0
3.755839 -1.024320 22.316335 215 215 215 0
3.854017 -1.027738 22.390801 216 216 216 0
3.946045 -1.029403 22.427082 215 215 215 0
4.036554 -1.030610 22.453366 215 215 215 0
4.126779 -1.031695 22.477010 216 216 216 0
4.216411 -1.032590 22.496522 215 215 215 0
4.316481 -1.035956 22.569837 215 215 215 0
4.412126 -1.038147 22.617586 214 214 214 0
4.511301 -1.041069 22.681250 215 215 215 0
4.611286 -1.044065 22.746511 214 214 214 0
4.725093 -1.050021 22.876266 215 215 215 0
4.824313 -1.052577 22.931971 214 214 214 0
4.910419 -1.052233 22.924458 214 214 214 0
5.010654 -1.054875 22.982017 214 214 214 0
5.131622 -1.061715 23.131045 214 214 214 0
5.222310 -1.062165 23.140846 214 214 214 0
5.309532 -1.061906 23.135217 213 213 213 0
5.407772 -1.063824 23.176992 215 215 215 0
5.522066 -1.068787 23.285119 215 215 215 0
5.632078 -1.072777 23.372043 216 216 216 0
5.720757 -1.072642 23.369107 215 215 215 0
5.817688 -1.074035 23.399451 215 215 215 0
5.926523 -1.077550 23.476027 215 215 215 0
6.025352 -1.079168 23.511276 215 215 215 0
6.118617 -1.079756 23.524095 215 215 215 0
6.209342 -1.079886 23.526918 215 215 215 0
6.319743 -1.083384 23.603148 215 215 215 0
6.442400 -1.088856 23.722361 214 214 214 0
6.546311 -1.091052 23.770192 215 215 215 0
6.633272 -1.090401 23.756010 215 215 215 0
6.727356 -1.090923 23.767377 215 215 215 0
6.839237 -1.094278 23.840478 214 214 214 0
6.945902 -1.096721 23.893711 215 215 215 0
7.030930 -1.095729 23.872099 215 215 215 0
7.125895 -1.096292 23.884348 214 214 214 0
7.230352 -1.098281 23.927699 215 215 215 0
-7.380446 -1.330900 31.631612 94 94 94 0
-7.109451 -1.303399 30.978000 122 122 122 0
-6.839549 -1.275170 30.307074 135 135 135 0
-6.631690 -1.257734 29.892677 147 147 147 0
-6.425205 -1.239952 29.470036 150 150 150 0
-6.244977 -1.226692 29.154889 160 160 160 0
-6.105425 -1.221085 29.021627 162 162 162 0
-5.970926 -1.216300 28.907895 165 165 165 0
-5.803252 -1.204448 28.626227 173 173 173 0
-5.634234 -1.191857 28.326968 172 172 172 0
-5.448579 -1.175184 27.930686 137 137 137 0
-5.232413 -1.151131 27.359023 108 108 108 0
-5.030011 -1.129186 26.837460 82 82 82 0
-4.815808 -1.103623 26.229890 97 97 97 0
-4.638444 -1.085593 25.801388 116 116 116 0
-4.488188 -1.073262 25.508317 134 134 134 0
-4.366057 -1.067258 25.365620 136 136 136 0
-4.252608 -1.063152 25.268020 151 151 151 0
-4.117504 -1.053315 25.034224 155 155 155 0
-4.001339 -1.047970 24.907186 156 156 156 0
-3.886007 -1.042587 24.779259 164 164 164 0
-3.754593 -1.032513 24.539821 170 170 170 0
-3.622081 -1.021613 24.280750 171 171 171 0
-3.489486 -1.010114 24.007472 171 171 171 0
-3.386439 -1.006779 23.928204 174 174 174 0
-3.283096 -1.003168 23.842381 181 181 181 0
-3.032465 -0.953060 22.651464 182 182 182 0
-3.095192 -1.001386 23.800019 181 181 181 0
-2.986173 -0.995391 23.657542 182 182 182 0
-2.874424 -0.988083 23.483853 183 183 183 0
-2.758977 -0.978992 23.267778 189 189 189 0
-2.649395 -0.971445 23.088413 190 190 190 0
-2.554900 -0.969100 23.032678 189 189 189 0
-2.465769 -0.968695 23.023052 190 190 190 0
-2.378507 -0.969021 23.030810 190 190 190 0
-2.287776 -0.967905 23.004279 191 191 191 0
-2.187795 -0.962630 22.878905 195 195 195 0
-2.091049 -0.958398 22.778313 196 196 196 0
-2.000060 -0.956551 22.734417 196 196 196 0
-1.911729 -0.955865 22.718114 197 197 197 0
-1.819541 -0.953093 22.652239 196 196 196 0
-1.729587 -0.951273 22.608986 196 196 196 0
-1.641797 -0.950514 22.590942 198 198 198 0
-1.554814 -0.950164 22.582622 201 201 201 0
-1.464132 -0.947379 22.516446 201 201 201 0
-1.375555 -0.945694 22.476384 201 201 201 0
-1.288847 -0.945154 22.463559 201 201 201 0
-1.202136 -0.944535 22.448844 202 202 202 0
-1.117150 -0.945281 22.466563 202 202 202 0
-1.029741 -0.943929 22.434447 202 202 202 0
-0.940104 -0.940104 22.343525 203 203 203 0
-0.851185 -0.936303 22.253192 205 205 205 0
-0.763722 -0.933438 22.185096 206 206 206 0
-0.678714 -0.933231 22.180183 206 206 206 0
-0.595338 -0.935531 22.234847 205 205 205 0
-0.509867 -0.934757 22.216449 205 205 205 0
-0.423714 -0.932171 22.154974 206 206 206 0
-0.337738 -0.928779 22.074368 206 206 206 0
-0.252330 -0.925209 21.989520 206 206 206 0
-0.167955 -0.923752 21.954890 208 208 208 0
-0.084172 -0.925890 22.005710 208 208 208 0
0.000000 -0.926939 22.030633 209 209 209 0
0.084042 -0.924462 21.971762 209 209 209 0
0.167793 -0.922859 21.933671 209 209 209 0
0.250834 -0.919724 21.859165 209 209 209 0
0.334413 -0.919636 21.857074 209 209 209 0
0.418089 -0.919797 21.860881 210 210 210 0
0.502092 -0.920501 21.877635 210 210 210 0
0.586053 -0.920940 21.888061 210 210 210 0
0.669089 -0.919998 21.865659 211 211 211 0
0.750986 -0.917872 21.815135 212 212 212 0
0.833653 -0.917018 21.794853 212 212 212 0
0.921130 -0.921130 21.892572 213 213 213 0
1.009287 -0.925180 21.988830 212 212 212 0
1.093355 -0.925147 21.988039 212 212 212 0
1.173694 -0.922188 21.917729 211 211 211 0
1.225437 -0.898654 21.358375 155 155 155 0
1.316473 -0.905075 21.510991 207 207 207 0
1.405182 -0.909236 21.609879 215 215 215 0
1.637050 -1.000420 23.777054 216 216 216 0
1.578421 -0.913823 21.718900 215 215 215 0
1.661293 -0.913711 21.716242 215 215 215 0
1.740744 -0.911818 21.671262 215 215 215 0
1.826521 -0.913260 21.705536 216 216 216 0
1.917464 -0.917048 21.795555 215 215 215 0
2.007413 -0.920065 21.867249 215 215 215 0
2.090608 -0.919868 21.862567 216 216 216 0
2.176450 -0.920806 21.884864 215 215 215 0
2.261325 -0.921281 21.896150 214 214 214 0
2.349524 -0.923027 21.937664 215 215 215 0
2.433032 -0.922874 21.934030 215 215 215 0
2.518250 -0.923358 21.945533 215 215 215 0
2.600203 -0.922653 21.928761 215 215 215 0
2.691622 -0.925245 21.990379 215 215 215 0
2.778643 -0.926214 22.013414 215 215 215 0
2.873426 -0.929638 22.094781 215 215 215 0
2.964530 -0.931709 22.144016 215 215 215 0
3.048138 -0.931375 22.136076 215 215 215 0
3.134165 -0.931779 22.145663 215 215 215 0
3.216580 -0.931115 22.129891 215 215 215 0
3.349480 -0.944725 22.453359 215 215 215 0
3.397704 -0.934369 22.207216 216 216 216 0
3.484272 -0.934805 22.217579 215 215 215 0
3.569348 -0.934829 22.218166 216 216 216 0
3.656537 -0.935393 22.231569 215 215 215 0
3.752487 -0.938122 22.296420 215 215 215 0
3.851191 -0.941402 22.374385 215 215 215 0
3.943055 -0.942905 22.410091 216 216 216 0
4.033437 -0.943996 22.436027 215 215 215 0
4.122851 -0.944820 22.455613 215 215 215 0
4.214252 -0.946057 22.485003 215 215 215 0
4.313792 -0.949034 22.555775 215 215 215 0
4.410390 -0.951261 22.608689 215 215 215 0
4.502873 -0.952531 22.638880 214 214 214 0
4.604738 -0.955700 22.714208 215 215 215 0
4.720493 -0.961582 22.853996 214 214 214 0
4.822333 -0.964467 22.922558 215 215 215 0
4.908075 -0.964086 22.913517 215 215 215 0
5.007991 -0.966454 22.969803 214 214 214 0
5.130973 -0.973115 23.128116 214 214 214 0
5.217630 -0.972778 23.120106 214 214 214 0
5.307336 -0.973012 23.125646 214 214 214 0
5.405956 -0.974845 23.169211 214 214 214 0
5.518454 -0.979080 23.269886 215 215 215 0
5.629913 -0.983001 23.363058 215 215 215 0
5.720099 -0.983142 23.366416 215 215 215 0
5.819561 -0.984849 23.406984 215 215 215 0
5.926082 -0.987680 23.474279 215 215 215 0
6.022441 -0.988759 23.499915 215 215 215 0
6.118692 -0.989788 23.524383 214 214 214 0
6.212330 -0.990371 23.538241 215 215 215 0
6.320650 -0.993245 23.606537 215 215 215 0
6.443498 -0.998288 23.726403 216 216 216 0
6.547705 -1.000344 23.775255 215 215 215 0
6.634368 -0.999699 23.759935 215 215 215 0
6.729743 -1.000367 23.775811 215 215 215 0
6.838592 -1.002994 23.838230 215 215 215 0
6.947670 -1.005584 23.899794 214 214 214 0
7.029697 -1.004242 23.867912 214 214 214 0
7.123198 -1.004554 23.875307 214 214 214 0
7.230843 -1.006826 23.929323 215 215 215 0
-7.783387 -1.255385 32.820523 73 73 73 0
-7.374709 -1.208969 31.607026 100 100 100 0
-7.105473 -1.184245 30.960665 124 124 124 0
-6.840938 -1.159481 30.313230 139 139 139 0
-6.618232 -1.141075 29.832015 147 147 147 0
-6.398075 -1.122469 29.345604 153 153 153 0
-6.209690 -1.108873 28.990150 162 162 162 0
-6.064118 -1.102567 28.825279 162 162 162 0
-5.918327 -1.095987 28.653243 167 167 167 0
-5.765749 -1.087877 28.441231 173 173 173 0
-5.590166 -1.075032 28.105409 159 159 159 0
-5.410966 -1.060974 27.737877 115 115 115 0
-5.209903 -1.041981 27.241323 118 118 118 0
-5.013651 -1.023194 26.750174 96 96 96 0
-4.792187 -0.998372 26.101234 100 100 100 0
-4.618042 -0.982562 25.687900 119 119 119 0
-4.473210 -0.972437 25.423189 135 135 135 0
-4.347380 -0.966084 25.257107 137 137 137 0
-4.232107 -0.961843 25.146210 153 153 153 0
-4.105801 -0.954837 24.963071 155 155 155 0
-3.994134 -0.950984 24.862332 157 157 157 0
-3.879167 -0.946138 24.735642 165 165 165 0
-3.750462 -0.937615 24.512823 170 170 170 0
-3.618529 -0.927828 24.256938 171 171 171 0
-3.487204 -0.917685 23.991770 171 171 171 0
-3.373112 -0.911652 23.834035 176 176 176 0
-3.263721 -0.906589 23.701676 181 181 181 0
-3.180092 -0.908598 23.754190 181 181 181 0
-3.095969 -0.910579 23.805987 182 182 182 0
-2.984353 -0.904350 23.643125 182 182 182 0
-2.869930 -0.896853 23.447138 185 185 185 0
-2.757410 -0.889487 23.254562 188 188 188 0
-2.648144 -0.882715 23.077506 189 189 189 0
-2.554240 -0.880772 23.026728 189 189 189 0
-2.462125 -0.879330 22.989024 190 190 190 0
-2.376418 -0.880155 23.010582 191 191 191 0
-2.286481 -0.879416 22.991267 192 192 192 0
-2.185732 -0.874293 22.857333 195 195 195 0
-2.089853 -0.870772 22.765289 195 195 195 0
-1.998633 -0.868971 22.718188 196 196 196 0
-1.908190 -0.867359 22.676055 196 196 196 0
-1.818086 -0.865755 22.634125 197 197 197 0
-1.729047 -0.864523 22.601917 197 197 197 0
-1.640691 -0.863522 22.575726 199 199 199 0
-1.553604 -0.863113 22.565053 201 201 201 0
-1.460900 -0.859353 22.466736 201 201 201 0
-1.374916 -0.859322 22.465946 201 201 201 0
-1.288248 -0.858832 22.453118 202 202 202 0
-1.200785 -0.857704 22.423621 202 202 202 0
-1.116075 -0.858519 22.444946 202 202 202 0
-1.029428 -0.857857 22.427633 202 202 202 0
-0.939826 -0.854387 22.336923 203 203 203 0
-0.851219 -0.851219 22.254091 206 206 206 0
-0.763282 -0.848091 22.172326 205 205 205 0
-0.678692 -0.848365 22.179479 206 206 206 0
-0.594747 -0.849638 22.212768 206 206 206 0
-0.509206 -0.848677 22.187626 206 206 206 0
-0.423527 -0.847055 22.145224 206 206 206 0
-0.337714 -0.844284 22.072783 206 206 206 0
-0.252214 -0.840714 21.979443 207 207 207 0
-0.167704 -0.838519 21.922072 208 208 208 0
-0.084126 -0.841259 21.993696 209 209 209 0
0.000000 -0.842259 22.019837 209 209 209 0
0.084064 -0.840642 21.977581 209 209 209 0
0.167775 -0.838874 21.931356 209 209 209 0
0.250910 -0.836368 21.865832 209 209 209 0
0.334179 -0.835447 21.841756 209 209 209 0
0.417702 -0.835404 21.840637 209 209 209 0
0.501665 -0.836108 21.859023 210 210 210 0
0.585658 -0.836654 21.873302 211 211 211 0
0.668892 -0.836116 21.859231 212 212 212 0
0.750093 -0.833437 21.789202 211 211 211 0
0.833136 -0.833136 21.781323 212 212 212 0
0.920797 -0.837089 21.884668 212 212 212 0
1.008162 -0.840135 21.964313 213 213 213 0
1.092458 -0.840352 21.969996 212 212 212 0
1.173755 -0.838396 21.918856 210 210 210 0
1.228958 -0.819305 21.419751 161 161 161 0
1.316406 -0.822753 21.509895 207 207 207 0
1.404304 -0.826061 21.596364 215 215 215 0
1.651238 -0.917354 23.983118 216 216 216 0
1.578411 -0.830743 21.718759 215 215 215 0
1.661397 -0.830698 21.717604 216 216 216 0
1.740265 -0.828697 21.665292 215 215 215 0
1.826437 -0.830199 21.704541 216 216 216 0
1.917579 -0.833730 21.796867 216 216 216 0
2.007399 -0.836416 21.867094 216 216 216 0
2.090089 -0.836036 21.857139 216 216 216 0
2.176223 -0.837009 21.882587 214 214 214 0
2.259706 -0.836928 21.880471 215 215 215 0
2.347912 -0.838540 21.922617 215 215 215 0
2.432640 -0.838841 21.930496 215 215 215 0
2.519071 -0.839690 21.952692 215 215 215 0
2.602458 -0.839502 21.947776 215 215 215 0
2.688151 -0.840047 21.962017 215 215 215 0
2.775131 -0.840949 21.985588 214 214 214 0
2.872756 -0.844928 22.089623 214 214 214 0
2.962496 -0.846428 22.128824 215 215 215 0
3.046435 -0.846232 22.123714 215 215 215 0
3.130311 -0.846030 22.118433 216 216 216 0
3.210911 -0.844976 22.090888 216 216 216 0
3.032746 -0.777627 20.330125 215 215 215 0
3.399243 -0.849811 22.217274 214 214 214 0
3.480953 -0.849013 22.196416 215 215 215 0
3.566544 -0.849177 22.200709 215 215 215 0
3.654365 -0.849852 22.218363 215 215 215 0
3.748921 -0.852028 22.275230 216 216 216 0
3.847135 -0.854919 22.350820 216 216 216 0
3.936479 -0.855756 22.372711 216 216 216 0
4.029594 -0.857360 22.414650 215 215 215 0
4.118987 -0.858122 22.434570 215 215 215 0
4.212369 -0.859667 22.474958 215 215 215 0
4.311002 -0.862200 22.541189 215 215 215 0
4.406330 -0.863986 22.587875 215 215 215 0
4.501055 -0.865588 22.629740 215 215 215 0
4.598114 -0.867569 22.681532 214 214 214 0
4.717213 -0.873558 22.838116 215 215 215 0
4.817600 -0.875927 22.900061 214 214 214 0
4.904257 -0.875760 22.895692 215 215 215 0
5.003525 -0.877811 22.949317 215 215 215 0
5.127298 -0.884017 23.111554 215 215 215 0
5.215699 -0.884017 23.111551 214 214 214 0
5.305248 -0.884208 23.116551 213 213 213 0
5.402774 -0.885701 23.155572 214 214 214 0
5.517340 -0.889894 23.265193 215 215 215 0
5.630809 -0.893779 23.366778 215 215 215 0
5.719190 -0.893623 23.362704 215 215 215 0
5.817815 -0.895048 23.399960 215 215 215 0
5.925525 -0.897807 23.472074 215 215 215 0
6.027034 -0.899557 23.517838 215 215 215 0
6.120305 -0.900045 23.530584 215 215 215 0
6.210662 -0.900096 23.531919 215 215 215 0
6.317360 -0.902480 23.594248 215 215 215 0
6.443028 -0.907469 23.724672 215 215 215 0
6.545496 -0.909097 23.767235 215 215 215 0
6.632700 -0.908589 23.753961 215 215 215 0
6.728211 -0.909218 23.770398 215 215 215 0
6.837923 -0.911723 23.835898 215 215 215 0
6.943826 -0.913661 23.886570 215 215 215 0
7.030958 -0.913111 23.872196 214 214 214 0
7.123560 -0.913277 23.876522 215 215 215 0
7.229645 -0.915145 23.925358 215 215 215 0
-7.722441 -1.121000 32.563530 76 76 76 0
-7.339938 -1.082942 31.458003 104 104 104 0
-7.088289 -1.063243 30.885791 126 126 126 0
-6.853574 -1.045460 30.369222 141 141 141 0
-6.610354 -1.025745 29.796501 147 147 147 0
-6.389825 -1.008920 29.307764 155 155 155 0
-6.200628 -0.996529 28.947841 161 161 161 0
-6.028499 -0.986482 28.655968 162 162 162 0
-5.885156 -0.980859 28.492644 169 169 169 0
-5.731354 -0.973249 28.271571 171 171 171 0
-5.556153 -0.961642 27.934407 135 135 135 0
-5.383162 -0.949970 27.595343 113 113 113 0
-5.198664 -0.935760 27.182557 131 131 131 0
-5.000314 -0.918425 26.679012 105 105 105 0
-4.815462 -0.902899 26.228006 102 102 102 0
-4.610325 -0.882828 25.644972 124 124 124 0
-4.463530 -0.873299 25.368171 135 135 135 0
-4.327761 -0.865552 25.143130 140 140 140 0
-4.211151 -0.861372 25.021691 153 153 153 0
-4.098138 -0.857750 24.916481 156 156 156 0
-3.986510 -0.854252 24.814876 157 157 157 0
-3.873766 -0.850339 24.701201 166 166 166 0
-3.745436 -0.842723 24.479974 169 169 169 0
-3.613520 -0.833889 24.223361 170 170 170 0
-3.484475 -0.825270 23.972993 171 171 171 0
-3.368763 -0.819429 23.803305 177 177 177 0
-3.258945 -0.814736 23.666993 180 180 180 0
-3.178244 -0.817263 23.740384 181 181 181 0
-3.105554 -0.822058 23.879694 182 182 182 0
-2.987598 -0.814799 23.668830 182 182 182 0
-2.870658 -0.807372 23.453084 185 185 185 0
-2.758781 -0.800936 23.266129 189 189 189 0
-2.646155 -0.793846 23.060172 189 189 189 0
-2.552928 -0.792288 23.014898 190 190 190 0
-2.461303 -0.791133 22.981356 190 190 190 0
-2.376618 -0.792206 23.012520 190 190 190 0
-2.283492 -0.790439 22.961202 192 192 192 0
-2.182461 -0.785686 22.823121 196 196 196 0
-2.087462 -0.782798 22.739243 196 196 196 0
-1.997513 -0.781636 22.705462 196 196 196 0
-1.909113 -0.781001 22.687019 196 196 196 0
-1.816320 -0.778423 22.612137 196 196 196 0
-1.726871 -0.777092 22.573478 197 197 197 0
-1.639280 -0.776501 22.556314 199 199 199 0
-1.553010 -0.776505 22.556431 201 201 201 0
-1.461422 -0.773694 22.474767 201 201 201 0
-1.372843 -0.772224 22.432081 202 202 202 0
-1.288170 -0.772902 22.451766 201 201 201 0
-1.200213 -0.771565 22.412938 201 201 201 0
-1.114802 -0.771786 22.419336 202 202 202 0
-1.028708 -0.771531 22.411932 202 202 202 0
-0.939646 -0.768801 22.332640 205 205 205 0
-0.850751 -0.765676 22.241846 206 206 206 0
-0.762379 -0.762379 22.146089 205 205 205 0
-0.677803 -0.762528 22.150421 206 206 206 0
-0.594332 -0.764141 22.197273 206 206 206 0
-0.508728 -0.763093 22.166814 206 206 206 0
-0.422997 -0.761394 22.117481 206 206 206 0
-0.337314 -0.758957 22.046671 206 206 206 0
-0.252117 -0.756352 21.970999 207 207 207 0
-0.167719 -0.754734 21.924004 209 209 209 0
-0.084015 -0.756131 21.964593 209 209 209 0
0.000000 -0.757579 22.006657 209 209 209 0
0.084054 -0.756490 21.975008 209 209 209 0
0.167660 -0.754468 21.916293 209 209 209 0
0.250856 -0.752569 21.861105 209 209 209 0
0.333988 -0.751473 21.829278 210 210 210 0
0.417027 -0.750648 21.805323 210 210 210 0
0.501132 -0.751698 21.835814 210 210 210 0
0.585359 -0.752605 21.862155 211 211 211 0
0.668459 -0.752017 21.845080 211 211 211 0
0.749862 -0.749862 21.782497 212 212 212 0
0.833125 -0.749812 21.781045 212 212 212 0
0.920408 -0.753061 21.875405 212 212 212 0
1.006976 -0.755232 21.938473 213 213 213 0
1.091713 -0.755802 21.955018 213 213 213 0
1.172491 -0.753744 21.895252 210 210 210 0
1.229001 -0.737401 21.420497 163 163 163 0
1.315323 -0.739869 21.492211 208 208 208 0
1.403160 -0.742849 21.578771 215 215 215 0
1.664273 -0.832137 24.172453 216 216 216 0
1.577608 -0.747288 21.707717 215 215 215 0
1.661286 -0.747579 21.716162 215 215 215 0
1.740576 -0.745961 21.669167 216 216 216 0
1.826014 -0.747006 21.699517 216 216 216 0
1.918320 -0.750647 21.805288 215 215 215 0
2.007144 -0.752679 21.864309 215 215 215 0
2.087635 -0.751549 21.831481 215 215 215 0
2.174116 -0.752579 21.861396 215 215 215 0
2.257306 -0.752435 21.857237 215 215 215 0
2.346972 -0.754384 21.913837 215 215 215 0
2.432264 -0.754841 21.927104 215 215 215 0
2.518933 -0.755680 21.951485 215 215 215 0
2.600167 -0.754887 21.928462 215 215 215 0
2.688363 -0.756102 21.963749 215 215 215 0
2.773908 -0.756520 21.975898 215 215 215 0
2.870602 -0.759865 22.073068 214 214 214 0
2.960631 -0.761305 22.114889 216 216 216 0
3.044711 -0.761178 22.111192 215 215 215 0
3.129897 -0.761326 22.115509 215 215 215 0
3.214186 -0.761255 22.113421 215 215 215 0
3.296148 -0.760650 22.095847 216 216 216 0
3.395440 -0.763974 22.192416 216 216 216 0
3.480862 -0.764092 22.195834 215 215 215 0
3.563650 -0.763639 22.182695 215 215 215 0
3.652445 -0.764465 22.206687 215 215 215 0
3.747413 -0.766516 22.266268 215 215 215 0
3.844184 -0.768837 22.333675 215 215 215 0
3.933248 -0.769548 22.354349 215 215 215 0
4.026000 -0.770936 22.394659 216 216 216 0
4.117152 -0.771966 22.424573 215 215 215 0
4.210125 -0.773288 22.462987 215 215 215 0
4.309327 -0.775679 22.532426 215 215 215 0
4.406281 -0.777579 22.587623 215 215 215 0
4.499222 -0.778712 22.620524 215 215 215 0
4.597074 -0.780635 22.676404 215 215 215 0
4.711634 -0.785272 22.811106 215 215 215 0
4.814539 -0.787834 22.885511 214 214 214 0
4.902426 -0.787890 22.887143 215 215 215 0
5.000882 -0.789613 22.937194 215 215 215 0
5.123672 -0.795052 23.095207 215 215 215 0
5.212702 -0.795158 23.098268 214 214 214 0
5.302213 -0.795332 23.103322 214 214 214 0
5.398583 -0.796512 23.137610 213 213 213 0
5.515493 -0.800636 23.257404 214 214 214 0
5.629014 -0.804145 23.359328 215 215 215 0
5.719173 -0.804259 23.362634 215 215 215 0
5.816144 -0.805312 23.393239 215 215 215 0
5.927405 -0.808282 23.479519 215 215 215 0
6.023825 -0.809170 23.505315 215 215 215 0
6.120067 -0.810009 23.529669 215 215 215 0
6.215597 -0.810730 23.550618 215 215 215 0
6.316622 -0.812137 23.591490 215 215 215 0
6.440548 -0.816407 23.715539 215 215 215 0
6.543947 -0.817993 23.761610 215 215 215 0
6.632182 -0.817666 23.752108 214 214 214 0
6.728712 -0.818357 23.772169 214 214 214 0
6.837276 -0.820473 23.833644 215 215 215 0
6.943471 -0.822253 23.885351 215 215 215 0
7.030907 -0.821794 23.872022 215 215 215 0
7.124205 -0.822024 23.878684 214 214 214 0
7.230125 -0.823685 23.926945 215 215 215 0
-7.584894 -0.978696 31.983530 79 79 79 0
-7.309472 -0.958619 31.327428 110 110 110 0
-7.074571 -0.943276 30.826018 127 127 127 0
-6.839252 -0.927356 30.305757 143 143 143 0
-6.616592 -0.912633 29.824620 146 146 146 0
-6.377246 -0.895052 29.250068 157 157 157 0
-6.175524 -0.882218 28.830644 161 161 161 0
-6.008116 -0.873908 28.559078 162 162 162 0
