ply
    format ascii 1.0
    element vertex 16337
    property float x
    property float y
    property float z
    property uchar red
    property uchar green
    property uchar blue
    property uchar alpha
    end_header
4.132716 2.535985 24.555653 197 197 197 0
4.226784 2.536070 24.556480 211 211 211 0
4.329978 2.541509 24.609140 211 211 211 0
4.432885 2.546551 24.657960 211 211 211 0
4.516780 2.540689 24.601199 211 211 211 0
4.596557 2.532797 24.524782 211 211 211 0
4.680537 2.527490 24.473394 211 211 211 0
4.776009 2.528475 24.482935 211 211 211 0
4.886302 2.537118 24.566627 211 211 211 0
4.963998 2.528829 24.486363 211 211 211 0
5.039163 2.519581 24.396817 211 211 211 0
5.118098 2.512521 24.328450 210 210 210 0
5.200043 2.507164 24.276579 211 211 211 0
5.300345 2.510690 24.310722 211 211 211 0
5.392370 2.510241 24.306379 210 210 210 0
5.479772 2.507692 24.281698 211 211 211 0
5.559213 2.501646 24.223152 210 210 210 0
5.634527 2.493971 24.148836 211 211 211 0
5.723776 2.492612 24.135676 211 211 211 0
5.811331 2.490571 24.115910 211 211 211 0
5.904768 2.491074 24.120783 211 211 211 0
5.987098 2.486949 24.080839 211 211 211 0
6.061307 2.479626 24.009931 211 211 211 0
6.143933 2.475913 23.973985 211 211 211 0
6.232226 2.474560 23.960885 211 211 211 0
6.331215 2.477432 23.988690 212 212 212 0
6.427778 2.479286 24.006641 211 211 211 0
6.512862 2.476722 23.981817 211 211 211 0
6.587933 2.470475 23.921327 211 211 211 0
6.665379 2.465277 23.870995 212 212 212 0
6.744254 2.460741 23.827078 212 212 212 0
6.835626 2.460825 23.827889 211 211 211 0
6.934443 2.463552 23.854294 212 212 212 0
7.003596 2.455806 23.779292 211 211 211 0
7.070597 2.447514 23.699001 211 211 211 0
7.153213 2.444769 23.672417 211 211 211 0
-6.279839 3.139919 29.317642 86 86 86 0
-6.118606 3.114927 29.084283 117 117 117 0
-6.015993 3.119404 29.126084 125 125 125 0
-5.904194 3.119197 29.124156 82 82 82 0
-5.753655 3.098122 28.927377 80 80 80 0
-5.600798 3.074948 28.711001 191 191 191 0
-5.476495 3.066837 28.635270 202 202 202 0
-5.419902 3.097087 28.917711 203 203 203 0
-5.330968 3.109731 29.035773 203 203 203 0
-5.202215 3.099192 28.937365 203 203 203 0
-5.061142 3.080695 28.764661 203 203 203 0
-4.949365 3.079605 28.754483 203 203 203 0
-4.869408 3.098714 28.932904 204 204 204 0
-4.779577 3.112282 29.059593 201 201 201 0
-4.624832 3.083221 28.788248 194 194 194 0
-4.479234 3.058989 28.561990 192 192 192 0
-4.340824 3.038577 28.371402 193 193 193 0
-4.223441 3.032214 28.311989 194 194 194 0
-4.120937 3.036480 28.351818 194 194 194 0
-4.022125 3.043770 28.419891 193 193 193 0
-3.896296 3.030453 28.295544 195 195 195 0
-3.754485 3.003588 28.044705 198 198 198 0
-3.661151 3.015066 28.151876 197 197 197 0
-3.554576 3.016004 28.160636 198 198 198 0
-3.441369 3.011198 28.115757 199 199 199 0
-3.332001 3.009549 28.100364 198 198 198 0
-3.228800 3.013547 28.137691 200 200 200 0
-3.118049 3.010530 28.109520 201 201 201 0
-3.006009 3.006009 28.067310 201 201 201 0
-2.900156 3.007569 28.081876 202 202 202 0
-2.794631 3.009603 28.100869 201 201 201 0
-2.695323 3.018762 28.186387 202 202 202 0
-2.582920 3.013407 28.136387 203 203 203 0
-2.468799 3.005494 28.062504 204 204 204 0
-2.357772 3.000801 28.018681 203 203 203 0
-2.263384 3.017846 28.177832 203 203 203 0
-2.155203 3.017285 28.172594 205 205 205 0
-2.040255 3.006691 28.073681 207 207 207 0
-1.924404 2.993517 27.950672 206 206 206 0
-1.812794 2.985778 27.878409 207 207 207 0
-1.716467 3.003817 28.046846 207 207 207 0
-1.617989 3.020247 28.200252 207 207 207 0
-1.507145 3.014290 28.144627 207 207 207 0
-1.389963 2.993767 27.953011 205 205 205 0
-1.278533 2.983244 27.854749 200 200 200 0
-1.169406 2.976670 27.793371 199 199 199 0
-1.065344 2.982962 27.852119 200 200 200 0
-0.958551 2.982158 27.844610 200 200 200 0
-0.847869 2.967540 27.708121 200 200 200 0
-0.740158 2.960634 27.643641 202 202 202 0
-0.633702 2.957274 27.612267 201 201 201 0
-0.529697 2.966303 27.696577 201 201 201 0
-0.425348 2.977437 27.800531 203 203 203 0
-0.317433 2.962706 27.662989 203 203 203 0
-0.210960 2.953436 27.576429 203 203 203 0
-0.105206 2.945769 27.504850 203 203 203 0
0.000000 2.948399 27.529406 196 196 196 0
0.096269 2.695524 25.168294 105 105 105 0
0.363078 3.388730 31.640801 86 86 86 0
0.349765 2.448353 22.860437 82 82 82 0
0.428408 2.399083 22.400399 71 71 71 0
0.507676 2.369156 22.120974 71 71 71 0
0.584347 2.337389 21.824356 77 77 77 0
0.657100 2.299849 21.473845 66 66 66 0
0.723717 2.251563 21.022997 78 78 78 0
1.059682 2.967109 27.704097 85 85 85 0
0.845359 2.151823 20.091718 77 77 77 0
1.109785 2.589499 24.178330 149 149 149 0
1.164820 2.508843 23.425238 211 211 211 0
1.253548 2.507096 23.408925 214 214 214 0
1.340015 2.501361 23.355380 214 214 214 0
1.430983 2.504221 23.382078 214 214 214 0
1.524731 2.511322 23.448380 214 214 214 0
1.618682 2.517949 23.510262 214 214 214 0
1.705365 2.513169 23.465633 214 214 214 0
1.801463 2.522048 23.548534 215 215 215 0
1.898774 2.531698 23.638639 214 214 214 0
1.995648 2.539916 23.715367 214 214 214 0
2.091087 2.545671 23.769101 215 215 215 0
2.184018 2.548021 23.791046 214 214 214 0
2.278488 2.551906 23.827324 214 214 214 0
2.378147 2.561082 23.912994 214 214 214 0
2.480612 2.572487 24.019485 214 214 214 0
2.579117 2.579117 24.081392 214 214 214 0
2.672552 2.580395 24.093324 215 215 215 0
2.766268 2.581850 24.106913 215 215 215 0
2.863174 2.586093 24.146526 214 214 214 0
2.968771 2.597675 24.254664 215 215 215 0
3.060584 2.596859 24.247048 215 215 215 0
3.153063 2.596640 24.245004 214 214 214 0
3.250136 2.600109 24.277393 214 214 214 0
3.357526 2.611409 24.382905 214 214 214 0
3.464246 2.621591 24.477976 214 214 214 0
3.560125 2.623250 24.493467 214 214 214 0
3.645057 2.616964 24.434772 214 214 214 0
3.742305 2.619614 24.459511 215 215 215 0
3.842754 2.624320 24.503452 214 214 214 0
3.948937 2.632625 24.580998 213 213 213 0
4.039118 2.630123 24.557640 211 211 211 0
4.132086 2.629509 24.551907 196 196 196 0
4.229970 2.631981 24.574989 210 210 210 0
4.330370 2.635877 24.611364 211 211 211 0
4.436345 2.642929 24.677206 212 212 212 0
4.519564 2.636412 24.616360 211 211 211 0
4.601719 2.629553 24.552320 211 211 211 0
4.682875 2.622410 24.485622 211 211 211 0
4.777675 2.623037 24.491479 210 210 210 0
4.888102 2.632055 24.575674 211 211 211 0
4.967259 2.624212 24.502449 211 211 211 0
5.039604 2.613128 24.398956 210 210 210 0
5.120132 2.606613 24.338122 210 210 210 0
5.204277 2.602139 24.296345 212 212 212 0
5.305491 2.606206 24.334325 212 212 212 0
5.395012 2.604489 24.318288 212 212 212 0
5.478336 2.599888 24.275333 211 211 211 0
5.564556 2.596793 24.246431 211 211 211 0
5.635345 2.586716 24.152341 210 210 210 0
5.732627 2.588928 24.172999 210 210 210 0
5.822045 2.587576 24.160369 210 210 210 0
5.910669 2.585918 24.144890 212 212 212 0
5.990751 2.580631 24.095531 211 211 211 0
6.062060 2.571783 24.012915 210 210 210 0
6.153492 2.571609 24.011287 211 211 211 0
6.237212 2.568264 23.980056 211 211 211 0
6.335867 2.571076 24.006315 211 211 211 0
6.427732 2.571093 24.006468 211 211 211 0
6.515952 2.569671 23.993195 211 211 211 0
6.589396 2.562543 23.926639 211 211 211 0
6.667646 2.557453 23.879116 212 212 212 0
6.746481 2.552722 23.834943 211 211 211 0
6.820589 2.546353 23.775473 212 212 212 0
6.940335 2.556966 23.874562 211 211 211 0
7.007334 2.548122 23.791985 212 212 212 0
7.071764 2.538582 23.702914 212 212 212 0
7.152077 2.534913 23.668658 211 211 211 0
-6.270702 3.247328 29.274984 75 75 75 0
-6.108401 3.220793 29.035775 103 103 103 0
-6.011535 3.228417 29.104502 95 95 95 0
-5.752908 3.208352 28.923619 85 85 85 0
-5.585242 3.175922 28.631255 192 192 192 0
-5.475482 3.175779 28.629970 203 203 203 0
-5.406593 3.199820 28.846700 203 203 203 0
-5.319262 3.213721 28.972017 203 203 203 0
-5.197463 3.206945 28.910933 203 203 203 0
-5.056037 3.187502 28.735649 203 203 203 0
-4.937032 3.181643 28.682829 204 204 204 0
-4.849204 3.196066 28.812856 203 203 203 0
-4.758854 3.209459 28.933599 205 205 205 0
-4.631262 3.197776 28.828274 202 202 202 0
-4.483056 3.170942 28.586361 194 194 194 0
-4.349691 3.153526 28.429351 194 194 194 0
-4.234251 3.148545 28.384453 194 194 194 0
-4.124655 3.147763 28.377398 194 194 194 0
-4.018817 3.149884 28.396517 195 195 195 0
-3.903699 3.144646 28.349302 193 193 193 0
-3.761852 3.116963 28.099737 197 197 197 0
-3.667802 3.128419 28.203011 198 198 198 0
-3.558806 3.127435 28.194144 197 197 197 0
-3.448159 3.124894 28.171235 198 198 198 0
-3.340264 3.124763 28.170051 199 199 199 0
-3.239812 3.131818 28.233652 200 200 200 0
-3.121449 3.121449 28.140179 200 200 200 0
-3.012448 3.120035 28.127430 202 202 202 0
-2.905938 3.121192 28.137862 201 201 201 0
-2.800864 3.124041 28.163541 202 202 202 0
-2.703080 3.135573 28.267503 202 202 202 0
-2.587509 3.126574 28.186374 203 203 203 0
-2.470653 3.115171 28.083577 203 203 203 0
-2.360695 3.111825 28.053411 203 203 203 0
-2.268609 3.132841 28.242874 204 204 204 0
-2.158415 3.129701 28.214572 205 205 205 0
-2.044216 3.120119 28.128188 205 205 205 0
-1.929473 3.108595 28.024295 205 205 205 0
-1.817362 3.100205 27.948661 206 206 206 0
-1.720003 3.117506 28.104627 206 206 206 0
-1.621136 3.134195 28.255087 206 206 206 0
-1.507148 3.121950 28.144696 206 206 206 0
-1.391693 3.104545 27.987789 199 199 199 0
-1.279281 3.091597 27.871055 198 198 198 0
-1.169867 3.084194 27.804317 199 199 199 0
-1.065543 3.090075 27.857340 200 200 200 0
-0.958999 3.090107 27.857626 199 199 199 0
-0.849081 3.077917 27.747732 200 200 200 0
-0.738910 3.061199 27.597012 201 201 201 0
-0.632453 3.056858 27.557881 201 201 201 0
-0.528755 3.066777 27.647304 202 202 202 0
-0.424780 3.079653 27.763385 203 203 203 0
-0.317191 3.066181 27.641932 203 203 203 0
-0.210803 3.056646 27.555971 204 204 204 0
-0.105129 3.048734 27.484641 203 203 203 0
0.000000 3.056169 27.551670 197 197 197 0
0.097040 2.814160 25.369934 118 118 118 0
0.246218 3.570168 32.185419 79 79 79 0
0.361656 3.496009 31.516868 74 74 74 0
0.429761 2.492617 22.471189 87 87 87 0
0.507445 2.452649 22.110876 88 88 88 0
0.583765 2.418454 21.802609 93 93 93 0
0.656061 2.378222 21.439911 92 92 92 0
0.722590 2.328346 20.990274 95 95 95 0
0.795681 2.307474 20.802106 77 77 77 0
0.826897 2.180000 19.652921 82 82 82 0
1.101468 2.661882 23.997131 148 148 148 0
1.165802 2.600635 23.444983 211 211 211 0
1.254100 2.597779 23.419235 214 214 214 0
1.340644 2.591911 23.366341 215 215 215 0
1.430695 2.593134 23.377367 214 214 214 0
1.525228 2.601859 23.456022 215 215 215 0
1.619883 2.609812 23.527714 214 214 214 0
1.709188 2.608760 23.518232 215 215 215 0
1.800917 2.611330 23.541402 215 215 215 0
1.896851 2.619461 23.614705 215 215 215 0
1.997398 2.632934 23.736162 214 214 214 0
2.090036 2.635262 23.757153 213 213 213 0
2.183220 2.638057 23.782349 214 214 214 0
2.281105 2.646082 23.854693 215 215 215 0
2.380141 2.654772 23.933040 216 216 216 0
2.482861 2.666777 24.041263 214 214 214 0
2.580486 2.672646 24.094170 214 214 214 0
2.674220 2.674220 24.108358 214 214 214 0
2.768832 2.676538 24.129255 215 215 215 0
2.865271 2.680415 24.164206 214 214 214 0
2.970326 2.691858 24.267368 214 214 214 0
3.062656 2.691425 24.263465 215 215 215 0
3.155244 2.691238 24.261780 215 215 215 0
3.251851 2.694391 24.290207 215 215 215 0
3.359648 2.706383 24.398318 214 214 214 0
3.464566 2.715471 24.480242 214 214 214 0
3.560831 2.717476 24.498320 215 215 215 0
3.647540 2.712273 24.451417 214 214 214 0
3.745101 2.715198 24.477786 215 215 215 0
3.843903 2.718858 24.510777 215 215 215 0
3.951893 2.728688 24.599396 214 214 214 0
4.041818 2.725878 24.574060 211 211 211 0
4.134325 2.724896 24.565212 196 196 196 0
4.231622 2.727046 24.584589 211 211 211 0
4.335516 2.733260 24.640616 211 211 211 0
4.438828 2.738851 24.691020 211 211 211 0
4.522730 2.732482 24.633604 211 211 211 0
4.601097 2.723098 24.549004 210 210 210 0
4.685297 2.717472 24.498283 211 211 211 0
4.778109 2.716964 24.493704 211 211 211 0
4.891316 2.727849 24.591836 211 211 211 0
4.971347 2.720171 24.522614 211 211 211 0
5.042712 2.708123 24.414002 211 211 211 0
5.124270 2.701888 24.357789 211 211 211 0
5.209280 2.697663 24.319702 211 211 211 0
5.308319 2.700724 24.347293 212 212 212 0
5.400808 2.700404 24.344412 211 211 211 0
5.486281 2.696647 24.310539 210 210 210 0
5.564218 2.689372 24.244957 210 210 210 0
5.639569 2.681107 24.170444 210 210 210 0
5.731889 2.681045 24.169890 211 211 211 0
5.826237 2.681919 24.177765 211 211 211 0
5.910025 2.677980 24.142258 211 211 211 0
5.987073 2.671156 24.080735 211 211 211 0
6.066373 2.665528 24.029999 210 210 210 0
6.146837 2.660571 23.985315 211 211 211 0
6.236065 2.659498 23.975645 211 211 211 0
6.340134 2.664694 24.022485 212 212 212 0
6.432724 2.664986 24.025114 211 211 211 0
6.517594 2.662116 23.999243 211 211 211 0
6.592107 2.655154 23.936481 211 211 211 0
6.673703 2.651197 23.900806 212 212 212 0
6.751684 2.645930 23.853326 211 211 211 0
6.648111 2.570603 23.174242 211 211 211 0
6.947752 2.651116 23.900074 211 211 211 0
7.012813 2.641189 23.810585 212 212 212 0
7.074531 2.630274 23.712187 212 212 212 0
7.155840 2.626827 23.681112 212 212 212 0
-6.140165 3.349181 29.186764 71 71 71 0
-5.738118 3.310453 28.849263 98 98 98 0
-5.570780 3.276929 28.557118 195 195 195 0
-5.447108 3.268265 28.481608 202 202 202 0
-5.382003 3.295104 28.715501 202 202 202 0
-5.308612 3.317882 28.914007 202 202 202 0
-5.191364 3.313636 28.877006 202 202 202 0
-5.043766 3.289412 28.665903 203 203 203 0
-4.927764 3.285176 28.628984 204 204 204 0
-4.838859 3.299222 28.751389 203 203 203 0
-4.760451 3.321245 28.943311 204 204 204 0
-4.633771 3.309836 28.843889 204 204 204 0
-4.483898 3.280901 28.591728 202 202 202 0
-4.356430 3.267322 28.473399 197 197 197 0
-4.241916 3.263012 28.435835 195 195 195 0
-4.131454 3.261674 28.424173 195 195 195 0
-4.031203 3.268543 28.484032 194 194 194 0
-3.904952 3.254126 28.358399 196 196 196 0
-3.770667 3.232000 28.165576 196 196 196 0
-3.668664 3.237056 28.209641 198 198 198 0
-3.570804 3.246186 28.289200 198 198 198 0
-3.454487 3.238582 28.222937 198 198 198 0
-3.345772 3.237844 28.216504 199 199 199 0
-3.231805 3.231805 28.163878 199 199 199 0
-3.132862 3.240891 28.243062 200 200 200 0
-3.018682 3.234303 28.185643 199 199 199 0
-2.913714 3.237460 28.213163 201 201 201 0
-2.803816 3.235172 28.193220 202 202 202 0
-2.706902 3.248283 28.307476 202 202 202 0
-2.591538 3.239423 28.230263 203 203 203 0
-2.472623 3.225160 28.105968 204 204 204 0
-2.363241 3.222601 28.083673 203 203 203 0
-2.272848 3.246926 28.295654 205 205 205 0
-2.162211 3.243316 28.264193 205 205 205 0
-2.046109 3.230698 28.154229 206 206 206 0
-1.931148 3.218581 28.048633 205 205 205 0
-1.819133 3.210235 27.975907 206 206 206 0
-1.723350 3.231281 28.159312 207 207 207 0
-1.623268 3.246536 28.292254 205 205 205 0
-1.507939 3.231299 28.159465 200 200 200 0
-1.392740 3.214015 28.008847 197 197 197 0
-1.278996 3.197490 27.864835 198 198 198 0
-1.168681 3.187311 27.776133 200 200 200 0
-1.065982 3.197945 27.868804 199 199 199 0
-0.958474 3.194914 27.842386 200 200 200 0
-0.848635 3.182381 27.733169 200 200 200 0
-0.738567 3.165286 27.584190 200 200 200 0
-0.631634 3.158169 27.522169 201 201 201 0
-0.528393 3.170360 27.628410 203 203 203 0
-0.424194 3.181453 27.725083 202 202 202 0
-0.316964 3.169638 27.622121 204 204 204 0
-0.210661 3.159912 27.537363 202 202 202 0
-0.105015 3.150462 27.455011 204 204 204 0
0.000000 3.162294 27.558116 201 201 201 0
0.097170 2.915097 25.403899 138 138 138 0
0.243391 3.650865 31.815820 71 71 71 0
0.363655 3.636547 31.691042 93 93 93 0
0.347863 2.608974 22.736157 82 82 82 0
0.428454 2.570721 22.402802 83 83 83 0
0.506784 2.533920 22.082095 79 79 79 0
0.583646 2.501342 21.798188 91 91 91 0
0.654735 2.455255 21.396557 95 95 95 0
0.721900 2.406335 20.970236 88 88 88 0
1.066061 3.198182 27.870864 95 95 95 0
0.847402 2.311097 20.140283 84 84 84 0
1.101490 2.753725 23.997606 145 145 145 0
1.166816 2.692652 23.465373 211 211 211 0
1.255323 2.689978 23.442078 215 215 215 0
1.341744 2.683488 23.385513 214 214 214 0
1.430835 2.682815 23.379655 214 214 214 0
1.525884 2.692736 23.466107 214 214 214 0
1.620677 2.701128 23.539244 214 214 214 0
1.709063 2.698520 23.516518 215 215 215 0
1.801333 2.702000 23.546841 214 214 214 0
1.900578 2.715111 23.661096 214 214 214 0
1.998052 2.724616 23.743929 214 214 214 0
2.090785 2.727110 23.765668 214 214 214 0
2.185961 2.732452 23.812214 215 215 215 0
2.284397 2.741277 23.889121 215 215 215 0
2.380995 2.747302 23.941630 214 214 214 0
2.485639 2.761822 24.068162 214 214 214 0
2.583600 2.768143 24.123251 215 215 215 0
2.675014 2.767256 24.115519 214 214 214 0
2.768249 2.768249 24.124173 215 215 215 0
2.865223 2.772796 24.163801 214 214 214 0
2.973863 2.787996 24.296264 215 215 215 0
3.062397 2.783997 24.261412 215 215 215 0
3.155874 2.784595 24.266619 215 215 215 0
3.254458 2.789536 24.309678 215 215 215 0
3.362931 2.802443 24.422158 214 214 214 0
3.463274 2.808060 24.471110 215 215 215 0
3.563714 2.813458 24.518157 214 214 214 0
3.652692 2.809763 24.485952 214 214 214 0
3.747235 2.810426 24.491731 214 214 214 0
3.848136 2.815709 24.537771 215 215 215 0
3.950605 2.821861 24.591377 214 214 214 0
4.043242 2.820867 24.582715 212 212 212 0
4.136484 2.820330 24.578041 198 198 198 0
4.234340 2.822894 24.600380 211 211 211 0
4.338541 2.829483 24.657805 211 211 211 0
4.439521 2.833737 24.694872 211 211 211 0
4.520675 2.825422 24.622414 212 212 212 0
4.604441 2.819046 24.566846 211 211 211 0
4.685849 2.811509 24.501172 211 211 211 0
4.773917 2.808187 24.472214 211 211 211 0
4.895706 2.824446 24.613907 210 210 210 0
4.975566 2.816358 24.543424 211 211 211 0
5.045384 2.802991 24.426936 211 211 211 0
5.126476 2.796260 24.368277 211 211 211 0
5.209118 2.790599 24.318943 210 210 210 0
5.313182 2.796412 24.369601 210 210 210 0
5.406122 2.796270 24.368364 211 211 211 0
5.490810 2.791937 24.330610 211 211 211 0
5.568112 2.784056 24.261926 211 211 211 0
5.639294 2.773423 24.169268 211 211 211 0
5.736037 2.775502 24.187378 211 211 211 0
5.828357 2.775408 24.186563 211 211 211 0
5.913852 2.772118 24.157890 211 211 211 0
5.996587 2.767656 24.119003 211 211 211 0
6.073635 2.760743 24.058763 211 211 211 0
6.156884 2.756814 24.024520 211 211 211 0
6.241821 2.753745 23.997775 211 211 211 0
6.342944 2.757802 24.033132 211 211 211 0
6.435835 2.758215 24.036732 211 211 211 0
6.522439 2.755960 24.017083 211 211 211 0
6.597130 2.748804 23.954720 212 212 212 0
6.675994 2.743559 23.909012 212 212 212 0
6.759227 2.740227 23.879976 211 211 211 0
7.387495 2.954998 25.751615 212 212 212 0
6.943438 2.740831 23.885237 212 212 212 0
7.012250 2.732046 23.808677 212 212 212 0
7.073955 2.720752 23.710257 213 213 213 0
7.157123 2.717895 23.685357 212 212 212 0
-5.739296 3.421503 28.855184 110 110 110 0
-5.565070 3.382690 28.527849 196 196 196 0
-5.434266 3.369245 28.414464 202 202 202 0
-5.366360 3.395044 28.632038 202 202 202 0
-5.299175 3.422384 28.862608 203 203 203 0
-5.180682 3.417045 28.817588 204 204 204 0
-5.035092 3.393214 28.616605 203 203 203 0
-4.918329 3.388182 28.574170 204 204 204 0
-4.831777 3.404206 28.709309 203 203 203 0
-4.765652 3.435703 28.974933 203 203 203 0
-4.631389 3.418406 28.829066 205 205 205 0
-4.483210 3.389744 28.587342 204 204 204 0
-4.360092 3.379071 28.497333 204 204 204 0
-4.249815 3.378058 28.488788 199 199 199 0
-4.143261 3.380029 28.505406 197 197 197 0
-4.036034 3.381542 28.518171 195 195 195 0
-3.913829 3.370241 28.422867 195 195 195 0
-3.786208 3.353498 28.281664 195 195 195 0
-3.674638 3.350405 28.255578 195 195 195 0
-3.575639 3.358933 28.327500 198 198 198 0
-3.463641 3.355402 28.297720 199 199 199 0
-3.346974 3.346974 28.226642 200 200 200 0
-3.240544 3.348562 28.240033 199 199 199 0
-3.130171 3.346045 28.218805 200 200 200 0
-3.019738 3.343282 28.195504 200 200 200 0
-2.914232 3.345970 28.218172 201 201 201 0
-2.814552 3.355812 28.301181 200 200 200 0
-2.712604 3.363629 28.367104 203 203 203 0
-2.594551 3.351295 28.263081 204 204 204 0
-2.476559 3.337971 28.150717 203 203 203 0
-2.366234 3.334239 28.119237 203 203 203 0
-2.278980 3.364208 28.371985 204 204 204 0
-2.166410 3.357935 28.319080 204 204 204 0
-2.048826 3.342822 28.191624 206 206 206 0
-1.933853 3.330525 28.087920 206 206 206 0
-1.822926 3.324160 28.034239 206 206 206 0
-1.728121 3.348234 28.237266 205 205 205 0
-1.624265 3.356814 28.309628 201 201 201 0
-1.503950 3.330174 28.084958 197 197 197 0
-1.393273 3.322420 28.019565 197 197 197 0
-1.279463 3.305280 27.875017 198 198 198 0
-1.168511 3.293077 27.772098 200 200 200 0
-1.064171 3.298932 27.821476 199 199 199 0
-0.957919 3.299499 27.826264 200 200 200 0
-0.848154 3.286596 27.717448 199 199 199 0
-0.737987 3.268226 27.562523 200 200 200 0
-0.631700 3.263785 27.525072 201 201 201 0
-0.528506 3.276737 27.634297 202 202 202 0
-0.423823 3.284628 27.700851 203 203 203 0
-0.316795 3.273544 27.607369 203 203 203 0
-0.210485 3.262519 27.514392 203 203 203 0
-0.104955 3.253595 27.439131 203 203 203 0
0.000000 3.260204 27.494870 203 203 203 0
0.096612 2.994972 25.258041 143 143 143 0
0.242854 3.764241 31.745658 80 80 80 0
0.360196 3.722022 31.389603 80 80 80 0
0.348796 2.703172 22.797148 82 82 82 0
0.427471 2.650318 22.351406 80 80 80 0
0.506190 2.615317 22.056230 85 85 85 0
0.582563 2.579921 21.757713 95 95 95 0
0.655079 2.538432 21.407819 75 75 75 0
0.722544 2.488763 20.988933 89 89 89 0
1.072950 3.326145 28.050982 84 84 84 0
0.826245 2.328508 19.637429 90 90 90 0
1.099532 2.840459 23.954955 149 149 149 0
1.166763 2.782281 23.464310 211 211 211 0
1.255620 2.780301 23.447613 214 214 214 0
1.341617 2.772676 23.383311 214 214 214 0
1.431888 2.774283 23.396863 214 214 214 0
1.527409 2.785275 23.489568 215 215 215 0
1.621244 2.792142 23.547477 214 214 214 0
1.708797 2.788037 23.512855 214 214 214 0
1.802695 2.794177 23.564641 214 214 214 0
1.900616 2.805671 23.661569 214 214 214 0
2.000414 2.818765 23.772003 214 214 214 0
2.092509 2.820338 23.785263 214 214 214 0
2.186277 2.823941 23.815653 214 214 214 0
2.284389 2.832643 23.889040 214 214 214 0
2.383705 2.842109 23.968876 215 215 215 0
2.486332 2.854677 24.074865 215 215 215 0
2.584232 2.861114 24.129152 214 214 214 0
2.675273 2.859775 24.117854 215 215 215 0
2.770419 2.862766 24.143084 215 215 215 0
2.837242 2.837242 23.927826 214 214 214 0
2.975477 2.882493 24.309452 214 214 214 0
3.067286 2.881390 24.300145 215 215 215 0
3.158530 2.879836 24.287045 214 214 214 0
3.256247 2.884105 24.323042 215 215 215 0
3.364775 2.897445 24.435550 215 215 215 0
3.470424 2.907653 24.521635 214 214 214 0
3.566535 2.909541 24.537561 213 213 213 0
3.653402 2.903986 24.490711 214 214 214 0
3.747827 2.904566 24.495603 215 215 215 0
3.850893 2.911651 24.555353 215 215 215 0
3.955840 2.919787 24.623967 213 213 213 0
4.043121 2.914808 24.581977 210 210 210 0
4.138807 2.915978 24.591844 196 196 196 0
4.237570 2.919215 24.619144 210 210 210 0
4.341599 2.925860 24.675186 211 211 211 0
4.441715 2.929642 24.707078 211 211 211 0
4.524549 2.922105 24.643515 211 211 211 0
4.608393 2.915514 24.587933 211 211 211 0
4.691809 2.908922 24.532336 211 211 211 0
4.682311 2.846111 24.002621 211 211 211 0
4.899334 2.920757 24.632149 211 211 211 0
4.976362 2.910702 24.547353 211 211 211 0
5.046420 2.897019 24.431954 210 210 210 0
5.127668 2.890140 24.373941 211 211 211 0
5.212441 2.885458 24.334456 210 210 210 0
5.317831 2.892154 24.390925 210 210 210 0
5.411365 2.892281 24.391997 210 210 210 0
5.492449 2.885863 24.337869 211 211 211 0
5.566672 2.876114 24.255653 211 211 211 0
5.646666 2.869617 24.200862 211 211 211 0
5.738694 2.869347 24.198583 211 211 211 0
5.830009 2.868735 24.193419 212 212 212 0
5.920150 2.867573 24.183621 211 211 211 0
6.001855 2.862423 24.140190 211 211 211 0
6.077407 2.854540 24.073706 211 211 211 0
6.166932 2.853357 24.063728 211 211 211 0
6.258817 2.853284 24.063119 211 211 211 0
6.348806 2.852362 24.055341 211 211 211 0
6.439608 2.851826 24.050823 211 211 211 0
6.527455 2.850016 24.035553 211 211 211 0
6.598423 2.840988 23.959416 211 211 211 0
6.676533 2.835240 23.910942 211 211 211 0
6.761485 2.832514 23.887952 211 211 211 0
6.953687 2.874191 24.239432 211 211 211 0
6.947581 2.833882 23.899487 212 212 212 0
7.012961 2.823400 23.811089 211 211 211 0
7.079467 2.813634 23.728730 212 212 212 0
7.163730 2.811084 23.707222 211 211 211 0
-5.732176 3.527493 28.819388 120 120 120 0
-5.552370 3.483840 28.462743 199 199 199 0
-5.420441 3.469082 28.342176 202 202 202 0
-5.340020 3.487360 28.491504 202 202 202 0
-5.285086 3.523391 28.785872 203 203 203 0
-5.171101 3.520750 28.764295 203 203 203 0
-5.026432 3.496648 28.567387 203 203 203 0
-4.908815 3.490713 28.518894 202 202 202 0
-4.822467 3.507249 28.653992 204 204 204 0
-4.764544 3.545707 28.968194 203 203 203 0
-4.627509 3.525721 28.804913 203 203 203 0
-4.489787 3.504224 28.629279 204 204 204 0
-4.361255 3.489004 28.504937 205 205 205 0
-4.254703 3.491038 28.521556 205 205 205 0
-4.153536 3.497715 28.576102 202 202 202 0
-4.043930 3.497453 28.573959 197 197 197 0
-3.924042 3.488037 28.497034 195 195 195 0
-3.799962 3.474251 28.384403 195 195 195 0
-3.684664 3.467919 28.332670 196 196 196 0
-3.577604 3.469192 28.343072 198 198 198 0
-3.468720 3.468720 28.339218 197 197 197 0
-3.360374 3.468774 28.339654 200 200 200 0
-3.251148 3.467891 28.332441 200 200 200 0
-3.137569 3.462145 28.285498 199 199 199 0
-3.022363 3.454129 28.220006 200 200 200 0
-2.916130 3.456154 28.236549 201 201 201 0
-2.819457 3.470101 28.350498 202 202 202 0
-2.715074 3.475294 28.392926 201 201 201 0
-2.597934 3.463912 28.299932 202 202 202 0
-2.477437 3.446869 28.160698 203 203 203 0
-2.369855 3.447061 28.162266 205 205 205 0
-2.283877 3.480193 28.432949 204 204 204 0
-2.170200 3.472320 28.368626 204 204 204 0
-2.051794 3.455654 28.232466 205 205 205 0
-1.936294 3.442301 28.123374 205 205 205 0
-1.824263 3.433906 28.054789 206 206 206 0
-1.730417 3.460834 28.274784 200 200 200 0
-1.623160 3.462742 28.290378 198 198 198 0
-1.504742 3.439411 28.099764 197 197 197 0
-1.392049 3.426582 27.994949 197 197 197 0
-1.278044 3.408116 27.844086 198 198 198 0
-1.168922 3.400500 27.781863 199 199 199 0
-1.063676 3.403764 27.808528 199 199 199 0
-0.956427 3.400630 27.782928 200 200 200 0
-0.847210 3.388842 27.686614 199 199 199 0
-0.738607 3.376491 27.585710 200 200 200 0
-0.631283 3.366842 27.506880 202 202 202 0
-0.528026 3.379367 27.609211 202 202 202 0
-0.423164 3.385312 27.657781 203 203 203 0
-0.316469 3.375664 27.578957 203 203 203 0
-0.210283 3.364526 27.487954 203 203 203 0
-0.104759 3.352298 27.388059 203 203 203 0
0.000000 3.361084 27.459835 204 204 204 0
0.096667 3.093346 25.272435 156 156 156 0
0.243046 3.888733 31.770691 83 83 83 0
0.360872 3.849304 31.448563 78 78 78 0
0.347588 2.780706 22.718183 86 86 86 0
0.427113 2.733524 22.332715 85 85 85 0
0.505686 2.696993 22.034260 77 77 77 0
0.582606 2.663344 21.759343 77 77 77 0
0.654461 2.617843 21.387604 82 82 82 0
0.721112 2.563952 20.947322 89 89 89 0
1.067643 3.416458 27.912235 88 88 88 0
1.101716 3.204993 26.184581 102 102 102 0
1.096365 2.923640 23.885945 153 153 153 0
1.167614 2.874126 23.481422 211 211 211 0
1.256812 2.872713 23.469880 214 214 214 0
1.341622 2.862126 23.383382 213 213 213 0
1.432777 2.865554 23.411390 215 215 215 0
1.528221 2.876650 23.502046 215 215 215 0
1.621911 2.883397 23.557161 214 214 214 0
1.709770 2.879612 23.526244 214 214 214 0
1.804553 2.887285 23.588931 215 215 215 0
1.902528 2.899090 23.685376 214 214 214 0
1.998683 2.907175 23.751426 214 214 214 0
2.092768 2.911678 23.788217 213 213 213 0
2.186810 2.915746 23.821455 215 215 215 0
2.284075 2.923616 23.885755 214 214 214 0
2.385360 2.935827 23.985518 214 214 214 0
2.488600 2.949452 24.096827 214 214 214 0
2.584750 2.954000 24.133983 214 214 214 0
2.681032 2.958380 24.169774 214 214 214 0
2.775201 2.960215 24.184759 215 215 215 0
2.649141 2.734597 22.341479 215 215 215 0
2.977700 2.977700 24.327614 213 213 213 0
3.066899 2.973962 24.297079 214 214 214 0
3.160896 2.974961 24.305236 214 214 214 0
3.259447 2.980066 24.346944 214 214 214 0
3.367313 2.993167 24.453979 214 214 214 0
3.472183 3.002969 24.534059 214 214 214 0
3.565759 3.002745 24.532227 215 215 215 0
3.655730 2.999573 24.506319 215 215 215 0
3.750083 3.000066 24.510344 214 214 214 0
3.851508 3.006055 24.559275 214 214 214 0
3.956990 3.014849 24.631121 214 214 214 0
4.047042 3.011752 24.605819 210 210 210 0
4.139677 3.010674 24.597011 196 196 196 0
4.241000 3.015822 24.639069 211 211 211 0
4.345582 3.023014 24.697823 210 210 210 0
4.442714 3.024826 24.712634 211 211 211 0
4.527577 3.018385 24.660008 211 211 211 0
4.612806 3.012445 24.611478 211 211 211 0
4.697236 3.006231 24.560710 212 212 212 0
4.417727 2.771907 22.646298 211 211 211 0
4.896838 3.013439 24.619596 211 211 211 0
4.975532 3.004095 24.543256 211 211 211 0
5.051527 2.993497 24.456677 211 211 211 0
5.130686 2.985127 24.388289 211 211 211 0
5.215692 2.980395 24.349634 211 211 211 0
5.320534 2.986967 24.403322 211 211 211 0
5.409064 2.984311 24.381629 211 211 211 0
5.495309 2.980507 24.350545 211 211 211 0
5.576963 2.974380 24.300491 211 211 211 0
5.652569 2.965282 24.226159 212 212 212 0
5.746197 2.965779 24.230221 211 211 211 0
5.838382 2.965527 24.228163 211 211 211 0
5.921034 2.960517 24.187229 211 211 211 0
6.006148 2.956873 24.157460 211 211 211 0
6.079680 2.947724 24.082711 211 211 211 0
6.166168 2.945036 24.060749 210 210 210 0
6.256808 2.944380 24.055393 211 211 211 0
6.352606 2.946136 24.069740 212 212 212 0
6.444852 2.946218 24.070409 211 211 211 0
6.529456 2.942854 24.042921 211 211 211 0
6.602390 2.934396 23.973822 211 211 211 0
6.679977 2.928209 23.923275 211 211 211 0
6.763655 2.924824 23.895621 212 212 212 0
6.885739 2.937915 24.002575 212 212 212 0
6.949119 2.925945 23.904778 212 212 212 0
7.015889 2.915694 23.821029 212 212 212 0
7.082080 2.905469 23.737490 211 211 211 0
7.167777 2.903404 23.720617 211 211 211 0
-5.720536 3.630340 28.760863 130 130 130 0
-5.554154 3.593864 28.471891 199 199 199 0
-5.413407 3.572849 28.305397 203 203 203 0
-5.328625 3.588666 28.430706 202 202 202 0
-5.272304 3.624709 28.716251 203 203 203 0
-5.159168 3.622394 28.697915 203 203 203 0
-5.022133 3.602835 28.542955 203 203 203 0
-4.907117 3.598553 28.509034 204 204 204 0
-4.824032 3.618024 28.663291 203 203 203 0
-4.850137 3.722198 29.488599 203 203 203 0
-4.619663 3.629735 28.756072 203 203 203 0
-4.484771 3.609694 28.597295 204 204 204 0
-4.361773 3.598463 28.508320 204 204 204 0
-4.258113 3.603018 28.544412 205 205 205 0
-4.162920 3.615168 28.640662 205 205 205 0
-4.055601 3.617157 28.656425 204 204 204 0
-3.940232 3.611880 28.614613 200 200 200 0
-3.807052 3.589506 28.437365 197 197 197 0
-3.701725 3.592851 28.463861 197 197 197 0
-3.585373 3.585373 28.404618 196 196 196 0
-3.474816 3.583404 28.389017 198 198 198 0
-3.358107 3.574759 28.320530 198 198 198 0
-3.255265 3.580791 28.368321 199 199 199 0
-3.148105 3.582326 28.380482 200 200 200 0
-3.030848 3.572071 28.299237 200 200 200 0
-2.921916 3.571231 28.292578 200 200 200 0
-2.824785 3.585304 28.404068 202 202 202 0
-2.722077 3.593141 28.466160 201 201 201 0
-2.600731 3.576006 28.330406 202 202 202 0
-2.480683 3.559240 28.197586 202 202 202 0
-2.371470 3.557205 28.181464 203 203 203 0
-2.288705 3.596536 28.493055 204 204 204 0
-2.176119 3.590596 28.445999 204 204 204 0
-2.054381 3.568136 28.268061 205 205 205 0
-1.940112 3.556871 28.178817 206 206 206 0
-1.827979 3.548430 28.111943 203 203 203 0
-1.727442 3.562850 28.226182 197 197 197 0
-1.621170 3.566574 28.255690 196 196 196 0
-1.504134 3.545458 28.088399 195 195 195 0
-1.389704 3.527710 27.947796 196 196 196 0
-1.277665 3.513579 27.835838 199 199 199 0
-1.168127 3.504381 27.762969 198 198 198 0
-1.064041 3.511335 27.818064 198 198 198 0
-0.957888 3.512256 27.825363 199 199 199 0
-0.847566 3.496212 27.698250 199 199 199 0
-0.737616 3.477335 27.548702 201 201 201 0
-0.631550 3.473525 27.518521 202 202 202 0
-0.527487 3.481411 27.580998 202 202 202 0
-0.422963 3.489442 27.644622 202 202 202 0
-0.316563 3.482193 27.587186 203 203 203 0
-0.210276 3.469552 27.487045 204 204 204 0
-0.104741 3.456445 27.383206 204 204 204 0
0.000000 3.460135 27.412440 204 204 204 0
0.096719 3.191713 25.285900 163 163 163 0
0.242076 3.994254 31.643925 76 76 76 0
0.359691 3.956603 31.345638 79 79 79 0
0.471450 3.889461 30.813714 87 87 87 0
0.579095 3.822025 30.279464 80 80 80 0
0.504266 2.773461 21.972358 90 90 90 0
0.786601 3.708263 29.378195 74 74 74 0
0.883713 3.645314 28.879495 84 84 84 0
0.723268 2.651982 21.009955 92 92 92 0
1.062677 3.506833 27.782397 85 85 85 0
1.101093 3.303279 26.169768 101 101 101 0
1.094663 3.010324 23.848870 149 149 149 0
1.168095 2.965165 23.491106 212 212 212 0
1.256587 2.961956 23.465682 214 214 214 0
1.342830 2.954225 23.404439 214 214 214 0
1.433637 2.956877 23.425447 214 214 214 0
1.529759 2.969532 23.525703 214 214 214 0
1.623074 2.975635 23.574057 214 214 214 0
1.709531 2.969185 23.522955 214 214 214 0
1.805527 2.979120 23.601661 214 214 214 0
1.901982 2.988829 23.678585 214 214 214 0
1.999429 2.999143 23.760294 213 213 213 0
2.095990 3.007289 23.824832 214 214 214 0
2.188543 3.009246 23.840335 214 214 214 0
2.284760 3.015883 23.892915 214 214 214 0
2.385893 3.028248 23.990876 214 214 214 0
2.490103 3.043460 24.111385 214 214 214 0
2.585311 3.046973 24.139221 214 214 214 0
2.680814 3.050582 24.167808 214 214 214 0
2.780760 3.058836 24.233203 215 215 215 0
3.078437 3.277046 25.961943 214 214 214 0
2.974288 3.067235 24.299741 214 214 214 0
3.069932 3.069932 24.321108 214 214 214 0
3.163525 3.070480 24.325454 214 214 214 0
3.261578 3.075202 24.362861 214 214 214 0
3.367676 3.087037 24.456617 214 214 214 0
3.468613 3.093628 24.508836 214 214 214 0
3.567302 3.097920 24.542841 215 215 215 0
3.655985 3.093526 24.508027 214 214 214 0
3.754207 3.097220 24.537298 214 214 214 0
3.855606 3.103292 24.585402 214 214 214 0
3.961335 3.112477 24.658169 213 213 213 0
4.050533 3.108548 24.627042 210 210 210 0
4.142550 3.106913 24.614083 196 196 196 0
4.242892 3.111454 24.650062 211 211 211 0
4.351639 3.121828 24.732245 210 210 210 0
4.444886 3.120878 24.724718 210 210 210 0
4.526656 3.112076 24.654988 210 210 210 0
4.611575 3.105754 24.604908 211 211 211 0
4.703836 3.104532 24.595222 210 210 210 0
5.045242 3.264568 25.863087 210 210 210 0
4.894884 3.106369 24.609776 211 211 211 0
4.976888 3.098817 24.549946 210 210 210 0
5.053332 3.088148 24.465419 211 211 211 0
5.133192 3.079915 24.400198 211 211 211 0
5.217782 3.074764 24.359393 211 211 211 0
5.322598 3.081504 24.412789 210 210 210 0
5.413970 3.080362 24.403741 211 211 211 0
5.495429 3.073715 24.351078 211 211 211 0
5.576168 3.066892 24.297028 211 211 211 0
5.654772 3.059139 24.235603 211 211 211 0
5.746627 3.058689 24.232035 211 211 211 0
5.839863 3.058976 24.234309 211 211 211 0
5.928932 3.057106 24.219495 211 211 211 0
6.005720 3.049058 24.155737 211 211 211 0
6.089321 3.044660 24.120898 211 211 211 0
6.173044 3.040455 24.087578 211 211 211 0
6.264549 3.040149 24.085154 211 211 211 0
6.361050 3.042241 24.101732 212 212 212 0
6.449530 3.040493 24.087880 210 210 210 0
6.533567 3.036728 24.058058 212 212 212 0
6.605515 3.027528 23.985168 211 211 211 0
6.686544 3.022684 23.946795 211 211 211 0
6.770833 3.019425 23.920978 211 211 211 0
6.869317 3.022500 23.945332 211 211 211 0
6.951051 3.018220 23.911426 211 211 211 0
7.019751 3.008465 23.834143 212 212 212 0
7.082915 2.996618 23.740290 211 211 211 0
7.171068 2.995509 23.731506 211 211 211 0
-5.718194 3.738819 28.749088 143 143 143 0
-5.543587 3.695724 28.417720 200 200 200 0
-5.393589 3.667641 28.201773 202 202 202 0
-5.312273 3.686067 28.343461 203 203 203 0
-5.261378 3.726809 28.656741 202 202 202 0
-5.150277 3.725732 28.648461 202 202 202 0
-5.015035 3.706765 28.502615 202 202 202 0
-4.896232 3.699375 28.445791 203 203 203 0
-4.812525 3.718769 28.594920 204 204 204 0
-5.629420 4.451169 34.226598 204 204 204 0
-4.606818 3.729329 28.676116 203 203 203 0
-4.479769 3.714930 28.565399 204 204 204 0
-4.358736 3.704925 28.488467 204 204 204 0
-4.257336 3.711524 28.539208 204 204 204 0
-4.164668 3.726282 28.652685 204 204 204 0
-4.055651 3.726814 28.656780 205 205 205 0
-3.947479 3.728175 28.667242 204 204 204 0
-3.827013 3.717670 28.586468 203 203 203 0
-3.718747 3.718747 28.594750 201 201 201 0
-3.595034 3.703975 28.481159 199 199 199 0
-3.481962 3.699585 28.447401 197 197 197 0
-3.373223 3.699664 28.448012 198 198 198 0
-3.263730 3.698894 28.442089 198 198 198 0
-3.151494 3.694855 28.411038 200 200 200 0
-3.032509 3.682332 28.314739 201 201 201 0
-2.928066 3.687194 28.352125 201 201 201 0
-2.829820 3.700533 28.454698 202 202 202 0
-2.724794 3.705719 28.494574 202 202 202 0
-2.604640 3.689906 28.372979 202 202 202 0
-2.482052 3.669121 28.213153 203 203 203 0
-2.326582 3.595627 27.648039 203 203 203 0
-2.296776 3.718589 28.593534 204 204 204 0
-2.178137 3.702833 28.472379 204 204 204 0
-2.057325 3.681529 28.308566 206 206 206 0
-1.939835 3.664132 28.174796 202 202 202 0
-1.827870 3.655739 28.110259 197 197 197 0
-1.727527 3.670996 28.227571 195 195 195 0
-1.620051 3.672115 28.236181 196 196 196 0
-1.502812 3.649687 28.063720 195 195 195 0
-1.389577 3.634277 27.945231 196 196 196 0
-1.277165 3.618634 27.824943 199 199 199 0
-1.169864 3.615944 27.804260 199 199 199 0
-1.063651 3.616415 27.807880 198 198 198 0
-0.959010 3.622926 27.857950 200 200 200 0
-0.848034 3.604145 27.713536 199 199 199 0
-0.738089 3.585003 27.566340 201 201 201 0
-0.631627 3.579218 27.521864 202 202 202 0
-0.527360 3.586047 27.574368 202 202 202 0
-0.422938 3.594969 27.642978 202 202 202 0
-0.316303 3.584772 27.564568 204 204 204 0
-0.210240 3.574076 27.482321 203 203 203 0
-0.104749 3.561474 27.385418 205 205 205 0
0.000000 3.561156 27.382972 204 204 204 0
0.096333 3.275327 25.185135 169 169 169 0
0.243279 4.135738 31.801138 81 81 81 0
0.358395 4.061807 31.232654 75 75 75 0
0.470060 3.995514 30.722907 89 89 89 0
0.577829 3.929234 30.213257 91 91 91 0
0.683344 3.872284 29.775348 87 87 87 0
0.786261 3.818981 29.365483 73 73 73 0
0.883950 3.756786 28.887245 70 70 70 0
0.973818 3.678868 28.288103 102 102 102 0
1.057999 3.597196 27.660102 88 88 88 0
0.848574 2.622865 20.168131 80 80 80 0
1.095586 3.104160 23.868976 154 154 154 0
1.169080 3.057594 23.510912 212 212 212 0
1.256999 3.052712 23.473371 214 214 214 0
1.343738 3.045807 23.420273 214 214 214 0
1.435106 3.049601 23.449452 214 214 214 0
1.530625 3.061249 23.539019 214 214 214 0
1.625378 3.070158 23.607521 214 214 214 0
1.713619 3.066475 23.579203 214 214 214 0
1.806319 3.070743 23.612018 214 214 214 0
1.902642 3.080468 23.686797 214 214 214 0
1.999982 3.090881 23.766867 213 213 213 0
2.095224 3.097288 23.816134 214 214 214 0
2.188489 3.100359 23.839749 214 214 214 0
2.287364 3.110814 23.920142 214 214 214 0
2.387179 3.121696 24.003813 215 215 215 0
2.491822 3.137850 24.128026 214 214 214 0
2.586985 3.141339 24.154852 214 214 214 0
2.681356 3.143659 24.172694 214 214 214 0
2.779199 3.149759 24.219598 215 215 215 0
2.909209 3.190746 24.534760 214 214 214 0
2.977388 3.163475 24.325064 214 214 214 0
3.072403 3.165506 24.340682 214 214 214 0
3.164322 3.164322 24.331580 214 214 214 0
3.262550 3.169334 24.370120 214 214 214 0
3.369143 3.181969 24.467271 214 214 214 0
3.472670 3.191102 24.537500 215 215 215 0
3.568087 3.192499 24.548241 214 214 214 0
3.658197 3.189197 24.522853 215 215 215 0
3.754575 3.191389 24.539707 215 215 215 0
3.857639 3.199018 24.598367 215 215 215 0
3.962954 3.208106 24.668249 213 213 213 0
4.050228 3.202506 24.625189 209 209 209 0
4.143463 3.201767 24.619508 195 195 195 0
4.246865 3.208742 24.673144 212 212 212 0
4.355903 3.219581 24.756483 212 212 212 0
4.447254 3.217163 24.737892 211 211 211 0
4.529663 3.208511 24.671365 211 211 211 0
4.609545 3.198460 24.594080 211 211 211 0
4.702535 3.197723 24.588416 211 211 211 0
4.849976 3.233317 24.862109 211 211 211 0
4.897666 3.202320 24.623759 211 211 211 0
4.977176 3.192905 24.551368 211 211 211 0
5.055572 3.183138 24.476263 210 210 210 0
5.135097 3.174424 24.409255 211 211 211 0
5.220097 3.169345 24.370202 210 210 210 0
5.321423 3.174182 24.407397 211 211 211 0
5.413535 3.173452 24.401781 211 211 211 0
5.497058 3.167796 24.358296 211 211 211 0
5.575627 3.159522 24.294670 211 211 211 0
5.658068 3.153677 24.249730 211 211 211 0
5.748608 3.152463 24.240389 211 211 211 0
5.845164 3.154533 24.256309 211 211 211 0
5.934377 3.152638 24.241737 210 210 210 0
6.013155 3.145343 24.185642 210 210 210 0
6.088752 3.136630 24.118646 211 211 211 0
6.176301 3.134242 24.100286 211 211 211 0
6.272561 3.136281 24.115961 210 210 210 0
6.365639 3.136692 24.119121 211 211 211 0
6.449921 3.132819 24.089340 211 211 211 0
6.536503 3.130156 24.068867 212 212 212 0
6.609516 3.121160 23.999695 211 211 211 0
6.692020 3.116831 23.966408 212 212 212 0
6.776134 3.113359 23.939708 212 212 212 0
6.875837 3.117046 23.968058 211 211 211 0
6.953696 3.110864 23.920522 212 212 212 0
7.022662 3.100916 23.844028 211 211 211 0
7.083964 3.087882 23.743803 211 211 211 0
7.175274 3.088093 23.745426 212 212 212 0
-5.716923 3.847929 28.742700 150 150 150 0
-5.529481 3.794742 28.345409 200 200 200 0
-5.393843 3.775690 28.203098 202 202 202 0
-5.290677 3.779055 28.228237 202 202 202 0
-5.255300 3.831990 28.623641 202 202 202 0
-5.143360 3.830162 28.609986 204 204 204 0
-5.004996 3.808150 28.445561 203 203 203 0
-4.881890 3.797026 28.362472 203 203 203 0
-4.777830 3.800547 28.388770 203 203 203 0
-4.272925 3.477962 25.979175 203 203 203 0
-4.611595 3.842995 28.705848 203 203 203 0
-4.477638 3.822374 28.551814 204 204 204 0
-4.352659 3.808577 28.448755 203 203 203 0
-4.251653 3.815586 28.501112 205 205 205 0
-4.161305 3.832781 28.629551 204 204 204 0
-4.053391 3.834289 28.640813 204 204 204 0
-3.943960 3.834405 28.641684 205 205 205 0
-3.825570 3.825570 28.575689 205 205 205 0
-3.723853 3.833379 28.634014 205 205 205 0
-3.609038 3.827768 28.592101 204 204 204 0
-3.489623 3.816775 28.509991 201 201 201 0
-3.378852 3.814833 28.495484 200 200 200 0
-3.269292 3.814174 28.490565 199 199 199 0
-3.158095 3.811494 28.470542 200 200 200 0
-3.042897 3.803622 28.411741 200 200 200 0
-2.933937 3.803252 28.408975 200 200 200 0
-2.837904 3.820255 28.535988 202 202 202 0
-2.730671 3.822939 28.556034 202 202 202 0
-2.612640 3.810101 28.460135 202 202 202 0
-2.492165 3.792426 28.328109 202 202 202 0
-1.946897 3.097337 23.136036 203 203 203 0
-2.296290 3.827151 28.587494 204 204 204 0
-2.183841 3.821721 28.546939 203 203 203 0
-2.058886 3.792685 28.330049 202 202 202 0
-1.942145 3.776394 28.208359 196 196 196 0
-1.827148 3.761774 28.099156 195 195 195 0
-1.724266 3.771831 28.174273 196 196 196 0
-1.619570 3.778996 28.227793 195 195 195 0
-1.503511 3.758778 28.076770 195 195 195 0
-1.388885 3.739307 27.931330 196 196 196 0
-1.276475 3.723051 27.809904 198 198 198 0
-1.168645 3.718417 27.775289 198 198 198 0
-1.065156 3.728045 27.847205 198 198 198 0
-0.957196 3.722428 27.805251 199 199 199 0
-0.847769 3.708989 27.704866 199 199 199 0
-0.737602 3.688008 27.548148 201 201 201 0
-0.631460 3.683517 27.514598 204 204 204 0
-0.527331 3.691320 27.572883 203 203 203 0
-0.422712 3.698728 27.628217 203 203 203 0
-0.316400 3.691330 27.572960 203 203 203 0
-0.210210 3.678668 27.478381 202 202 202 0
-0.104672 3.663511 27.365160 206 206 206 0
0.000000 3.667908 27.398007 205 205 205 0
0.094728 3.315476 24.765457 177 177 177 0
0.238935 4.181357 31.233295 93 93 93 0
0.356893 4.163755 31.101811 80 80 80 0
0.470834 4.119796 30.773449 90 90 90 0
0.578119 4.046831 30.228427 86 86 86 0
0.683011 3.984232 29.760838 99 99 99 0
0.786091 3.930455 29.359141 74 74 74 0
0.884379 3.869158 28.901274 86 86 86 0
0.974426 3.789434 28.305761 94 94 94 0
1.062086 3.717302 27.766959 81 81 81 0
0.848591 2.700064 20.168542 86 86 86 0
1.099155 3.205870 23.946741 156 156 156 0
1.169127 3.147650 23.511855 211 211 211 0
1.257296 3.143240 23.478914 213 213 213 0
1.343664 3.135217 23.418989 214 214 214 0
1.435960 3.141163 23.463403 214 214 214 0
1.531599 3.153292 23.554003 215 215 215 0
1.626655 3.162940 23.626070 214 214 214 0
1.712814 3.155184 23.568135 214 214 214 0
1.807381 3.162916 23.625893 214 214 214 0
1.905798 3.176330 23.726088 215 215 215 0
2.002154 3.185245 23.792683 214 214 214 0
2.097919 3.192485 23.846761 214 214 214 0
2.189938 3.193660 23.855535 213 213 213 0
2.286734 3.201428 23.913561 214 214 214 0
2.387793 3.214337 24.009986 214 214 214 0
2.492761 3.231356 24.137115 214 214 214 0
2.587106 3.233883 24.155987 215 215 215 0
2.684046 3.239366 24.196947 215 215 215 0
2.780464 3.243875 24.230624 215 215 215 0
2.886995 3.259510 24.347414 214 214 214 0
2.979453 3.258777 24.341935 215 215 215 0
3.072157 3.258348 24.338736 214 214 214 0
3.167136 3.260288 24.353222 214 214 214 0
3.265314 3.265314 24.390768 215 215 215 0
3.373442 3.279736 24.498493 214 214 214 0
3.474064 3.286277 24.547354 214 214 214 0
3.569417 3.287621 24.557394 214 214 214 0
3.659401 3.284078 24.530930 214 214 214 0
3.756952 3.287333 24.555244 214 214 214 0
3.858123 3.293520 24.601454 214 214 214 0
3.962072 3.301727 24.662758 213 213 213 0
4.050383 3.296823 24.626132 209 209 209 0
4.145619 3.297652 24.632320 197 197 197 0
4.247743 3.303800 24.678246 211 211 211 0
4.358368 3.316150 24.770493 211 211 211 0
4.451255 3.314765 24.760147 210 210 210 0
4.532585 3.305010 24.687282 210 210 210 0
4.613727 3.295520 24.616393 211 211 211 0
4.704376 3.293063 24.598045 211 211 211 0
4.811760 3.302188 24.666205 211 211 211 0
4.899719 3.297888 24.634083 210 210 210 0
4.981199 3.289471 24.571211 210 210 210 0
5.055473 3.276696 24.475783 211 211 211 0
5.137143 3.269091 24.418980 210 210 210 0
5.223014 3.264384 24.383818 210 210 210 0
5.327900 3.271518 24.437108 210 210 210 0
5.417340 3.269085 24.418932 211 211 211 0
5.500693 3.263123 24.374402 211 211 211 0
5.583663 3.257137 24.329686 211 211 211 0
5.660876 3.248044 24.261764 211 211 211 0
5.752260 3.247243 24.255785 211 211 211 0
5.843967 3.246648 24.251340 211 211 211 0
5.929718 3.242814 24.222703 210 210 210 0
6.009698 3.235991 24.171739 211 211 211 0
6.087852 3.228406 24.115080 211 211 211 0
6.181198 3.228984 24.119393 211 211 211 0
6.278023 3.231335 24.136957 211 211 211 0
6.371228 3.231782 24.140298 211 211 211 0
6.455856 3.227928 24.111506 210 210 210 0
6.537202 3.222564 24.071443 211 211 211 0
6.611047 3.213703 24.005253 211 211 211 0
6.692745 3.208851 23.969005 211 211 211 0
6.779537 3.206538 23.951728 211 211 211 0
6.880455 3.210879 23.984158 211 211 211 0
6.957323 3.204030 23.932998 211 211 211 0
7.022252 3.191933 23.842634 210 210 210 0
7.081642 3.177660 23.736021 211 211 211 0
7.177872 3.180070 23.754025 211 211 211 0
-5.796715 3.937391 28.593982 75 75 75 0
-5.711834 3.954346 28.717112 159 159 159 0
-5.521370 3.897437 28.303830 201 201 201 0
-5.384299 3.876695 28.153198 203 203 203 0
-5.272206 3.873457 28.129684 204 204 204 0
-5.241203 3.930903 28.546860 202 202 202 0
-5.129476 3.928961 28.532756 203 203 203 0
-4.999290 3.912488 28.413127 202 202 202 0
-4.869005 3.895204 28.287614 203 203 203 0
-4.775513 3.907238 28.375002 203 203 203 0
-4.644017 3.888014 28.235398 203 203 203 0
-4.601491 3.944135 28.642958 204 204 204 0
-4.470750 3.925537 28.507891 203 203 203 0
-4.342277 3.908049 28.380896 203 203 203 0
-4.243485 3.917063 28.446353 204 204 204 0
-4.150521 3.932072 28.555355 204 204 204 0
-4.041612 3.932379 28.557581 205 205 205 0
-3.934242 3.934242 28.571112 205 205 205 0
-3.820233 3.929382 28.535819 206 206 206 0
-3.724840 3.943949 28.641602 206 206 206 0
-3.607427 3.935375 28.579342 206 206 206 0
-3.491551 3.927995 28.525744 205 205 205 0
-3.385377 3.931405 28.550509 205 205 205 0
-3.262381 3.914857 28.430335 202 202 202 0
-3.149438 3.909648 28.392504 200 200 200 0
-3.035253 3.902468 28.340362 200 200 200 0
-2.938031 3.917375 28.448617 200 200 200 0
-2.845123 3.939401 28.608574 202 202 202 0
-2.733834 3.936721 28.589114 202 202 202 0
-2.614154 3.921230 28.476619 202 202 202 0
-2.504720 3.920431 28.470815 203 203 203 0
-2.504950 4.099009 29.767679 203 203 203 0
-2.296318 3.936545 28.587837 204 204 204 0
-2.189578 3.941241 28.621940 203 203 203 0
