ply
    format ascii 1.0
    element vertex 25528
    property float x
    property float y
    property float z
    property uchar red
    property uchar green
    property uchar blue
    property uchar alpha
    end_header
0.317098 -4.227979 27.633851 208 208 208 0
0.422763 -4.227631 27.631576 207 207 207 0
0.531846 -4.254768 27.808943 208 208 208 0
0.637569 -4.250458 27.780771 208 208 208 0
0.740549 -4.231711 27.658240 208 208 208 0
0.844096 -4.220481 27.584842 208 208 208 0
0.948407 -4.215144 27.549963 208 208 208 0
1.057225 -4.228900 27.639869 208 208 208 0
1.164257 -4.233661 27.670988 208 208 208 0
1.268678 -4.228928 27.640052 208 208 208 0
1.369562 -4.214038 27.542731 208 208 208 0
1.475216 -4.214902 27.548380 208 208 208 0
1.583166 -4.221777 27.593311 208 208 208 0
1.688872 -4.222181 27.595951 208 208 208 0
1.795384 -4.224432 27.610665 208 208 208 0
1.899615 -4.221366 27.590630 208 208 208 0
2.002225 -4.215211 27.550402 208 208 208 0
2.105275 -4.210549 27.519930 209 209 209 0
2.230537 -4.248642 27.768900 211 211 211 0
2.338747 -4.252268 27.792600 210 210 210 0
2.439368 -4.242378 27.727963 209 209 209 0
2.540997 -4.234995 27.679705 207 207 207 0
2.651772 -4.242835 27.730944 207 207 207 0
2.763166 -4.251024 27.784471 207 207 207 0
2.868149 -4.249110 27.771962 206 206 206 0
2.966668 -4.238097 27.699983 207 207 207 0
3.068217 -4.232023 27.660284 207 207 207 0
3.173057 -4.230743 27.651913 207 207 207 0
3.280107 -4.232396 27.662716 208 208 208 0
3.386929 -4.233661 27.670990 207 207 207 0
3.484443 -4.223567 27.605015 206 206 206 0
3.584498 -4.217057 27.562463 207 207 207 0
3.687477 -4.214260 27.544183 208 208 208 0
3.799297 -4.221442 27.591122 207 207 207 0
3.907484 -4.224307 27.609850 207 207 207 0
4.000029 -4.210557 27.519980 207 207 207 0
4.092193 -4.197121 27.432162 208 208 208 0
4.187115 -4.187115 27.366763 207 207 207 0
4.421361 -4.313523 28.192963 208 208 208 0
4.406531 -4.196696 27.429384 208 208 208 0
4.501293 -4.187249 27.367643 207 207 207 0
4.586926 -4.169932 27.254460 208 208 208 0
4.680315 -4.160280 27.191372 208 208 208 0
4.777833 -4.154637 27.154491 208 208 208 0
4.898025 -4.168532 27.245304 208 208 208 0
4.996541 -4.163784 27.214273 209 209 209 0
5.090009 -4.155109 27.157578 208 208 208 0
5.177001 -4.141601 27.069287 208 208 208 0
5.281251 -4.142158 27.072925 208 208 208 0
5.389524 -4.145788 27.096651 209 209 209 0
5.495919 -4.147863 27.110218 209 209 209 0
5.587690 -4.139030 27.052483 208 208 208 0
5.675656 -4.127750 26.978755 209 209 209 0
5.771420 -4.122443 26.944072 209 209 209 0
5.889554 -4.133020 27.013206 209 209 209 0
5.998024 -4.136568 27.036393 208 208 208 0
6.088069 -4.127504 26.977152 209 209 209 0
6.175863 -4.117242 26.910080 209 209 209 0
6.268339 -4.110386 26.865270 209 209 209 0
6.370013 -4.109686 26.860690 209 209 209 0
6.477028 -4.112399 26.878425 209 209 209 0
6.562082 -4.101301 26.805890 209 209 209 0
6.646888 -4.090393 26.734592 209 209 209 0
6.732074 -4.080045 26.666960 209 209 209 0
6.833785 -4.079871 26.665827 209 209 209 0
6.946535 -4.086197 26.707170 209 209 209 0
7.041806 -4.082206 26.681087 209 209 209 0
7.128524 -4.073442 26.623804 209 209 209 0
7.230069 -4.073279 26.622736 210 210 210 0
7.326303 -4.070168 26.602407 209 209 209 0
7.415081 -4.063058 26.555936 210 210 210 0
7.508983 -4.058910 26.528823 210 210 210 0
7.610682 -4.059031 26.529611 209 209 209 0
7.702114 -4.053744 26.495061 210 210 210 0
7.788091 -4.045761 26.442884 210 210 210 0
7.880364 -4.041213 26.413154 210 210 210 0
7.982288 -4.041665 26.416111 210 210 210 0
-6.791264 -3.310741 22.193672 204 204 204 0
-6.738830 -3.326764 22.301085 205 205 205 0
-6.645961 -3.322980 22.275718 204 204 204 0
-6.546218 -3.315617 22.226357 204 204 204 0
-6.464937 -3.317533 22.239206 205 205 205 0
-6.454816 -3.356505 22.500449 205 205 205 0
-6.412550 -3.379587 22.655186 204 204 204 0
-6.351041 -3.393022 22.745244 205 205 205 0
-6.295261 -3.409933 22.858611 205 205 205 0
-6.208441 -3.410271 22.860872 205 205 205 0
-6.160089 -3.432050 23.006869 206 206 206 0
-6.111752 -3.454468 23.157153 204 204 204 0
-6.123348 -3.511920 23.542285 205 205 205 0
-6.053880 -3.523901 23.622594 205 205 205 0
-5.975998 -3.531271 23.672005 206 206 206 0
-5.896187 -3.537712 23.715183 205 205 205 0
-5.887865 -3.587918 24.051738 206 206 206 0
-5.864196 -3.630217 24.335288 204 204 204 0
-5.737040 -3.608783 24.191609 205 205 205 0
-5.624025 -3.595688 24.103827 204 204 204 0
-5.519868 -3.587914 24.051711 206 206 206 0
-5.531343 -3.656311 24.510214 205 205 205 0
-5.477332 -3.683033 24.689347 205 205 205 0
-5.359739 -3.667190 24.583141 206 206 206 0
-5.228335 -3.641162 24.408659 205 205 205 0
-5.131483 -3.638688 24.392076 205 205 205 0
-5.109755 -3.690379 24.738586 206 206 206 0
-5.066865 -3.728448 24.993784 205 205 205 0
-4.950708 -3.713031 24.890440 206 206 206 0
-4.843877 -3.704141 24.830842 206 206 206 0
-4.757912 -3.711172 24.877973 205 205 205 0
-4.712965 -3.751136 25.145873 206 206 206 0
-4.654124 -3.781476 25.349262 205 205 205 0
-4.549094 -3.774780 25.304377 205 205 205 0
-4.429331 -3.755302 25.173805 206 206 206 0
-4.336010 -3.757875 25.191053 204 204 204 0
-4.297214 -3.808894 25.533059 205 205 205 0
-4.221147 -3.828482 25.664367 205 205 205 0
-4.125139 -3.830486 25.677802 206 206 206 0
-4.008921 -3.813364 25.563024 206 206 206 0
-3.907853 -3.810157 25.541525 205 205 205 0
-3.842588 -3.842588 25.758927 206 206 206 0
-3.766758 -3.865883 25.915086 206 206 206 0
-3.649550 -3.846823 25.787318 206 206 206 0
-3.529070 -3.823159 25.628688 206 206 206 0
-3.432700 -3.825009 25.641085 206 206 206 0
-3.338578 -3.829546 25.671498 206 206 206 0
-3.263482 -3.856843 25.854484 206 206 206 0
-3.171228 -3.864934 25.908725 207 207 207 0
-3.067724 -3.859394 25.871588 207 207 207 0
-2.972764 -3.864593 25.906438 207 207 207 0
-2.882980 -3.877111 25.990354 208 208 208 0
-2.790353 -3.886564 26.053719 208 208 208 0
-2.694001 -3.891335 26.085705 209 209 209 0
-2.603090 -3.904635 26.174863 209 209 209 0
-2.506842 -3.910674 26.215345 207 207 207 0
-2.411236 -3.918259 26.266191 207 207 207 0
-2.320235 -3.934311 26.373798 208 208 208 0
-2.229775 -3.952783 26.497621 208 208 208 0
-2.130847 -3.957288 26.527823 208 208 208 0
-2.024835 -3.948427 26.468426 208 208 208 0
-1.924352 -3.949986 26.478871 209 209 209 0
-1.837252 -3.980713 26.684851 208 208 208 0
-1.737959 -3.987083 26.727553 209 209 209 0
-1.634510 -3.984117 26.707672 209 209 209 0
-1.528660 -3.974517 26.643318 210 210 210 0
-1.431915 -3.988906 26.739772 209 209 209 0
-1.342579 -4.027738 27.000089 209 209 209 0
-1.242890 -4.039391 27.078205 210 210 210 0
-1.138685 -4.037155 27.063215 210 210 210 0
-1.035681 -4.039157 27.076636 209 209 209 0
-0.940926 -4.077347 27.332644 209 209 209 0
-0.842164 -4.105552 27.521713 210 210 210 0
-0.735143 -4.095799 27.456335 210 210 210 0
-0.631272 -4.103267 27.506397 210 210 210 0
-0.534494 -4.169052 27.947390 210 210 210 0
-0.429291 -4.185583 28.058207 211 211 211 0
-0.320717 -4.169325 27.949221 211 211 211 0
-0.213405 -4.161404 27.896120 210 210 210 0
-0.106975 -4.172032 27.967365 209 209 209 0
0.000000 -4.188963 28.080865 209 209 209 0
0.106990 -4.172617 27.971292 208 208 208 0
0.212378 -4.141365 27.761788 208 208 208 0
0.317337 -4.125384 27.654662 208 208 208 0
0.422625 -4.120593 27.622544 208 208 208 0
0.531890 -4.148743 27.811252 208 208 208 0
0.637518 -4.143870 27.778580 208 208 208 0
0.740482 -4.125542 27.655720 208 208 208 0
0.844459 -4.116735 27.596685 209 209 209 0
0.949956 -4.116478 27.594958 208 208 208 0
1.058827 -4.129424 27.681742 208 208 208 0
1.166340 -4.135204 27.720491 208 208 208 0
1.270102 -4.127832 27.671069 208 208 208 0
1.370433 -4.111299 27.560242 208 208 208 0
1.476211 -4.112302 27.566967 208 208 208 0
1.585524 -4.122362 27.634401 208 208 208 0
1.690426 -4.120413 27.621336 208 208 208 0
1.796135 -4.120545 27.622221 208 208 208 0
1.901022 -4.118881 27.611065 208 208 208 0
2.003875 -4.113217 27.573097 209 209 209 0
2.101177 -4.097295 27.466365 208 208 208 0
2.230523 -4.142400 27.768728 209 209 209 0
2.337658 -4.144031 27.779661 211 211 211 0
2.436567 -4.131570 27.696126 208 208 208 0
2.539296 -4.126356 27.661174 206 206 206 0
2.648646 -4.131888 27.698263 208 208 208 0
2.761876 -4.142813 27.771500 207 207 207 0
2.855636 -4.124807 27.650793 208 208 208 0
2.967265 -4.132976 27.705555 207 207 207 0
3.065802 -4.122975 27.638510 207 207 207 0
3.170926 -4.122204 27.633340 207 207 207 0
3.278344 -4.124368 27.647849 207 207 207 0
3.388129 -4.129282 27.680794 207 207 207 0
3.482411 -4.115576 27.588916 208 208 208 0
3.581909 -4.108660 27.542549 207 207 207 0
3.685867 -4.107108 27.532150 208 208 208 0
3.794247 -4.110434 27.554444 207 207 207 0
3.903399 -4.114393 27.580982 208 208 208 0
3.996222 -4.101385 27.493785 208 208 208 0
4.086286 -4.086286 27.392566 207 207 207 0
4.178653 -4.074187 27.311457 208 208 208 0
4.065435 -3.867121 25.923388 208 208 208 0
4.409859 -4.094869 27.450100 207 207 207 0
4.500466 -4.081818 27.362616 208 208 208 0
4.584655 -4.063672 27.240970 208 208 208 0
4.676356 -4.052842 27.168374 208 208 208 0
4.774756 -4.048163 27.137004 208 208 208 0
4.895727 -4.062412 27.232525 208 208 208 0
5.000959 -4.063279 27.238337 208 208 208 0
5.087433 -4.049182 27.143835 208 208 208 0
5.175707 -4.037052 27.062522 208 208 208 0
5.276947 -4.035312 27.050862 208 208 208 0
5.385772 -4.039329 27.077786 209 209 209 0
5.488734 -4.038880 27.074777 209 209 209 0
5.574674 -4.026153 26.989465 208 208 208 0
5.673737 -4.023196 26.969637 208 208 208 0
5.770735 -4.018905 26.940874 209 209 209 0
5.888318 -4.028849 27.007534 209 209 209 0
5.994980 -4.031107 27.022674 209 209 209 0
6.085675 -4.022734 26.966546 209 209 209 0
6.170580 -4.010877 26.887059 210 210 210 0
6.267929 -4.007364 26.863512 209 209 209 0
6.367565 -4.005404 26.850371 209 209 209 0
6.471926 -4.006430 26.857250 210 210 210 0
6.559766 -3.997357 26.796429 209 209 209 0
6.644080 -3.986448 26.723297 209 209 209 0
6.732209 -3.978124 26.667495 209 209 209 0
6.827573 -3.974259 26.641589 210 210 210 0
6.942815 -3.981909 26.692869 210 210 210 0
7.040140 -3.979210 26.674775 210 210 210 0
7.122516 -3.968259 26.601368 209 209 209 0
7.221971 -3.966998 26.592916 209 209 209 0
7.320200 -3.965108 26.580245 210 210 210 0
7.410445 -3.959005 26.539331 210 210 210 0
7.508066 -3.956954 26.525581 209 209 209 0
7.602369 -3.953232 26.500633 210 210 210 0
7.691141 -3.946770 26.457314 210 210 210 0
7.786286 -3.943703 26.436757 210 210 210 0
7.875982 -3.937991 26.398464 211 211 211 0
7.978887 -3.938944 26.404854 210 210 210 0
-6.790868 -3.225662 22.192378 204 204 204 0
-6.722878 -3.233790 22.248294 205 205 205 0
-6.636734 -3.233280 22.244792 205 205 205 0
-6.542254 -3.228645 22.212897 205 205 205 0
-6.453870 -3.226935 22.201136 205 205 205 0
-6.433923 -3.259855 22.427620 205 205 205 0
-6.385895 -3.279244 22.561015 205 205 205 0
-6.322697 -3.291267 22.643736 206 206 206 0
-6.289592 -3.319507 22.838025 205 205 205 0
-6.193148 -3.314642 22.804557 205 205 205 0
-6.137525 -3.331799 22.922594 205 205 205 0
-6.095045 -3.356691 23.093852 204 204 204 0
-6.099407 -3.408492 23.450238 206 206 206 0
-6.013422 -3.410598 23.464725 205 205 205 0
-5.944647 -3.422675 23.547818 206 206 206 0
-5.865158 -3.428862 23.590381 205 205 205 0
-5.860741 -3.479815 23.940934 206 206 206 0
-5.844244 -3.525100 24.252491 205 205 205 0
-5.727432 -3.510362 24.151095 205 205 205 0
-5.605270 -3.491808 24.023445 205 205 205 0
-5.507079 -3.487816 23.995985 205 205 205 0
-5.558075 -3.579777 24.628670 206 206 206 0
-5.451877 -3.571919 24.574609 206 206 206 0
-5.349822 -3.566548 24.537652 206 206 206 0
-5.218553 -3.541161 24.362993 206 206 206 0
-5.116683 -3.535163 24.321728 205 205 205 0
-5.086331 -3.579270 24.625178 205 205 205 0
-5.048663 -3.619796 24.903997 206 206 206 0
-4.943365 -3.612459 24.853518 205 205 205 0
-4.834181 -3.601939 24.781139 205 205 205 0
-4.739290 -3.601860 24.780601 206 206 206 0
-4.698587 -3.643802 25.069159 205 205 205 0
-4.646074 -3.678142 25.305412 207 207 207 0
-4.551002 -3.679533 25.314987 205 205 205 0
-4.432438 -3.661579 25.191463 205 205 205 0
-4.335090 -3.660743 25.185710 206 206 206 0
-4.290555 -3.705480 25.493496 205 205 205 0
-4.216678 -3.726367 25.637197 206 206 206 0
-4.121541 -3.729013 25.655407 205 205 205 0
-4.003527 -3.710586 25.528631 206 206 206 0
-3.899228 -3.704266 25.485147 206 206 206 0
-3.829900 -3.731697 25.673871 206 206 206 0
-3.757962 -3.757962 25.854574 206 206 206 0
-3.643988 -3.742475 25.748019 207 207 207 0
-3.527810 -3.723799 25.619535 207 207 207 0
-3.424614 -3.718153 25.580685 207 207 207 0
-3.336108 -3.728591 25.652499 207 207 207 0
-3.259213 -3.753033 25.820658 207 207 207 0
-3.167070 -3.760896 25.874758 207 207 207 0
-3.063833 -3.755666 25.838774 207 207 207 0
-2.971328 -3.763682 25.893927 207 207 207 0
-2.878009 -3.771184 25.945536 207 207 207 0
-2.787211 -3.782644 26.024383 209 209 209 0
-2.692839 -3.789921 26.074449 208 208 208 0
-2.602897 -3.804234 26.172918 208 208 208 0
-2.504965 -3.807546 26.195708 208 208 208 0
-2.404976 -3.807878 26.197993 208 208 208 0
-2.316225 -3.826807 26.328221 209 209 209 0
-2.228232 -3.848764 26.479286 208 208 208 0
-2.129411 -3.853220 26.509943 208 208 208 0
-2.023279 -3.844231 26.448095 208 208 208 0
-1.922240 -3.844481 26.449815 209 209 209 0
-1.834602 -3.873048 26.646355 209 209 209 0
-1.736036 -3.880552 26.697985 209 209 209 0
-1.631822 -3.875577 26.663759 210 210 210 0
-1.528076 -3.871125 26.633129 210 210 210 0
-1.428672 -3.877825 26.679225 209 209 209 0
-1.339402 -3.915175 26.936190 209 209 209 0
-1.239918 -3.926407 27.013461 210 210 210 0
-1.136364 -3.925622 27.008061 209 209 209 0
-1.032465 -3.923366 26.992539 209 209 209 0
-0.938463 -3.962397 27.261076 211 211 211 0
-0.840403 -3.991912 27.464137 210 210 210 0
-0.733593 -3.982360 27.398421 210 210 210 0
-0.630123 -3.990778 27.456336 209 209 209 0
-0.532852 -4.049672 27.861523 211 211 211 0
-0.428941 -4.074942 28.035378 210 210 210 0
-0.320701 -4.062208 27.947768 211 211 211 0
-0.213399 -4.054584 27.895317 210 210 210 0
-0.107120 -4.070558 28.005212 211 211 211 0
0.000000 -4.087887 28.124437 210 210 210 0
0.107067 -4.068557 27.991448 208 208 208 0
0.212451 -4.036561 27.771316 208 208 208 0
0.317643 -4.023475 27.681287 209 209 209 0
0.422873 -4.017296 27.638779 208 208 208 0
0.532534 -4.047260 27.844926 208 208 208 0
0.637816 -4.039501 27.791546 209 209 209 0
0.740946 -4.022279 27.673058 209 209 209 0
0.846200 -4.019451 27.653604 208 208 208 0
0.952232 -4.020536 27.661070 208 208 208 0
1.060677 -4.030571 27.730106 208 208 208 0
1.167372 -4.032740 27.745026 209 209 209 0
1.271082 -4.025092 27.692415 208 208 208 0
1.370398 -4.005779 27.559538 209 209 209 0
1.476207 -4.006848 27.566892 207 207 207 0
1.584938 -4.015176 27.624193 208 208 208 0
1.691662 -4.017697 27.641535 210 210 210 0
1.795484 -4.013434 27.612208 208 208 208 0
1.900276 -4.011693 27.600230 208 208 208 0
2.004305 -4.008610 27.579018 208 208 208 0
2.101926 -3.993659 27.476154 208 208 208 0
2.232158 -4.039142 27.789076 210 210 210 0
2.337767 -4.037962 27.780955 210 210 210 0
2.435622 -4.024072 27.685391 208 208 208 0
2.536394 -4.015957 27.629561 208 208 208 0
2.645648 -4.021385 27.666910 208 208 208 0
2.759018 -4.032411 27.742765 207 207 207 0
2.864841 -4.031999 27.739928 207 207 207 0
2.963526 -4.021928 27.670641 208 208 208 0
3.062942 -4.013510 27.612728 208 208 208 0
3.168677 -4.013658 27.613743 208 208 208 0
3.275339 -4.014932 27.622510 208 208 208 0
3.382713 -4.016972 27.636545 207 207 207 0
3.479638 -4.006855 27.566944 207 207 207 0
3.579284 -4.000376 27.522365 207 207 207 0
3.679787 -3.995198 27.486740 207 207 207 0
3.791899 -4.002560 27.537391 208 208 208 0
3.901294 -4.006735 27.566115 207 207 207 0
3.994976 -3.994976 27.485216 208 208 208 0
4.084531 -3.979800 27.380804 208 208 208 0
4.179471 -3.970497 27.316804 208 208 208 0
4.286646 -3.972989 27.333946 208 208 208 0
4.400809 -3.981684 27.393770 208 208 208 0
4.496259 -3.973438 27.337035 208 208 208 0
4.582244 -3.957393 27.226643 207 207 207 0
4.674748 -3.947565 27.159030 209 209 209 0
4.771381 -3.941575 27.117821 209 209 209 0
4.891069 -3.954482 27.206616 209 209 209 0
4.997934 -3.956698 27.221863 209 209 209 0
5.078259 -3.938242 27.094887 209 209 209 0
5.175957 -3.933727 27.063826 209 209 209 0
5.276790 -3.931726 27.050060 208 208 208 0
5.384948 -3.935154 27.073645 209 209 209 0
5.486902 -3.934005 27.065741 209 209 209 0
5.578380 -3.925526 27.007406 209 209 209 0
5.670814 -3.918017 26.955743 209 209 209 0
5.768181 -3.914123 26.928950 208 208 208 0
5.884913 -3.923275 26.991918 209 209 209 0
5.991478 -3.925451 27.006889 209 209 209 0
6.081541 -3.916925 26.948228 210 210 210 0
6.166177 -3.905245 26.867872 209 209 209 0
6.259560 -3.899398 26.827645 210 210 210 0
6.364343 -3.900727 26.836784 209 209 209 0
6.468626 -3.901711 26.843558 209 209 209 0
6.556521 -3.892934 26.783173 210 210 210 0
6.642274 -3.883176 26.716036 210 210 210 0
6.727252 -3.873267 26.647861 209 209 209 0
6.824837 -3.870803 26.630912 209 209 209 0
6.933889 -3.874820 26.658551 209 209 209 0
7.032151 -3.872779 26.644505 210 210 210 0
7.118506 -3.864332 26.586390 210 210 210 0
7.214524 -3.861294 26.565493 210 210 210 0
7.311227 -3.858703 26.547664 210 210 210 0
7.404536 -3.854416 26.518169 210 210 210 0
7.502656 -3.852715 26.506467 210 210 210 0
7.603460 -3.852420 26.504436 210 210 210 0
7.691770 -3.845885 26.459477 210 210 210 0
7.780212 -3.839585 26.416134 210 210 210 0
7.871016 -3.834598 26.381822 209 209 209 0
7.973443 -3.835327 26.386838 210 210 210 0
-6.770524 -3.131367 22.125896 206 206 206 0
-6.706532 -3.141034 22.194198 205 205 205 0
-6.617437 -3.139041 22.180116 205 205 205 0
-6.513536 -3.129881 22.115392 205 205 205 0
-6.439174 -3.134861 22.150581 205 205 205 0
-6.409762 -3.162149 22.343398 205 205 205 0
-6.381856 -3.190928 22.546744 205 205 205 0
-6.328468 -3.207580 22.664405 205 205 205 0
-6.295619 -3.235249 22.859910 205 205 205 0
-6.194376 -3.228055 22.809081 205 205 205 0
-6.121147 -3.235463 22.861425 206 206 206 0
-6.081954 -3.261338 23.044253 205 205 205 0
-6.092199 -3.314873 23.422525 205 205 205 0
-6.014928 -3.321676 23.470599 205 205 205 0
-5.924448 -3.321281 23.467808 205 205 205 0
-5.835017 -3.321471 23.469149 205 205 205 0
-5.839087 -3.375722 23.852478 205 205 205 0
-5.825810 -3.421507 24.175993 205 205 205 0
-5.710599 -3.407938 24.080115 206 206 206 0
-5.598372 -3.395734 23.993880 205 205 205 0
-5.498852 -3.390959 23.960141 205 205 205 0
-6.196351 -3.885847 27.456965 205 205 205 0
-5.425242 -3.460930 24.454552 205 205 205 0
-5.335788 -3.463582 24.473284 205 205 205 0
-5.206170 -3.439791 24.305183 206 206 206 0
-5.103623 -3.433346 24.259645 205 205 205 0
-5.072421 -3.475548 24.557837 206 206 206 0
-5.039173 -3.517914 24.857188 205 205 205 0
-4.939308 -3.514507 24.833120 206 206 206 0
-4.833423 -3.506601 24.777256 205 205 205 0
-4.743137 -3.509921 24.800717 205 205 205 0
-4.702076 -3.550547 25.087771 206 206 206 0
-4.644425 -3.580078 25.296434 205 205 205 0
-4.548440 -3.580686 25.300734 207 207 207 0
-4.423758 -3.558240 25.142132 206 206 206 0
-4.340969 -3.569242 25.219866 206 206 206 0
-4.297585 -3.613878 25.535263 206 206 206 0
-4.214062 -3.626053 25.621290 206 206 206 0
-4.115343 -3.625421 25.616825 207 207 207 0
-4.001351 -3.610975 25.514750 206 206 206 0
-3.893152 -3.601166 25.445440 206 206 206 0
-3.824121 -3.628012 25.635134 207 207 207 0
-3.753364 -3.654591 25.822935 208 208 208 0
-3.635891 -3.635891 25.690806 206 206 206 0
-3.518631 -3.616371 25.552875 208 208 208 0
-3.420678 -3.616145 25.551279 207 207 207 0
-3.329550 -3.623334 25.602079 207 207 207 0
-3.257348 -3.652178 25.805885 207 207 207 0
-3.162444 -3.656576 25.836965 206 206 206 0
-3.055570 -3.646971 25.769095 208 208 208 0
-2.963512 -3.654998 25.825813 208 208 208 0
-2.875426 -3.668647 25.922257 208 208 208 0
-2.783281 -3.677907 25.987686 208 208 208 0
-2.689532 -3.685656 26.042434 208 208 208 0
-2.596740 -3.695361 26.111013 209 209 209 0
-2.505012 -3.707418 26.196203 208 208 208 0
-2.404277 -3.706594 26.190384 208 208 208 0
-2.312344 -3.719859 26.284109 209 209 209 0
-2.225280 -3.742517 26.444212 209 209 209 0
-2.125906 -3.745643 26.466300 208 208 208 0
-2.020744 -3.738377 26.414956 209 209 209 0
-1.920561 -3.740040 26.426707 209 209 209 0
-1.831122 -3.763974 26.595824 209 209 209 0
-1.733545 -3.773010 26.659670 209 209 209 0
-1.630164 -3.769754 26.636668 210 210 210 0
-1.524697 -3.760918 26.574231 209 209 209 0
-1.425508 -3.767413 26.620126 209 209 209 0
-1.335891 -3.802150 26.865571 209 209 209 0
-1.237547 -3.815769 26.961801 209 209 209 0
-1.134393 -3.815686 26.961215 210 210 210 0
-1.030348 -3.812287 26.937202 209 209 209 0
-0.933052 -3.835881 27.103908 209 209 209 0
-0.836588 -3.869221 27.339489 209 209 209 0
-0.732783 -3.873283 27.368187 209 209 209 0
-0.629160 -3.879817 27.414358 210 210 210 0
-0.530595 -3.926402 27.743525 210 210 210 0
-0.428059 -3.959549 27.977737 211 211 211 0
-0.320461 -3.952358 27.926923 210 210 210 0
-0.213460 -3.949008 27.903254 210 210 210 0
-0.106012 -3.922453 27.715619 210 210 210 0
0.000000 -3.990225 28.194488 209 209 209 0
0.107243 -3.968009 28.037514 209 209 209 0
0.212721 -3.935342 27.806694 209 209 209 0
0.317849 -3.920141 27.699280 208 208 208 0
0.423449 -3.916907 27.676433 209 209 209 0
0.533027 -3.944401 27.870698 209 209 209 0
0.638927 -3.940049 27.839953 208 208 208 0
0.741850 -3.921209 27.706833 208 208 208 0
0.846949 -3.917140 27.678076 209 209 209 0
0.953230 -3.918835 27.690057 209 209 209 0
1.061338 -3.926951 27.747400 208 208 208 0
1.167294 -3.926351 27.743165 208 208 208 0
1.271144 -3.919360 27.693761 208 208 208 0
1.374207 -3.911205 27.636141 208 208 208 0
1.478281 -3.906884 27.605613 209 209 209 0
1.585814 -3.911674 27.639454 209 209 209 0
1.692239 -3.913303 27.650969 208 208 208 0
1.797447 -3.912090 27.642398 209 209 209 0
1.902402 -3.910493 27.631109 208 208 208 0
2.006049 -3.906517 27.603015 209 209 209 0
2.105471 -3.895121 27.522493 208 208 208 0
2.231073 -3.930939 27.775578 210 210 210 0
2.335957 -3.928655 27.759444 209 209 209 0
2.433799 -3.915242 27.664670 208 208 208 0
2.536131 -3.909869 27.626701 208 208 208 0
2.645719 -3.915664 27.667652 207 207 207 0
2.755001 -3.920578 27.702369 207 207 207 0
2.859901 -3.919123 27.692091 206 206 206 0
2.957892 -3.908643 27.618037 208 208 208 0
3.062212 -3.906960 27.606147 207 207 207 0
3.165380 -3.903969 27.585011 208 208 208 0
3.268555 -3.901179 27.565300 208 208 208 0
3.378819 -3.906760 27.604732 207 207 207 0
3.477262 -3.898748 27.548126 207 207 207 0
3.577481 -3.893141 27.508502 207 207 207 0
3.675624 -3.885659 27.455638 208 208 208 0
3.787043 -3.892239 27.502127 207 207 207 0
3.897790 -3.897790 27.541356 208 208 208 0
3.992126 -3.887070 27.465610 209 209 209 0
4.084614 -3.875147 27.381359 208 208 208 0
4.177223 -3.863931 27.302111 208 208 208 0
4.289984 -3.871449 27.355229 208 208 208 0
4.404527 -3.880179 27.416914 208 208 208 0
4.494251 -3.867146 27.324827 207 207 207 0
4.579817 -3.851210 27.212221 208 208 208 0
4.669259 -3.839169 27.127141 208 208 208 0
4.768364 -3.835424 27.100679 208 208 208 0
4.885448 -3.845991 27.175346 208 208 208 0
4.995668 -3.850828 27.209521 208 208 208 0
5.086571 -3.840880 27.139236 208 208 208 0
5.165899 -3.822765 27.011234 208 208 208 0
5.272812 -3.825374 27.029666 208 208 208 0
5.385155 -3.831745 27.074687 208 208 208 0
5.484317 -3.828674 27.052988 209 209 209 0
5.575081 -3.819963 26.991434 208 208 208 0
5.671625 -3.815457 26.959595 209 209 209 0
5.769126 -3.811744 26.933360 209 209 209 0
5.884582 -3.819816 26.990400 209 209 209 0
5.986774 -3.819149 26.985684 209 209 209 0
6.078812 -3.812137 26.936136 209 209 209 0
6.164756 -3.801599 26.861682 210 210 210 0
6.255364 -3.794237 26.809661 209 209 209 0
6.358297 -3.794467 26.811286 209 209 209 0
6.466791 -3.797957 26.835942 209 209 209 0
6.556498 -3.790476 26.783081 209 209 209 0
6.638481 -3.778827 26.700777 210 210 210 0
6.724076 -3.769558 26.635277 210 210 210 0
6.821037 -3.766841 26.616085 209 209 209 0
6.924050 -3.767498 26.620724 210 210 210 0
7.026489 -3.767827 26.623051 210 210 210 0
7.115376 -3.760984 26.574699 210 210 210 0
7.211401 -3.758054 26.553995 210 210 210 0
7.307900 -3.755449 26.535584 210 210 210 0
7.401362 -3.751375 26.506803 210 210 210 0
7.495510 -3.747755 26.481223 209 209 209 0
7.591755 -3.745266 26.463634 209 209 209 0
7.687615 -3.742655 26.445184 210 210 210 0
7.777790 -3.737380 26.407910 210 210 210 0
7.866845 -3.731709 26.367841 210 210 210 0
7.970226 -3.732891 26.376192 210 210 210 0
-6.759489 -3.041770 22.089833 204 204 204 0
-6.689496 -3.048378 22.137820 205 205 205 0
-6.601519 -3.046855 22.126759 205 205 205 0
-6.495152 -3.036694 22.052973 206 206 206 0
-6.422081 -3.042039 22.091783 204 204 204 0
-6.375835 -3.060401 22.225134 205 205 205 0
-6.369361 -3.098608 22.502600 205 205 205 0
-6.342457 -3.127787 22.714503 205 205 205 0
-6.291710 -3.145855 22.845716 205 205 205 0
-6.177939 -3.132476 22.748556 205 205 205 0
-6.100885 -3.137598 22.785751 206 206 206 0
-6.071745 -3.167867 23.005570 205 205 205 0
-6.082208 -3.219993 23.384115 206 206 206 0
-6.004108 -3.226088 23.428379 205 205 205 0
-5.912362 -3.224924 23.419931 205 205 205 0
-5.811097 -3.218454 23.372938 206 206 206 0
-5.812079 -3.269295 23.742154 205 205 205 0
-5.810591 -3.320338 24.112837 205 205 205 0
-5.700416 -3.309919 24.037175 206 206 206 0
-5.570861 -3.287721 23.875969 205 205 205 0
-5.463239 -3.277943 23.804963 205 205 205 0
-4.845446 -2.956543 21.470903 205 205 205 0
-5.446253 -3.380433 24.549259 206 206 206 0
-5.335793 -3.369974 24.473307 206 206 206 0
-5.196117 -3.340361 24.258247 206 206 206 0
-5.091732 -3.332770 24.203123 206 206 206 0
-5.048195 -3.365464 24.440549 205 205 205 0
-5.011111 -3.403774 24.718763 206 206 206 0
-4.927977 -3.411677 24.776156 206 206 206 0
-4.824266 -3.405364 24.730314 206 206 206 0
-4.724982 -3.401987 24.705790 204 204 204 0
-4.690688 -3.446220 25.027012 205 205 205 0
-4.632405 -3.474303 25.230962 207 207 207 0
-4.541242 -3.478398 25.260699 206 206 206 0
-4.420891 -3.459828 25.125839 206 206 206 0
-4.340173 -3.472138 25.215239 205 205 205 0
-4.297208 -3.515897 25.533024 206 206 206 0
-4.213729 -3.527773 25.619267 206 206 206 0
-4.117411 -3.529209 25.629696 206 206 206 0
-3.996687 -3.509286 25.485012 207 207 207 0
-3.894927 -3.505434 25.457040 206 206 206 0
-3.818384 -3.524662 25.596677 206 206 206 0
-3.746283 -3.549111 25.774224 207 207 207 0
-3.635320 -3.537068 25.686767 207 207 207 0
-3.520293 -3.520293 25.564944 208 208 208 0
-3.416445 -3.514057 25.519662 208 208 208 0
-3.326585 -3.522267 25.579279 208 208 208 0
-3.252833 -3.548545 25.770113 207 207 207 0
-3.156080 -3.550589 25.784964 208 208 208 0
-3.055053 -3.547803 25.764731 207 207 207 0
-2.960651 -3.552781 25.800876 208 208 208 0
-2.869298 -3.561887 25.867007 209 209 209 0
-2.779234 -3.573301 25.949895 208 208 208 0
-2.683105 -3.577473 25.980195 209 209 209 0
-2.592359 -3.589420 26.066959 208 208 208 0
-2.497087 -3.595805 26.113324 209 209 209 0
-2.396382 -3.594572 26.104374 209 209 209 0
-2.306928 -3.610844 26.222543 210 210 210 0
-2.221663 -3.635449 26.401226 210 210 210 0
-2.124460 -3.641932 26.448305 209 209 209 0
-2.019041 -3.634273 26.392689 209 209 209 0
-1.918663 -3.635362 26.400594 209 209 209 0
-1.830079 -3.660158 26.580670 210 210 210 0
-1.732595 -3.669025 26.645064 210 210 210 0
-1.629732 -3.666896 26.629602 209 209 209 0
-1.523688 -3.656851 26.556653 210 210 210 0
-1.422999 -3.659141 26.573282 210 210 210 0
-1.332553 -3.690147 26.798450 210 210 210 0
-1.235126 -3.705379 26.909068 210 210 210 0
-1.132107 -3.705077 26.906874 210 210 210 0
-1.027853 -3.700271 26.871978 210 210 210 0
-0.929920 -3.719682 27.012939 210 210 210 0
-0.835335 -3.759006 27.298520 210 210 210 0
-0.731574 -3.762381 27.323025 210 210 210 0
-0.627714 -3.766283 27.351363 209 209 209 0
-0.529298 -3.810944 27.675704 211 211 211 0
-0.427249 -3.845237 27.924740 210 210 210 0
-0.320098 -3.841180 27.895283 211 211 211 0
-0.213436 -3.841849 27.900137 211 211 211 0
-0.103997 -3.743885 27.188704 211 211 211 0
0.000000 -3.887944 28.234891 210 210 210 0
0.107250 -3.860998 28.039199 210 210 210 0
0.212816 -3.830680 27.819029 209 209 209 0
0.318099 -3.817188 27.721046 208 208 208 0
0.423979 -3.815814 27.711070 208 208 208 0
0.533501 -3.841204 27.895452 208 208 208 0
0.638901 -3.833405 27.838817 208 208 208 0
0.742101 -3.816518 27.716183 208 208 208 0
0.847372 -3.813173 27.691889 209 209 209 0
0.955289 -3.821155 27.749856 208 208 208 0
1.062943 -3.826593 27.789347 208 208 208 0
1.169850 -3.828599 27.803916 207 207 207 0
1.272538 -3.817615 27.724147 209 209 209 0
1.374524 -3.806373 27.642508 207 207 207 0
1.476652 -3.797105 27.575202 208 208 208 0
1.587235 -3.809365 27.664232 208 208 208 0
1.693219 -3.809742 27.666971 209 209 209 0
1.798642 -3.808888 27.660769 208 208 208 0
1.904332 -3.808663 27.659137 208 208 208 0
2.007381 -3.803460 27.621348 209 209 209 0
2.106567 -3.791820 27.536821 209 209 209 0
2.230278 -3.823334 27.765679 211 211 211 0
2.336653 -3.823614 27.767714 209 209 209 0
2.432976 -3.808136 27.655307 209 209 209 0
2.533985 -3.800977 27.603319 207 207 207 0
2.638973 -3.800121 27.597102 207 207 207 0
2.749642 -3.807197 27.648491 208 208 208 0
2.856390 -3.808520 27.658101 207 207 207 0
2.963227 -3.809863 27.667853 207 207 207 0
3.057598 -3.795639 27.564554 208 208 208 0
3.163176 -3.795812 27.565808 207 207 207 0
3.266639 -3.793516 27.549139 207 207 207 0
3.374510 -3.796323 27.569523 208 208 208 0
3.472850 -3.788563 27.513168 207 207 207 0
3.570374 -3.780396 27.453856 208 208 208 0
3.670943 -3.775828 27.420679 207 207 207 0
3.784101 -3.784101 27.480762 207 207 207 0
3.893536 -3.788305 27.511292 208 208 208 0
3.990996 -3.780944 27.457834 208 208 208 0
4.082112 -3.768104 27.364588 208 208 208 0
4.176160 -3.758544 27.295166 208 208 208 0
4.285093 -3.762520 27.324041 208 208 208 0
4.401896 -3.773054 27.400534 209 209 209 0
4.491702 -3.760495 27.309329 208 208 208 0
4.578303 -3.745884 27.203226 208 208 208 0
4.667910 -3.734328 27.119304 208 208 208 0
4.762554 -3.727216 27.067657 209 209 209 0
4.885120 -3.741794 27.173520 209 209 209 0
4.990954 -3.743215 27.183844 209 209 209 0
5.078805 -3.731367 27.097799 208 208 208 0
5.166434 -3.719832 27.014033 209 209 209 0
5.268492 -3.718936 27.007521 209 209 209 0
5.380935 -3.725263 27.053468 209 209 209 0
5.485019 -3.725673 27.056451 209 209 209 0
5.574317 -3.716212 26.987738 209 209 209 0
5.668447 -3.710256 26.944491 209 209 209 0
5.765875 -3.706634 26.918182 209 209 209 0
5.877697 -3.712229 26.958820 208 208 208 0
5.981678 -3.712765 26.962711 208 208 208 0
6.077192 -3.708117 26.928957 209 209 209 0
6.159456 -3.695674 26.838589 209 209 209 0
6.250514 -3.688828 26.788875 210 210 210 0
6.354840 -3.689907 26.796712 209 209 209 0
6.463183 -3.693247 26.820968 209 209 209 0
6.551596 -3.685273 26.763056 210 210 210 0
6.632841 -3.673573 26.678093 209 209 209 0
6.719598 -3.665235 26.617541 209 209 209 0
6.816536 -3.662616 26.598520 210 210 210 0
6.920680 -3.663889 26.607767 209 209 209 0
7.018658 -3.661908 26.593380 210 210 210 0
7.112944 -3.658085 26.565617 210 210 210 0
7.193524 -3.647421 26.488168 210 210 210 0
7.303154 -3.651577 26.518350 210 210 210 0
7.395519 -3.647105 26.485877 210 210 210 0
7.491143 -3.644340 26.465793 210 210 210 0
7.584445 -3.640534 26.438153 210 210 210 0
7.679957 -3.637875 26.418842 210 210 210 0
7.773145 -3.634198 26.392140 210 210 210 0
7.864454 -3.629748 26.359826 210 210 210 0
7.966308 -3.630217 26.363228 210 210 210 0
-6.726331 -2.942770 21.981475 205 205 205 0
-6.677771 -2.958506 22.099017 205 205 205 0
-6.581645 -2.953302 22.060146 206 206 206 0
-6.493389 -2.951540 22.046987 205 205 205 0
-6.405741 -2.950012 22.035572 205 205 205 0
-6.363872 -2.969807 22.183432 206 206 206 0
-6.339916 -2.998609 22.398573 205 205 205 0
-6.302563 -3.021777 22.571628 205 205 205 0
-6.270646 -3.048231 22.769231 205 205 205 0
-6.138848 -3.026193 22.604613 206 206 206 0
-6.089800 -3.044900 22.744353 204 204 204 0
-6.058044 -3.072921 22.953657 205 205 205 0
-6.076234 -3.127473 23.361146 205 205 205 0
-6.003241 -3.136022 23.424998 206 206 206 0
-5.909114 -3.133621 23.407068 205 205 205 0
-5.797302 -3.121624 23.317453 206 206 206 0
-5.796588 -3.170009 23.678872 206 206 206 0
-5.790985 -3.217214 24.031474 205 205 205 0
-5.693839 -3.214264 24.009439 205 205 205 0
-5.569590 -3.195666 23.870524 205 205 205 0
-5.460784 -3.185457 23.794267 205 205 205 0
-5.415197 -3.212405 23.995554 205 205 205 0
-5.411713 -3.265689 24.393567 205 205 205 0
-5.329154 -3.272287 24.442856 206 206 206 0
-5.185832 -3.241145 24.210232 206 206 206 0
-5.082947 -3.234603 24.161364 205 205 205 0
-5.028486 -3.259204 24.345129 206 206 206 0
-5.022189 -3.316540 24.773406 206 206 206 0
-4.921512 -3.312556 24.743651 206 206 206 0
-4.799704 -3.293915 24.604404 205 205 205 0
-4.718095 -3.302666 24.669777 206 206 206 0
-4.676869 -3.340621 24.953284 206 206 206 0
-4.625426 -3.372706 25.192952 205 205 205 0
-4.538715 -3.379894 25.246640 205 205 205 0
-4.424601 -3.366544 25.146920 206 206 206 0
-4.339020 -3.374793 25.208540 206 206 206 0
-4.287733 -3.410697 25.476726 205 205 205 0
-4.208308 -3.425367 25.586305 206 206 206 0
-4.112484 -3.427070 25.599028 207 207 207 0
-3.994352 -3.409813 25.470122 206 206 206 0
-3.892568 -3.405997 25.441622 207 207 207 0
-3.812981 -3.421906 25.560458 206 206 206 0
-3.741582 -3.446194 25.741879 207 207 207 0
-3.627031 -3.430975 25.628197 208 208 208 0
-3.516704 -3.419017 25.538879 207 207 207 0
-3.412861 -3.412861 25.492896 206 206 206 0
-3.323877 -3.421638 25.558454 208 208 208 0
-3.247908 -3.444751 25.731098 208 208 208 0
-3.152021 -3.447523 25.751802 208 208 208 0
-3.048983 -3.442400 25.713538 208 208 208 0
-2.955602 -3.448202 25.756878 208 208 208 0
-2.868029 -3.461415 25.855573 208 208 208 0
-2.775161 -3.468951 25.911866 208 208 208 0
-2.679429 -3.473333 25.944601 208 208 208 0
-2.587280 -3.482876 26.015883 208 208 208 0
-2.492120 -3.488968 26.061384 209 209 209 0
-2.396476 -3.494861 26.105401 209 209 209 0
-2.305264 -3.508010 26.203621 209 209 209 0
-2.219174 -3.530504 26.371644 209 209 209 0
-2.120809 -3.534682 26.402856 209 209 209 0
-2.017289 -3.530256 26.369796 209 209 209 0
-1.917088 -3.531478 26.378923 209 209 209 0
-1.827302 -3.553087 26.540332 210 210 210 0
-1.729265 -3.560252 26.593852 210 210 210 0
-1.627261 -3.559633 26.589227 210 210 210 0
-1.521771 -3.550800 26.523247 210 210 210 0
-1.420519 -3.551298 26.526971 210 210 210 0
-1.330262 -3.581474 26.752372 210 210 210 0
-1.234281 -3.599987 26.890657 210 210 210 0
-1.131294 -3.599573 26.887566 210 210 210 0
-1.025952 -3.590831 26.822265 209 209 209 0
-0.927561 -3.607181 26.944399 210 210 210 0
-0.834602 -3.651382 27.274563 212 212 212 0
-0.731452 -3.657262 27.318483 210 210 210 0
-0.627222 -3.658797 27.329950 210 210 210 0
-0.526796 -3.687571 27.544885 210 210 210 0
-0.426341 -3.730485 27.865434 211 211 211 0
-0.319738 -3.730274 27.863858 210 210 210 0
-0.213293 -3.732632 27.881469 211 211 211 0
-0.102470 -3.586466 26.789665 211 211 211 0
0.000000 -3.781646 28.247587 210 210 210 0
0.107474 -3.761593 28.097800 211 211 211 0
0.213205 -3.731091 27.869961 209 209 209 0
0.318480 -3.715598 27.754232 208 208 208 0
0.424555 -3.714855 27.748685 209 209 209 0
0.533773 -3.736408 27.909677 209 209 209 0
0.638873 -3.726759 27.837602 209 209 209 0
0.741465 -3.707324 27.692430 209 209 209 0
0.847997 -3.709989 27.712334 209 209 209 0
0.956636 -3.720251 27.788989 208 208 208 0
1.064384 -3.725344 27.827030 208 208 208 0
1.171516 -3.727550 27.843510 208 208 208 0
1.274642 -3.717706 27.769977 208 208 208 0
1.378715 -3.711925 27.726799 209 209 209 0
1.482697 -3.706742 27.688086 209 209 209 0
1.590553 -3.711291 27.722060 209 209 209 0
1.695053 -3.707929 27.696948 208 208 208 0
1.800738 -3.707402 27.693013 209 209 209 0
1.904854 -3.703883 27.666724 209 209 209 0
2.008214 -3.699341 27.632797 209 209 209 0
2.106721 -3.686762 27.538835 208 208 208 0
2.231313 -3.718854 27.778558 209 209 209 0
2.335298 -3.715247 27.751611 210 210 210 0
2.429992 -3.697813 27.621388 207 207 207 0
2.531795 -3.692202 27.579470 208 208 208 0
2.638479 -3.693870 27.591934 206 206 206 0
2.746952 -3.697820 27.621434 208 208 208 0
2.852424 -3.697587 27.619694 208 208 208 0
2.959697 -3.699621 27.634890 207 207 207 0
3.055712 -3.687929 27.547552 206 206 206 0
3.161760 -3.688720 27.553463 208 208 208 0
3.263651 -3.684767 27.523935 207 207 207 0
3.374146 -3.690472 27.566553 208 208 208 0
3.472405 -3.682854 27.509645 208 208 208 0
3.568869 -3.673836 27.442284 208 208 208 0
3.667622 -3.667622 27.395870 208 208 208 0
3.779693 -3.674702 27.448753 207 207 207 0
3.890697 -3.680389 27.491233 207 207 207 0
3.988806 -3.673900 27.442767 208 208 208 0
4.079690 -3.661260 27.348348 208 208 208 0
4.170868 -3.649509 27.260574 207 207 207 0
4.280584 -3.654157 27.295292 208 208 208 0
4.396794 -3.663995 27.368778 209 209 209 0
4.489141 -3.653952 27.293760 208 208 208 0
4.575518 -3.639617 27.186679 208 208 208 0
4.663195 -3.626929 27.091909 208 208 208 0
4.758107 -3.620299 27.042382 209 209 209 0
4.878013 -3.632563 27.133988 209 209 209 0
4.985487 -3.635251 27.154071 209 209 209 0
5.077847 -3.627034 27.092689 209 209 209 0
5.165240 -3.615668 27.007793 208 208 208 0
5.269538 -3.616350 27.012882 209 209 209 0
5.375855 -3.618364 27.027929 208 208 208 0
5.478180 -3.617666 27.022717 209 209 209 0
5.570608 -3.610579 26.969779 209 209 209 0
5.660658 -3.602237 26.907465 209 209 209 0
5.761525 -3.600953 26.897878 210 210 210 0
5.873901 -3.606781 26.941411 209 209 209 0
5.979815 -3.608509 26.954315 208 208 208 0
6.073502 -3.602925 26.912605 209 209 209 0
6.156904 -3.591527 26.827466 209 209 209 0
6.247908 -3.584865 26.777705 210 210 210 0
6.349669 -3.584491 26.774906 210 210 210 0
6.459428 -3.588571 26.805385 209 209 209 0
6.547665 -3.580754 26.746999 209 209 209 0
6.631810 -3.570974 26.673945 209 209 209 0
6.711192 -3.558965 26.584240 209 209 209 0
6.811282 -3.558132 26.578019 210 210 210 0
6.912860 -3.558090 26.577700 210 210 210 0
7.011553 -3.556585 26.566461 209 209 209 0
7.111828 -3.555914 26.561448 210 210 210 0
7.207663 -3.553073 26.540231 210 210 210 0
7.295947 -3.546641 26.492182 210 210 210 0
7.390045 -3.543172 26.466274 210 210 210 0
7.485191 -3.540293 26.444765 209 209 209 0
7.582541 -3.538519 26.431515 210 210 210 0
7.678875 -3.536324 26.415120 210 210 210 0
7.769722 -3.531692 26.380519 210 210 210 0
7.865129 -3.529224 26.362087 210 210 210 0
7.960922 -3.526991 26.345404 211 211 211 0
-6.644533 -2.823926 21.714159 206 206 206 0
-6.665118 -2.868532 22.057144 205 205 205 0
-6.570682 -2.864144 22.023403 205 205 205 0
-6.466529 -2.855351 21.955791 205 205 205 0
-6.386558 -2.857145 21.969585 206 206 206 0
-6.352549 -2.879822 22.143962 205 205 205 0
-6.319831 -2.903706 22.327614 205 205 205 0
-6.294979 -2.931908 22.544467 205 205 205 0
-6.244129 -2.948617 22.672946 206 206 206 0
-6.128682 -2.934862 22.567181 205 205 205 0
-6.086395 -2.956249 22.731635 205 205 205 0
-6.043533 -2.977973 22.898674 205 205 205 0
-6.057861 -3.028931 23.290509 206 206 206 0
-5.986181 -3.037764 23.358429 206 206 206 0
-5.889807 -3.034143 23.330590 206 206 206 0
-5.780915 -3.023863 23.251542 205 205 205 0
-5.785223 -3.073400 23.632447 205 205 205 0
-5.771173 -3.114601 23.949261 206 206 206 0
-5.681540 -3.115683 23.957579 206 206 206 0
-5.559373 -3.098667 23.826737 207 207 207 0
-5.451130 -3.088974 23.752202 205 205 205 0
-5.405317 -3.114929 23.951776 205 205 205 0
-5.414202 -3.173843 24.404788 206 206 206 0
-5.316254 -3.171099 24.383692 205 205 205 0
-5.181270 -3.145771 24.188937 205 205 205 0
-5.073084 -3.136088 24.114481 206 206 206 0
-5.007685 -3.152987 24.244422 206 206 206 0
-5.007327 -3.212248 24.700097 206 206 206 0
-4.914495 -3.213324 24.708373 205 205 205 0
-4.813535 -3.209023 24.675303 205 205 205 0
-4.698037 -3.194665 24.564901 206 206 206 0
-4.652662 -3.228377 24.824125 206 206 206 0
-4.604519 -3.261534 25.079077 206 206 206 0
-4.532083 -3.278528 25.209753 206 206 206 0
-4.416478 -3.264353 25.100753 206 206 206 0
-4.345247 -3.283076 25.244720 206 206 206 0
-4.285088 -3.311204 25.461011 206 206 206 0
-4.201454 -3.322080 25.544636 206 206 206 0
-4.107732 -3.325307 25.569447 207 207 207 0
-3.990259 -3.308995 25.444022 206 206 206 0
-3.886652 -3.303654 25.402955 207 207 207 0
-3.811846 -3.323148 25.552849 207 207 207 0
-3.738680 -3.345134 25.721911 207 207 207 0
-3.630384 -3.336028 25.651891 207 207 207 0
-3.513646 -3.318443 25.516673 208 208 208 0
-3.411480 -3.314009 25.482577 208 208 208 0
-3.318577 -3.318577 25.517697 209 209 209 0
-3.242557 -3.340817 25.688710 208 208 208 0
-3.148284 -3.345052 25.721275 208 208 208 0
-3.044084 -3.338672 25.672220 208 208 208 0
-2.957073 -3.351349 25.769697 208 208 208 0
-2.865317 -3.359338 25.831124 208 208 208 0
-2.773606 -3.367950 25.897350 208 208 208 0
-2.679028 -3.373591 25.940722 209 209 209 0
-2.586114 -3.381842 26.004165 209 209 209 0
-2.490003 -3.386404 26.039245 209 209 209 0
-2.394988 -3.392899 26.089189 209 209 209 0
-2.301963 -3.402902 26.166103 210 210 210 0
-2.216698 -3.425806 26.342220 210 210 210 0
-2.120774 -3.433635 26.402420 210 210 210 0
-2.015920 -3.427065 26.351900 209 209 209 0
-1.916371 -3.429295 26.369054 210 210 210 0
-1.839539 -3.474685 26.718071 210 210 210 0
-1.729104 -3.458208 26.591371 210 210 210 0
-1.625781 -3.454785 26.565056 209 209 209 0
-1.520635 -3.446773 26.503445 210 210 210 0
-1.418203 -3.444208 26.483725 211 211 211 0
-1.328894 -3.475569 26.724865 210 210 210 0
-1.233391 -3.494609 26.871269 210 210 210 0
-1.129621 -3.491555 26.847790 210 210 210 0
-1.025681 -3.487316 26.815198 210 210 210 0
-0.926621 -3.500568 26.917095 211 211 211 0
-0.831481 -3.533793 27.172570 210 210 210 0
-0.729767 -3.544582 27.255534 210 210 210 0
-0.625795 -3.546170 27.267742 209 209 209 0
-0.524823 -3.568795 27.441716 210 210 210 0
-0.425047 -3.612902 27.780869 210 210 210 0
-0.319291 -3.618637 27.824965 210 210 210 0
-0.212938 -3.619952 27.835079 211 211 211 0
-0.101319 -3.444843 26.488605 211 211 211 0
0.000000 -3.679697 28.294479 211 211 211 0
0.107610 -3.658732 28.133272 209 209 209 0
0.213383 -3.627510 27.893192 209 209 209 0
0.318940 -3.614653 27.794331 209 209 209 0
0.424917 -3.611793 27.772345 209 209 209 0
0.533830 -3.630045 27.912684 209 209 209 0
0.639655 -3.624710 27.871668 208 208 208 0
0.743201 -3.609835 27.757286 209 209 209 0
0.848845 -3.607593 27.740043 208 208 208 0
0.958059 -3.619333 27.830316 208 208 208 0
1.066274 -3.625331 27.876441 208 208 208 0
1.172524 -3.624166 27.867480 208 208 208 0
1.275092 -3.612760 27.779778 209 209 209 0
1.378784 -3.606050 27.728180 208 208 208 0
1.483167 -3.601976 27.696857 209 209 209 0
1.591560 -3.607537 27.739616 209 209 209 0
1.698452 -3.609210 27.752479 209 209 209 0
1.801913 -3.603825 27.711073 208 208 208 0
1.906395 -3.600969 27.689114 209 209 209 0
2.008615 -3.594364 27.638323 209 209 209 0
2.107795 -3.583252 27.552879 208 208 208 0
2.229821 -3.610187 27.759994 209 209 209 0
2.333102 -3.605703 27.725517 209 209 209 0
2.429901 -3.592027 27.620353 209 209 209 0
2.530330 -3.584634 27.563504 208 208 208 0
2.635637 -3.584467 27.562219 208 208 208 0
2.743286 -3.587373 27.584571 208 208 208 0
2.852049 -3.591469 27.616066 207 207 207 0
2.955802 -3.589188 27.598523 208 208 208 0
3.052828 -3.579177 27.521547 207 207 207 0
3.157530 -3.578534 27.516598 208 208 208 0
3.259276 -3.574690 27.487042 207 207 207 0
3.368999 -3.579562 27.524505 208 208 208 0
3.468102 -3.573196 27.475554 208 208 208 0
3.568998 -3.568998 27.443278 208 208 208 0
3.664001 -3.559315 27.368823 207 207 207 0
3.777026 -3.567191 27.429383 208 208 208 0
3.887867 -3.572634 27.471238 208 208 208 0
3.987015 -3.567329 27.430443 208 208 208 0
4.075847 -3.553303 27.322589 208 208 208 0
4.169123 -3.543755 27.249170 209 209 209 0
4.274859 -3.545005 27.258784 208 208 208 0
4.393617 -3.556737 27.348999 208 208 208 0
4.484897 -3.546198 27.267958 210 210 210 0
4.573625 -3.534165 27.175431 208 208 208 0
4.661383 -3.521934 27.081382 209 209 209 0
4.754785 -3.514406 27.023501 208 208 208 0
4.874274 -3.526071 27.113194 208 208 208 0
4.983573 -3.530031 27.143644 208 208 208 0
5.076407 -3.522405 27.085007 208 208 208 0
5.162571 -3.510548 26.993837 209 209 209 0
5.263943 -3.509295 26.984200 209 209 209 0
5.374546 -3.514126 27.021348 209 209 209 0
5.474276 -3.511800 27.003457 209 209 209 0
5.568831 -3.506301 26.961179 208 208 208 0
5.655890 -3.496368 26.884801 209 209 209 0
5.759007 -3.496540 26.886121 210 210 210 0
5.869851 -3.501315 26.922837 208 208 208 0
5.974114 -3.502067 26.928617 209 209 209 0
6.069626 -3.497750 26.895429 209 209 209 0
6.157379 -3.489182 26.829539 209 209 209 0
6.245291 -3.480982 26.766489 209 209 209 0
6.347117 -3.480677 26.764144 209 209 209 0
6.467709 -3.490510 26.839750 209 209 209 0
6.544356 -3.476689 26.733478 209 209 209 0
6.629017 -3.467486 26.662711 209 209 209 0
6.711986 -3.457690 26.587386 209 209 209 0
6.806647 -3.454119 26.559934 209 209 209 0
6.903226 -3.451613 26.540662 210 210 210 0
7.009631 -3.454021 26.559179 210 210 210 0
7.104041 -3.450534 26.532365 209 209 209 0
7.190839 -3.443501 26.478282 210 210 210 0
7.293920 -3.444351 26.484821 209 209 209 0
7.385799 -3.439961 26.451065 209 209 209 0
7.477634 -3.435670 26.418067 210 210 210 0
7.581537 -3.436963 26.428014 210 210 210 0
7.676953 -3.434426 26.408508 210 210 210 0
7.757863 -3.425550 26.340253 210 210 210 0
7.854554 -3.423780 26.326642 210 210 210 0
7.954886 -3.423622 26.325429 210 210 210 0
-6.628132 -2.734105 21.660563 205 205 205 0
-6.662415 -2.783034 22.048201 206 206 206 0
-6.553740 -2.772736 21.966615 206 206 206 0
-6.473023 -2.774153 21.977838 206 206 206 0
-6.379973 -2.770252 21.946932 205 205 205 0
-6.332468 -2.786286 22.073961 205 205 205 0
-6.290807 -2.805360 22.225074 206 206 206 0
-6.276368 -2.837262 22.477814 205 205 205 0
-6.229932 -2.855385 22.621393 206 206 206 0
-6.124345 -2.846526 22.551209 206 206 206 0
-6.069154 -2.861173 22.667242 205 205 205 0
-6.028613 -2.883250 22.842146 206 206 206 0
-6.015966 -2.919513 23.129434 206 206 206 0
-5.967832 -2.939380 23.286828 206 206 206 0
-5.890256 -2.945128 23.332365 206 206 206 0
-5.777155 -2.933017 23.236421 206 206 206 0
-5.762303 -2.971188 23.538820 206 206 206 0
-5.763321 -3.018883 23.916677 205 205 205 0
-5.672355 -3.019157 23.918849 206 206 206 0
-5.545210 -2.999868 23.766035 206 206 206 0
-5.432853 -2.988069 23.672563 205 205 205 0
-5.378527 -3.008328 23.833064 205 205 205 0
-5.400438 -3.072663 24.342747 206 206 206 0
-5.293742 -3.064798 24.280436 207 207 207 0
-5.168934 -3.045979 24.131346 205 205 205 0
-5.051242 -3.030745 24.010657 206 206 206 0
-4.983563 -3.045511 24.127637 205 205 205 0
-4.992957 -3.108822 24.629211 206 206 206 0
-4.913932 -3.118457 24.705542 206 206 206 0
-4.797368 -3.104179 24.592428 206 206 206 0
-4.687931 -3.094035 24.512058 206 206 206 0
-4.652466 -3.133293 24.823082 205 205 205 0
-4.598863 -3.161719 25.048275 206 206 206 0
-4.525072 -3.177178 25.170750 205 205 205 0
-4.405440 -3.160424 25.038023 206 206 206 0
-4.322205 -3.169617 25.110850 206 206 206 0
-4.267622 -3.200716 25.357229 206 206 206 0
-4.193869 -3.218550 25.498517 207 207 207 0
-4.102469 -3.223369 25.536691 206 206 206 0
-3.985868 -3.208137 25.416021 207 207 207 0
-3.881648 -3.202360 25.370248 206 206 206 0
-3.805959 -3.220427 25.513382 206 206 206 0
-3.733714 -3.242436 25.687746 208 208 208 0
-3.628264 -3.236020 25.636914 208 208 208 0
-3.512037 -3.219367 25.504989 208 208 208 0
-3.409289 -3.214472 25.466208 208 208 208 0
-3.316348 -3.218809 25.500563 208 208 208 0
-3.239193 -3.239193 25.662056 209 209 209 0
-3.145251 -3.243540 25.696494 209 209 209 0
-3.038296 -3.234315 25.623412 209 209 209 0
-2.958355 -3.254190 25.780869 209 209 209 0
-2.866031 -3.261346 25.837559 209 209 209 0
-2.771274 -3.266144 25.875572 209 209 209 0
-2.677473 -3.272467 25.925668 209 209 209 0
-2.584731 -3.280620 25.990255 209 209 209 0
-2.490690 -3.287711 26.046430 209 209 209 0
-2.396543 -3.295246 26.106130 209 209 209 0
-2.301160 -3.301664 26.156974 210 210 210 0
-2.214128 -3.321193 26.311686 209 209 209 0
-2.118554 -3.329156 26.374772 210 210 210 0
-2.014589 -3.324072 26.334500 209 209 209 0
