ply
    format ascii 1.0
    element vertex 13958
    property float x
    property float y
    property float z
    property uchar red
    property uchar green
    property uchar blue
    property uchar alpha
    end_header
3.726810 -2.340090 22.658824 215 215 215 0
3.828827 -2.349507 22.750012 215 215 215 0
3.919695 -2.351817 22.772377 214 214 214 0
4.017176 -2.357908 22.831352 214 214 214 0
4.115795 -2.364393 22.894144 214 214 214 0
4.217362 -2.372266 22.970383 215 215 215 0
4.319660 -2.380221 23.047408 214 214 214 0
4.415060 -2.384132 23.085279 214 214 214 0
4.516793 -2.391243 23.154135 214 214 214 0
4.632595 -2.405386 23.291075 214 214 214 0
4.733524 -2.411418 23.349485 214 214 214 0
4.818743 -2.409372 23.329670 214 214 214 0
4.917699 -2.414143 23.375871 215 215 215 0
5.035828 -2.427989 23.509936 213 213 213 0
5.130138 -2.430065 23.530045 214 214 214 0
5.218413 -2.429261 23.522259 214 214 214 0
5.315220 -2.432389 23.552541 214 214 214 0
5.430755 -2.443840 23.663421 214 214 214 0
5.550057 -2.456583 23.786810 214 214 214 0
5.644101 -2.457915 23.799708 214 214 214 0
5.742566 -2.461100 23.830549 214 214 214 0
5.857280 -2.471040 23.926798 213 213 213 0
5.964348 -2.477498 23.989334 214 214 214 0
6.067769 -2.482269 24.035528 213 213 213 0
6.172259 -2.487328 24.084516 214 214 214 0
6.292479 -2.498484 24.192539 213 213 213 0
6.414910 -2.510182 24.305805 213 213 213 0
6.513891 -2.512501 24.328257 213 213 213 0
6.613484 -2.514987 24.352331 213 213 213 0
6.727146 -2.522680 24.426819 213 213 213 0
6.851004 -2.533933 24.535783 213 213 213 0
6.941100 -2.532564 24.522523 213 213 213 0
7.041686 -2.535007 24.546183 213 213 213 0
7.160304 -2.543792 24.631247 212 212 212 0
7.290042 -2.556248 24.751861 213 213 213 0
7.379327 -2.554383 24.733794 213 213 213 0
7.493936 -2.561219 24.799986 213 213 213 0
-5.817242 -3.024966 30.416952 86 86 86 0
-5.517278 -2.927535 29.437256 118 118 118 0
-5.365373 -2.906244 29.223164 135 135 135 0
-5.198176 -2.875587 28.914901 149 149 149 0
-5.013751 -2.833859 28.495317 154 154 154 0
-4.849510 -2.801939 28.174351 163 163 163 0
-4.683285 -2.767395 27.827003 167 167 167 0
-4.548674 -2.750361 27.655717 168 168 168 0
-4.420556 -2.736535 27.516688 175 175 175 0
-4.363413 -2.767043 27.823454 177 177 177 0
-4.231889 -2.750728 27.659402 177 177 177 0
-4.087888 -2.725258 27.403303 181 181 181 0
-3.959448 -2.709096 27.240786 184 184 184 0
-3.841841 -2.699672 27.146025 185 185 185 0
-3.734486 -2.697129 27.120451 186 186 186 0
-3.630425 -2.696887 27.118022 188 188 188 0
-3.521825 -2.693160 27.080545 191 191 191 0
-3.396570 -2.676085 26.908853 191 191 191 0
-3.292297 -2.674991 26.897850 192 192 192 0
-3.186222 -2.672315 26.870939 192 192 192 0
-3.080658 -2.669903 26.846691 195 195 195 0
-2.971221 -2.663853 26.785854 196 196 196 0
-2.869036 -2.664104 26.788380 197 197 197 0
-2.762483 -2.660168 26.748803 198 198 198 0
-2.656407 -2.656407 26.710978 198 198 198 0
-2.553089 -2.655213 26.698975 198 198 198 0
-2.449454 -2.653576 26.682509 200 200 200 0
-2.353137 -2.660068 26.747789 201 201 201 0
-2.251845 -2.661271 26.759893 201 201 201 0
-2.143213 -2.653501 26.681762 202 202 202 0
-2.030695 -2.639904 26.545035 202 202 202 0
-1.928055 -2.638391 26.529826 203 203 203 0
-1.836971 -2.653403 26.680775 203 203 203 0
-1.734362 -2.652554 26.672239 204 204 204 0
-1.628670 -2.646589 26.612260 205 205 205 0
-1.520108 -2.634854 26.494254 205 205 205 0
-1.412948 -2.624047 26.385588 200 200 200 0
-1.294145 -2.588290 26.026040 119 119 119 0
-1.281003 -2.775507 27.908567 80 80 80 0
-1.168575 -2.762087 27.773624 69 69 69 0
-1.042311 -2.710008 27.249952 71 71 71 0
-0.925416 -2.673425 26.882104 68 68 68 0
-0.560867 -1.822818 18.328987 69 69 69 0
-0.690593 -2.565058 25.792441 78 78 78 0
-0.586806 -2.542828 25.568904 67 67 67 0
-0.484013 -2.516867 25.307862 83 83 83 0
-0.378628 -2.461084 24.746943 79 79 79 0
-0.282673 -2.449829 24.633778 68 68 68 0
-0.183002 -2.379025 23.921817 79 79 79 0
0.000000 -2.316580 23.293919 84 84 84 0
0.087752 -2.281554 22.941714 73 73 73 0
0.167769 -2.180991 21.930527 86 86 86 0
0.237624 -2.059412 20.708013 175 175 175 0
0.314313 -2.043033 20.543317 215 215 215 0
0.394107 -2.049354 20.606881 216 216 216 0
0.474732 -2.057171 20.685476 215 215 215 0
0.553859 -2.057190 20.685671 215 215 215 0
0.634859 -2.063292 20.747025 216 216 216 0
0.717545 -2.072908 20.843716 215 215 215 0
0.799811 -2.079509 20.910092 215 215 215 0
0.882022 -2.084779 20.963087 215 215 215 0
0.963137 -2.086796 20.983373 215 215 215 0
1.044378 -2.088757 21.003083 216 216 216 0
1.135177 -2.108186 21.198456 215 215 215 0
1.221534 -2.117325 21.290346 215 215 215 0
1.302945 -2.117286 21.289953 216 216 216 0
1.383225 -2.115521 21.272203 215 215 215 0
1.467101 -2.119146 21.308653 215 215 215 0
1.564574 -2.140996 21.528371 215 215 215 0
1.643458 -2.136496 21.483115 215 215 215 0
1.724722 -2.135370 21.471795 215 215 215 0
1.805145 -2.133353 21.451514 215 215 215 0
1.890122 -2.136659 21.484758 215 215 215 0
1.986059 -2.151564 21.634631 215 215 215 0
2.076065 -2.159108 21.710483 215 215 215 0
2.160135 -2.160135 21.720814 215 215 215 0
2.248525 -2.165246 21.772206 215 215 215 0
2.340894 -2.173687 21.857086 215 215 215 0
2.428927 -2.177659 21.897022 215 215 215 0
2.516627 -2.181077 21.931391 214 214 214 0
2.605447 -2.185214 21.972989 215 215 215 0
2.699120 -2.193035 22.051633 215 215 215 0
2.795152 -2.202241 22.144203 215 215 215 0
2.892186 -2.211672 22.239030 214 214 214 0
2.986203 -2.218322 22.305903 215 215 215 0
3.074183 -2.220243 22.325218 215 215 215 0
3.168911 -2.226802 22.391176 215 215 215 0
3.378155 -2.311369 23.241517 215 215 215 0
3.351183 -2.234122 22.464775 214 214 214 0
3.444344 -2.238823 22.512050 214 214 214 0
3.528400 -2.237522 22.498967 214 214 214 0
3.622250 -2.242345 22.547463 214 214 214 0
3.725274 -2.252491 22.649482 215 215 215 0
3.826380 -2.261043 22.735475 214 214 214 0
3.918171 -2.263832 22.763518 214 214 214 0
4.015852 -2.269829 22.823826 215 215 215 0
4.114630 -2.276178 22.887664 215 215 215 0
4.216967 -2.284191 22.968232 215 215 215 0
4.316301 -2.290282 23.029486 214 214 214 0
4.413765 -2.295158 23.078510 214 214 214 0
4.513399 -2.300949 23.136738 215 215 215 0
4.632767 -2.316384 23.291942 215 215 215 0
4.730120 -2.320436 23.332691 214 214 214 0
4.816369 -2.318992 23.318174 213 213 213 0
4.917509 -2.324640 23.374967 214 214 214 0
5.034556 -2.337473 23.503999 214 214 214 0
5.127414 -2.338821 23.517552 214 214 214 0
5.216335 -2.338357 23.512891 214 214 214 0
5.312156 -2.340950 23.538963 214 214 214 0
5.424797 -2.350745 23.637460 214 214 214 0
5.545239 -2.363544 23.766157 214 214 214 0
5.639851 -2.365099 23.781789 214 214 214 0
5.739282 -2.368593 23.816920 214 214 214 0
5.855006 -2.378596 23.917508 214 214 214 0
5.963593 -2.385437 23.986298 214 214 214 0
6.066989 -2.390026 24.032438 214 214 214 0
6.166433 -2.392944 24.061781 213 213 213 0
6.287342 -2.403984 24.172788 214 214 214 0
6.409969 -2.415351 24.287086 214 214 214 0
6.509950 -2.417982 24.313540 213 213 213 0
6.612823 -2.421597 24.349896 213 213 213 0
6.724847 -2.428417 24.418470 214 214 214 0
6.845819 -2.438237 24.517215 213 213 213 0
6.939209 -2.438101 24.515843 213 213 213 0
7.038281 -2.439937 24.534312 213 213 213 0
7.154753 -2.447679 24.612152 212 212 212 0
7.285420 -2.460012 24.736170 213 213 213 0
7.378527 -2.459509 24.731113 213 213 213 0
7.489013 -2.464738 24.783695 213 213 213 0
-5.791020 -2.895510 30.279842 98 98 98 0
-5.499037 -2.805631 29.339934 126 126 126 0
-5.334679 -2.778479 29.055985 139 139 139 0
-5.179474 -2.755039 28.810868 150 150 150 0
-5.004547 -2.719863 28.443008 155 155 155 0
-4.837157 -2.687310 28.102585 164 164 164 0
-4.668682 -2.652660 27.740238 167 167 167 0
-4.525208 -2.630935 27.513045 171 171 171 0
-4.437456 -2.641343 27.621885 176 176 176 0
-4.360123 -2.658611 27.802473 177 177 177 0
-4.227755 -2.642347 27.632384 178 178 178 0
-4.082960 -2.617282 27.370268 184 184 184 0
-3.954667 -2.601755 27.207893 184 184 184 0
-3.840693 -2.595063 27.137913 185 185 185 0
-3.727313 -2.588412 27.068356 186 186 186 0
-3.624381 -2.588843 27.072873 191 191 191 0
-3.516253 -2.585480 27.037700 192 192 192 0
-3.391586 -2.569383 26.869367 191 191 191 0
-3.288070 -2.568805 26.863316 192 192 192 0
-3.180797 -2.565159 26.825192 195 195 195 0
-3.076803 -2.564003 26.813101 196 196 196 0
-2.966491 -2.557320 26.743211 197 197 197 0
-2.864849 -2.557901 26.749293 197 197 197 0
-2.754238 -2.550220 26.668970 197 197 197 0
-2.651593 -2.549608 26.662571 198 198 198 0
-2.548581 -2.548581 26.651829 200 200 200 0
-2.444281 -2.546126 26.626157 201 201 201 0
-2.348750 -2.552989 26.697925 201 201 201 0
-2.250178 -2.557020 26.740081 202 202 202 0
-2.140802 -2.548573 26.651748 203 203 203 0
-2.028585 -2.535731 26.517445 202 202 202 0
-1.924861 -2.532712 26.485876 203 203 203 0
-1.834641 -2.548112 26.646928 204 204 204 0
-1.731040 -2.545648 26.621152 204 204 204 0
-1.627199 -2.542499 26.588220 205 205 205 0
-1.518342 -2.530569 26.463469 206 206 206 0
-1.412406 -2.522154 26.375462 202 202 202 0
-1.287854 -2.476642 25.899523 123 123 123 0
-0.901666 -1.878471 19.644145 67 67 67 0
-1.167281 -2.652910 27.742853 73 73 73 0
-1.040950 -2.602374 27.214368 67 67 67 0
-0.810586 -2.533080 26.489729 74 74 74 0
-0.691518 -2.469706 25.826993 77 77 77 0
-0.581984 -2.424935 25.358799 79 79 79 0
-0.483703 -2.418514 25.291646 69 69 69 0
-0.377236 -2.357723 24.655924 77 77 77 0
-0.278983 -2.324858 24.312243 75 75 75 0
-0.182914 -2.286428 23.910362 82 82 82 0
-0.091348 -2.283706 23.881888 66 66 66 0
0.000000 -2.231197 23.332780 74 74 74 0
0.089085 -2.227131 23.290258 67 67 67 0
0.169368 -2.117099 22.139598 80 80 80 0
0.237472 -1.978934 20.694734 176 176 176 0
0.314232 -1.963953 20.538068 214 214 214 0
0.394075 -1.970376 20.605244 216 216 216 0
0.474549 -1.977287 20.677513 215 215 215 0
0.554028 -1.978671 20.691982 215 215 215 0
0.634584 -1.983074 20.738027 215 215 215 0
0.717230 -1.992307 20.834582 215 215 215 0
0.799777 -1.999442 20.909202 216 216 216 0
0.881570 -2.003568 20.952342 215 215 215 0
0.962366 -2.004930 20.966590 215 215 215 0
1.044171 -2.008021 20.998910 215 215 215 0
1.134453 -2.025809 21.184932 216 216 216 0
1.220911 -2.034852 21.279500 214 214 214 0
1.302068 -2.034481 21.275620 215 215 215 0
1.382939 -2.033733 21.267798 214 214 214 0
1.466043 -2.036171 21.293296 215 215 215 0
1.594971 -2.098646 21.946623 215 215 215 0
1.641534 -2.051918 21.457962 215 215 215 0
1.723841 -2.052192 21.460827 215 215 215 0
1.803738 -2.049702 21.434790 214 214 214 0
1.889176 -2.053452 21.474007 215 215 215 0
1.985028 -2.067737 21.623396 215 215 215 0
2.074760 -2.074760 21.696838 214 214 214 0
2.159586 -2.076525 21.715296 214 214 214 0
2.247145 -2.080689 21.758843 215 215 215 0
2.338526 -2.087970 21.834980 215 215 215 0
2.427057 -2.092291 21.880164 215 215 215 0
2.516437 -2.097031 21.929738 215 215 215 0
2.606077 -2.101675 21.978302 215 215 215 0
2.698106 -2.107896 22.043353 215 215 215 0
2.794885 -2.117337 22.142088 215 215 215 0
2.891289 -2.125948 22.232135 215 215 215 0
2.985117 -2.132226 22.297789 215 215 215 0
3.069845 -2.131837 22.293716 215 215 215 0
3.158014 -2.133793 22.314176 215 215 215 0
3.099179 -2.038934 21.322182 214 214 214 0
3.354288 -2.150184 22.485589 214 214 214 0
3.442858 -2.151786 22.502338 215 215 215 0
3.527760 -2.151073 22.494886 214 214 214 0
3.620404 -2.155002 22.535970 215 215 215 0
3.722917 -2.164487 22.635155 215 215 215 0
3.824793 -2.173178 22.726042 214 214 214 0
3.916944 -2.176080 22.756392 214 214 214 0
4.015108 -2.182124 22.819596 214 214 214 0
4.112298 -2.187392 22.874692 214 214 214 0
4.215010 -2.195318 22.957572 215 215 215 0
4.315948 -2.202014 23.027599 215 215 215 0
4.412160 -2.206080 23.070116 214 214 214 0
4.508234 -2.209919 23.110260 214 214 214 0
4.626605 -2.224330 23.260962 215 215 215 0
4.728945 -2.230635 23.326897 214 214 214 0
4.815853 -2.229562 23.315678 214 214 214 0
4.914287 -2.233767 23.359655 214 214 214 0
5.033922 -2.247286 23.501035 214 214 214 0
5.126772 -2.248584 23.514608 214 214 214 0
5.214852 -2.247781 23.506206 214 214 214 0
5.308892 -2.249531 23.524503 213 213 213 0
5.422300 -2.259292 23.626581 214 214 214 0
5.540973 -2.270890 23.747873 213 213 213 0
5.637279 -2.273097 23.770944 214 214 214 0
5.736644 -2.276446 23.805970 213 213 213 0
5.852163 -2.286001 23.905894 214 214 214 0
5.959253 -2.292020 23.968839 214 214 214 0
6.062189 -2.296284 24.013424 214 214 214 0
6.165089 -2.300406 24.056536 214 214 214 0
6.283682 -2.310177 24.158717 213 213 213 0
6.410447 -2.322626 24.288896 214 214 214 0
6.509308 -2.324753 24.311142 213 213 213 0
6.607969 -2.326750 24.332024 214 214 214 0
6.719791 -2.333261 24.400113 213 213 213 0
6.842829 -2.343434 24.506504 213 213 213 0
6.933418 -2.342371 24.495384 213 213 213 0
7.033217 -2.344406 24.516661 213 213 213 0
7.151014 -2.352307 24.599293 213 213 213 0
7.280628 -2.363840 24.719899 213 213 213 0
7.374036 -2.363473 24.716059 213 213 213 0
7.487612 -2.369497 24.779059 212 212 212 0
-5.897380 -2.775237 30.231345 75 75 75 0
-5.728864 -2.749855 29.954844 109 109 109 0
-5.476897 -2.682562 29.221805 132 132 132 0
-5.309717 -2.654859 28.920029 144 144 144 0
-5.158599 -2.634178 28.694750 152 152 152 0
-4.995805 -2.606507 28.393324 159 159 159 0
-4.823361 -2.572459 28.022433 165 165 165 0
-4.651694 -2.537288 27.639301 167 167 167 0
-4.512022 -2.518338 27.432872 173 173 173 0
-4.426356 -2.529346 27.552789 176 176 176 0
-4.348752 -2.545611 27.729964 177 177 177 0
-4.213459 -2.528075 27.538948 180 180 180 0
-4.077191 -2.509041 27.331598 185 185 185 0
-3.947167 -2.492948 27.156295 185 185 185 0
-3.833491 -2.486589 27.087026 185 185 185 0
-3.724964 -2.483310 27.051303 188 188 188 0
-3.620799 -2.482834 27.046121 190 190 190 0
-3.509980 -2.477633 26.989463 192 192 192 0
-3.387260 -2.463462 26.835099 192 192 192 0
-3.281423 -2.461068 26.809015 193 193 193 0
-3.173944 -2.457247 26.767395 196 196 196 0
-3.069369 -2.455495 26.748312 196 196 196 0
-2.964613 -2.453473 26.726281 197 197 197 0
-2.863075 -2.454064 26.732727 197 197 197 0
-2.755122 -2.448997 26.677531 198 198 198 0
-2.647125 -2.443500 26.617642 199 199 199 0
-2.544381 -2.442606 26.607911 200 200 200 0
-2.441006 -2.441006 26.590483 201 201 201 0
-2.346422 -2.448441 26.671468 201 201 201 0
-2.247682 -2.452017 26.710426 202 202 202 0
-2.138562 -2.444071 26.623871 201 201 201 0
-2.028907 -2.434688 26.521654 202 202 202 0
-1.923376 -2.429527 26.465438 204 204 204 0
-1.832779 -2.443705 26.619882 205 205 205 0
-1.730459 -2.443000 26.612204 205 205 205 0
-1.623291 -2.434937 26.524367 205 205 205 0
-1.517799 -2.428479 26.454015 205 205 205 0
-1.409380 -2.416081 26.318960 202 202 202 0
-1.287247 -2.376457 25.887326 126 126 126 0
-1.292492 -2.584983 28.158857 72 72 72 0
-1.043962 -2.505509 27.293125 68 68 68 0
-0.921976 -2.458602 26.782162 75 75 75 0
-0.808837 -2.426512 26.432597 72 72 72 0
-0.593242 -2.372970 25.849342 70 70 70 0
-0.482807 -2.317473 25.244808 73 73 73 0
-0.379376 -2.276259 24.795846 70 70 70 0
-0.282026 -2.256211 24.577458 71 71 71 0
-0.183216 -2.198598 23.949867 85 85 85 0
-0.090657 -2.175768 23.701171 80 80 80 0
0.000000 -2.140026 23.311825 86 86 86 0
0.088284 -2.118827 23.080900 79 79 79 0
0.170563 -2.046757 22.295828 80 80 80 0
0.237335 -1.898679 20.682780 177 177 177 0
0.314204 -1.885224 20.536206 215 215 215 0
0.393964 -1.891027 20.599423 215 215 215 0
0.474330 -1.897319 20.667963 215 215 215 0
0.553963 -1.899301 20.689556 215 215 215 0
0.634308 -1.902924 20.729023 215 215 215 0
0.717004 -1.912012 20.828016 215 215 215 0
0.799090 -1.917815 20.891233 215 215 215 0
0.881162 -1.922534 20.942640 215 215 215 0
0.962003 -1.924006 20.958668 215 215 215 0
1.043622 -1.926686 20.987868 216 216 216 0
1.132996 -1.942279 21.157728 215 215 215 0
1.219351 -1.950961 21.252299 216 216 216 0
1.301519 -1.952278 21.266643 215 215 215 0
1.381398 -1.950209 21.244108 215 215 215 0
1.462342 -1.949789 21.239535 215 215 215 0
1.396976 -1.764602 19.222241 215 215 215 0
1.643476 -1.972171 21.483345 215 215 215 0
1.723184 -1.969353 21.452644 215 215 215 0
1.803119 -1.967039 21.427444 215 215 215 0
1.888316 -1.970416 21.464229 215 215 215 0
1.984764 -1.984764 21.620519 215 215 215 0
2.072548 -1.989646 21.673703 215 215 215 0
2.160012 -1.993857 21.719573 214 214 214 0
2.245490 -1.995991 21.742826 214 214 214 0
2.337570 -2.003631 21.826050 214 214 214 0
2.426283 -2.007958 21.873181 215 215 215 0
2.515678 -2.012542 21.923118 215 215 215 0
2.603364 -2.015508 21.955420 215 215 215 0
2.697032 -2.022774 22.034572 215 215 215 0
2.792029 -2.030566 22.119459 215 215 215 0
2.888763 -2.039127 22.212712 215 215 215 0
2.982706 -2.045284 22.279783 215 215 215 0
3.069990 -2.046660 22.294772 215 215 215 0
3.158622 -2.048836 22.318476 215 215 215 0
3.252299 -2.054083 22.375635 215 215 215 0
3.350510 -2.061853 22.460267 214 214 214 0
3.437942 -2.062765 22.470210 215 215 215 0
3.524373 -2.063048 22.473285 214 214 214 0
3.618981 -2.067989 22.527114 215 215 215 0
3.720595 -2.076611 22.621035 214 214 214 0
3.823702 -2.085656 22.719561 214 214 214 0
3.915445 -2.088237 22.747681 215 215 215 0
4.012912 -2.093693 22.807114 214 214 214 0
4.111825 -2.099655 22.872063 214 214 214 0
4.210736 -2.105368 22.934291 214 214 214 0
4.313349 -2.112661 23.013736 214 214 214 0
4.410557 -2.117067 23.061735 214 214 214 0
4.506511 -2.120711 23.101426 214 214 214 0
4.623244 -2.133805 23.244061 214 214 214 0
4.727634 -2.140815 23.320429 214 214 214 0
4.814218 -2.139652 23.307760 214 214 214 0
4.915911 -2.145125 23.367371 214 214 214 0
5.030397 -2.155884 23.484581 214 214 214 0
5.124301 -2.157600 23.503271 214 214 214 0
5.213036 -2.157119 23.498023 214 214 214 0
5.306023 -2.158382 23.511789 213 213 213 0
5.416601 -2.166640 23.601746 213 213 213 0
5.537549 -2.178708 23.733200 214 214 214 0
5.633040 -2.180532 23.753067 214 214 214 0
5.734404 -2.184535 23.796675 214 214 214 0
5.849252 -2.193469 23.894003 213 213 213 0
5.957446 -2.199672 23.961571 214 214 214 0
6.058528 -2.203101 23.998924 214 214 214 0
6.159274 -2.206307 24.033846 213 213 213 0
6.276118 -2.215101 24.129636 214 214 214 0
6.406770 -2.228442 24.274963 213 213 213 0
6.506339 -2.230745 24.300054 213 213 213 0
6.604866 -2.232631 24.320595 213 213 213 0
6.714991 -2.238330 24.382684 213 213 213 0
6.839682 -2.248662 24.495234 213 213 213 0
6.929871 -2.247526 24.482849 213 213 213 0
7.031197 -2.249983 24.509619 213 213 213 0
7.146140 -2.256676 24.582524 213 213 213 0
7.277518 -2.268317 24.709339 213 213 213 0
7.369125 -2.267423 24.699599 213 213 213 0
7.486230 -2.274298 24.774486 213 213 213 0
-5.830485 -2.629434 29.888428 86 86 86 0
-5.681454 -2.613469 29.706948 119 119 119 0
-5.466638 -2.565973 29.167070 134 134 134 0
-5.289318 -2.534465 28.808923 148 148 148 0
-5.137119 -2.513909 28.575267 152 152 152 0
-4.984360 -2.492180 28.328273 163 163 163 0
-4.809016 -2.457941 27.939090 166 166 166 0
-4.643661 -2.427368 27.591568 168 168 168 0
-4.502766 -2.408456 27.376597 175 175 175 0
-4.415736 -2.418141 27.486685 176 176 176 0
-4.336208 -2.432507 27.649982 177 177 177 0
-4.210534 -2.421057 27.519828 183 183 183 0
-4.074593 -2.402965 27.314183 185 185 185 0
-3.944334 -2.387360 27.136800 185 185 185 0
-3.826533 -2.378656 27.037859 186 186 186 0
-3.719734 -2.376496 27.013316 189 189 189 0
-3.614925 -2.375522 27.002242 191 191 191 0
-3.505923 -2.371654 26.958273 191 191 191 0
-3.384056 -2.358585 26.809713 192 192 192 0
-3.281625 -2.358668 26.810661 194 194 194 0
-3.169501 -2.351566 26.729929 195 195 195 0
-3.066766 -2.351187 26.725628 197 197 197 0
-2.958925 -2.346734 26.675006 197 197 197 0
-2.860272 -2.349509 26.706556 197 197 197 0
-2.752569 -2.344781 26.652807 199 199 199 0
-2.644728 -2.339567 26.593545 200 200 200 0
-2.540625 -2.337375 26.568632 200 200 200 0
-2.436961 -2.335421 26.546411 200 200 200 0
-2.343826 -2.343826 26.641954 201 201 201 0
-2.245118 -2.347169 26.679956 201 201 201 0
-2.138003 -2.341622 26.616902 203 203 203 0
-2.026113 -2.330030 26.485134 204 204 204 0
-1.921755 -2.326335 26.443136 204 204 204 0
-1.827897 -2.335647 26.548980 205 205 205 0
-1.727801 -2.337614 26.571341 205 205 205 0
-1.621942 -2.331541 26.502317 205 205 205 0
-1.515387 -2.323593 26.411965 205 205 205 0
-1.408995 -2.314777 26.311763 202 202 202 0
-1.286157 -2.275509 25.865402 133 133 133 0
-1.291945 -2.476227 28.146941 70 70 70 0
-1.162483 -2.430647 27.628841 72 72 72 0
-1.044336 -2.401972 27.302890 68 68 68 0
-0.918834 -2.348132 26.690896 75 75 75 0
-0.815501 -2.344565 26.650356 70 70 70 0
-0.690953 -2.270275 25.805906 92 92 92 0
-0.590404 -2.263217 25.725684 68 68 68 0
-0.479057 -2.203663 25.048745 76 76 76 0
-0.280119 -2.147576 24.411206 82 82 82 0
-0.184247 -2.118845 24.084623 75 75 75 0
-0.090310 -2.077141 23.610579 81 81 81 0
0.000000 -2.058296 23.396369 72 72 72 0
0.087525 -2.013081 22.882420 88 88 88 0
0.172453 -1.983207 22.542845 71 71 71 0
0.237002 -1.817013 20.653740 177 177 177 0
0.314222 -1.806774 20.537360 214 214 214 0
0.393756 -1.811279 20.588563 215 215 215 0
0.474338 -1.818297 20.668342 215 215 215 0
0.553764 -1.819511 20.682140 215 215 215 0
0.634309 -1.823639 20.729055 215 215 215 0
0.716588 -1.831280 20.815919 215 215 215 0
0.798419 -1.836364 20.873704 215 215 215 0
0.880206 -1.840430 20.919917 215 215 215 0
0.961273 -1.842440 20.942772 215 215 215 0
1.043598 -1.846367 20.987401 215 215 215 0
1.131859 -1.859483 21.136491 215 215 215 0
1.219341 -1.869656 21.252128 215 215 215 0
1.300876 -1.870009 21.256140 215 215 215 0
1.381308 -1.868829 21.242728 214 214 214 0
1.464132 -1.870836 21.265538 215 215 215 0
1.540253 -1.864517 21.193714 215 215 215 0
1.641618 -1.887861 21.459057 215 215 215 0
1.722466 -1.886510 21.443707 215 215 215 0
1.801695 -1.883590 21.410515 215 215 215 0
1.887711 -1.887711 21.457361 215 215 215 0
1.982417 -1.899816 21.594951 215 215 215 0
2.072515 -1.906714 21.673362 215 215 215 0
2.158943 -1.909834 21.708831 215 215 215 0
2.244478 -1.911963 21.733026 215 215 215 0
2.336987 -1.919668 21.820610 214 214 214 0
2.425313 -1.923524 21.864441 214 214 214 0
2.513612 -1.927103 21.905117 215 215 215 0
2.603263 -1.931453 21.954569 215 215 215 0
2.695074 -1.937085 22.018580 214 214 214 0
2.788018 -1.943164 22.087683 214 214 214 0
2.886312 -1.952505 22.193860 215 215 215 0
2.980883 -1.958866 22.266164 215 215 215 0
3.068084 -1.960165 22.280933 215 215 215 0
3.158144 -1.963171 22.315097 215 215 215 0
3.253832 -1.969425 22.386184 214 214 214 0
3.353785 -1.977873 22.482216 214 214 214 0
3.436623 -1.976058 22.461587 214 214 214 0
3.522951 -1.976290 22.464221 215 215 215 0
3.616097 -1.980244 22.509165 214 214 214 0
3.718073 -1.988737 22.605705 215 215 215 0
3.821565 -1.997636 22.706860 215 215 215 0
3.913634 -2.000302 22.737163 215 215 215 0
4.010490 -2.005245 22.793348 215 215 215 0
4.108275 -2.010432 22.852315 214 214 214 0
4.208382 -2.016516 22.921470 214 214 214 0
4.309048 -2.022614 22.990785 214 214 214 0
4.403967 -2.025825 23.027276 214 214 214 0
4.502357 -2.030475 23.080132 215 215 215 0
4.621805 -2.044260 23.236828 214 214 214 0
4.724244 -2.050144 23.303707 214 214 214 0
4.811018 -2.049137 23.292269 214 214 214 0
4.911650 -2.053963 23.347121 214 214 214 0
5.029239 -2.065580 23.479173 213 213 213 0
5.123007 -2.067178 23.497335 214 214 214 0
5.209921 -2.066003 23.483980 214 214 214 0
5.302732 -2.067167 23.497207 213 213 213 0
5.412237 -2.074691 23.582733 214 214 214 0
5.535503 -2.087157 23.724431 213 213 213 0
5.630664 -2.088795 23.743047 213 213 213 0
5.730848 -2.092214 23.781918 214 214 214 0
5.842580 -2.099677 23.866748 214 214 214 0
5.954667 -2.107036 23.950396 214 214 214 0
6.055053 -2.110094 23.985159 213 213 213 0
6.153914 -2.112538 24.012931 213 213 213 0
6.274023 -2.122096 24.121581 213 213 213 0
6.401443 -2.133814 24.254781 213 213 213 0
6.504372 -2.137151 24.292705 213 213 213 0
6.598201 -2.137445 24.296056 213 213 213 0
6.710284 -2.143563 24.365592 213 213 213 0
6.837384 -2.154244 24.487007 213 213 213 0
6.929041 -2.153621 24.479920 213 213 213 0
7.027274 -2.155031 24.495945 213 213 213 0
7.143363 -2.161807 24.572972 213 213 213 0
7.278405 -2.174069 24.712350 213 213 213 0
7.365709 -2.171940 24.688149 212 212 212 0
7.483550 -2.178755 24.765616 213 213 213 0
-5.717322 -2.466296 29.308330 94 94 94 0
-5.626634 -2.475719 29.420307 124 124 124 0
-5.441043 -2.442917 29.030510 137 137 137 0
-5.269485 -2.415181 28.700898 150 150 150 0
-5.121401 -2.397251 28.487837 155 155 155 0
-4.973493 -2.378627 28.266516 164 164 164 0
-4.802039 -2.347664 27.898559 166 166 166 0
-4.642720 -2.321360 27.585975 171 171 171 0
-4.494402 -2.299461 27.325745 176 176 176 0
-4.410201 -2.310105 27.452232 177 177 177 0
-4.328421 -2.322567 27.600324 178 178 178 0
-4.207280 -2.314004 27.498559 183 183 183 0
-4.070351 -2.296096 27.285747 184 184 184 0
-3.935085 -2.278207 27.073168 185 185 185 0
-3.825406 -2.274566 27.029898 187 187 187 0
-3.709690 -2.267032 26.940374 190 190 190 0
-3.609533 -2.268849 26.961962 191 191 191 0
-3.497880 -2.263334 26.896428 191 191 191 0
-3.382072 -2.254715 26.793995 192 192 192 0
-3.272592 -2.249907 26.736864 196 196 196 0
-3.165297 -2.246340 26.694470 196 196 196 0
-3.064113 -2.247016 26.702506 196 196 196 0
-2.951466 -2.239043 26.607759 196 196 196 0
-2.853322 -2.241896 26.641660 197 197 197 0
-2.745540 -2.237106 26.584745 199 199 199 0
-2.640651 -2.234397 26.552548 201 201 201 0
-2.535728 -2.231440 26.517413 200 200 200 0
-2.435129 -2.232202 26.526463 201 201 201 0
-2.340006 -2.238267 26.598535 202 202 202 0
-2.242406 -2.242406 26.647725 203 203 203 0
-2.136470 -2.238207 26.597820 203 203 203 0
-2.024787 -2.227265 26.467801 204 204 204 0
-1.920300 -2.223506 26.423122 204 204 204 0
-1.827053 -2.233064 26.536710 205 205 205 0
-1.723959 -2.231005 26.512243 204 204 204 0
-1.619158 -2.226342 26.456824 205 205 205 0
-1.513996 -2.220527 26.387729 205 205 205 0
-1.408278 -2.213008 26.298367 203 203 203 0
-1.285717 -2.175829 25.856552 137 137 137 0
-1.294621 -2.373472 28.205249 74 74 74 0
-1.167077 -2.334155 27.738023 79 79 79 0
-1.041492 -2.291283 27.228556 73 73 73 0
-0.920582 -2.250311 26.741666 76 76 76 0
-0.802214 -2.206089 26.216151 79 79 79 0
-0.693032 -2.178102 25.883563 84 84 84 0
-0.583225 -2.138491 25.412851 80 80 80 0
-0.480164 -2.112721 25.106602 75 75 75 0
-0.377478 -2.076128 24.671756 77 77 77 0
-0.279334 -2.048446 24.342797 70 70 70 0
-0.183828 -2.022108 24.029800 79 79 79 0
-0.090389 -1.988564 23.631179 83 83 83 0
0.000000 -1.963417 23.332351 76 76 76 0
0.087577 -1.926692 22.895919 96 96 96 0
0.171942 -1.891357 22.476017 78 78 78 0
0.237192 -1.739411 20.670366 176 176 176 0
0.314202 -1.728114 20.536111 215 215 215 0
0.393589 -1.731790 20.579793 216 216 216 0
0.474012 -1.738042 20.654096 215 215 215 0
0.553515 -1.739619 20.672829 215 215 215 0
0.634328 -1.744402 20.729674 215 215 215 0
0.716099 -1.750463 20.801701 216 216 216 0
0.797917 -1.755417 20.860572 215 215 215 0
0.880074 -1.760148 20.916791 215 215 215 0
0.960135 -1.760247 20.917966 215 215 215 0
1.043079 -1.765211 20.976955 215 215 215 0
1.131618 -1.778257 21.131985 215 215 215 0
1.218013 -1.786419 21.228983 215 215 215 0
1.299706 -1.787096 21.237034 215 215 215 0
1.381226 -1.787469 21.241466 215 215 215 0
1.464655 -1.790134 21.273127 215 215 215 0
1.555907 -1.801577 21.409113 215 215 215 0
1.642819 -1.807100 21.474752 215 215 215 0
1.721838 -1.803830 21.435886 215 215 215 0
1.801172 -1.801172 21.404304 215 215 215 0
1.886539 -1.804516 21.444040 214 214 214 0
1.981962 -1.816798 21.589998 215 215 215 0
2.071814 -1.823197 21.666031 215 215 215 0
2.156637 -1.824847 21.685643 215 215 215 0
2.243122 -1.827729 21.719897 215 215 215 0
2.335102 -1.834723 21.803010 215 215 215 0
2.424554 -1.839317 21.857599 215 215 215 0
2.512082 -1.842193 21.891779 215 215 215 0
2.602261 -1.846766 21.946123 215 215 215 0
2.696892 -1.854113 22.033433 215 215 215 0
2.787490 -1.858327 22.083503 215 215 215 0
2.884335 -1.866334 22.178661 214 214 214 0
2.978785 -1.872379 22.250496 214 214 214 0
3.066482 -1.873961 22.269298 215 215 215 0
3.156643 -1.876923 22.304490 215 215 215 0
3.249755 -1.881437 22.358135 215 215 215 0
3.352595 -1.891207 22.474240 214 214 214 0
3.435322 -1.889427 22.453088 215 215 215 0
3.522090 -1.889902 22.458731 215 215 215 0
3.614747 -1.893439 22.500762 215 215 215 0
3.716523 -1.901477 22.596278 214 214 214 0
3.818332 -1.909166 22.687652 214 214 214 0
3.908834 -1.910986 22.709275 215 215 215 0
4.008135 -1.916934 22.779965 215 215 215 0
4.107214 -1.922525 22.846411 214 214 214 0
4.206616 -1.928032 22.911853 214 214 214 0
4.307668 -1.934055 22.983424 214 214 214 0
4.406692 -1.938945 23.041528 215 215 215 0
4.499410 -1.940922 23.065027 215 215 215 0
4.617924 -1.953737 23.217315 215 215 215 0
4.722520 -1.960291 23.295203 214 214 214 0
4.809692 -1.959504 23.285846 214 214 214 0
4.909048 -1.963619 23.334748 214 214 214 0
5.027467 -1.975076 23.470903 215 215 215 0
5.120185 -1.976212 23.484394 214 214 214 0
5.207952 -1.975430 23.475103 215 215 215 0
5.299860 -1.976219 23.484479 214 214 214 0
5.408033 -1.982945 23.564414 214 214 214 0
5.530309 -1.994538 23.702170 213 213 213 0
5.626463 -1.996487 23.725334 214 214 214 0
5.728616 -2.000469 23.772656 214 214 214 0
5.839047 -2.007172 23.852317 214 214 214 0
5.950376 -2.013974 23.933138 214 214 214 0
6.051723 -2.017241 23.971968 214 214 214 0
6.150001 -2.019403 23.997663 213 213 213 0
6.267029 -2.027568 24.094691 214 214 214 0
6.398186 -2.040001 24.242441 214 214 214 0
6.500635 -2.043057 24.278750 214 214 214 0
6.595985 -2.043826 24.287896 213 213 213 0
6.704447 -2.048581 24.344397 213 213 213 0
6.831173 -2.058710 24.464762 214 214 214 0
6.924231 -2.058555 24.462924 213 213 213 0
7.025372 -2.060776 24.489314 213 213 213 0
7.143950 -2.067986 24.574993 213 213 213 0
7.273824 -2.078235 24.696796 213 213 213 0
7.362873 -2.076708 24.678642 213 213 213 0
7.483349 -2.083971 24.764950 213 213 213 0
-5.947002 -2.401674 29.899458 73 73 73 0
-5.663787 -2.332148 29.033895 103 103 103 0
-5.575087 -2.341537 29.150782 128 128 128 0
-5.417135 -2.321629 28.902946 141 141 141 0
-5.253788 -2.298532 28.615401 151 151 151 0
-5.106514 -2.281634 28.405030 158 158 158 0
-4.959444 -2.264094 28.186666 165 165 165 0
-4.794923 -2.237631 27.857215 166 166 166 0
-4.631922 -2.210690 27.521815 172 172 172 0
-4.491490 -2.193518 27.308041 176 176 176 0
-4.394026 -2.197013 27.351546 177 177 177 0
-4.326596 -2.216061 27.588687 181 181 181 0
-4.203402 -2.206786 27.473215 184 184 184 0
-4.069269 -2.191145 27.278494 184 184 184 0
-3.930787 -2.172277 27.043595 184 184 184 0
-3.809586 -2.162197 26.918110 190 190 190 0
-3.703973 -2.160651 26.898857 191 191 191 0
-3.605693 -2.163416 26.933283 190 190 190 0
-3.492530 -2.157151 26.855286 192 192 192 0
-3.379521 -2.150604 26.773784 193 193 193 0
-3.266349 -2.143541 26.685855 196 196 196 0
-3.161579 -2.141715 26.663115 195 195 195 0
-3.056785 -2.139749 26.638648 196 196 196 0
-2.949483 -2.135833 26.589885 196 196 196 0
-2.848348 -2.136261 26.595221 199 199 199 0
-2.742804 -2.133292 26.558258 199 199 199 0
-2.636692 -2.129636 26.512741 200 200 200 0
-2.532668 -2.127441 26.485415 201 201 201 0
-2.433579 -2.129382 26.509574 201 201 201 0
-2.337047 -2.133826 26.564904 202 202 202 0
-2.241506 -2.139620 26.637033 203 203 203 0
-2.134832 -2.134832 26.577429 203 203 203 0
-2.024660 -2.125893 26.466147 204 204 204 0
-1.920464 -2.122618 26.425378 204 204 204 0
-1.847602 -2.155535 26.835175 205 205 205 0
-1.721427 -2.126468 26.473305 205 205 205 0
-1.617397 -2.122834 26.428055 205 205 205 0
-1.511801 -2.116522 26.349475 205 205 205 0
-1.407609 -2.111413 26.285876 205 205 205 0
-1.282880 -2.072345 25.799498 143 143 143 0
-1.298177 -2.271810 28.282729 68 68 68 0
-1.040430 -2.184903 27.200779 75 75 75 0
-0.932201 -2.175136 27.079191 68 68 68 0
-0.803214 -2.108436 26.248811 89 89 89 0
-0.697755 -2.093265 26.059948 73 73 73 0
-0.482661 -2.027176 25.237172 70 70 70 0
-0.377571 -1.982245 24.677814 84 84 84 0
-0.279104 -1.953728 24.322794 72 72 72 0
-0.184109 -1.933141 24.066489 76 76 76 0
0.000000 -1.894522 23.585706 80 80 80 0
0.087764 -1.843051 22.944919 81 81 81 0
0.171868 -1.804616 22.466434 76 76 76 0
0.236979 -1.658854 20.651774 174 174 174 0
0.314011 -1.648559 20.523605 214 214 214 0
0.393587 -1.653066 20.579716 215 215 215 0
0.473926 -1.658742 20.650385 216 216 216 0
0.553348 -1.660043 20.666584 215 215 215 0
0.633943 -1.664101 20.717099 215 215 215 0
0.715669 -1.669894 20.789218 215 215 215 0
0.797339 -1.674411 20.845458 215 215 215 0
0.880266 -1.680507 20.921346 216 216 216 0
0.960791 -1.681385 20.932271 215 215 215 0
1.042888 -1.684665 20.973113 215 215 215 0
1.130374 -1.695561 21.108761 215 215 215 0
1.217187 -1.704062 21.214588 215 215 215 0
1.299238 -1.705250 21.229383 215 215 215 0
1.380723 -1.705599 21.233725 216 216 216 0
1.463776 -1.707738 21.260358 215 215 215 0
1.553986 -1.717564 21.382683 215 215 215 0
1.641485 -1.723559 21.457317 214 214 214 0
1.720617 -1.720617 21.420686 215 215 215 0
1.799696 -1.717892 21.386766 215 215 215 0
1.885490 -1.721534 21.432113 215 215 215 0
1.980487 -1.732926 21.573928 215 215 215 0
2.070356 -1.739099 21.650784 215 215 215 0
2.155602 -1.741063 21.675236 214 214 214 0
2.244092 -1.745405 21.729289 215 215 215 0
2.333740 -1.750305 21.790285 216 216 216 0
2.423381 -1.754862 21.847024 214 214 214 0
2.512846 -1.758992 21.898439 215 215 215 0
2.599876 -1.761207 21.926008 215 215 215 0
2.691763 -1.766469 21.991526 215 215 215 0
2.783440 -1.771280 22.051414 214 214 214 0
2.881993 -1.780054 22.160653 215 215 215 0
2.977013 -1.786208 22.237256 215 215 215 0
3.065911 -1.788448 22.265149 215 215 215 0
3.155813 -1.791137 22.298627 214 214 214 0
3.249330 -1.795682 22.355212 214 214 214 0
3.352064 -1.804958 22.470683 215 215 215 0
3.432595 -1.802112 22.435262 215 215 215 0
3.520205 -1.803032 22.446711 215 215 215 0
3.612876 -1.806438 22.489113 214 214 214 0
3.714318 -1.813969 22.582876 214 214 214 0
3.815801 -1.821178 22.672613 215 215 215 0
3.908962 -1.824182 22.710020 215 215 215 0
4.008106 -1.829788 22.779801 215 215 215 0
4.104332 -1.833850 22.830382 215 215 215 0
4.205433 -1.839877 22.905409 215 215 215 0
4.305073 -1.845031 22.969579 214 214 214 0
4.402945 -1.849237 23.021937 215 215 215 0
4.497055 -1.851728 23.052953 215 215 215 0
4.612844 -1.862879 23.191777 214 214 214 0
4.719661 -1.870054 23.281098 214 214 214 0
4.805944 -1.868978 23.267704 214 214 214 0
4.910125 -1.874775 23.339868 215 215 215 0
5.080996 -1.905374 23.720804 214 214 214 0
5.115076 -1.884502 23.460961 214 214 214 0
5.206077 -1.884959 23.466652 214 214 214 0
5.297151 -1.885427 23.472476 214 214 214 0
5.403043 -1.891065 23.542672 214 214 214 0
5.524051 -1.901722 23.675349 214 214 214 0
5.624703 -1.905141 23.717915 215 215 215 0
5.721537 -1.907179 23.743280 214 214 214 0
5.832949 -1.913936 23.827406 214 214 214 0
5.945420 -1.920828 23.913202 214 214 214 0
6.051994 -1.925635 23.973042 214 214 214 0
6.144425 -1.925864 23.975903 213 213 213 0
6.265355 -1.934889 24.088255 213 213 213 0
6.395302 -1.946396 24.231515 213 213 213 0
6.496317 -1.948895 24.262623 214 214 214 0
6.591653 -1.949644 24.271944 213 213 213 0
6.702689 -1.954951 24.338013 213 213 213 0
6.827947 -1.964204 24.453207 213 213 213 0
6.921312 -1.964156 24.452612 213 213 213 0
7.020129 -1.965636 24.471036 214 214 214 0
7.137477 -1.972198 24.552725 213 213 213 0
7.268931 -1.982436 24.680183 213 213 213 0
7.357893 -1.980971 24.661949 213 213 213 0
7.479842 -1.988313 24.753346 213 213 213 0
-5.898750 -2.268750 29.656863 78 78 78 0
-5.594468 -2.193909 28.678552 110 110 110 0
-5.529841 -2.211936 28.914201 131 131 131 0
-5.386565 -2.198598 28.739840 147 147 147 0
-5.237471 -2.182280 28.526531 152 152 152 0
-5.096601 -2.168766 28.349888 160 160 160 0
-4.945207 -2.150090 28.105749 165 165 165 0
-4.788198 -2.128088 27.818143 167 167 167 0
-4.621542 -2.100701 27.460143 175 175 175 0
-4.484707 -2.085910 27.266802 176 176 176 0
-4.393567 -2.092175 27.348692 177 177 177 0
-4.345585 -2.119797 27.709770 182 182 182 0
-4.198994 -2.099497 27.444408 184 184 184 0
-4.064624 -2.084422 27.247351 184 184 184 0
-3.927161 -2.066927 27.018650 186 186 186 0
-3.803516 -2.055954 26.875221 190 190 190 0
-3.694271 -2.052373 26.828399 191 191 191 0
-3.596950 -2.055400 26.867976 191 191 191 0
-3.491509 -2.053829 26.847437 191 191 191 0
-3.372457 -2.043913 26.717822 195 195 195 0
-3.259296 -2.037060 26.628235 196 196 196 0
-3.159132 -2.038150 26.642479 196 196 196 0
-3.053633 -2.035755 26.611180 197 197 197 0
-2.948290 -2.033303 26.579128 197 197 197 0
-2.846694 -2.033353 26.579775 200 200 200 0
-2.741475 -2.030722 26.545391 199 199 199 0
-2.634457 -2.026505 26.490268 200 200 200 0
-2.533320 -2.026656 26.492235 200 200 200 0
-2.431416 -2.026180 26.486011 200 200 200 0
-2.336434 -2.031682 26.557929 202 202 202 0
-2.241193 -2.037448 26.633313 205 205 205 0
-2.133264 -2.031680 26.557911 204 204 204 0
-2.022391 -2.022391 26.436480 204 204 204 0
-1.918902 -2.019897 26.403885 204 204 204 0
-2.036419 -2.262688 29.577618 204 204 204 0
-1.717745 -2.020876 26.416684 204 204 204 0
-1.616017 -2.020022 26.405512 206 206 206 0
-1.510243 -2.013657 26.322311 207 207 207 0
-1.405583 -2.007976 26.248055 205 205 205 0
-1.280646 -1.970225 25.754574 142 142 142 0
-1.294576 -2.157626 28.204264 72 72 72 0
-1.167153 -2.122096 27.739813 84 84 84 0
-1.041832 -2.083664 27.237443 83 83 83 0
-0.917540 -2.038978 26.653302 78 78 78 0
-0.810517 -2.026291 26.487469 72 72 72 0
-0.697760 -1.993600 26.060132 66 66 66 0
-0.587933 -1.959777 25.618005 67 67 67 0
-0.482965 -1.931859 25.253061 69 69 69 0
-0.377778 -1.888890 24.691367 81 81 81 0
-0.278749 -1.858328 24.291865 75 75 75 0
-0.183943 -1.839432 24.044867 72 72 72 0
-0.090453 -1.809056 23.647792 86 86 86 0
0.000000 -1.786126 23.348055 76 76 76 0
0.087760 -1.755204 22.943838 92 92 92 0
0.171386 -1.713860 22.403397 84 84 84 0
0.236991 -1.579941 20.652822 173 173 173 0
0.313445 -1.567225 20.486608 215 215 215 0
0.393075 -1.572301 20.552957 216 216 216 0
0.473893 -1.579642 20.648918 215 215 215 0
0.553011 -1.580030 20.653990 216 216 216 0
0.633837 -1.584592 20.713626 216 216 216 0
0.715732 -1.590516 20.791063 215 215 215 0
0.797613 -1.595226 20.852631 215 215 215 0
0.879809 -1.599652 20.910485 215 215 215 0
0.960109 -1.600182 20.917413 215 215 215 0
1.042348 -1.603612 20.962251 215 215 215 0
1.129158 -1.613083 21.086055 215 215 215 0
1.216823 -1.622430 21.208236 216 216 216 0
1.299169 -1.623961 21.228245 216 216 216 0
1.379738 -1.623221 21.218575 215 215 215 0
1.463604 -1.626227 21.257868 215 215 215 0
1.552615 -1.634331 21.363810 215 215 215 0
1.640769 -1.640769 21.447963 215 215 215 0
1.719795 -1.637900 21.410456 215 215 215 0
1.798771 -1.635247 21.375772 215 215 215 0
1.883292 -1.637645 21.407128 215 215 215 0
1.978204 -1.648503 21.549060 215 215 215 0
2.069096 -1.655277 21.637601 215 215 215 0
2.156448 -1.658806 21.683742 215 215 215 0
2.243042 -1.661513 21.719121 215 215 215 0
2.331564 -1.665403 21.769970 215 215 215 0
2.421551 -1.670035 21.830522 215 215 215 0
2.510902 -1.673935 21.881500 215 215 215 0
2.600668 -1.677850 21.932684 215 215 215 0
2.691014 -1.681884 21.985410 215 215 215 0
2.781686 -1.685871 22.037524 215 215 215 0
2.881629 -1.695076 22.157858 215 215 215 0
2.976048 -1.700599 22.230052 215 215 215 0
3.064721 -1.702623 22.256509 215 215 215 0
3.155105 -1.705462 22.293623 214 214 214 0
3.248188 -1.709573 22.347354 215 215 215 0
3.350234 -1.718069 22.458416 214 214 214 0
3.430805 -1.715403 22.423565 214 214 214 0
3.519202 -1.716684 22.440310 215 215 215 0
3.611779 -1.719895 22.482287 215 215 215 0
3.712132 -1.726573 22.569580 215 215 215 0
3.815338 -1.734244 22.669862 215 215 215 0
3.905184 -1.735637 22.688069 215 215 215 0
4.005127 -1.741360 22.762872 214 214 214 0
4.102503 -1.745746 22.820211 214 214 214 0
4.202057 -1.750857 22.887019 214 214 214 0
4.303819 -1.756661 22.962885 215 215 215 0
4.398885 -1.759554 23.000707 214 214 214 0
4.492486 -1.761759 23.029531 214 214 214 0
4.609478 -1.772876 23.174851 214 214 214 0
4.717183 -1.780069 23.268875 214 214 214 0
4.806640 -1.780237 23.271071 214 214 214 0
4.907222 -1.784444 23.326069 214 214 214 0
4.539700 -1.621322 21.193746 214 214 214 0
5.115416 -1.794883 23.462522 215 215 215 0
5.203076 -1.794164 23.453126 214 214 214 0
5.293500 -1.794407 23.456296 214 214 214 0
5.397331 -1.799110 23.517782 214 214 214 0
5.521665 -1.810382 23.665122 214 214 214 0
5.620803 -1.813162 23.701469 214 214 214 0
5.719259 -1.815638 23.733827 214 214 214 0
5.829158 -1.821612 23.811921 214 214 214 0
5.941799 -1.828246 23.898638 214 214 214 0
6.046006 -1.832123 23.949321 214 214 214 0
6.142556 -1.833599 23.968611 214 214 214 0
6.259941 -1.841159 24.067440 214 214 214 0
6.389625 -1.852065 24.210003 214 214 214 0
6.493612 -1.855318 24.252520 214 214 214 0
6.591781 -1.856840 24.272413 214 214 214 0
6.700504 -1.861251 24.330078 214 214 214 0
6.826459 -1.870263 24.447879 213 213 213 0
6.918072 -1.869749 24.441167 213 213 213 0
7.017746 -1.871399 24.462731 213 213 213 0
7.132188 -1.876891 24.534529 213 213 213 0
7.265624 -1.887175 24.668953 213 213 213 0
7.352905 -1.885360 24.645234 213 213 213 0
7.477813 -1.893117 24.746630 213 213 213 0
-5.829786 -2.130114 29.310137 85 85 85 0
-5.583898 -2.080276 28.624364 118 118 118 0
-5.494444 -2.087889 28.729117 133 133 133 0
-5.357767 -2.077501 28.586192 148 148 148 0
-5.223141 -2.067493 28.448483 152 152 152 0
-5.077524 -2.052616 28.243773 162 162 162 0
-4.936160 -2.038849 28.054331 165 165 165 0
-4.782474 -2.019267 27.784888 169 169 169 0
-4.613927 -1.992378 27.414897 175 175 175 0
-4.488556 -1.983315 27.290202 175 175 175 0
-4.406508 -1.993420 27.429246 178 178 178 0
-4.454790 -2.064415 28.406120 183 183 183 0
-4.194709 -1.992487 27.416400 184 184 184 0
-4.063762 -1.979781 27.241575 184 184 184 0
-3.923387 -1.961694 26.992688 187 187 187 0
-3.792964 -1.947738 26.800664 191 191 191 0
-3.689085 -1.947017 26.790741 190 190 190 0
-3.594406 -1.951249 26.848972 190 190 190 0
-3.488719 -1.949579 26.825986 192 192 192 0
-3.373899 -1.942548 26.729249 195 195 195 0
-3.259153 -1.935122 26.627071 196 196 196 0
-3.154828 -1.933604 26.606183 196 196 196 0
-3.052575 -1.933297 26.601960 197 197 197 0
-2.947578 -1.931172 26.572710 198 198 198 0
-2.843386 -1.929440 26.548887 200 200 200 0
-2.738050 -1.926776 26.512226 200 200 200 0
-2.633392 -1.924402 26.479558 200 200 200 0
-2.530614 -1.923266 26.463933 200 200 200 0
-2.430974 -1.924521 26.481203 202 202 202 0
-2.334288 -1.928325 26.533539 203 203 203 0
-2.237893 -1.932725 26.594089 203 203 203 0
-2.131424 -1.928432 26.535007 204 204 204 0
-2.022564 -1.921436 26.438748 204 204 204 0
-1.914265 -1.914265 26.340069 204 204 204 0
-1.608612 -1.697979 23.364010 204 204 204 0
-1.719408 -1.921691 26.442258 206 206 206 0
-1.617194 -1.920418 26.424743 206 206 206 0
-1.509026 -1.911433 26.301110 207 207 207 0
-1.404451 -1.906041 26.226916 205 205 205 0
-1.280557 -1.871583 25.752777 142 142 142 0
-1.297172 -2.053856 28.260834 79 79 79 0
-1.172628 -2.025449 27.869957 91 91 91 0
-1.042805 -1.981330 27.262887 72 72 72 0
-0.919775 -1.941748 26.718233 79 79 79 0
-0.805812 -1.913805 26.333740 81 81 81 0
-0.699675 -1.899118 26.131653 66 66 66 0
-0.583989 -1.849297 25.446130 75 75 75 0
-0.483627 -1.837783 25.287696 72 72 72 0
-0.381639 -1.812783 24.943698 76 76 76 0
-0.281592 -1.783418 24.539641 75 75 75 0
-0.183219 -1.740581 23.950210 79 79 79 0
-0.090274 -1.715209 23.601082 86 86 86 0
0.000000 -1.715327 23.602713 72 72 72 0
0.088074 -1.673414 23.025986 76 76 76 0
0.264707 -2.514712 34.602166 92 92 92 0
0.236587 -1.498386 20.617624 175 175 175 0
0.313491 -1.489081 20.489592 214 214 214 0
0.392922 -1.493105 20.544965 215 215 215 0
0.473684 -1.500000 20.639837 215 215 215 0
0.552831 -1.500543 20.647302 215 215 215 0
0.633525 -1.504621 20.703422 216 216 216 0
0.715489 -1.510477 20.783996 215 215 215 0
0.796682 -1.513696 20.828294 215 215 215 0
0.879246 -1.518698 20.897115 215 215 215 0
0.959053 -1.518501 20.894404 215 215 215 0
1.042169 -1.523170 20.958658 215 215 215 0
1.128899 -1.532078 21.081223 215 215 215 0
1.216367 -1.540731 21.200289 215 215 215 0
1.298958 -1.542512 21.224799 215 215 215 0
1.379102 -1.541349 21.208794 215 215 215 0
1.461360 -1.542547 21.225272 215 215 215 0
1.551766 -1.551766 21.352132 215 215 215 0
1.639360 -1.557392 21.429538 215 215 215 0
1.718977 -1.555265 21.400270 215 215 215 0
1.797590 -1.552464 21.361735 215 215 215 0
1.882645 -1.555228 21.399773 216 216 216 0
1.977425 -1.565461 21.540575 214 214 214 0
2.068218 -1.571846 21.628427 215 215 215 0
2.154853 -1.574700 21.667705 215 215 215 0
2.241399 -1.577281 21.703214 215 215 215 0
2.331122 -1.581833 21.765848 215 215 215 0
2.421000 -1.586173 21.825560 214 214 214 0
2.509799 -1.589539 21.871886 215 215 215 0
2.599122 -1.593010 21.919646 215 215 215 0
2.688831 -1.596494 21.967577 215 215 215 0
2.780686 -1.601001 22.029597 215 215 215 0
2.879848 -1.609327 22.144163 215 215 215 0
2.974825 -1.614905 22.220918 215 215 215 0
3.062747 -1.616450 22.242175 215 215 215 0
3.154027 -1.619635 22.286006 215 215 215 0
3.247120 -1.623560 22.340008 215 215 215 0
3.348436 -1.631289 22.446361 214 214 214 0
3.430074 -1.629285 22.418784 215 215 215 0
3.518772 -1.630650 22.437571 214 214 214 0
3.610286 -1.633225 22.472993 214 214 214 0
3.710669 -1.639598 22.560690 215 215 215 0
3.812934 -1.646494 22.655581 215 215 215 0
3.902783 -1.647842 22.674123 214 214 214 0
4.003484 -1.653613 22.753531 214 214 214 0
4.100226 -1.657538 22.807541 214 214 214 0
4.197851 -1.661649 22.864112 215 215 215 0
4.300879 -1.667688 22.947198 215 215 215 0
4.395524 -1.670299 22.983131 215 215 215 0
4.489920 -1.672715 23.016376 214 214 214 0
4.606680 -1.683210 23.160786 215 215 215 0
4.715504 -1.690464 23.260597 214 214 214 0
4.800340 -1.689008 23.240570 214 214 214 0
4.894385 -1.690787 23.265049 214 214 214 0
4.977617 -1.688834 23.238176 214 214 214 0
5.114093 -1.704698 23.456453 214 214 214 0
5.202665 -1.704321 23.451272 214 214 214 0
5.288916 -1.703210 23.435985 214 214 214 0
5.392889 -1.707748 23.498425 214 214 214 0
5.516773 -1.718339 23.644158 213 213 213 0
5.621120 -1.722601 23.702805 214 214 214 0
5.718348 -1.724581 23.730049 214 214 214 0
5.822767 -1.728634 23.785813 214 214 214 0
5.937688 -1.735632 23.882105 214 214 214 0
6.040358 -1.738891 23.926949 214 214 214 0
6.139224 -1.740974 23.955610 214 214 214 0
6.257607 -1.748449 24.058468 213 213 213 0
6.387605 -1.758906 24.202348 214 214 214 0
6.492542 -1.762261 24.248522 213 213 213 0
6.586360 -1.762547 24.252455 213 213 213 0
6.695951 -1.766987 24.313549 214 214 214 0
6.824200 -1.776162 24.439787 213 213 213 0
6.917636 -1.776150 24.439626 213 213 213 0
7.012763 -1.776567 24.445360 213 213 213 0
7.127730 -1.781932 24.519194 213 213 213 0
7.259219 -1.791236 24.647208 213 213 213 0
7.347590 -1.789798 24.627418 213 213 213 0
7.474248 -1.797604 24.734833 213 213 213 0
-5.832311 -2.018877 29.322832 91 91 91 0
-5.562653 -1.963289 28.515456 122 122 122 0
-5.490406 -1.976546 28.708003 135 135 135 0
-5.343009 -1.962738 28.507450 150 150 150 0
-5.211583 -1.954344 28.385530 153 153 153 0
-5.068248 -1.941031 28.192174 163 163 163 0
-4.933755 -1.930600 28.040663 165 165 165 0
-4.775853 -1.910341 27.746424 171 171 171 0
-4.613514 -1.887347 27.412444 175 175 175 0
-4.489948 -1.879513 27.298668 175 175 175 0
-4.422652 -1.895422 27.529737 179 179 179 0
-4.600610 -2.019780 29.335948 184 184 184 0
-4.186301 -1.883836 27.361447 184 184 184 0
-4.059235 -1.873493 27.211231 184 184 184 0
-3.914749 -1.854355 26.933257 188 188 188 0
-3.789511 -1.843546 26.776265 190 190 190 0
-3.688744 -1.844372 26.788265 191 191 191 0
-3.590448 -1.846516 26.819404 190 190 190 0
-3.484607 -1.844792 26.794366 193 193 193 0
-3.370108 -1.838241 26.699211 195 195 195 0
-3.255721 -1.831343 26.599024 195 195 195 0
-3.152807 -1.830662 26.589139 196 196 196 0
-3.050858 -1.830515 26.587000 196 196 196 0
-2.946530 -1.828880 26.563260 199 199 199 0
-2.844011 -1.828293 26.554726 201 201 201 0
-2.740562 -1.827041 26.536545 200 200 200 0
-2.632794 -1.822703 26.473541 200 200 200 0
-2.530725 -1.822122 26.465094 200 200 200 0
-2.431207 -1.823405 26.483737 203 203 203 0
-2.334130 -1.826711 26.531744 203 203 203 0
-2.237177 -1.830418 26.585589 204 204 204 0
