ply
    format ascii 1.0
    element vertex 21604
    property float x
    property float y
    property float z
    property uchar red
    property uchar green
    property uchar blue
    property uchar alpha
    end_header
3.480112 3.005552 20.678030 211 211 211 0
3.553913 3.001082 20.647279 211 211 211 0
3.166114 2.615486 17.994399 212 212 212 0
3.710093 2.999650 20.637425 212 212 212 0
3.779198 2.991865 20.583866 211 211 211 0
3.851836 2.987138 20.551346 212 212 212 0
3.921748 2.980529 20.505873 213 213 213 0
3.992821 2.975043 20.468135 212 212 212 0
4.067985 2.972758 20.452413 213 213 213 0
4.156158 2.979887 20.501455 212 212 212 0
4.235815 2.980758 20.507454 211 211 211 0
4.310281 2.978012 20.488560 212 212 212 0
4.386162 2.976324 20.476948 212 212 212 0
4.456887 2.971258 20.442090 212 212 212 0
4.551175 2.981804 20.514651 179 179 179 0
-6.736205 3.283900 22.013742 199 199 199 0
-6.522830 3.220131 21.586265 198 198 198 0
-6.440066 3.220033 21.585608 199 199 199 0
-6.341240 3.211797 21.530397 199 199 199 0
-6.224579 3.194192 21.412382 200 200 200 0
-6.149265 3.197618 21.435345 199 199 199 0
-6.083228 3.206026 21.491710 200 200 200 0
-6.055250 3.234996 21.685916 200 200 200 0
-5.986228 3.242540 21.736486 200 200 200 0
-5.897334 3.239381 21.715306 200 200 200 0
-5.808397 3.236107 21.693361 200 200 200 0
-5.743041 3.246066 21.760124 200 200 200 0
-5.673030 3.253650 21.810959 201 201 201 0
-5.615356 3.268640 21.911446 200 200 200 0
-5.562545 3.286958 22.034244 200 200 200 0
-5.481783 3.289070 22.048398 200 200 200 0
-5.379113 3.277897 21.973501 201 201 201 0
-5.301670 3.281986 22.000911 200 200 200 0
-5.247981 3.301150 22.129376 201 201 201 0
-5.213903 3.333479 22.346096 201 201 201 0
-5.123363 3.330186 22.324022 201 201 201 0
-5.000229 3.305236 22.156770 202 202 202 0
-4.886171 3.285529 22.024663 202 202 202 0
-4.785043 3.273976 21.947220 202 202 202 0
-4.725054 3.290663 22.059077 201 201 201 0
-4.696841 3.330487 22.326040 202 202 202 0
-4.594518 3.318263 22.244097 202 202 202 0
-4.479883 3.296518 22.098327 202 202 202 0
-4.357040 3.267780 21.905682 202 202 202 0
-4.253571 3.252731 21.804797 203 203 203 0
-4.178503 3.259232 21.848380 203 203 203 0
-4.157888 3.309339 22.184277 202 202 202 0
-4.071891 3.308411 22.178053 203 203 203 0
-3.959137 3.285241 22.022733 203 203 203 0
-3.861674 3.274028 21.947562 203 203 203 0
-3.780185 3.276160 21.961860 203 203 203 0
-3.711989 3.290172 22.055787 203 203 203 0
-3.638307 3.299860 22.120730 203 203 203 0
-3.556846 3.302785 22.140342 203 203 203 0
-3.461046 3.292215 22.069481 204 204 204 0
-3.361370 3.277335 21.969736 204 204 204 0
-3.278583 3.278583 21.978099 204 204 204 0
-3.216588 3.301235 22.129948 203 203 203 0
-3.140718 3.310487 22.191969 204 204 204 0
-3.052606 3.306990 22.168524 203 203 203 0
-2.959142 3.297330 22.103771 205 205 205 0
-2.859012 3.279455 21.983948 204 204 204 0
-2.773207 3.277427 21.970349 205 205 205 0
-2.692567 3.281567 21.998100 204 204 204 0
-2.697809 3.394018 22.751922 205 205 205 0
-2.534719 3.295135 22.089055 205 205 205 0
-2.438964 3.279986 21.987504 205 205 205 0
-2.341628 3.261553 21.863941 205 205 205 0
-2.251425 3.252059 21.800295 205 205 205 0
-2.165639 3.248459 21.776161 205 205 205 0
-2.087485 3.256477 21.829912 206 206 206 0
-2.007215 3.261725 21.865090 205 205 205 0
-1.922767 3.260344 21.855832 206 206 206 0
-1.833521 3.250333 21.788725 206 206 206 0
-1.748527 3.247265 21.768161 206 206 206 0
-1.667800 3.252210 21.801304 206 206 206 0
-1.583293 3.249918 21.785940 206 206 206 0
-1.498926 3.247674 21.770898 206 206 206 0
-1.415597 3.247546 21.770042 206 206 206 0
-1.332320 3.247530 21.769935 206 206 206 0
-1.247372 3.243167 21.740690 206 206 206 0
-1.165387 3.246436 21.762603 206 206 206 0
-1.082404 3.247211 21.767798 206 206 206 0
-0.997504 3.241887 21.732106 207 207 207 0
-0.915653 3.246408 21.762412 207 207 207 0
-0.832960 3.248544 21.776730 207 207 207 0
-0.747587 3.239545 21.716405 207 207 207 0
-0.662158 3.228022 21.639159 207 207 207 0
-0.577943 3.219968 21.585170 207 207 207 0
-0.495581 3.221279 21.593963 207 207 207 0
-0.414561 3.233579 21.676410 208 208 208 0
-0.330328 3.220700 21.590076 207 207 207 0
-0.247336 3.215370 21.554349 208 208 208 0
-0.164450 3.206782 21.496782 207 207 207 0
-0.082007 3.198269 21.439709 208 208 208 0
0.000000 3.190961 21.390724 208 208 208 0
0.082101 3.201941 21.464330 208 208 208 0
0.164367 3.205149 21.485831 208 208 208 0
0.246287 3.201731 21.462918 208 208 208 0
0.326977 3.188026 21.371049 208 208 208 0
0.407889 3.181536 21.327540 208 208 208 0
0.489699 3.183041 21.337630 209 209 209 0
0.571080 3.181731 21.328847 209 209 209 0
0.653018 3.183465 21.340472 208 208 208 0
0.734157 3.181349 21.326288 208 208 208 0
0.814572 3.176832 21.296007 209 209 209 0
0.893829 3.169031 21.243713 209 209 209 0
0.974766 3.167989 21.236730 209 209 209 0
1.058842 3.176527 21.293966 210 210 210 0
1.140858 3.178105 21.304541 209 209 209 0
1.222224 3.177783 21.302385 209 209 209 0
1.301168 3.171596 21.260908 209 209 209 0
1.376892 3.158753 21.174813 210 210 210 0
1.453806 3.149912 21.115550 209 209 209 0
1.536746 3.154372 21.145449 209 209 209 0
1.703429 3.321686 22.267040 209 209 209 0
1.699973 3.157092 21.163682 210 210 210 0
1.775822 3.148047 21.103050 209 209 209 0
1.849528 3.136157 21.023339 210 210 210 0
1.923553 3.125774 20.953738 210 210 210 0
1.999759 3.119624 20.912511 210 210 210 0
2.081243 3.121865 20.927534 209 209 209 0
2.169684 3.133988 21.008804 210 210 210 0
2.248170 3.131379 20.991315 209 209 209 0
2.320286 3.120385 20.917613 211 211 211 0
2.395862 3.114620 20.878968 210 210 210 0
2.473732 3.112114 20.862171 211 211 211 0
2.555456 3.114462 20.877906 210 210 210 0
2.634751 3.113796 20.873446 211 211 211 0
2.709557 3.108021 20.834734 211 211 211 0
2.787745 3.106344 20.823492 211 211 211 0
2.862161 3.100675 20.785484 211 211 211 0
2.940662 3.099617 20.778392 210 210 210 0
3.018548 3.097983 20.767444 211 211 211 0
3.100649 3.100649 20.785311 211 211 211 0
3.178566 3.099102 20.774940 211 211 211 0
3.256373 3.097526 20.764377 212 212 212 0
3.333145 3.095063 20.747866 212 212 212 0
3.401169 3.084781 20.678942 211 211 211 0
3.474548 3.079713 20.644965 212 212 212 0
3.547414 3.074426 20.609523 211 211 211 0
3.627700 3.075659 20.617791 211 211 211 0
3.704955 3.074324 20.608844 211 211 211 0
3.774975 3.067167 20.560866 212 212 212 0
3.848407 3.063018 20.533053 212 212 212 0
3.918500 3.056430 20.488889 211 211 211 0
3.990114 3.051264 20.454256 211 211 211 0
4.062290 3.046717 20.423779 212 212 212 0
4.151070 3.054561 20.476361 212 212 212 0
4.228743 3.054092 20.473215 212 212 212 0
4.304416 3.052222 20.460682 212 212 212 0
4.383005 3.052450 20.462208 212 212 212 0
4.451703 3.045902 20.418315 212 212 212 0
4.548169 3.058252 20.501100 185 185 185 0
4.557902 3.012851 20.196754 77 77 77 0
-7.615640 3.807820 24.887712 199 199 199 0
-6.492261 3.287221 21.485102 199 199 199 0
-6.420625 3.292628 21.520447 199 199 199 0
-6.331650 3.289169 21.497837 199 199 199 0
-6.213828 3.270436 21.375397 200 200 200 0
-6.128516 3.268542 21.363020 199 199 199 0
-6.052493 3.271618 21.383124 199 199 199 0
-6.036354 3.307591 21.618242 200 200 200 0
-5.980774 3.322652 21.716680 200 200 200 0
-5.887657 3.316990 21.679671 200 200 200 0
-5.791780 3.309589 21.631298 200 200 200 0
-5.738107 3.326439 21.741429 200 200 200 0
-5.649575 3.323280 21.720781 201 201 201 0
-5.587297 3.335700 21.801960 201 201 201 0
-5.554360 3.366279 22.001822 200 200 200 0
-5.470505 3.366465 22.003038 201 201 201 0
-5.376553 3.360346 21.963045 201 201 201 0
-5.297435 3.363451 21.983337 201 201 201 0
-5.236631 3.378471 22.081512 202 202 202 0
-5.197965 3.408501 22.277787 201 201 201 0
-5.118183 3.412122 22.301452 201 201 201 0
-4.993209 3.385227 22.125665 202 202 202 0
-4.876920 3.363393 21.982962 201 201 201 0
-4.774619 3.350610 21.899412 201 201 201 0
-4.709429 3.363878 21.986131 201 201 201 0
-4.689847 3.410798 22.292795 202 202 202 0
-4.584582 3.395987 22.195994 202 202 202 0
-4.474433 3.376931 22.071442 202 202 202 0
-4.352567 3.348129 21.883195 202 202 202 0
-4.249529 3.332964 21.784078 202 202 202 0
-4.175013 3.340011 21.830134 202 202 202 0
-4.146043 3.384525 22.121077 203 203 203 0
-4.068304 3.390254 22.158520 203 203 203 0
-3.951353 3.362854 21.979436 203 203 203 0
-3.859699 3.356260 21.936338 203 203 203 0
-3.767608 3.348985 21.888791 203 203 203 0
-3.703298 3.366635 22.004149 203 203 203 0
-3.636263 3.382570 22.108302 203 203 203 0
-3.552892 3.383706 22.115727 203 203 203 0
-3.455033 3.370764 22.031137 203 203 203 0
-3.357045 3.357045 21.941471 203 203 203 0
-3.277062 3.361089 21.967904 204 204 204 0
-3.207636 3.376458 22.068356 204 204 204 0
-3.135996 3.390266 22.158604 203 203 203 0
-3.053983 3.393314 22.178523 204 204 204 0
-2.957051 3.379487 22.088150 204 204 204 0
-2.857538 3.361810 21.972613 204 204 204 0
-2.762914 3.348987 21.888804 205 205 205 0
-2.683025 3.353781 21.920138 205 205 205 0
-2.555932 3.297977 21.555407 204 204 204 0
-2.534360 3.379147 22.085928 204 204 204 0
-2.437111 3.361532 21.970798 205 205 205 0
-2.338710 3.341014 21.836691 205 205 205 0
-2.247595 3.329770 21.763204 205 205 205 0
-2.162825 3.327423 21.747865 205 205 205 0
-2.082674 3.332278 21.779597 206 206 206 0
-2.005373 3.342288 21.845022 206 206 206 0
-1.920172 3.339430 21.826339 206 206 206 0
-1.832505 3.331826 21.776643 206 206 206 0
-1.744548 3.322949 21.718622 206 206 206 0
-1.665186 3.330371 21.767133 206 206 206 0
-1.580404 3.327166 21.746185 206 206 206 0
-1.496322 3.325160 21.733069 206 206 206 0
-1.411949 3.322232 21.713935 207 207 207 0
-1.329745 3.324361 21.727852 206 206 206 0
-1.244500 3.318667 21.690634 206 206 206 0
-1.162977 3.322792 21.717596 206 206 206 0
-1.079868 3.322671 21.716804 206 206 206 0
-0.997192 3.323974 21.725322 207 207 207 0
-0.914276 3.324641 21.729680 207 207 207 0
-0.831843 3.327374 21.747541 207 207 207 0
-0.747043 3.320191 21.700597 207 207 207 0
-0.661339 3.306694 21.612380 208 208 208 0
-0.577144 3.297968 21.555347 207 207 207 0
-0.494305 3.295365 21.538331 206 206 206 0
-0.413334 3.306676 21.612259 207 207 207 0
-0.330025 3.300251 21.570267 207 207 207 0
-0.247072 3.294295 21.531338 207 207 207 0
-0.164374 3.287484 21.486825 207 207 207 0
-0.081945 3.277801 21.423539 207 207 207 0
0.000000 3.268073 21.359952 208 208 208 0
0.081963 3.278505 21.428138 207 207 207 0
0.164084 3.281684 21.448917 207 207 207 0
0.245711 3.276152 21.412757 208 208 208 0
0.326484 3.264840 21.338823 208 208 208 0
0.407315 3.258520 21.297518 208 208 208 0
0.488667 3.257782 21.292690 208 208 208 0
0.569877 3.256442 21.283935 208 208 208 0
0.651814 3.259072 21.301124 208 208 208 0
0.733375 3.259443 21.303547 208 208 208 0
0.813723 3.254891 21.273798 208 208 208 0
0.893247 3.248173 21.229886 209 209 209 0
0.973767 3.245891 21.214976 209 209 209 0
1.056424 3.250536 21.245333 208 208 208 0
1.139157 3.254734 21.272772 209 209 209 0
1.220426 3.254470 21.271049 209 209 209 0
1.299551 3.248878 21.234496 210 210 210 0
1.375387 3.236206 21.151671 209 209 209 0
1.451619 3.225819 21.083785 209 209 209 0
1.533424 3.228262 21.099749 210 210 210 0
1.615017 3.230035 21.111338 209 209 209 0
1.699240 3.236648 21.154565 209 209 209 0
1.773963 3.225388 21.080967 210 210 210 0
1.846610 3.211496 20.990169 209 209 209 0
1.922005 3.203342 20.936877 210 210 210 0
1.999157 3.198651 20.906216 210 210 210 0
2.079285 3.198900 20.907842 210 210 210 0
2.165942 3.208802 20.972564 210 210 210 0
2.243028 3.204326 20.943304 210 210 210 0
2.317685 3.196806 20.894158 210 210 210 0
2.392518 3.190024 20.849829 210 210 210 0
2.469788 3.186823 20.828909 211 211 211 0
2.550573 3.188216 20.838015 211 211 211 0
2.629688 3.187500 20.833336 210 210 210 0
2.705793 3.183286 20.805790 210 210 210 0
2.782122 3.179568 20.781491 211 211 211 0
2.858791 3.176434 20.761008 210 210 210 0
2.935463 3.173473 20.741655 211 211 211 0
3.013898 3.172524 20.735450 211 211 211 0
3.096367 3.175761 20.756606 211 211 211 0
3.175587 3.175587 20.755472 211 211 211 0
3.253279 3.173931 20.744648 212 212 212 0
3.327251 3.168810 20.711178 211 211 211 0
3.399896 3.162694 20.671201 212 212 212 0
3.472150 3.156500 20.630718 211 211 211 0
3.545995 3.151995 20.601278 211 211 211 0
3.622402 3.149914 20.587676 211 211 211 0
3.703819 3.152186 20.602525 212 212 212 0
3.771449 3.142874 20.541663 212 212 212 0
3.844743 3.138566 20.513504 212 212 212 0
3.914870 3.131896 20.469907 212 212 212 0
3.986250 3.126470 20.434447 212 212 212 0
4.056460 3.120354 20.394468 212 212 212 0
4.145239 3.128482 20.447597 212 212 212 0
4.223702 3.128668 20.448811 212 212 212 0
4.298007 3.125824 20.430220 212 212 212 0
4.374632 3.124737 20.423118 213 213 213 0
4.445486 3.119639 20.389799 212 212 212 0
4.539972 3.131015 20.464149 192 192 192 0
4.588387 3.110771 20.331836 77 77 77 0
-9.302078 4.767315 30.398947 198 198 198 0
-6.486285 3.366300 21.465326 199 199 199 0
-6.424504 3.376983 21.533448 199 199 199 0
-6.317607 3.363920 21.450154 199 199 199 0
-6.206664 3.348332 21.350754 200 200 200 0
-6.118430 3.344742 21.327862 199 199 199 0
-6.035431 3.343955 21.322843 200 200 200 0
-6.032193 3.387944 21.603343 200 200 200 0
-5.983055 3.407018 21.724964 200 200 200 0
-5.873955 3.392002 21.629219 200 200 200 0
-5.786512 3.389243 21.611623 201 201 201 0
-5.730496 3.405077 21.712592 201 201 201 0
-5.648214 3.405541 21.715547 201 201 201 0
-5.571750 3.409578 21.741294 200 200 200 0
-5.550434 3.447997 21.986270 201 201 201 0
-5.459935 3.443959 21.960522 201 201 201 0
-5.365426 3.437226 21.917588 201 201 201 0
-5.280772 3.436693 21.914190 201 201 201 0
-5.222163 3.453366 22.020504 201 201 201 0
-5.191206 3.489171 22.248820 201 201 201 0
-5.108554 3.490846 22.259496 201 201 201 0
-4.987959 3.466209 22.102401 201 201 201 0
-4.868055 3.441211 21.943001 201 201 201 0
-4.765441 3.427773 21.857313 201 201 201 0
-4.699577 3.440762 21.940134 201 201 201 0
-4.677862 3.487133 22.235825 202 202 202 0
-4.571651 3.471068 22.133385 203 203 203 0
-4.468704 3.456922 22.043180 202 202 202 0
-4.346614 3.427138 21.853265 203 203 203 0
-4.248689 3.415613 21.779771 202 202 202 0
-4.165223 3.415482 21.778941 203 203 203 0
-4.137585 3.462061 22.075953 203 203 203 0
-4.063025 3.470501 22.129766 203 203 203 0
-3.948464 3.444405 21.963364 202 202 202 0
-3.852986 3.434183 21.898185 203 203 203 0
-3.759388 3.425220 21.841031 203 203 203 0
-3.692070 3.440338 21.937433 204 204 204 0
-3.631188 3.462295 22.077445 203 203 203 0
-3.548194 3.463713 22.086484 204 204 204 0
-3.450929 3.450929 22.004964 204 204 204 0
-3.356759 3.440678 21.939603 204 204 204 0
-3.271865 3.439653 21.933065 205 205 205 0
-3.203775 3.456704 22.041794 204 204 204 0
-3.131469 3.470006 22.126614 204 204 204 0
-3.048283 3.471655 22.137129 204 204 204 0
-2.954884 3.461436 22.071963 205 205 205 0
-2.854618 3.442333 21.950154 204 204 204 0
-2.765012 3.435318 21.905424 204 204 204 0
-2.680912 3.434919 21.902878 205 205 205 0
-2.614027 3.457261 22.045346 204 204 204 0
-2.531874 3.460228 22.064263 205 205 205 0
-2.435322 3.443042 21.954673 205 205 205 0
-2.335704 3.420138 21.808627 205 205 205 0
-2.245777 3.410254 21.745601 206 206 206 0
-2.160612 3.407120 21.725615 205 205 205 0
-2.078920 3.409428 21.740338 206 206 206 0
-2.001056 3.418471 21.797996 205 205 205 0
-1.917942 3.418941 21.800992 206 206 206 0
-1.830390 3.411182 21.751521 206 206 206 0
-1.742783 3.402576 21.696641 206 206 206 0
-1.660235 3.403482 21.702420 205 205 205 0
-1.578953 3.407214 21.726218 206 206 206 0
-1.494404 3.403920 21.705211 206 206 206 0
-1.410715 3.402312 21.694961 206 206 206 0
-1.327425 3.401525 21.689944 207 207 207 0
-1.243905 3.400006 21.680257 207 207 207 0
-1.160931 3.399870 21.679387 207 207 207 0
-1.077895 3.399516 21.677132 207 207 207 0
-0.995446 3.401106 21.687270 207 207 207 0
-0.913267 3.403996 21.705695 207 207 207 0
-0.831099 3.407505 21.728074 207 207 207 0
-0.745758 3.397344 21.663280 207 207 207 0
-0.660196 3.383503 21.575025 207 207 207 0
-0.576387 3.375978 21.527040 206 206 206 0
-0.493723 3.373771 21.512965 207 207 207 0
-0.412549 3.382901 21.571183 207 207 207 0
-0.329345 3.375784 21.525805 208 208 208 0
-0.246878 3.373993 21.514380 207 207 207 0
-0.164148 3.365035 21.457261 208 208 208 0
-0.081871 3.356708 21.404166 207 207 207 0
0.000000 3.348603 21.352481 208 208 208 0
0.081870 3.356664 21.403882 207 207 207 0
0.163847 3.358863 21.417903 208 208 208 0
0.245306 3.352518 21.377447 208 208 208 0
0.326218 3.343733 21.321426 208 208 208 0
0.406842 3.336103 21.272774 209 209 209 0
0.487938 3.334240 21.260895 208 208 208 0
0.568672 3.330795 21.238932 208 208 208 0
0.650863 3.335672 21.270024 208 208 208 0
0.732486 3.336879 21.277723 209 209 209 0
0.812824 3.332577 21.250290 209 209 209 0
0.891865 3.324225 21.197033 209 209 209 0
0.971797 3.320307 21.172052 209 209 209 0
1.054751 3.326523 21.211687 210 210 210 0
1.137023 3.329854 21.232928 210 210 210 0
1.219273 3.332680 21.250948 209 209 209 0
1.298373 3.327081 21.215246 210 210 210 0
1.374181 3.314202 21.133123 209 209 209 0
1.450605 3.304156 21.069066 209 209 209 0
1.530745 3.303186 21.062876 210 210 210 0
1.614400 3.309519 21.103264 210 210 210 0
1.698702 3.316514 21.147868 210 210 210 0
1.772071 3.302496 21.058480 210 210 210 0
1.845613 3.290006 20.978839 210 210 210 0
1.919445 3.279052 20.908985 211 211 211 0
1.996994 3.275070 20.883598 211 211 211 0
2.075793 3.273366 20.872730 210 210 210 0
2.163366 3.285111 20.947622 210 210 210 0
2.239577 3.279381 20.911085 210 210 210 0
2.313505 3.270817 20.856478 211 211 211 0
2.388228 3.263912 20.812446 210 210 210 0
2.466307 3.261890 20.799557 210 210 210 0
2.547789 3.264355 20.815269 210 210 210 0
2.626629 3.263388 20.809106 210 210 210 0
2.703254 3.259807 20.786271 211 211 211 0
2.778588 3.254917 20.755090 211 211 211 0
2.854209 3.250626 20.727731 211 211 211 0
2.930626 3.247450 20.707478 211 211 211 0
3.009419 3.247004 20.704635 211 211 211 0
3.091747 3.250298 20.725636 211 211 211 0
3.171301 3.250583 20.727457 211 211 211 0
3.247348 3.247348 20.706826 211 211 211 0
3.322861 3.243745 20.683851 211 211 211 0
3.396242 3.238278 20.648988 211 211 211 0
3.467687 3.231254 20.604200 211 211 211 0
3.538565 3.224026 20.558115 212 212 212 0
3.613074 3.220348 20.534662 211 211 211 0
3.699113 3.226886 20.576347 212 212 212 0
3.766783 3.217460 20.516246 212 212 212 0
3.841107 3.213987 20.494099 212 212 212 0
3.910779 3.206839 20.448519 212 212 212 0
3.982082 3.201282 20.413082 212 212 212 0
4.053282 3.195857 20.378491 212 212 212 0
4.140762 3.203231 20.425514 212 212 212 0
4.215464 3.200630 20.408927 212 212 212 0
4.293211 3.200393 20.407419 212 212 212 0
4.369087 3.198796 20.397232 212 212 212 0
4.441560 3.194807 20.371794 212 212 212 0
4.531992 3.203649 20.428180 196 196 196 0
4.592748 3.191571 20.351162 83 83 83 0
-10.710532 5.623029 35.001739 199 199 199 0
-6.483172 3.446749 21.455023 198 198 198 0
-6.406024 3.449398 21.471508 200 200 200 0
-6.307426 3.440414 21.415588 199 199 199 0
-6.195472 3.423813 21.312253 199 199 199 0
-6.107395 3.420141 21.289393 200 200 200 0
-6.016439 3.414736 21.255748 199 199 199 0
-6.006653 3.455882 21.511872 200 200 200 0
-5.978264 3.487320 21.707566 200 200 200 0
-5.868907 3.471748 21.610629 200 200 200 0
-5.784397 3.470638 21.603722 199 199 199 0
-5.713106 3.477543 21.646704 200 200 200 0
-5.635631 3.480831 21.667170 201 201 201 0
-5.558289 3.484301 21.688769 201 201 201 0
-5.533687 3.521437 21.919932 201 201 201 0
-5.461432 3.528925 21.966544 201 201 201 0
-5.357756 3.516027 21.886256 202 202 202 0
-5.262698 3.508465 21.839186 201 201 201 0
-5.213560 3.531767 21.984231 201 201 201 0
-5.171386 3.560626 22.163874 202 202 202 0
-5.107736 3.575415 22.255930 201 201 201 0
-4.982974 3.547202 22.080311 201 201 201 0
-4.862042 3.520789 21.915898 202 202 202 0
-4.754538 3.503344 21.807307 202 202 202 0
-4.693041 3.519781 21.909623 202 202 202 0
-4.666086 3.563193 22.179849 203 203 203 0
-4.573055 3.556821 22.140185 203 203 203 0
-4.462793 3.536553 22.014024 202 202 202 0
-4.346110 3.510320 21.850730 203 203 203 0
-4.245808 3.496548 21.765004 202 202 202 0
-4.165244 3.498805 21.779056 203 203 203 0
-4.129413 3.539497 22.032349 202 202 202 0
-4.056451 3.549394 22.093958 203 203 203 0
-3.946334 3.526511 21.951518 203 203 203 0
-3.845956 3.511525 21.858235 203 203 203 0
-3.754101 3.503828 21.810320 203 203 203 0
-3.687317 3.519712 21.909192 204 204 204 0
-3.619002 3.534840 22.003359 204 204 204 0
-3.540300 3.540300 22.037351 203 203 203 0
-3.445462 3.529498 21.970109 204 204 204 0
-3.349695 3.517180 21.893433 204 204 204 0
-3.266856 3.518152 21.899485 203 203 203 0
-3.199361 3.536136 22.011428 204 204 204 0
-3.127067 3.549644 22.095511 205 205 205 0
-3.044804 3.552272 22.111868 204 204 204 0
-2.950474 3.540568 22.039018 204 204 204 0
-2.851315 3.522213 21.924761 205 205 205 0
-2.763089 3.516658 21.890187 205 205 205 0
-2.679189 3.516435 21.888797 205 205 205 0
-2.606731 3.531700 21.983815 205 205 205 0
-2.527416 3.538383 22.025415 205 205 205 0
-2.428999 3.517860 21.897666 205 205 205 0
-2.331675 3.497513 21.771011 205 205 205 0
-2.242990 3.489095 21.718612 204 204 204 0
-2.155721 3.482319 21.676435 205 205 205 0
-2.074565 3.485269 21.694796 205 205 205 0
-1.997481 3.495592 21.759055 205 205 205 0
-1.914229 3.495549 21.758784 206 206 206 0
-1.825187 3.484449 21.689691 205 205 205 0
-1.739227 3.478454 21.652378 206 206 206 0
-1.657268 3.480262 21.663628 206 206 206 0
-1.577287 3.486634 21.703292 206 206 206 0
-1.492281 3.481989 21.674376 206 206 206 0
-1.407438 3.477200 21.644567 206 206 206 0
-1.325435 3.479268 21.657439 206 206 206 0
-1.241499 3.476198 21.638332 207 207 207 0
-1.159379 3.478138 21.650408 207 207 207 0
-1.075764 3.475546 21.634274 207 207 207 0
-0.994517 3.480808 21.667029 207 207 207 0
-0.910849 3.477786 21.648216 207 207 207 0
-0.829383 3.483407 21.683208 207 207 207 0
-0.744693 3.475236 21.632342 207 207 207 0
-0.659759 3.463734 21.560744 207 207 207 0
-0.575614 3.453684 21.498191 207 207 207 0
-0.493016 3.451115 21.482195 208 208 208 0
-0.411809 3.459193 21.532481 207 207 207 0
-0.329193 3.456531 21.515912 208 208 208 0
-0.246495 3.450936 21.481084 208 208 208 0
-0.164035 3.444736 21.442491 207 207 207 0
-0.081789 3.435128 21.382681 208 208 208 0
0.000000 3.426204 21.327135 208 208 208 0
0.081719 3.432184 21.364358 208 208 208 0
0.163440 3.432232 21.364656 209 209 209 0
0.244964 3.429496 21.347623 209 209 209 0
0.325653 3.419360 21.284532 208 208 208 0
0.406362 3.413444 21.247704 209 209 209 0
0.487003 3.409018 21.220157 209 209 209 0
0.567987 3.407925 21.213351 208 208 208 0
0.649681 3.410823 21.231393 209 209 209 0
0.731361 3.413016 21.245040 209 209 209 0
0.812046 3.410594 21.229965 209 209 209 0
0.890934 3.401748 21.174901 208 208 208 0
0.970650 3.397276 21.147068 209 209 209 0
1.052258 3.399604 21.161557 209 209 209 0
1.135082 3.405246 21.196679 209 209 209 0
1.217436 3.408820 21.218922 209 209 209 0
1.297216 3.405192 21.196339 210 210 210 0
1.372947 3.391987 21.114141 210 210 210 0
1.448651 3.380185 21.040681 210 210 210 0
1.526710 3.374833 21.007364 209 209 209 0
1.610129 3.381272 21.047442 210 210 210 0
1.695074 3.390148 21.102693 210 210 210 0
1.769861 3.378825 21.032216 210 210 210 0
1.843578 3.366533 20.955699 210 210 210 0
1.918497 3.357369 20.898655 210 210 210 0
1.994955 3.351524 20.862270 210 210 210 0
2.072366 3.347668 20.838267 210 210 210 0
2.158324 3.357393 20.898803 211 211 211 0
2.236414 3.354621 20.881549 210 210 210 0
2.311177 3.347222 20.835492 210 210 210 0
2.385546 3.339764 20.789069 211 211 211 0
2.462852 3.336767 20.770415 211 211 211 0
2.542094 3.336499 20.768744 211 211 211 0
2.621471 3.336418 20.768241 211 211 211 0
2.699217 3.334327 20.755224 211 211 211 0
2.774809 3.329771 20.726868 211 211 211 0
2.851463 3.326707 20.707790 211 211 211 0
2.925210 3.320508 20.669209 210 210 210 0
3.004455 3.320714 20.670488 211 211 211 0
3.085482 3.322827 20.683641 211 211 211 0
3.166437 3.324759 20.695670 211 211 211 0
3.242737 3.321828 20.677422 211 211 211 0
3.317800 3.317800 20.652351 211 211 211 0
3.391116 3.312253 20.617822 212 212 212 0
3.463675 3.306235 20.580362 211 211 211 0
3.533585 3.298013 20.529181 212 212 212 0
3.607529 3.293831 20.503149 211 211 211 0
3.690646 3.298024 20.529251 212 212 212 0
3.763484 3.293049 20.498281 212 212 212 0
3.837473 3.289263 20.474715 212 212 212 0
3.906270 3.281267 20.424942 212 212 212 0
3.976928 3.275117 20.386662 212 212 212 0
4.047468 3.269109 20.349261 212 212 212 0
4.132850 3.275088 20.386482 212 212 212 0
4.207797 3.272731 20.371810 212 212 212 0
4.286642 3.273436 20.376194 213 213 213 0
4.361300 3.270975 20.360876 212 212 212 0
4.436090 3.268698 20.346705 212 212 212 0
4.526645 3.277915 20.404078 201 201 201 0
4.590052 3.267495 20.339215 97 97 97 0
-10.711772 5.757578 35.005791 199 199 199 0
-6.408191 3.488003 21.206886 199 199 199 0
-6.436632 3.548400 21.574098 200 200 200 0
-6.296681 3.516329 21.379106 199 199 199 0
-6.179288 3.496176 21.256581 199 199 199 0
-6.084922 3.488689 21.211059 200 200 200 0
-6.012523 3.493763 21.241910 200 200 200 0
-6.007502 3.538666 21.514915 199 199 199 0
-5.971220 3.566145 21.681991 200 200 200 0
-5.869226 3.554602 21.611807 200 200 200 0
-5.779755 3.550421 21.586387 200 200 200 0
-5.708914 3.557729 21.630818 200 200 200 0
-5.626046 3.557647 21.630318 201 201 201 0
-5.553548 3.564217 21.670269 201 201 201 0
-5.525357 3.599854 21.886935 201 201 201 0
-5.441497 3.599759 21.886361 201 201 201 0
-5.349994 3.594527 21.854549 201 201 201 0
-5.257783 3.588645 21.818788 201 201 201 0
-5.209488 3.613032 21.967057 201 201 201 0
-5.163096 3.639560 22.128346 201 201 201 0
-5.098133 3.653662 22.214089 201 201 201 0
-4.976222 3.626738 22.050389 201 201 201 0
-4.855497 3.599765 21.886395 202 202 202 0
-4.747519 3.581462 21.775114 202 202 202 0
-4.684859 3.597302 21.871422 203 203 203 0
-4.654318 3.638830 22.123912 202 202 202 0
-4.569509 3.638683 22.123016 202 202 202 0
-4.461046 3.619339 22.005406 202 202 202 0
-4.341890 3.590409 21.829510 202 202 202 0
-4.238238 3.573416 21.726197 203 203 203 0
-4.157255 3.575240 21.737283 202 202 202 0
-4.128779 3.623215 22.028968 202 202 202 0
-4.050570 3.628636 22.061930 203 203 203 0
-3.942488 3.606957 21.930121 203 203 203 0
-3.839408 3.589012 21.821018 203 203 203 0
-3.742584 3.576247 21.743410 203 203 203 0
-3.680383 3.596738 21.867992 203 203 203 0
-3.614372 3.614372 21.975203 204 204 204 0
-3.534621 3.618779 22.002001 204 204 204 0
-3.445456 3.613527 21.970070 204 204 204 0
-3.349958 3.601205 21.895152 204 204 204 0
-3.260737 3.595171 21.858467 204 204 204 0
-3.194771 3.615136 21.979848 204 204 204 0
-3.122705 3.629089 22.064686 205 205 205 0
-3.039227 3.630187 22.071362 204 204 204 0
-2.945417 3.618655 22.001246 205 205 205 0
-2.845094 3.598208 21.876928 204 204 204 0
-2.753613 3.588041 21.815115 204 204 204 0
-2.672896 3.591703 21.837382 205 205 205 0
-2.599059 3.605146 21.919115 205 205 205 0
-2.524070 3.617833 21.996249 205 205 205 0
-2.426981 3.598627 21.879474 205 205 205 0
-2.329057 3.576767 21.746566 206 206 206 0
-2.239240 3.566196 21.682300 205 205 205 0
-2.153205 3.561069 21.651129 206 206 206 0
-2.070918 3.561979 21.656657 205 205 205 0
-1.994932 3.574253 21.731287 206 206 206 0
-1.911835 3.574301 21.731575 206 206 206 0
-1.821102 3.559427 21.641143 206 206 206 0
-1.737000 3.556714 21.624650 206 206 206 0
-1.655696 3.559747 21.643090 205 205 205 0
-1.574178 3.562613 21.660512 206 206 206 0
-1.490297 3.560155 21.645566 205 205 205 0
-1.404785 3.553280 21.603772 206 206 206 0
-1.322561 3.554382 21.610469 206 206 206 0
-1.239117 3.552135 21.596808 207 207 207 0
-1.156683 3.552668 21.600050 207 207 207 0
-1.074081 3.552728 21.600415 207 207 207 0
-0.992257 3.555589 21.617809 207 207 207 0
-0.909150 3.553951 21.607847 207 207 207 0
-0.828021 3.560489 21.647600 207 207 207 0
-0.743924 3.554302 21.609983 207 207 207 0
-0.659010 3.542181 21.536287 207 207 207 0
-0.574644 3.529959 21.461979 207 207 207 0
-0.491898 3.525268 21.433456 207 207 207 0
-0.411248 3.536732 21.503158 207 207 207 0
-0.328889 3.535557 21.496015 208 208 208 0
-0.246572 3.534205 21.487794 207 207 207 0
-0.163889 3.523615 21.423405 208 208 208 0
-0.081696 3.512919 21.358374 208 208 208 0
0.000000 3.503139 21.298912 207 207 207 0
0.081605 3.509034 21.334756 209 209 209 0
0.163264 3.510183 21.341739 208 208 208 0
0.244756 3.508167 21.329487 208 208 208 0
0.325515 3.499288 21.275498 208 208 208 0
0.405752 3.489467 21.215788 209 209 209 0
0.486304 3.485180 21.189724 208 208 208 0
0.567336 3.485063 21.189013 208 208 208 0
0.648878 3.487718 21.205158 209 209 209 0
0.729841 3.487018 21.200903 208 208 208 0
0.810841 3.486616 21.198458 209 209 209 0
0.889942 3.478864 21.151324 209 209 209 0
0.968959 3.472103 21.110215 209 209 209 0
1.050744 3.475539 21.131111 209 209 209 0
1.133766 3.482281 21.172099 209 209 209 0
1.215297 3.483852 21.181653 209 209 209 0
1.295265 3.481025 21.164465 210 210 210 0
1.371430 3.468910 21.090807 210 210 210 0
1.447000 3.456723 21.016707 209 209 209 0
1.525134 3.451618 20.985672 209 209 209 0
1.606978 3.455003 21.006252 209 209 209 0
1.691985 3.464541 21.064241 210 210 210 0
1.768096 3.455824 21.011240 210 210 210 0
1.841929 3.443606 20.936957 210 210 210 0
1.916575 3.433863 20.877721 210 210 210 0
1.991653 3.425642 20.827739 210 210 210 0
2.069179 3.422104 20.806229 210 210 210 0
2.155332 3.432566 20.869835 211 211 211 0
2.233309 3.429725 20.852559 210 210 210 0
2.308674 3.423206 20.812927 210 210 210 0
2.383191 3.415906 20.768545 210 210 210 0
2.459691 3.411829 20.743753 210 210 210 0
2.538620 3.411271 20.740359 211 211 211 0
2.617810 3.411086 20.739239 211 211 211 0
2.695361 3.408838 20.725572 211 211 211 0
2.770894 3.404241 20.697617 210 210 210 0
2.846891 3.400453 20.674589 211 211 211 0
2.919948 3.393454 20.632032 211 211 211 0
3.001517 3.396453 20.650269 211 211 211 0
3.080518 3.396468 20.650361 211 211 211 0
3.162004 3.399154 20.666692 212 212 212 0
3.237477 3.395403 20.643884 212 212 212 0
3.314105 3.393012 20.629350 211 211 211 0
3.387220 3.387220 20.594134 211 211 211 0
3.457920 3.379331 20.546165 211 211 211 0
3.526801 3.370054 20.489764 212 212 212 0
3.602206 3.367280 20.472898 211 211 211 0
3.690277 3.376211 20.527198 212 212 212 0
3.758444 3.366940 20.470830 212 212 212 0
3.833262 3.363883 20.452244 212 212 212 0
3.904026 3.357463 20.413209 212 212 212 0
3.971458 3.348484 20.358619 212 212 212 0
4.042110 3.342514 20.322324 212 212 212 0
4.125470 3.347080 20.350082 212 212 212 0
4.201433 3.345586 20.340998 212 212 212 0
4.278988 3.345390 20.339811 212 212 212 0
4.357338 3.345813 20.342380 212 212 212 0
4.430961 3.342655 20.323180 212 212 212 0
4.517205 3.348962 20.361527 203 203 203 0
4.579434 3.337554 20.292163 105 105 105 0
-10.712604 5.891932 35.008511 199 199 199 0
-6.403421 3.566463 21.191103 198 198 198 0
-6.426448 3.625176 21.539963 199 199 199 0
-6.278229 3.587559 21.316455 199 199 199 0
-6.177048 3.576186 21.248876 200 200 200 0
-6.092946 3.574528 21.239027 200 200 200 0
-5.995110 3.564660 21.180391 200 200 200 0
-5.990354 3.610624 21.453500 199 199 199 0
-5.958412 3.641252 21.635483 200 200 200 0
-5.856066 3.629111 21.563347 200 200 200 0
-5.764658 3.623499 21.530003 201 201 201 0
-5.699929 3.634737 21.596776 201 201 201 0
-5.615374 3.633477 21.589288 201 201 201 0
-5.548847 3.644019 21.651926 201 201 201 0
-5.511072 3.674048 21.830352 200 200 200 0
-5.437330 3.680654 21.869604 200 200 200 0
-5.343649 3.673758 21.828630 201 201 201 0
-5.246405 3.664156 21.771574 201 201 201 0
-5.188926 3.682463 21.880353 202 202 202 0
-5.147459 3.712921 22.061327 202 202 202 0
-5.090784 3.733242 22.182065 202 202 202 0
-4.976337 3.711167 22.050901 201 201 201 0
-4.849705 3.679087 21.860290 202 202 202 0
-4.745481 3.663178 21.765765 201 201 201 0
-4.673331 3.671903 21.817603 202 202 202 0
-4.651073 3.720859 22.108489 202 202 202 0
-4.561242 3.716568 22.082992 202 202 202 0
-4.453970 3.697635 21.970500 203 203 203 0
-4.338358 3.670918 21.811754 202 202 202 0
-4.236415 3.654947 21.716854 202 202 202 0
-4.156722 3.657916 21.734495 203 203 203 0
-4.118171 3.697949 21.972366 203 203 203 0
-4.042891 3.705984 22.020105 202 202 202 0
-3.939219 3.687780 21.911941 203 203 203 0
-3.835222 3.668473 21.797227 203 203 203 0
-3.736387 3.653356 21.707403 203 203 203 0
-3.671685 3.671685 21.816310 203 203 203 0
-3.607383 3.691276 21.932714 203 203 203 0
-3.525818 3.693714 21.947199 203 203 203 0
-3.438207 3.689783 21.923842 204 204 204 0
-3.340510 3.674561 21.833397 204 204 204 0
-3.257095 3.674671 21.834053 204 204 204 0
-3.188290 3.691704 21.935259 204 204 204 0
-3.118116 3.708030 22.032262 204 204 204 0
-3.034886 3.709305 22.039837 204 204 204 0
-2.943500 3.700400 21.986926 204 204 204 0
-2.842224 3.678172 21.854855 205 205 205 0
-2.750539 3.667385 21.790759 204 204 204 0
-2.666000 3.665751 21.781050 205 205 205 0
-2.595944 3.684565 21.892843 205 205 205 0
-2.521367 3.698005 21.972697 206 206 206 0
-2.422020 3.674789 21.834752 205 205 205 0
-2.326974 3.656673 21.727113 205 205 205 0
-2.237387 3.646112 21.664360 206 206 206 0
-2.150487 3.639285 21.623799 205 205 205 0
-2.067738 3.639219 21.623405 206 206 206 0
-1.990088 3.648495 21.678519 205 205 205 0
-1.907870 3.649838 21.686501 206 206 206 0
-1.819639 3.639277 21.623751 206 206 206 0
-1.734436 3.634056 21.592726 206 206 206 0
-1.651084 3.632384 21.582794 207 207 207 0
-1.572761 3.642183 21.641013 205 205 205 0
-1.489023 3.639835 21.627063 206 206 206 0
-1.402933 3.631121 21.575291 206 206 206 0
-1.320330 3.630909 21.574027 207 207 207 0
-1.237525 3.630073 21.569059 207 207 207 0
-1.155459 3.631444 21.577207 206 206 206 0
-1.072159 3.628845 21.561767 206 206 206 0
-0.990507 3.631859 21.579672 207 207 207 0
-0.907354 3.629417 21.565162 207 207 207 0
-0.826427 3.636279 21.605935 207 207 207 0
-0.743208 3.633462 21.589196 208 208 208 0
-0.658247 3.620360 21.511348 208 208 208 0
-0.574128 3.608807 21.442702 208 208 208 0
-0.491224 3.602313 21.404116 207 207 207 0
-0.410564 3.612965 21.467407 207 207 207 0
-0.328593 3.614519 21.476645 208 208 208 0
-0.246212 3.611115 21.456419 208 208 208 0
-0.163833 3.604326 21.416078 208 208 208 0
-0.081590 3.589978 21.330824 207 207 207 0
0.000000 3.576875 21.252974 207 207 207 0
0.081372 3.580355 21.273649 208 208 208 0
0.162924 3.584326 21.297246 208 208 208 0
0.244489 3.585835 21.306209 208 208 208 0
0.325220 3.577419 21.256205 208 208 208 0
0.405118 3.565035 21.182622 209 209 209 0
0.485448 3.559955 21.152436 209 209 209 0
0.566403 3.560244 21.154155 209 209 209 0
0.647702 3.562359 21.166718 208 208 208 0
0.728553 3.561815 21.163489 208 208 208 0
0.809679 3.562588 21.168083 208 208 208 0
0.888419 3.553678 21.115140 208 208 208 0
0.967583 3.547805 21.080246 209 209 209 0
1.048475 3.548685 21.085474 209 209 209 0
1.132075 3.557949 21.140515 209 209 209 0
1.213677 3.560120 21.153415 209 209 209 0
1.294453 3.559746 21.151194 209 209 209 0
1.369725 3.545169 21.064584 209 209 209 0
1.444981 3.532176 20.987379 210 210 210 0
1.523106 3.527194 20.957775 209 209 209 0
1.603805 3.528371 20.964769 209 209 209 0
1.689528 3.539964 21.033655 209 209 209 0
1.766403 3.532806 20.991125 210 210 210 0
1.840179 3.520343 20.917072 210 210 210 0
1.915634 3.511996 20.867474 210 210 210 0
1.990195 3.502743 20.812497 210 210 210 0
2.065142 3.494856 20.765633 210 210 210 0
2.148880 3.501878 20.807358 210 210 210 0
2.229588 3.503638 20.817811 210 210 210 0
2.306143 3.498975 20.790107 210 210 210 0
2.380490 3.491386 20.745014 211 211 211 0
2.455707 3.485520 20.710159 210 210 210 0
2.534251 3.484595 20.704664 211 211 211 0
2.612644 3.483526 20.698312 211 211 211 0
2.691291 3.482847 20.694278 211 211 211 0
2.767016 3.478535 20.668655 211 211 211 0
2.842183 3.473779 20.640400 211 211 211 0
2.915049 3.466545 20.597416 212 212 212 0
2.994901 3.467780 20.604753 211 211 211 0
3.074482 3.468647 20.609904 212 212 212 0
3.156572 3.472229 20.631191 211 211 211 0
3.231894 3.468374 20.608282 211 211 211 0
3.309977 3.467595 20.603656 211 211 211 0
3.382231 3.460888 20.563800 212 212 212 0
3.454292 3.454292 20.524612 212 212 212 0
3.523814 3.445507 20.472410 211 211 211 0
3.597022 3.440630 20.443433 211 211 211 0
3.799916 3.557368 21.137065 211 211 211 0
3.755300 3.442358 20.453704 212 212 212 0
3.829571 3.438799 20.432554 212 212 212 0
3.897908 3.430159 20.381216 212 212 212 0
3.968652 3.423935 20.344239 212 212 212 0
4.036331 3.415357 20.293269 212 212 212 0
4.115038 3.416258 20.298620 213 213 213 0
4.194823 3.418004 20.308997 212 212 212 0
4.272139 3.417711 20.307255 213 213 213 0
4.351416 3.418969 20.314732 213 213 213 0
4.425137 3.415895 20.296465 213 213 213 0
4.509135 3.420723 20.325150 207 207 207 0
4.569727 3.407932 20.249150 109 109 109 0
-10.713144 6.026144 35.010276 199 199 199 0
-6.430734 3.663077 21.281490 199 199 199 0
-6.399599 3.692077 21.449973 199 199 199 0
-6.275885 3.667725 21.308498 200 200 200 0
-6.152269 3.642791 21.163637 199 199 199 0
-6.068807 3.641284 21.154882 200 200 200 0
-5.991613 3.643548 21.168036 200 200 200 0
-5.990627 3.692852 21.454480 199 199 199 0
-5.946930 3.716831 21.593791 200 200 200 0
-5.849788 3.707612 21.540232 201 201 201 0
-5.768714 3.708459 21.545149 200 200 200 0
-5.689790 3.710733 21.558361 200 200 200 0
-5.607983 3.711165 21.560872 201 201 201 0
-5.530597 3.714580 21.580711 201 201 201 0
-5.509916 3.756761 21.825770 201 201 201 0
-5.425618 3.756197 21.822496 201 201 201 0
-5.327227 3.745707 21.761549 201 201 201 0
-5.232904 3.737789 21.715549 201 201 201 0
-5.182598 3.761563 21.853671 202 202 202 0
-5.141285 3.792751 22.034864 201 201 201 0
-5.076731 3.807548 22.120833 202 202 202 0
-4.969070 3.789969 22.018699 201 201 201 0
-4.838024 3.753639 21.807635 202 202 202 0
-4.732869 3.736475 21.707917 201 201 201 0
-4.666997 3.750265 21.788034 202 202 202 0
-4.628604 3.787040 22.001685 203 203 203 0
-4.554506 3.795422 22.050381 203 203 203 0
-4.451141 3.779271 21.956549 202 202 202 0
-4.334029 3.750602 21.789989 203 203 203 0
-4.227577 3.730215 21.671546 202 202 202 0
-4.144520 3.730068 21.670695 203 203 203 0
-4.110251 3.774721 21.930112 202 202 202 0
-4.038089 3.785708 21.993946 203 203 203 0
-3.930203 3.762960 21.861787 203 203 203 0
-3.825732 3.742564 21.743293 203 203 203 0
-3.731778 3.731778 21.680625 203 203 203 0
-3.663691 3.746957 21.768811 203 203 203 0
-3.597300 3.764617 21.871411 203 203 203 0
-3.523146 3.774800 21.930571 204 204 204 0
-3.435708 3.770899 21.907908 204 204 204 0
-3.338280 3.755565 21.818825 204 204 204 0
-3.250620 3.750715 21.790646 204 204 204 0
-3.179089 3.764711 21.871958 205 205 205 0
-3.112587 3.785579 21.993196 204 204 204 0
-3.029284 3.786605 21.999155 205 205 205 0
-2.938657 3.778274 21.950755 205 205 205 0
-2.837777 3.755882 21.820663 205 205 205 0
-2.747527 3.746627 21.766899 204 204 204 0
-2.661890 3.743283 21.747466 205 205 205 0
-2.590146 3.759890 21.843950 204 204 204 0
-2.517315 3.775973 21.937387 206 206 206 0
-2.418174 3.752339 21.800084 206 206 206 0
-2.323353 3.733960 21.693306 206 206 206 0
-2.233314 3.722190 21.624926 205 205 205 0
-2.146133 3.714461 21.580019 205 205 205 0
-2.065584 3.718051 21.600877 206 206 206 0
-1.987160 3.725924 21.646619 205 205 205 0
-1.904608 3.726407 21.649422 206 206 206 0
-1.817808 3.718244 21.601997 206 206 206 0
-1.730429 3.708062 21.542845 207 207 207 0
-1.650824 3.714354 21.579398 206 206 206 0
-1.570095 3.718645 21.604331 207 207 207 0
-1.486381 3.715952 21.588684 207 207 207 0
-1.401360 3.709482 21.551091 207 207 207 0
-1.318874 3.709334 21.550232 206 206 206 0
-1.235817 3.707450 21.539288 207 207 207 0
-1.153769 3.708544 21.545644 207 207 207 0
-1.070546 3.705736 21.529328 206 206 206 0
-0.987673 3.703775 21.517940 207 207 207 0
-0.905533 3.704453 21.521876 207 207 207 0
-0.825524 3.714860 21.582337 207 207 207 0
-0.742031 3.710153 21.554990 207 207 207 0
-0.657375 3.697734 21.482843 207 207 207 0
-0.573320 3.685629 21.412513 208 208 208 0
-0.490360 3.677699 21.366445 207 207 207 0
-0.410242 3.692177 21.450555 207 207 207 0
-0.327792 3.687663 21.424331 208 208 208 0
-0.245982 3.689729 21.436335 208 208 208 0
-0.163552 3.679919 21.379343 208 208 208 0
-0.081467 3.666013 21.298552 207 207 207 0
0.000000 3.652473 21.219885 208 208 208 0
0.081205 3.654241 21.230160 208 208 208 0
0.162712 3.661027 21.269581 208 208 208 0
0.244208 3.663120 21.281740 209 209 209 0
0.324916 3.655307 21.236350 209 209 209 0
0.404681 3.642130 21.159795 209 209 209 0
0.484989 3.637421 21.132437 209 209 209 0
0.565852 3.637618 21.133582 209 209 209 0
0.646670 3.637517 21.132999 208 208 208 0
0.727964 3.639822 21.146386 209 209 209 0
0.808456 3.638054 21.136116 209 209 209 0
0.887181 3.629378 21.085713 209 209 209 0
0.966333 3.623747 21.052998 209 209 209 0
1.046594 3.622827 21.047650 209 209 209 0
1.130651 3.634236 21.113932 210 210 210 0
1.212219 3.636658 21.128005 209 209 209 0
1.292319 3.634646 21.116317 209 209 209 0
1.368785 3.623255 21.050136 210 210 210 0
1.443675 3.609187 20.968409 209 209 209 0
1.520492 3.601165 20.921802 210 210 210 0
1.600539 3.601213 20.922080 209 209 209 0
1.686724 3.614409 20.998746 210 210 210 0
1.763287 3.606724 20.954100 210 210 210 0
1.838565 3.597192 20.898722 210 210 210 0
1.912732 3.586373 20.835866 210 210 210 0
1.986352 3.575434 20.772309 210 210 210 0
2.061702 3.568330 20.731036 211 211 211 0
2.144661 3.574434 20.766503 210 210 210 0
2.226062 3.577599 20.784889 211 211 211 0
2.303588 3.574533 20.767076 211 211 211 0
2.378867 3.568300 20.730863 211 211 211 0
2.450668 3.557422 20.667666 210 210 210 0
2.530478 3.558485 20.673839 211 211 211 0
2.610937 3.560369 20.684787 210 210 210 0
2.688647 3.558503 20.673948 211 211 211 0
2.762561 3.551864 20.635373 211 211 211 0
2.837901 3.547376 20.609303 212 212 212 0
2.911082 3.540505 20.569381 211 211 211 0
2.992556 3.543816 20.588619 211 211 211 0
3.067855 3.539833 20.565478 211 211 211 0
3.149141 3.542783 20.582619 211 211 211 0
3.225497 3.540180 20.567492 212 212 212 0
3.304059 3.540063 20.566815 211 211 211 0
3.378810 3.535964 20.543003 212 212 212 0
3.448727 3.527107 20.491546 211 211 211 0
3.514852 3.514852 20.420344 212 212 212 0
3.590392 3.512340 20.405750 212 212 212 0
3.660010 3.504264 20.358835 212 212 212 0
3.754710 3.520041 20.450490 212 212 212 0
3.825751 3.513445 20.412172 212 212 212 0
3.891357 3.502221 20.346964 212 212 212 0
3.962182 3.496043 20.311068 212 212 212 0
4.030827 3.488216 20.265596 212 212 212 0
4.106770 3.486880 20.257837 213 213 213 0
4.191910 3.493258 20.294892 213 213 213 0
4.266147 3.490484 20.278775 212 212 212 0
4.345037 3.491548 20.284953 212 212 212 0
4.419703 3.489239 20.271541 213 213 213 0
4.504038 3.494512 20.302175 207 207 207 0
4.567375 3.483591 20.238728 121 121 121 0
-10.713574 6.160305 35.011680 198 198 198 0
-6.437712 3.748541 21.304583 199 199 199 0
-6.412639 3.781813 21.493679 200 200 200 0
-6.257504 3.738249 21.246088 199 199 199 0
-6.148585 3.721512 21.150964 199 199 199 0
-6.066378 3.720712 21.146417 200 200 200 0
-5.984932 3.720363 21.144436 200 200 200 0
-5.968002 3.760659 21.373451 199 199 199 0
-5.940123 3.795078 21.569073 200 200 200 0
-5.845423 3.787176 21.524158 200 200 200 0
-5.763111 3.787187 21.524225 200 200 200 0
-5.689403 3.792935 21.556893 200 200 200 0
-5.594341 3.784407 21.508424 201 201 201 0
-5.527737 3.795163 21.569551 201 201 201 0
-5.500429 3.833633 21.788193 201 201 201 0
-5.421364 3.836657 21.805385 201 201 201 0
-5.325653 3.827813 21.755118 201 201 201 0
-5.226182 3.815942 21.687650 201 201 201 0
-5.171798 3.837140 21.808128 201 201 201 0
-5.127140 3.866368 21.974241 202 202 202 0
-5.068172 3.885599 22.083539 202 202 202 0
-4.954950 3.863182 21.956133 202 202 202 0
-4.842180 3.840349 21.826367 202 202 202 0
-4.732662 3.819341 21.706969 202 202 202 0
-4.658149 3.826337 21.746727 202 202 202 0
-4.621441 3.865205 21.967634 202 202 202 0
-4.547223 3.873560 22.015118 202 202 202 0
-4.444021 3.857074 21.921423 202 202 202 0
-4.330042 3.830421 21.769943 203 203 203 0
-4.225512 3.811246 21.660959 203 203 203 0
-4.139395 3.808244 21.643896 203 203 203 0
-4.102472 3.851301 21.888609 204 204 204 0
-4.029143 3.861262 21.945226 203 203 203 0
-3.926191 3.842655 21.839473 202 202 202 0
-3.823086 3.823086 21.728253 203 203 203 0
-3.728669 3.811529 21.662566 203 203 203 0
-3.654631 3.820750 21.714978 204 204 204 0
-3.590542 3.841045 21.830322 204 204 204 0
-3.509936 3.844216 21.848343 204 204 204 0
-3.426052 3.843863 21.846337 203 203 203 0
-3.331610 3.831351 21.775229 204 204 204 0
-3.243836 3.826063 21.745172 204 204 204 0
-3.169971 3.837333 21.809224 204 204 204 0
-3.105411 3.860781 21.942490 204 204 204 0
-3.024457 3.864584 21.964105 204 204 204 0
-2.934860 3.857245 21.922392 205 205 205 0
-2.835107 3.835733 21.800133 204 204 204 0
-2.741078 3.820896 21.715806 204 204 204 0
-2.658133 3.821066 21.716771 205 205 205 0
-2.584977 3.835772 21.800352 205 205 205 0
-2.512119 3.851916 21.892107 205 205 205 0
-2.415400 3.831324 21.775073 205 205 205 0
-2.321649 3.814138 21.677394 205 205 205 0
-2.229147 3.797807 21.584580 205 205 205 0
-2.142758 3.791034 21.546084 206 206 206 0
-2.062847 3.795639 21.572257 205 205 205 0
-1.983298 3.801321 21.604553 206 206 206 0
-1.902422 3.804843 21.624572 206 206 206 0
-1.816507 3.798150 21.586530 206 206 206 0
-1.728493 3.786222 21.518740 206 206 206 0
-1.647991 3.790380 21.542368 206 206 206 0
-1.568711 3.797932 21.585290 206 206 206 0
-1.484912 3.794774 21.567344 206 206 206 0
-1.400414 3.789356 21.536552 206 206 206 0
-1.317159 3.786832 21.522205 207 207 207 0
-1.234613 3.786146 21.518307 207 207 207 0
-1.152450 3.786623 21.521015 207 207 207 0
-1.069118 3.783035 21.500623 207 207 207 0
-0.986212 3.780478 21.486093 207 207 207 0
-0.904404 3.782054 21.495050 207 207 207 0
-0.823962 3.790223 21.541478 207 207 207 0
-0.741278 3.788757 21.533143 208 208 208 0
-0.656846 3.776865 21.465558 207 207 207 0
-0.572623 3.762949 21.386469 207 207 207 0
-0.490090 3.757353 21.354665 207 207 207 0
-0.314674 2.895002 16.453550 208 208 208 0
-0.327561 3.766951 21.409215 208 208 208 0
-0.245560 3.765249 21.399538 208 208 208 0
-0.163213 3.753907 21.335077 207 207 207 0
-0.081311 3.740304 21.257767 208 208 208 0
0.000000 3.727947 21.187535 208 208 208 0
0.080984 3.725280 21.172378 208 208 208 0
0.162371 3.734530 21.224951 208 208 208 0
0.243849 3.739014 21.250437 208 208 208 0
0.324459 3.731278 21.206467 208 208 208 0
0.404260 3.719192 21.137779 208 208 208 0
0.484273 3.712763 21.101239 208 208 208 0
0.564929 3.712389 21.099114 208 208 208 0
0.646156 3.715395 21.116199 209 209 209 0
0.726720 3.714347 21.110243 209 209 209 0
0.807440 3.714222 21.109531 209 209 209 0
0.886282 3.706271 21.064339 209 209 209 0
0.964896 3.698769 21.021703 209 209 209 0
1.044876 3.697255 21.013099 209 209 209 0
1.128232 3.707048 21.068757 209 209 209 0
1.210514 3.712243 21.098285 210 210 210 0
1.291218 3.712250 21.098326 209 209 209 0
1.366907 3.698688 21.021247 209 209 209 0
1.441756 3.684488 20.940539 209 209 209 0
1.518753 3.676982 20.897879 210 210 210 0
1.596425 3.671778 20.868301 210 210 210 0
1.687093 3.695536 21.003332 210 210 210 0
1.760779 3.681628 20.924286 210 210 210 0
1.838145 3.676290 20.893949 209 209 209 0
1.910196 3.661209 20.808237 210 210 210 0
1.984633 3.651725 20.754333 210 210 210 0
2.057966 3.641017 20.693473 210 210 210 0
2.138568 3.643486 20.707510 210 210 210 0
2.222779 3.651708 20.754239 210 210 210 0
2.300997 3.649858 20.743723 211 211 211 0
2.374012 3.640151 20.688555 210 210 210 0
2.446781 3.630707 20.634878 210 210 210 0
2.526033 3.631173 20.637526 211 211 211 0
2.606997 3.633996 20.653573 211 211 211 0
2.685348 3.633118 20.648580 211 211 211 0
2.759312 3.626525 20.611109 211 211 211 0
2.834880 3.622347 20.587365 211 211 211 0
2.908302 3.615727 20.549740 211 211 211 0
2.986618 3.615379 20.547766 211 211 211 0
3.063462 3.613314 20.536028 211 211 211 0
3.143522 3.615051 20.545897 211 211 211 0
3.220636 3.613396 20.536496 211 211 211 0
3.299515 3.613754 20.538530 211 211 211 0
3.374765 3.610214 20.518409 212 212 212 0
3.443894 3.600435 20.462831 211 211 211 0
3.512223 3.590272 20.405069 212 212 212 0
3.586935 3.586935 20.386101 212 212 212 0
