ply
    format ascii 1.0
    element vertex 11659
    property float x
    property float y
    property float z
    property uchar red
    property uchar green
    property uchar blue
    property uchar alpha
    end_header
-0.783601 2.272442 20.486291 215 215 215 0
-0.706671 2.277050 20.527836 215 215 215 0
-0.630976 2.287287 20.620117 214 214 214 0
-0.555261 2.300367 20.738036 215 215 215 0
-0.476009 2.300710 20.741133 214 214 214 0
-0.396774 2.301289 20.746351 214 214 214 0
-0.317789 2.303969 20.770515 214 214 214 0
-0.239801 2.318075 20.897681 214 214 214 0
-0.160265 2.323850 20.949738 215 215 215 0
-0.080205 2.325932 20.968508 214 214 214 0
0.000000 2.327051 20.978595 213 213 213 0
0.080346 2.330047 21.005610 214 214 214 0
0.161903 2.347595 21.163804 213 213 213 0
0.244524 2.363727 21.309240 213 213 213 0
0.326791 2.369238 21.358919 213 213 213 0
0.409117 2.372879 21.391743 213 213 213 0
0.493219 2.383892 21.491026 213 213 213 0
0.577918 2.394232 21.584237 213 213 213 0
0.663822 2.406354 21.693525 212 212 212 0
0.747966 2.410114 21.727420 212 212 212 0
0.834370 2.419673 21.813598 212 212 212 0
0.928547 2.447986 22.068841 211 211 211 0
1.018188 2.460622 22.182751 211 211 211 0
1.104471 2.463820 22.211585 212 212 212 0
1.193146 2.471516 22.280967 210 210 210 0
1.281378 2.477331 22.333390 210 210 210 0
1.382925 2.506552 22.596820 210 210 210 0
1.471076 2.509482 22.623231 209 209 209 0
1.561973 2.516513 22.686616 209 209 209 0
1.665658 2.542320 22.919266 209 209 209 0
1.764884 2.559082 23.070385 207 207 207 0
1.861821 2.571086 23.178596 206 206 206 0
1.968750 2.595170 23.395716 206 206 206 0
2.077857 2.619907 23.618723 205 205 205 0
2.181441 2.635908 23.762974 204 204 204 0
2.294157 2.661222 23.991182 203 203 203 0
2.416300 2.695104 24.296632 203 203 203 0
2.534104 2.721815 24.537436 202 202 202 0
2.655089 2.749913 24.790743 198 198 198 0
2.785874 2.785874 25.114930 197 197 197 0
2.922672 2.825250 25.469912 195 195 195 0
3.088925 2.889639 26.050387 190 190 190 0
3.265672 2.959515 26.680324 182 182 182 0
3.375600 2.966436 26.742722 121 121 121 0
-10.712889 4.017333 35.009440 202 202 202 0
-10.578744 4.017245 35.008669 203 203 203 0
-10.444750 4.017212 35.008380 203 203 203 0
-10.252602 3.994520 34.810634 203 203 203 0
-5.322444 2.100965 18.309061 203 203 203 0
-5.227636 2.091054 18.222696 202 202 202 0
-5.165699 2.094202 18.250127 203 203 203 0
-5.077365 2.086588 18.183775 204 204 204 0
-5.002068 2.084195 18.162920 204 204 204 0
-4.926003 2.081410 18.138648 206 206 206 0
-4.850140 2.078631 18.114433 207 207 207 0
-4.830290 2.100126 18.301754 207 207 207 0
-4.776101 2.107103 18.362556 208 208 208 0
-4.710867 2.109344 18.382079 208 208 208 0
-4.647493 2.112497 18.409557 208 208 208 0
-4.577040 2.112480 18.409411 208 208 208 0
-4.520342 2.118910 18.465450 208 208 208 0
-4.451609 2.119814 18.473323 208 208 208 0
-4.393093 2.125690 18.524532 208 208 208 0
-4.345341 2.137053 18.623557 209 209 209 0
-4.291710 2.145855 18.700261 208 208 208 0
-4.214690 2.143063 18.675929 209 209 209 0
-4.137044 2.139851 18.647935 210 210 210 0
-4.093934 2.154702 18.777360 210 210 210 0
-4.046561 2.167801 18.891510 210 210 210 0
-4.012955 2.188884 19.075246 210 210 210 0
-3.938227 2.187904 19.066700 210 210 210 0
-3.839189 2.173126 18.937915 210 210 210 0
-3.751485 2.164318 18.861162 211 211 211 0
-3.676246 2.162497 18.845294 212 212 212 0
-3.619588 2.171753 18.925951 211 211 211 0
-3.588325 2.196934 19.145390 212 212 212 0
-3.497107 2.185692 19.047425 211 211 211 0
-3.420558 2.183335 19.026886 212 212 212 0
-3.331829 2.172932 18.936227 212 212 212 0
-3.251631 2.167754 18.891105 213 213 213 0
-3.187669 2.173411 18.940399 212 212 212 0
-3.146707 2.195377 19.131823 213 213 213 0
-3.088275 2.205910 19.223621 213 213 213 0
-3.001484 2.196208 19.139065 213 213 213 0
-2.923372 2.192529 19.107004 213 213 213 0
-2.852426 2.194174 19.121341 213 213 213 0
-2.791951 2.204172 19.208469 213 213 213 0
-2.735259 2.217778 19.327039 213 213 213 0
-2.667530 2.222941 19.372038 214 214 214 0
-2.594552 2.223901 19.380405 214 214 214 0
-2.517137 2.221003 19.355146 214 214 214 0
-2.450693 2.227903 19.415276 214 214 214 0
-2.386842 2.237664 19.500342 214 214 214 0
-2.327364 2.252288 19.627781 214 214 214 0
-2.258656 2.258656 19.683273 214 214 214 0
-2.185092 2.260440 19.698822 215 215 215 0
-2.103092 2.253313 19.636711 214 214 214 0
-2.027860 2.253178 19.635538 215 215 215 0
-1.960620 2.262253 19.714627 214 214 214 0
-1.897421 2.276906 19.842316 214 214 214 0
-1.818429 2.273036 19.808593 214 214 214 0
-1.740871 2.270701 19.788241 215 215 215 0
-1.663703 2.268687 19.770689 215 215 215 0
-1.589298 2.270426 19.785849 215 215 215 0
-1.517373 2.276060 19.834941 215 215 215 0
-1.449040 2.287957 19.938625 215 215 215 0
-1.374753 2.291255 19.967368 215 215 215 0
-1.299262 2.292815 19.980954 215 215 215 0
-1.227662 2.301866 20.059833 215 215 215 0
-1.154719 2.309437 20.125814 215 215 215 0
-1.082490 2.319622 20.214574 214 214 214 0
-1.005205 2.319703 20.215275 214 214 214 0
-0.931050 2.327625 20.284315 214 214 214 0
-0.856533 2.335998 20.357285 215 215 215 0
-0.782323 2.346968 20.452883 215 215 215 0
-0.705937 2.353125 20.506535 215 215 215 0
-0.630356 2.363835 20.599869 214 214 214 0
-0.554403 2.376011 20.705977 214 214 214 0
-0.475534 2.377668 20.720415 215 215 215 0
-0.396477 2.378860 20.730808 214 214 214 0
-0.317494 2.381204 20.751234 214 214 214 0
-0.239503 2.395025 20.871678 215 215 215 0
-0.160026 2.400397 20.918489 214 214 214 0
-0.080144 2.404326 20.952735 214 214 214 0
0.000000 2.404412 20.953484 214 214 214 0
0.080260 2.407809 20.983083 213 213 213 0
0.161708 2.425621 21.138308 213 213 213 0
0.244225 2.442247 21.283201 213 213 213 0
0.326358 2.447684 21.330580 213 213 213 0
0.408635 2.451811 21.366542 213 213 213 0
0.492202 2.461012 21.446732 213 213 213 0
0.577056 2.473098 21.552054 213 213 213 0
0.662906 2.485898 21.663597 212 212 212 0
0.746173 2.487245 21.675334 212 212 212 0
0.833314 2.499941 21.785979 212 212 212 0
0.927017 2.528229 22.032496 212 212 212 0
1.017493 2.543733 22.167611 212 212 212 0
1.104190 2.548131 22.205934 211 211 211 0
1.192501 2.555359 22.268921 211 211 211 0
1.287375 2.574751 22.437915 210 210 210 0
1.381989 2.591229 22.581519 209 209 209 0
1.469316 2.592911 22.596172 209 209 209 0
1.559073 2.598454 22.644482 209 209 209 0
1.661180 2.622916 22.857657 209 209 209 0
1.762249 2.643373 23.035934 207 207 207 0
1.857325 2.653321 23.122626 206 206 206 0
1.964149 2.678385 23.341045 207 207 207 0
2.075214 2.706801 23.588677 206 206 206 0
2.179225 2.724032 23.738839 205 205 205 0
2.290996 2.749195 23.958126 203 203 203 0
2.410665 2.781536 24.239968 202 202 202 0
2.533702 2.815224 24.533544 201 201 201 0
2.653566 2.843106 24.776526 199 199 199 0
2.782326 2.878269 25.082950 197 197 197 0
2.917933 2.917933 25.428607 196 196 196 0
3.081023 2.981635 25.983745 191 191 191 0
3.254808 3.051382 26.591568 185 185 185 0
3.368244 3.062040 26.684447 127 127 127 0
-10.712887 4.151244 35.009436 203 203 203 0
-10.578738 4.151150 35.008647 202 202 202 0
-10.444750 4.151119 35.008379 202 202 202 0
-10.252744 4.127728 34.811116 203 203 203 0
-5.348932 2.181801 18.400180 203 203 203 0
-5.225577 2.159905 18.215518 203 203 203 0
-5.166167 2.164205 18.251782 203 203 203 0
-5.086274 2.159925 18.215684 204 204 204 0
-4.995833 2.150983 18.140278 206 206 206 0
-4.922640 2.149321 18.126262 206 206 206 0
-4.846182 2.146166 18.099652 207 207 207 0
-4.817201 2.164250 18.252161 207 207 207 0
-4.768725 2.173977 18.334198 207 207 207 0
-4.704513 2.176715 18.357285 207 207 207 0
-4.639050 2.178948 18.376113 207 207 207 0
-4.571968 2.180477 18.389013 208 208 208 0
-4.513082 2.186024 18.435793 208 208 208 0
-4.442324 2.185906 18.434793 208 208 208 0
-4.385618 2.192809 18.493014 208 208 208 0
-4.338401 2.204761 18.593810 209 209 209 0
-4.286773 2.214833 18.678750 209 209 209 0
-4.215302 2.214820 18.678641 209 209 209 0
-4.138406 2.211906 18.654071 210 210 210 0
-4.087995 2.223296 18.750120 210 210 210 0
-4.033655 2.232916 18.831256 210 210 210 0
-4.000968 2.255091 19.018266 211 211 211 0
-3.929734 2.255959 19.025584 211 211 211 0
-3.836686 2.244100 18.925571 211 211 211 0
-3.747362 2.234004 18.840430 212 212 212 0
-3.671551 2.231727 18.821227 211 211 211 0
-3.615795 2.241793 18.906117 211 211 211 0
-3.580405 2.265154 19.103135 212 212 212 0
-3.495671 2.257621 19.039603 212 212 212 0
-3.417936 2.254383 19.012300 213 213 213 0
-3.330294 2.244328 18.927501 212 212 212 0
-3.248329 2.237738 18.871917 213 213 213 0
-3.184921 2.243921 18.924068 213 213 213 0
-3.145935 2.267999 19.127129 212 212 212 0
-3.084588 2.276720 19.200674 213 213 213 0
-2.999538 2.267943 19.126656 213 213 213 0
-2.922119 2.264642 19.098818 213 213 213 0
-2.850298 2.265621 19.107074 213 213 213 0
-2.793925 2.279255 19.222051 214 214 214 0
-2.731197 2.288300 19.298338 214 214 214 0
-2.662947 2.293094 19.338760 214 214 214 0
-2.590992 2.294878 19.353813 214 214 214 0
-2.515993 2.293993 19.346349 214 214 214 0
-2.448578 2.300180 19.398522 214 214 214 0
-2.384443 2.309929 19.480743 214 214 214 0
-2.324961 2.324961 19.607514 215 215 215 0
-2.255217 2.330391 19.653310 214 214 214 0
-2.181817 2.332287 19.669302 214 214 214 0
-2.102271 2.327515 19.629050 215 215 215 0
-2.026422 2.326633 19.621611 215 215 215 0
-1.959048 2.335788 19.698825 214 214 214 0
-1.899395 2.355249 19.862949 214 214 214 0
-1.819018 2.349565 19.815009 215 215 215 0
-1.739648 2.344743 19.774344 215 215 215 0
-1.662878 2.343146 19.760874 215 215 215 0
-1.588426 2.344819 19.774987 215 215 215 0
-1.516532 2.350625 19.823949 215 215 215 0
-1.446825 2.360610 19.908158 215 215 215 0
-1.373655 2.365739 19.951416 215 215 215 0
-1.298261 2.367416 19.965562 215 215 215 0
-1.226662 2.376657 20.043491 215 215 215 0
-1.153165 2.383208 20.098739 215 215 215 0
-1.080742 2.393071 20.181917 215 215 215 0
-1.004534 2.395428 20.201794 215 215 215 0
-0.930537 2.403887 20.273134 215 215 215 0
-0.855947 2.412214 20.343357 215 215 215 0
-0.781457 2.422515 20.430236 215 215 215 0
-0.704846 2.427802 20.474825 215 215 215 0
-0.629767 2.440349 20.580633 214 214 214 0
-0.553816 2.452615 20.684078 214 214 214 0
-0.475160 2.454992 20.704129 214 214 214 0
-0.396294 2.457026 20.721279 214 214 214 0
-0.316937 2.456262 20.714837 215 215 215 0
-0.239357 2.473351 20.858961 215 215 215 0
-0.159921 2.478783 20.904766 214 214 214 0
-0.080080 2.482480 20.935945 215 215 215 0
0.000000 2.482339 20.934761 214 214 214 0
0.080183 2.485682 20.962949 213 213 213 0
0.161546 2.503957 21.117076 213 213 213 0
0.243926 2.520573 21.257204 213 213 213 0
0.326045 2.526850 21.310141 214 214 214 0
0.408255 2.531180 21.346661 213 213 213 0
0.491739 2.540653 21.426546 213 213 213 0
0.576191 2.551702 21.519728 213 213 213 0
0.661956 2.565081 21.632563 212 212 212 0
0.745798 2.568859 21.664423 212 212 212 0
0.832435 2.580548 21.763004 212 212 212 0
0.925231 2.607470 21.990052 211 211 211 0
1.016663 2.626380 22.149529 212 212 212 0
1.103200 2.630707 22.186013 211 211 211 0
1.191173 2.637597 22.244126 212 212 212 0
1.285936 2.657600 22.412819 209 209 209 0
1.380547 2.674809 22.557950 210 210 210 0
1.468969 2.678708 22.590830 210 210 210 0
1.556955 2.681422 22.613722 209 209 209 0
1.658220 2.705517 22.816925 209 209 209 0
1.760821 2.729272 23.017266 208 208 208 0
1.854988 2.738315 23.093530 206 206 206 0
1.960241 2.762158 23.294610 206 206 206 0
2.071963 2.792645 23.551720 206 206 206 0
2.175835 2.810453 23.701902 205 205 205 0
2.286519 2.835284 23.911314 202 202 202 0
2.406162 2.868886 24.194694 203 203 203 0
2.530062 2.904886 24.498303 202 202 202 0
2.650045 2.933978 24.743650 199 199 199 0
2.780570 2.972334 25.067120 197 197 197 0
2.913631 3.010752 25.391117 196 196 196 0
3.073137 3.073137 25.917238 191 191 191 0
3.244531 3.143140 26.507608 186 186 186 0
3.361156 3.157449 26.628288 134 134 134 0
-10.712886 4.285154 35.009431 203 203 203 0
-10.578747 4.285062 35.008676 202 202 202 0
-10.444736 4.285020 35.008334 202 202 202 0
-10.252516 4.260786 34.810341 202 202 202 0
-5.405752 2.276106 18.595637 203 203 203 0
-5.224317 2.229042 18.211127 203 203 203 0
-5.158819 2.230841 18.225822 203 203 203 0
-5.071827 2.223267 18.163943 205 205 205 0
-4.990076 2.217812 18.119375 206 206 206 0
-4.924041 2.219286 18.131424 206 206 206 0
-4.842950 2.213920 18.087580 206 206 206 0
-4.820630 2.235655 18.265152 207 207 207 0
-4.764784 2.242251 18.319046 207 207 207 0
-4.708330 2.248755 18.372179 207 207 207 0
-4.639067 2.249244 18.376180 207 207 207 0
-4.571430 2.250550 18.386847 208 208 208 0
-4.505902 2.252951 18.406460 208 208 208 0
-4.443102 2.256814 18.438020 208 208 208 0
-4.377644 2.259429 18.459389 208 208 208 0
-4.340090 2.276769 18.601051 209 209 209 0
-4.283219 2.284383 18.663264 209 209 209 0
-4.214379 2.285765 18.674549 209 209 209 0
-4.132404 2.279947 18.627019 211 211 211 0
-4.080350 2.290723 18.715057 210 210 210 0
-4.032359 2.304205 18.825207 211 211 211 0
-3.993523 2.323504 18.982877 210 210 210 0
-3.932964 2.330646 19.041222 211 211 211 0
-3.834417 2.315120 18.914378 211 211 211 0
-3.748245 2.306613 18.844874 211 211 211 0
-3.667577 2.301225 18.800854 212 212 212 0
-3.611829 2.311570 18.885378 212 212 212 0
-3.573168 2.333498 19.064522 211 211 211 0
-3.491096 2.327398 19.014687 212 212 212 0
-3.413303 2.323951 18.986527 213 213 213 0
-3.329780 2.316368 18.924579 212 212 212 0
-3.247250 2.309156 18.865650 212 212 212 0
-3.180663 2.313210 18.898771 213 213 213 0
-3.145375 2.340744 19.123728 213 213 213 0
-3.082813 2.348810 19.189625 213 213 213 0
-3.000459 2.341822 19.132529 213 213 213 0
-2.919359 2.335487 19.080776 214 214 214 0
-2.845939 2.335129 19.077853 214 214 214 0
-2.787554 2.347413 19.178215 214 214 214 0
-2.728861 2.360096 19.281831 214 214 214 0
-2.659335 2.363853 19.312528 214 214 214 0
-2.589615 2.367648 19.343533 214 214 214 0
-2.513764 2.365895 19.329211 214 214 214 0
-2.446026 2.371904 19.378298 214 214 214 0
-2.379169 2.379169 19.437654 214 214 214 0
-2.322300 2.397213 19.585077 214 214 214 0
-2.252773 2.402958 19.632009 214 214 214 0
-2.179735 2.405225 19.650531 215 215 215 0
-2.098993 2.398849 19.598443 215 215 215 0
-2.024742 2.399694 19.605345 214 214 214 0
-1.958582 2.410563 19.694138 215 215 215 0
-1.939947 2.483132 20.287024 215 215 215 0
-1.815143 2.420191 19.772802 215 215 215 0
-1.737591 2.417518 19.750964 215 215 215 0
-1.661098 2.416143 19.739731 215 215 215 0
-1.587044 2.418352 19.757778 215 215 215 0
-1.514730 2.423568 19.800392 214 214 214 0
-1.446268 2.435820 19.900490 215 215 215 0
-1.372630 2.440230 19.936523 215 215 215 0
-1.296917 2.441255 19.944892 215 215 215 0
-1.226691 2.453382 20.043974 215 215 215 0
-1.153242 2.460250 20.100082 215 215 215 0
-1.079044 2.466386 20.150215 216 216 216 0
-1.003965 2.471299 20.190353 215 215 215 0
-0.928464 2.475904 20.227977 215 215 215 0
-0.855096 2.487551 20.323129 215 215 215 0
-0.780394 2.497262 20.402466 216 216 216 0
-0.703799 2.502398 20.444427 216 216 216 0
-0.628988 2.515954 20.555180 214 214 214 0
-0.553276 2.529263 20.663912 214 214 214 0
-0.474906 2.532830 20.693056 215 215 215 0
-0.395696 2.532457 20.690007 214 214 214 0
-0.316540 2.532321 20.688896 214 214 214 0
-0.240978 2.570427 21.000222 215 215 215 0
-0.159845 2.557517 20.894745 214 214 214 0
-0.080044 2.561409 20.926541 214 214 214 0
0.000000 2.561481 20.927135 215 215 215 0
0.080130 2.564159 20.949008 214 214 214 0
0.161379 2.582071 21.095352 213 213 213 0
0.243700 2.599465 21.237460 213 213 213 0
0.325839 2.606714 21.296682 213 213 213 0
0.407747 2.609580 21.320094 213 213 213 0
0.490860 2.617922 21.388252 213 213 213 0
0.575785 2.632160 21.504579 213 213 213 0
0.661209 2.644835 21.608127 213 213 213 0
0.745602 2.651028 21.658729 211 211 211 0
0.832228 2.663130 21.757599 212 212 212 0
0.923700 2.687126 21.953645 212 212 212 0
1.015847 2.708926 22.131751 212 212 212 0
1.102389 2.713572 22.169706 212 212 212 0
1.189894 2.719757 22.220234 211 211 211 0
1.283009 2.737086 22.361810 209 209 209 0
1.380137 2.760275 22.551264 210 210 210 0
1.467202 2.761792 22.563657 210 210 210 0
1.556186 2.766553 22.602557 209 209 209 0
1.655586 2.788356 22.780683 209 209 209 0
1.758944 2.814310 22.992727 208 208 208 0
1.853459 2.824319 23.074501 206 206 206 0
1.956817 2.846280 23.253920 206 206 206 0
2.068233 2.877542 23.509328 205 205 205 0
2.172013 2.896017 23.660271 206 206 206 0
2.282190 2.921204 23.866042 203 203 203 0
2.401881 2.956161 24.151643 203 203 203 0
2.527627 2.995706 24.474726 202 202 202 0
2.648023 3.026313 24.724776 200 200 200 0
2.779439 3.066968 25.056925 197 197 197 0
2.913477 3.107708 25.389775 197 197 197 0
3.066892 3.165824 25.864574 192 192 192 0
3.234053 3.234053 26.422004 186 186 186 0
3.352460 3.250870 26.559398 139 139 139 0
-10.712906 4.419074 35.009497 202 202 202 0
-10.578733 4.418965 35.008632 202 202 202 0
-10.444748 4.418932 35.008372 202 202 202 0
-10.252417 4.393893 34.810004 203 203 203 0
-5.757136 2.499809 19.804390 203 203 203 0
-5.215793 2.294949 18.181415 203 203 203 0
-5.157313 2.299883 18.220502 204 204 204 0
-5.065945 2.290085 18.142879 205 205 205 0
-4.984114 2.284386 18.097728 206 206 206 0
-4.913413 2.283699 18.092289 207 207 207 0
-4.846978 2.285004 18.102626 206 206 206 0
-4.809448 2.300171 18.222783 207 207 207 0
-4.755814 2.307969 18.284561 207 207 207 0
-4.694745 2.312337 18.319168 207 207 207 0
-4.633598 2.316799 18.354518 208 208 208 0
-4.571363 2.320846 18.386580 207 207 207 0
-4.505973 2.323393 18.406754 208 208 208 0
-4.434820 2.323001 18.403653 208 208 208 0
-4.378322 2.330397 18.462246 208 208 208 0
-4.337966 2.346768 18.591945 209 209 209 0
-4.275978 2.351788 18.631714 210 210 210 0
-4.209538 2.354488 18.653100 210 210 210 0
-4.135577 2.353001 18.641322 211 211 211 0
-4.077225 2.360498 18.700720 211 211 211 0
-4.030350 2.375028 18.815826 210 210 210 0
-3.991486 2.394892 18.973196 210 210 210 0
-3.925349 2.398825 19.004354 212 212 212 0
-3.836398 2.388701 18.924149 212 212 212 0
-3.744309 2.376196 18.825081 211 211 211 0
-3.664518 2.371159 18.785174 212 212 212 0
-3.609206 2.382076 18.871664 212 212 212 0
-3.567784 2.402793 19.035794 211 211 211 0
-3.489953 2.399343 19.008457 213 213 213 0
-3.410588 2.394668 18.971426 212 212 212 0
-3.328726 2.387999 18.918592 212 212 212 0
-3.243955 2.378900 18.846506 213 213 213 0
-3.179850 2.384888 18.893942 213 213 213 0
-3.142425 2.411629 19.105793 213 213 213 0
-3.078298 2.418662 19.161516 212 212 212 0
-2.997983 2.413010 19.116740 213 213 213 0
-2.917521 2.406955 19.068766 214 214 214 0
-2.843747 2.406247 19.063157 214 214 214 0
-2.786559 2.419906 19.171372 214 214 214 0
-2.725427 2.430786 19.257567 214 214 214 0
-2.658570 2.437023 19.306975 214 214 214 0
-2.586058 2.438283 19.316959 213 213 213 0
-2.511131 2.437275 19.308969 214 214 214 0
-2.441977 2.441977 19.346219 214 214 214 0
-2.374953 2.449170 19.403211 214 214 214 0
-2.315364 2.464742 19.526578 214 214 214 0
-2.250236 2.475259 19.609896 214 214 214 0
-2.178496 2.478978 19.639362 215 215 215 0
-2.096924 2.471375 19.579125 215 215 215 0
-2.024863 2.474832 19.606513 214 214 214 0
-1.958072 2.485245 19.689005 215 215 215 0
-1.939947 2.560730 20.287024 215 215 215 0
-1.814630 2.495116 19.767212 215 215 215 0
-1.736807 2.491940 19.742047 215 215 215 0
-1.659151 2.488727 19.716592 215 215 215 0
-1.585261 2.491124 19.735581 215 215 215 0
-1.514593 2.499079 19.798602 215 215 215 0
-1.445065 2.509850 19.883939 216 216 216 0
-1.371771 2.514914 19.924057 215 215 215 0
-1.295393 2.514586 19.921459 215 215 215 0
-1.224988 2.526539 20.016152 215 215 215 0
-1.152685 2.535907 20.090374 215 215 215 0
-1.078010 2.541024 20.130910 215 215 215 0
-1.002500 2.544807 20.160878 215 215 215 0
-0.928300 2.552825 20.224404 215 215 215 0
-0.853643 2.560928 20.288597 215 215 215 0
-0.779723 2.573085 20.384911 215 215 215 0
-0.703195 2.578381 20.426867 215 215 215 0
-0.628187 2.591270 20.528976 215 215 215 0
-0.552501 2.604650 20.634974 214 214 214 0
-0.474698 2.610840 20.684016 215 215 215 0
-0.395505 2.610332 20.679992 214 214 214 0
-0.316426 2.610513 20.681426 214 214 214 0
-0.249929 2.749223 21.780339 215 215 215 0
-0.159497 2.631699 20.849267 215 215 215 0
-0.080008 2.640268 20.917155 214 214 214 0
0.000000 2.639733 20.912917 215 215 215 0
0.080039 2.641297 20.925308 214 214 214 0
0.161204 2.659870 21.072453 214 214 214 0
0.243570 2.679267 21.226120 213 213 213 0
0.325557 2.685846 21.278241 213 213 213 0
0.407626 2.690330 21.313763 214 214 214 0
0.490607 2.698338 21.377204 212 212 212 0
0.574952 2.710486 21.473450 214 214 214 0
0.660518 2.724637 21.585555 213 213 213 0
0.745151 2.732220 21.645635 212 212 212 0
0.830930 2.742069 21.723661 212 212 212 0
0.921915 2.765744 21.911221 212 212 212 0
1.014937 2.791076 22.111911 211 211 211 0
1.102017 2.797428 22.162234 212 212 212 0
1.188376 2.801171 22.191891 211 211 211 0
1.282235 2.820917 22.348326 210 210 210 0
1.379188 2.844575 22.535753 210 210 210 0
1.466394 2.846529 22.551231 209 209 209 0
1.554422 2.849774 22.576941 209 209 209 0
1.653004 2.871006 22.745148 209 209 209 0
1.756392 2.898046 22.959366 208 208 208 0
1.852413 2.910934 23.061471 206 206 206 0
1.955247 2.932871 23.235263 206 206 206 0
2.065480 2.963514 23.478029 206 206 206 0
2.168916 2.982260 23.626537 206 206 206 0
2.277581 3.006407 23.817838 203 203 203 0
2.397764 3.043316 24.110245 202 202 202 0
2.523406 3.084163 24.433849 202 202 202 0
2.647401 3.120151 24.718965 200 200 200 0
2.778026 3.161203 25.044187 197 197 197 0
2.910542 3.201597 25.364203 197 197 197 0
3.060594 3.258052 25.811462 191 191 191 0
3.223871 3.324617 26.338819 187 187 187 0
3.349602 3.349602 26.536756 143 143 143 0
-10.712890 4.552978 35.009444 201 201 201 0
-10.578743 4.552877 35.008663 202 202 202 0
-10.444761 4.552845 35.008416 202 202 202 0
-10.251650 4.526703 34.807402 202 202 202 0
-10.092833 4.515215 34.719069 203 203 203 0
-5.211052 2.362344 18.164888 203 203 203 0
-5.154220 2.368155 18.209574 205 205 205 0
-5.067685 2.360292 18.149109 206 206 206 0
-4.980599 2.351950 18.084965 206 206 206 0
-4.914118 2.353239 18.094882 206 206 206 0
-4.836015 2.348922 18.061681 207 207 207 0
-4.810952 2.370614 18.228483 207 207 207 0
-4.760056 2.380028 18.300868 207 207 207 0
-4.684475 2.377196 18.279095 207 207 207 0
-4.628183 2.384216 18.333069 208 208 208 0
-4.572465 2.391751 18.391012 208 208 208 0
-4.502355 2.391876 18.391974 208 208 208 0
-4.432340 2.392056 18.393360 208 208 208 0
-4.371748 2.397410 18.434526 210 210 210 0
-4.331112 2.414062 18.562570 210 210 210 0
-4.281158 2.425989 18.654282 210 210 210 0
-4.209444 2.425781 18.652682 210 210 210 0
-4.137763 2.425585 18.651175 211 211 211 0
-4.076937 2.431857 18.699403 211 211 211 0
-4.028667 2.445976 18.807970 210 210 210 0
-3.986612 2.464451 18.950028 211 211 211 0
-3.924824 2.471185 19.001810 211 211 211 0
-3.831593 2.458003 18.900448 211 211 211 0
-3.740741 2.445869 18.807143 212 212 212 0
-3.664798 2.443199 18.786612 212 212 212 0
-3.606640 2.452515 18.858247 212 212 212 0
-3.564000 2.472979 19.015605 212 212 212 0
-3.487747 2.470487 18.996443 212 212 212 0
-3.412406 2.468549 18.981541 212 212 212 0
-3.326810 2.458946 18.907698 212 212 212 0
-3.244226 2.451193 18.848080 213 213 213 0
-3.177967 2.455702 18.882754 213 213 213 0
-3.137570 2.480869 19.076272 213 213 213 0
-3.074109 2.488564 19.135442 213 213 213 0
-2.993173 2.482144 19.086073 213 213 213 0
-2.914947 2.477705 19.051944 214 214 214 0
-2.841667 2.477350 19.049214 214 214 214 0
-2.783013 2.490064 19.146975 214 214 214 0
-2.725669 2.504669 19.259274 214 214 214 0
-2.655029 2.507527 19.281254 214 214 214 0
-2.583794 2.509971 19.300047 214 214 214 0
-2.510681 2.510681 19.305506 214 214 214 0
-2.441087 2.515060 19.339175 214 214 214 0
-2.372744 2.521040 19.385160 214 214 214 0
-2.315815 2.539927 19.530385 215 215 215 0
-2.248396 2.548183 19.593868 214 214 214 0
-2.176642 2.551926 19.622650 215 215 215 0
-2.096412 2.545643 19.574340 215 215 215 0
-2.019478 2.543046 19.554372 215 215 215 0
-1.949632 2.549518 19.604140 215 215 215 0
-1.816827 2.470885 18.999503 215 215 215 0
-1.817447 2.574716 19.797893 215 215 215 0
-1.734589 2.564175 19.716837 215 215 215 0
-1.656061 2.559367 19.679870 216 216 216 0
-1.583839 2.564311 19.717889 215 215 215 0
-1.512193 2.570728 19.767226 214 214 214 0
-1.443680 2.583428 19.864880 216 216 216 0
-1.371277 2.590190 19.916877 216 216 216 0
-1.294682 2.589365 19.910533 215 215 215 0
-1.223019 2.598915 19.983968 215 215 215 0
-1.150663 2.608171 20.055137 216 216 216 0
-1.077381 2.616498 20.119169 215 215 215 0
-1.001330 2.618864 20.137362 215 215 215 0
-0.927025 2.626572 20.196633 215 215 215 0
-0.853396 2.637771 20.282743 216 216 216 0
-0.778794 2.647898 20.360614 214 214 214 0
-0.701934 2.651751 20.390239 215 215 215 0
-0.627566 2.667157 20.508701 214 214 214 0
-0.551400 2.678231 20.593856 215 215 215 0
-0.474595 2.689371 20.679519 214 214 214 0
-0.394781 2.684511 20.642144 215 215 215 0
-0.315511 2.681847 20.621657 215 215 215 0
-0.211226 2.393899 18.407530 215 215 215 0
-0.159826 2.717037 20.892251 214 214 214 0
-0.079886 2.716112 20.885136 214 214 214 0
0.000000 2.717625 20.896767 214 214 214 0
0.079983 2.719432 20.910664 214 214 214 0
0.161006 2.737102 21.046534 214 214 214 0
0.243238 2.756695 21.197194 213 213 213 0
0.325303 2.765074 21.261626 213 213 213 0
0.407060 2.768009 21.284190 213 213 213 0
0.489913 2.776173 21.346967 213 213 213 0
0.574210 2.789021 21.445757 213 213 213 0
0.659702 2.803732 21.558878 213 213 213 0
0.744709 2.813346 21.632803 213 213 213 0
0.830142 2.822484 21.703065 212 212 212 0
0.919565 2.842291 21.855371 212 212 212 0
1.013554 2.871735 22.081778 212 212 212 0
1.101311 2.880351 22.148030 211 211 211 0
1.187337 2.883533 22.172498 211 211 211 0
1.281478 2.904683 22.335124 211 211 211 0
1.378776 2.929900 22.529024 209 209 209 0
1.465025 2.930050 22.530181 209 209 209 0
1.553113 2.933658 22.557925 209 209 209 0
1.650567 2.953646 22.711622 209 209 209 0
1.755486 2.984326 22.947525 209 209 209 0
1.850237 2.995621 23.034381 206 206 206 0
1.953568 3.019150 23.215300 206 206 206 0
2.062602 3.049064 23.445320 206 206 206 0
2.167205 3.070207 23.607900 206 206 206 0
2.274485 3.093299 23.785460 204 204 204 0
2.394587 3.131383 24.078297 203 203 203 0
2.519047 3.172133 24.391641 202 202 202 0
2.643037 3.209402 24.678215 200 200 200 0
2.778465 3.257511 25.048143 197 197 197 0
2.909769 3.297739 25.357468 196 196 196 0
3.057407 3.353285 25.784584 192 192 192 0
3.217740 3.418849 26.288729 187 187 187 0
3.351157 3.452707 26.549072 148 148 148 0
-10.712887 4.686888 35.009435 202 202 202 0
-10.578741 4.686784 35.008657 202 202 202 0
-10.444774 4.686758 35.008461 202 202 202 0
-10.251810 4.659914 34.807944 202 202 202 0
-10.078741 4.641525 34.670591 203 203 203 0
-5.185357 2.419833 18.075320 204 204 204 0
-5.157840 2.439519 18.222362 206 206 206 0
-5.068511 2.430108 18.152067 206 206 206 0
-4.986509 2.423997 18.106422 206 206 206 0
-4.907387 2.419134 18.070097 206 206 206 0
-4.837994 2.418997 18.069071 206 206 206 0
-4.805430 2.437537 18.207558 206 206 206 0
-4.753901 2.446861 18.277207 206 206 206 0
-4.689047 2.449502 18.296936 207 207 207 0
-4.623594 2.451906 18.314892 207 207 207 0
-4.570777 2.461188 18.384221 207 207 207 0
-4.496631 2.459095 18.368590 208 208 208 0
-4.432773 2.462651 18.395155 209 209 209 0
-4.371305 2.467672 18.432660 209 209 209 0
-4.336525 2.488170 18.585771 210 210 210 0
-4.275586 2.494092 18.630006 209 209 209 0
-4.215413 2.500668 18.679130 211 211 211 0
-4.129772 2.492104 18.615152 211 211 211 0
-4.068989 2.498502 18.662949 211 211 211 0
-4.029235 2.518272 18.810623 211 211 211 0
-3.984462 2.535567 18.939809 211 211 211 0
-3.926056 2.544666 19.007774 211 211 211 0
-3.828232 2.528077 18.883866 211 211 211 0
-3.738936 2.516592 18.798071 211 211 211 0
-3.661100 2.512519 18.767652 211 211 211 0
-3.601291 2.520903 18.830277 211 211 211 0
-3.564261 2.545901 19.017001 212 212 212 0
-3.487310 2.542830 18.994061 212 212 212 0
-3.410717 2.539895 18.972141 213 213 213 0
-3.325912 2.530585 18.902599 212 212 212 0
-3.243268 2.522541 18.842513 213 213 213 0
-3.175865 2.526256 18.870261 213 213 213 0
-3.139676 2.555550 19.089076 213 213 213 0
-3.072462 2.560385 19.125191 213 213 213 0
-2.993384 2.555328 19.087417 213 213 213 0
-2.914245 2.549965 19.047355 213 213 213 0
-2.840511 2.549176 19.041467 214 214 214 0
-2.780119 2.560636 19.127065 214 214 214 0
-2.720654 2.573592 19.223840 214 214 214 0
-2.652649 2.578965 19.263974 214 214 214 0
-2.581462 2.581462 19.282629 214 214 214 0
-2.508354 2.582129 19.287613 214 214 214 0
-2.440238 2.588132 19.332448 215 215 215 0
-2.371236 2.593539 19.372840 215 215 215 0
-2.313217 2.611696 19.508467 214 214 214 0
-2.247064 2.621575 19.582257 215 215 215 0
-2.173507 2.623198 19.594381 214 214 214 0
-2.094094 2.617618 19.552701 214 214 214 0
-2.020070 2.618609 19.560108 215 215 215 0
-1.951580 2.627127 19.623734 215 215 215 0
-1.885295 2.639413 19.715503 215 215 215 0
-1.816740 2.649412 19.790194 215 215 215 0
-1.732841 2.636932 19.696968 215 215 215 0
-1.655640 2.633973 19.674867 215 215 215 0
-1.583264 2.638774 19.710727 215 215 215 0
-1.511633 2.645358 19.759907 215 215 215 0
-1.443092 2.658327 19.856784 215 215 215 0
-1.369623 2.663156 19.892856 215 215 215 0
-1.293537 2.663165 19.892920 215 215 215 0
-1.221933 2.672978 19.966221 215 215 215 0
-1.148623 2.680121 20.019576 215 215 215 0
-1.076384 2.690961 20.100546 215 215 215 0
-1.000676 2.694127 20.124200 215 215 215 0
-0.926728 2.702957 20.190154 214 214 214 0
-0.852315 2.711912 20.257043 215 215 215 0
-0.777936 2.722777 20.338200 215 215 215 0
-0.701186 2.726834 20.368506 215 215 215 0
-0.626852 2.742478 20.485365 214 214 214 0
-0.551277 2.756384 20.589234 214 214 214 0
-0.473728 2.763413 20.641738 215 215 215 0
-0.394863 2.764039 20.646418 215 215 215 0
-0.315865 2.763814 20.644739 215 215 215 0
-0.235965 2.752926 20.563409 215 215 215 0
-0.159470 2.790726 20.845760 214 214 214 0
-0.079799 2.792956 20.862415 215 215 215 0
0.000000 2.794176 20.871531 214 214 214 0
0.079956 2.798448 20.903442 214 214 214 0
0.160907 2.815871 21.033582 214 214 214 0
0.242965 2.834592 21.173422 213 213 213 0
0.325069 2.844355 21.246348 214 214 214 0
0.406985 2.848892 21.280241 214 214 214 0
0.489662 2.856360 21.336023 212 212 212 0
0.573594 2.867972 21.422760 213 213 213 0
0.659489 2.885262 21.551914 214 214 214 0
0.744294 2.894477 21.620745 212 212 212 0
0.829387 2.902853 21.683312 212 212 212 0
0.918756 2.923315 21.836152 211 211 211 0
1.012793 2.953978 22.065198 212 212 212 0
1.100145 2.961928 22.124576 211 211 211 0
1.186876 2.967189 22.163877 211 211 211 0
1.279581 2.985689 22.302069 210 210 210 0
1.377625 3.013555 22.510218 209 209 209 0
1.464224 3.014578 22.517859 210 210 210 0
1.552526 3.018800 22.549395 209 209 209 0
1.648896 3.037440 22.688630 209 209 209 0
1.753995 3.069491 22.928038 209 209 209 0
1.850561 3.084268 23.038417 207 207 207 0
1.953416 3.107708 23.213504 206 206 206 0
2.061701 3.137371 23.435075 206 206 206 0
2.163745 3.155461 23.570205 205 205 205 0
2.270842 3.179179 23.747368 204 204 204 0
2.391121 3.218817 24.043451 202 202 202 0
2.515866 3.261308 24.360846 202 202 202 0
2.639252 3.299065 24.642876 201 201 201 0
2.779060 3.354037 25.053501 197 197 197 0
2.909042 3.393883 25.351130 196 196 196 0
3.053312 3.447288 25.750050 193 193 193 0
3.213040 3.514262 26.250325 188 188 188 0
3.354050 3.557325 26.571992 152 152 152 0
-10.712895 4.820803 35.009462 202 202 202 0
-10.578739 4.820691 35.008651 202 202 202 0
-10.444766 4.820661 35.008432 202 202 202 0
-10.252976 4.793599 34.811904 202 202 202 0
-10.063128 4.766745 34.616884 203 203 203 0
-5.186336 2.489441 18.078732 206 206 206 0
-5.169993 2.515132 18.265300 206 206 206 0
-5.057606 2.494162 18.113012 206 206 206 0
-4.978779 2.489390 18.078356 206 206 206 0
-4.898911 2.483955 18.038886 205 205 205 0
-4.840271 2.489282 18.077574 206 206 206 0
-4.801275 2.505013 18.191815 206 206 206 0
-4.760457 2.520242 18.302411 206 206 206 0
-4.684637 2.517118 18.279727 207 207 207 0
-4.625698 2.523108 18.323226 207 207 207 0
-4.567336 2.529601 18.370380 208 208 208 0
-4.497943 2.530093 18.373952 209 209 209 0
-4.429849 2.531343 18.383025 209 209 209 0
-4.367510 2.535974 18.416656 209 209 209 0
-4.319613 2.549280 18.513289 209 209 209 0
-4.278318 2.566991 18.641910 210 210 210 0
-4.198382 2.561724 18.603663 210 210 210 0
-4.125312 2.560538 18.595051 210 210 210 0
-4.063823 2.566625 18.639252 210 210 210 0
-4.025490 2.587815 18.793138 211 211 211 0
-3.983809 2.607584 18.936705 211 211 211 0
-3.916009 2.610673 18.959133 212 212 212 0
-3.829500 2.601170 18.890121 211 211 211 0
-3.739331 2.588767 18.800054 212 212 212 0
-3.658140 2.582217 18.752482 212 212 212 0
-3.598888 2.591199 18.817715 212 212 212 0
-3.558279 2.614245 18.985080 213 213 213 0
-3.486217 2.614663 18.988110 212 212 212 0
-3.406815 2.609475 18.950438 212 212 212 0
-3.324752 2.601979 18.896002 212 212 212 0
-3.240267 2.592214 18.825083 213 213 213 0
-3.173731 2.596689 18.857579 213 213 213 0
-3.134461 2.624200 19.057369 213 213 213 0
-3.069697 2.631169 19.107983 214 214 214 0
-2.994127 2.628990 19.092154 213 213 213 0
-2.913476 2.622128 19.042326 213 213 213 0
-2.840563 2.622058 19.041818 213 213 213 0
-2.778727 2.632479 19.117492 214 214 214 0
-2.718605 2.645129 19.209360 215 215 215 0
-2.653198 2.653198 19.267958 214 214 214 0
-2.582617 2.656406 19.291256 215 215 215 0
-2.507199 2.654681 19.278729 215 215 215 0
-2.437034 2.658583 19.307065 215 215 215 0
-2.370486 2.666797 19.366718 214 214 214 0
-2.312188 2.685121 19.499790 215 215 215 0
-2.245144 2.694172 19.565523 215 215 215 0
-2.172243 2.696577 19.582986 214 214 214 0
-2.092965 2.690955 19.542160 214 214 214 0
-2.020803 2.694404 19.567201 214 214 214 0
-1.950700 2.700969 19.614883 215 215 215 0
-1.887211 2.717584 19.735541 215 215 215 0
-1.818262 2.727393 19.806776 215 215 215 0
-1.734249 2.714477 19.712976 215 215 215 0
-1.654353 2.707123 19.659575 215 215 215 0
-1.581157 2.710554 19.684491 215 215 215 0
-1.510365 2.718658 19.743340 215 215 215 0
-1.441891 2.732004 19.840263 215 215 215 0
-1.368256 2.736511 19.872992 216 216 216 0
-1.292085 2.736179 19.870581 215 215 215 0
-1.221369 2.748080 19.957006 215 215 215 0
-1.147703 2.754486 20.003533 215 215 215 0
-1.075169 2.764720 20.077853 215 215 215 0
-0.999846 2.768804 20.107508 215 215 215 0
-0.925704 2.777112 20.167841 216 216 216 0
-0.851563 2.786933 20.239168 215 215 215 0
-0.776687 2.796075 20.305554 214 214 214 0
-0.700007 2.800029 20.334268 215 215 215 0
-0.626468 2.819105 20.472803 216 216 216 0
-0.550718 2.832266 20.568378 215 215 215 0
-0.473411 2.840466 20.627933 215 215 215 0
-0.394997 2.843976 20.653417 215 215 215 0
-0.315926 2.843331 20.648739 214 214 214 0
-0.237966 2.855591 20.737767 214 214 214 0
-0.159562 2.872115 20.857767 215 215 215 0
-0.079795 2.872634 20.861540 214 214 214 0
0.000000 2.871728 20.854957 215 215 215 0
0.079901 2.876427 20.889082 214 214 214 0
0.160733 2.893187 21.010799 214 214 214 0
0.242772 2.913258 21.156558 214 214 214 0
0.324716 2.922448 21.223297 214 214 214 0
0.406712 2.928328 21.266001 214 214 214 0
0.489230 2.935382 21.317226 213 213 213 0
0.573270 2.948246 21.410645 213 213 213 0
0.659006 2.965529 21.536159 213 213 213 0
0.743441 2.973765 21.595972 213 213 213 0
0.828421 2.982317 21.658077 211 211 211 0
0.918193 3.004997 21.822780 212 212 212 0
1.011839 3.035518 22.044426 211 211 211 0
1.099747 3.045453 22.116581 212 212 212 0
1.185960 3.049611 22.146774 212 212 212 0
1.278852 3.069246 22.289366 212 212 212 0
1.376498 3.097121 22.491802 209 209 209 0
1.464104 3.100455 22.516013 209 209 209 0
1.551737 3.103474 22.537936 209 209 209 0
1.647641 3.121847 22.671364 210 210 210 0
1.752329 3.154192 22.906257 208 208 208 0
1.850006 3.171439 23.031512 207 207 207 0
1.950877 3.192345 23.183332 207 207 207 0
2.061467 3.226644 23.432422 206 206 206 0
2.163467 3.245200 23.567174 205 205 205 0
2.268700 3.266928 23.724965 204 204 204 0
2.390451 3.309855 24.036712 202 202 202 0
2.513984 3.351979 24.342620 203 203 203 0
2.635609 3.388640 24.608861 201 201 201 0
2.776148 3.446253 25.027254 198 198 198 0
2.906926 3.488311 25.332689 197 197 197 0
3.049236 3.541049 25.715676 193 193 193 0
3.208651 3.609732 26.214469 188 188 188 0
3.353718 3.658601 26.569364 155 155 155 0
-10.712853 4.954695 35.009324 201 201 201 0
-10.578734 4.954597 35.008635 201 201 201 0
-10.444755 4.954563 35.008397 202 202 202 0
-10.254653 4.927561 34.817598 202 202 202 0
-8.632201 4.202519 29.694533 204 204 204 0
-5.178150 2.554554 18.050194 205 205 205 0
-5.160361 2.580180 18.231270 206 206 206 0
-5.063899 2.566634 18.135552 206 206 206 0
-4.968972 2.553500 18.042747 206 206 206 0
-4.902120 2.554626 18.050705 205 205 205 0
-4.826497 2.551148 18.026132 207 207 207 0
-4.799497 2.573643 18.185080 207 207 207 0
-4.756061 2.587857 18.285508 207 207 207 0
-4.681955 2.585557 18.269263 206 206 206 0
-4.624975 2.592789 18.320362 207 207 207 0
-4.561789 2.596710 18.348069 209 209 209 0
-4.493868 2.598018 18.357306 210 210 210 0
-4.423320 2.597823 18.355928 210 210 210 0
-4.362386 2.603359 18.395048 209 209 209 0
-4.319548 2.620053 18.513008 209 209 209 0
-4.273559 2.635361 18.621172 210 210 210 0
-4.204102 2.636470 18.629009 210 210 210 0
-4.126097 2.632166 18.598591 210 210 210 0
-4.061706 2.636546 18.629544 211 211 211 0
-4.016628 2.653843 18.751763 211 211 211 0
-3.972351 2.672309 18.882240 211 211 211 0
-3.922718 2.687788 18.991616 211 211 211 0
-3.831554 2.674858 18.900253 212 212 212 0
-3.736425 2.658610 18.785444 212 212 212 0
-3.656952 2.653083 18.746392 211 211 211 0
-3.599998 2.663998 18.823518 211 211 211 0
-3.556328 2.685390 18.974672 212 212 212 0
-3.483204 2.684970 18.971700 212 212 212 0
-3.406187 2.681466 18.946942 212 212 212 0
-3.324336 2.673922 18.893641 213 213 213 0
-3.240985 2.664810 18.829254 212 212 212 0
-3.169362 2.665145 18.831620 213 213 213 0
-3.131844 2.694843 19.041459 213 213 213 0
-3.067909 2.702682 19.096849 213 213 213 0
-2.989796 2.698109 19.064539 213 213 213 0
-2.911839 2.693451 19.031628 213 213 213 0
-2.837416 2.691907 19.020717 213 213 213 0
-2.778003 2.704898 19.112508 214 214 214 0
-2.719900 2.719900 19.218515 214 214 214 0
-2.648444 2.722012 19.233435 214 214 214 0
-2.578992 2.726363 19.264179 214 214 214 0
-2.504881 2.725900 19.260911 215 215 215 0
-2.436874 2.732253 19.305798 215 215 215 0
-2.367060 2.736913 19.338724 214 214 214 0
-2.310866 2.758131 19.488647 215 215 215 0
-2.243956 2.767546 19.555176 215 215 215 0
-2.172986 2.772431 19.589690 214 214 214 0
-2.091443 2.763692 19.527944 215 215 215 0
-2.020289 2.768544 19.562228 215 215 215 0
-1.949765 2.774665 19.605477 215 215 215 0
-1.887082 2.792882 19.734195 215 215 215 0
-1.818362 2.803308 19.807862 215 215 215 0
-1.734783 2.790738 19.719046 216 216 216 0
-1.652872 2.779830 19.641969 215 215 215 0
-1.580262 2.784272 19.673358 215 215 215 0
-1.509353 2.792303 19.730104 215 215 215 0
-1.442282 2.808654 19.845638 215 215 215 0
-1.367548 2.811070 19.862711 216 216 216 0
-1.292481 2.813047 19.876679 215 215 215 0
-1.220391 2.822154 19.941027 216 216 216 0
-1.146816 2.828813 19.988078 216 216 216 0
-1.075572 2.842583 20.085376 215 215 215 0
-0.999886 2.845828 20.108309 215 215 215 0
-0.924680 2.851097 20.145536 215 215 215 0
-0.850831 2.861888 20.221782 215 215 215 0
-0.775528 2.869454 20.275243 214 214 214 0
-0.699520 2.875803 20.320103 215 215 215 0
-0.625608 2.893438 20.444713 215 215 215 0
-0.550199 2.908196 20.548991 216 216 216 0
-0.473040 2.917083 20.611785 214 214 214 0
-0.394757 2.921203 20.640895 215 215 215 0
-0.315716 2.920376 20.635055 215 215 215 0
-0.237628 2.930740 20.708282 214 214 214 0
-0.159409 2.949068 20.837790 214 214 214 0
-0.079717 2.949530 20.841053 215 215 215 0
0.000000 2.950170 20.845576 215 215 215 0
0.079878 2.955501 20.883245 214 214 214 0
0.160565 2.970446 20.988841 214 214 214 0
0.242630 2.992440 21.144249 213 213 213 0
0.324628 3.002807 21.217504 213 213 213 0
0.406601 3.008845 21.260166 213 213 213 0
0.488788 3.014194 21.297959 214 214 214 0
0.572718 3.027222 21.390013 213 213 213 0
0.658625 3.046143 21.523707 213 213 213 0
0.743846 3.058035 21.607740 213 213 213 0
0.828171 3.064232 21.651524 211 211 211 0
0.917271 3.085366 21.800856 211 211 211 0
1.011367 3.118380 22.034131 212 212 212 0
1.099017 3.127971 22.101895 211 211 211 0
1.185447 3.132966 22.137194 212 212 212 0
1.278480 3.153585 22.282884 211 211 211 0
1.376849 3.183964 22.497537 210 210 210 0
1.462929 3.184023 22.497953 209 209 209 0
1.551206 3.188590 22.530224 209 209 209 0
1.646806 3.206937 22.659863 209 209 209 0
1.751871 3.240961 22.900275 209 209 209 0
1.848469 3.256827 23.012380 207 207 207 0
1.948988 3.277843 23.160879 206 206 206 0
2.060015 3.313937 23.415910 206 206 206 0
2.163408 3.335254 23.566536 206 206 206 0
2.267221 3.355487 23.709499 204 204 204 0
2.389008 3.399742 24.022203 202 202 202 0
2.511621 3.441851 24.319739 202 202 202 0
2.634723 3.481598 24.600584 201 201 201 0
2.776766 3.542770 25.032823 198 198 198 0
2.903611 3.581121 25.303803 197 197 197 0
3.044153 3.633344 25.672810 193 193 193 0
3.201940 3.702243 26.159639 188 188 188 0
3.350787 3.756943 26.546142 156 156 156 0
-10.845992 5.151846 35.444417 201 201 201 0
-10.578719 5.088498 35.008585 201 201 201 0
-10.444738 5.088462 35.008340 202 202 202 0
-10.254552 5.060688 34.817256 203 203 203 0
-9.104618 4.552309 31.319635 205 205 205 0
-5.182157 2.625626 18.064163 206 206 206 0
-5.161103 2.650296 18.233892 205 205 205 0
-5.047982 2.627717 18.078546 206 206 206 0
-4.972291 2.624265 18.054797 206 206 206 0
-4.908826 2.627259 18.075396 206 206 206 0
-4.833893 2.624113 18.053755 205 205 205 0
-4.811698 2.649921 18.231309 207 207 207 0
-4.752575 2.655851 18.272106 206 206 206 0
-4.679382 2.653978 18.259220 207 207 207 0
-4.616642 2.658066 18.287350 208 208 208 0
-4.551307 2.660764 18.305912 209 209 209 0
-4.488770 2.665207 18.336477 209 209 209 0
-4.420816 2.666524 18.345539 210 210 210 0
-4.358471 2.671321 18.378540 210 210 210 0
-4.317048 2.689308 18.502294 209 209 209 0
-4.273649 2.706644 18.621563 210 210 210 0
-4.201354 2.705957 18.616833 210 210 210 0
-4.119870 2.699225 18.570520 210 210 210 0
-4.058873 2.705915 18.616547 210 210 210 0
-4.018565 2.726884 18.760809 210 210 210 0
-3.972211 2.744436 18.881571 210 210 210 0
-3.913700 2.754085 18.947955 211 211 211 0
-3.830017 2.746050 18.892674 212 212 212 0
-3.736402 2.730448 18.785330 211 211 211 0
-3.657354 2.725087 18.748452 212 212 212 0
-3.595297 2.732426 18.798940 212 212 212 0
-3.554468 2.756526 18.964747 213 213 213 0
-3.481763 2.756396 18.963852 212 212 212 0
-3.406778 2.754417 18.950234 212 212 212 0
-3.321766 2.744067 18.879031 212 212 212 0
-3.242169 2.737832 18.836132 213 213 213 0
-3.169637 2.737413 18.833254 213 213 213 0
-3.129955 2.766007 19.029973 213 213 213 0
-3.065029 2.773122 19.078924 213 213 213 0
-2.987728 2.769114 19.051349 214 214 214 0
-2.909835 2.764343 19.018528 214 214 214 0
-2.837686 2.764925 19.022533 214 214 214 0
-2.773880 2.773880 19.084142 214 214 214 0
-2.715371 2.788759 19.186511 214 214 214 0
-2.647429 2.794508 19.226061 214 214 214 0
-2.578280 2.799275 19.258860 214 214 214 0
-2.503684 2.798235 19.251703 215 215 215 0
-2.431540 2.799955 19.263538 215 215 215 0
-2.364950 2.808378 19.321488 214 214 214 0
-2.311229 2.833119 19.491704 215 215 215 0
-2.244397 2.842903 19.559017 215 215 215 0
-2.170740 2.844418 19.569439 215 215 215 0
-2.091896 2.839002 19.532177 214 214 214 0
-2.018222 2.840461 19.542212 214 214 214 0
-1.949950 2.849927 19.607342 215 215 215 0
-1.885853 2.866496 19.721337 215 215 215 0
-1.817922 2.878377 19.803073 216 216 216 0
-1.732917 2.863080 19.697832 215 215 215 0
-1.651699 2.852935 19.628037 215 215 215 0
-1.578651 2.856606 19.653291 215 215 215 0
-1.509000 2.867100 19.725493 215 215 215 0
-1.441275 2.882551 19.831790 215 215 215 0
-1.367488 2.886918 19.861840 215 215 215 0
-1.291807 2.887568 19.866308 215 215 215 0
-1.218357 2.893599 19.907801 215 215 215 0
-1.146299 2.903957 19.979062 215 215 215 0
-1.074385 2.916188 20.063210 216 216 216 0
-0.998585 2.918941 20.082154 215 215 215 0
-0.925404 2.930447 20.161314 216 216 216 0
-0.850691 2.938751 20.218442 216 216 216 0
-0.776007 2.948825 20.287754 214 214 214 0
-0.699346 2.952794 20.315058 215 215 215 0
-0.625479 2.971025 20.440487 215 215 215 0
-0.549735 2.984274 20.531642 215 215 215 0
-0.472762 2.994161 20.599664 215 215 215 0
-0.394647 2.999315 20.635120 214 214 214 0
-0.315756 2.999679 20.637626 214 214 214 0
-0.237669 3.010478 20.711922 214 214 214 0
-0.159362 3.027884 20.831676 215 215 215 0
-0.079728 3.029667 20.843942 215 215 215 0
0.000000 3.029031 20.839569 214 214 214 0
0.079813 3.032885 20.866083 214 214 214 0
0.160468 3.048886 20.976165 214 214 214 0
0.242445 3.070976 21.128147 213 213 213 0
0.324497 3.082720 21.208943 214 214 214 0
0.406138 3.086646 21.235955 213 213 213 0
0.488439 3.093447 21.282748 213 213 213 0
0.572473 3.107712 21.380890 214 214 214 0
0.658316 3.127002 21.513604 213 213 213 0
0.743243 3.138136 21.590206 213 213 213 0
0.827970 3.146285 21.646265 212 212 212 0
0.916674 3.166692 21.786664 211 211 211 0
1.011237 3.202251 22.031308 212 212 212 0
1.098687 3.211545 22.095256 212 212 212 0
1.184788 3.215852 22.124887 212 212 212 0
1.276099 3.232785 22.241382 212 212 212 0
1.375768 3.267450 22.479873 209 209 209 0
1.462452 3.269011 22.490616 209 209 209 0
1.550594 3.273476 22.521331 209 209 209 0
1.645598 3.291195 22.643241 209 209 209 0
1.751030 3.326957 22.889284 209 209 209 0
1.847731 3.343513 23.003184 207 207 207 0
1.947769 3.364329 23.146398 206 206 206 0
2.058848 3.401575 23.402649 206 206 206 0
2.163079 3.424874 23.562948 206 206 206 0
2.267088 3.445973 23.708106 205 205 205 0
2.386331 3.487715 23.995287 202 202 202 0
2.509278 3.531577 24.297053 202 202 202 0
2.633282 3.573740 24.587135 201 201 201 0
2.779110 3.641592 25.053956 197 197 197 0
2.900469 3.673927 25.276418 197 197 197 0
3.044229 3.731635 25.673445 193 193 193 0
3.199368 3.799250 26.138629 188 188 188 0
3.349582 3.857094 26.536595 152 152 152 0
-10.712854 5.222516 35.009326 202 202 202 0
-10.578725 5.222409 35.008606 201 201 201 0
-10.444740 5.222370 35.008346 202 202 202 0
-10.254252 5.193712 34.816236 204 204 204 0
-9.510644 4.880462 32.716352 205 205 205 0
-5.191127 2.699386 18.095431 205 205 205 0
-5.163108 2.721097 18.240975 206 206 206 0
-5.055695 2.700988 18.106167 206 206 206 0
-4.969163 2.691630 18.043440 206 206 206 0
-4.900325 2.691728 18.044095 206 206 206 0
-4.826549 2.689077 18.026328 206 206 206 0
-4.800702 2.713440 18.189645 206 206 206 0
-4.748179 2.723220 18.255205 207 207 207 0
-4.680131 2.724255 18.262144 208 208 208 0
-4.615516 2.727350 18.282891 208 208 208 0
-4.557130 2.734278 18.329331 208 208 208 0
-4.483076 2.731874 18.313219 209 209 209 0
-4.414062 2.732515 18.317512 209 209 209 0
-4.362097 2.743900 18.393831 210 210 210 0
-4.323985 2.764515 18.532027 209 209 209 0
-4.271362 2.776385 18.611598 209 209 209 0
-4.202072 2.777641 18.620016 210 210 210 0
-4.114544 2.766676 18.546514 211 211 211 0
-4.056953 2.775810 18.607743 210 210 210 0
-4.014606 2.795887 18.742327 210 210 210 0
-3.971178 2.815926 18.876665 211 211 211 0
-3.911600 2.825045 18.937789 211 211 211 0
-3.827978 2.816814 18.882616 211 211 211 0
-3.734352 2.800764 18.775022 211 211 211 0
-3.652640 2.793195 18.724286 212 212 212 0
-3.592776 2.802365 18.785755 213 213 213 0
-3.554614 2.829183 18.965527 212 212 212 0
-3.481212 2.828485 18.960852 212 212 212 0
-3.405744 2.826042 18.944478 213 213 213 0
-3.321445 2.816008 18.877210 213 213 213 0
-3.238407 2.806619 18.814274 213 213 213 0
-3.168304 2.808269 18.825335 213 213 213 0
-3.129297 2.838199 19.025972 213 213 213 0
-3.064376 2.845492 19.074861 213 213 213 0
-2.987372 2.841646 19.049077 214 214 214 0
-2.911459 2.838673 19.029147 214 214 214 0
-2.835461 2.835461 19.007617 214 214 214 0
-2.773865 2.846862 19.084042 213 213 213 0
-2.716625 2.863469 19.195369 214 214 214 0
-2.644114 2.864457 19.201992 213 213 213 0
-2.576330 2.870768 19.244298 215 215 215 0
-2.501930 2.869861 19.238214 214 214 214 0
