ply
    format ascii 1.0
    element vertex 15892
    property float x
    property float y
    property float z
    property uchar red
    property uchar green
    property uchar blue
    property uchar alpha
    end_header
0.766448 -3.394269 28.625502 205 205 205 0
0.876917 -3.398052 28.657408 205 205 205 0
0.986027 -3.396316 28.642762 205 205 205 0
1.093506 -3.389870 28.588403 206 206 206 0
1.203948 -3.392944 28.614329 206 206 206 0
1.314269 -3.395195 28.633311 206 206 206 0
1.429280 -3.408284 28.743699 206 206 206 0
1.540014 -3.410030 28.758426 207 207 207 0
1.649449 -3.408862 28.748569 207 207 207 0
1.758737 -3.407552 28.737525 206 206 206 0
1.870290 -3.410529 28.762631 206 206 206 0
1.987937 -3.423669 28.873447 207 207 207 0
2.096064 -3.419894 28.841614 206 206 206 0
2.204399 -3.416818 28.815672 207 207 207 0
2.314700 -3.416938 28.816684 207 207 207 0
2.433492 -3.429011 28.918499 208 208 208 0
2.553222 -3.441299 29.022132 208 208 208 0
2.669957 -3.448694 29.084494 207 207 207 0
2.780408 -3.447705 29.076158 207 207 207 0
2.895068 -3.451811 29.110786 207 207 207 0
3.015999 -3.462814 29.203577 207 207 207 0
3.136693 -3.472767 29.287516 207 207 207 0
3.247056 -3.470991 29.272534 207 207 207 0
3.367508 -3.479758 29.346473 207 207 207 0
3.503751 -3.503751 29.548815 206 206 206 0
3.621526 -3.508353 29.587629 205 205 205 0
3.734161 -3.507848 29.583372 205 205 205 0
3.854610 -3.514497 29.639443 206 206 206 0
3.999076 -3.542039 29.871718 206 206 206 0
4.117251 -3.545410 29.900149 204 204 204 0
4.233179 -3.546718 29.911178 204 204 204 0
4.388312 -3.579939 30.191347 204 204 204 0
4.521939 -3.594361 30.312979 204 204 204 0
4.633273 -3.590786 30.282828 203 203 203 0
4.785859 -3.618576 30.517193 202 202 202 0
4.927814 -3.637196 30.674222 201 201 201 0
5.052690 -3.642637 30.720110 201 201 201 0
5.214886 -3.674125 30.985659 199 199 199 0
5.383967 -3.708955 31.279403 198 198 198 0
5.527933 -3.725346 31.417637 198 198 198 0
5.538913 -3.653325 30.810250 195 195 195 0
5.879725 -3.797323 32.024647 193 193 193 0
6.070133 -3.840288 32.386998 190 190 190 0
6.267692 -3.885969 32.772244 187 187 187 0
6.474170 -3.935280 33.188108 178 178 178 0
6.601927 -3.935764 33.192191 117 117 117 0
-4.331633 -3.712828 32.355798 97 97 97 0
-4.211148 -3.715719 32.380990 121 121 121 0
-4.037600 -3.670545 31.987322 136 136 136 0
-3.856934 -3.615875 31.510897 145 145 145 0
-3.709434 -3.589775 31.283439 155 155 155 0
-3.581122 -3.581122 31.208036 156 156 156 0
-3.435632 -3.554102 30.972563 166 166 166 0
-3.281859 -3.516278 30.642944 168 168 168 0
-3.130243 -3.478048 30.309786 168 168 168 0
-2.992793 -3.453222 30.093440 174 174 174 0
-2.753201 -3.303842 28.791647 178 178 178 0
-2.761247 -3.451559 30.078942 178 178 178 0
-2.651235 -3.458133 30.136234 180 180 180 0
-2.510021 -3.422756 29.827936 184 184 184 0
-2.378900 -3.398429 29.615941 185 185 185 0
-2.251382 -3.377073 29.429833 185 185 185 0
-2.133505 -3.368692 29.356792 186 186 186 0
-2.026616 -3.377694 29.435239 189 189 189 0
-1.913142 -3.376134 29.421643 192 192 192 0
-1.789493 -3.355299 29.240080 192 192 192 0
-1.668095 -3.336189 29.073546 192 192 192 0
-1.552525 -3.326839 28.992063 192 192 192 0
-1.442374 -3.328555 29.007014 194 194 194 0
-1.336067 -3.340168 29.108215 197 197 197 0
-1.223469 -3.336732 29.078278 197 197 197 0
-1.104733 -3.314199 28.881906 197 197 197 0
-0.990783 -3.302612 28.780929 197 197 197 0
-0.882454 -3.309204 28.838382 197 197 197 0
-0.775862 -3.325124 28.977118 199 199 199 0
-0.664275 -3.321377 28.944463 200 200 200 0
-0.549777 -3.298663 28.746515 200 200 200 0
-0.437832 -3.283741 28.616479 201 201 201 0
-0.329017 -3.290172 28.672525 201 201 201 0
-0.220693 -3.310398 28.848785 201 201 201 0
-0.110072 -3.302154 28.776938 202 202 202 0
0.000000 -3.283130 28.611156 202 202 202 0
0.108948 -3.268437 28.483111 202 202 202 0
0.217838 -3.267566 28.475521 204 204 204 0
0.328307 -3.283067 28.610604 204 204 204 0
0.438195 -3.286464 28.640210 205 205 205 0
0.545541 -3.273244 28.525006 204 204 204 0
0.654466 -3.272331 28.517047 205 205 205 0
0.765635 -3.281291 28.595127 205 205 205 0
0.876138 -3.285518 28.631966 206 206 206 0
0.984588 -3.281961 28.600967 205 205 205 0
1.093031 -3.279094 28.575982 205 205 205 0
1.201235 -3.276094 28.549840 206 206 206 0
1.311446 -3.278615 28.571805 206 206 206 0
1.427522 -3.294282 28.708338 206 206 206 0
1.538448 -3.296674 28.729186 207 207 207 0
1.645502 -3.291003 28.679765 206 206 206 0
1.756987 -3.294350 28.708930 207 207 207 0
1.867060 -3.294812 28.712956 206 206 206 0
1.983425 -3.305709 28.807919 207 207 207 0
2.093989 -3.306299 28.813059 207 207 207 0
2.200598 -3.300897 28.765991 207 207 207 0
2.312393 -3.303419 28.787962 207 207 207 0
2.430242 -3.313966 28.879882 208 208 208 0
2.549555 -3.325507 28.980452 207 207 207 0
2.665322 -3.331653 29.034012 207 207 207 0
2.777399 -3.332879 29.044698 208 208 208 0
2.888316 -3.332672 29.042895 207 207 207 0
3.012085 -3.346761 29.165675 207 207 207 0
3.132533 -3.356285 29.248674 207 207 207 0
3.243270 -3.355107 29.238408 206 206 206 0
3.358573 -3.358573 29.268612 207 207 207 0
3.496450 -3.383661 29.487246 207 207 207 0
3.617360 -3.391275 29.553597 206 206 206 0
3.728971 -3.389974 29.542258 207 207 207 0
3.849051 -3.396222 29.596704 206 206 206 0
3.991494 -3.421280 29.815081 207 207 207 0
4.109511 -3.424592 29.843940 206 206 206 0
4.226391 -3.426803 29.863209 204 204 204 0
4.378472 -3.456688 30.123643 204 204 204 0
4.512454 -3.471119 30.249400 204 204 204 0
4.622675 -3.467006 30.213564 203 203 203 0
4.765512 -3.486960 30.387454 203 203 203 0
4.915917 -3.511369 30.600169 202 202 202 0
5.043296 -3.518578 30.662992 202 202 202 0
5.187935 -3.537229 30.825522 200 200 200 0
5.370452 -3.580302 31.200886 199 199 199 0
5.514841 -3.596636 31.343229 198 198 198 0
5.680876 -3.626091 31.599925 196 196 196 0
5.855603 -3.659752 31.893262 195 195 195 0
6.035931 -3.695468 32.204514 192 192 192 0
6.235534 -3.741320 32.604099 189 189 189 0
6.446311 -3.791948 33.045297 183 183 183 0
6.623297 -3.821133 33.299635 149 149 149 0
-4.527674 -3.647293 32.880711 72 72 72 0
-4.294930 -3.558656 32.081643 108 108 108 0
-4.182866 -3.567738 32.163518 129 129 129 0
-4.015254 -3.528557 31.810295 138 138 138 0
-3.841340 -3.481214 31.383497 150 150 150 0
-3.693871 -3.455556 31.152187 155 155 155 0
-3.564312 -3.445502 31.061543 159 159 159 0
-3.428894 -3.428894 30.911827 167 167 167 0
-3.276746 -3.393772 30.595199 168 168 168 0
-3.125452 -3.356967 30.263391 170 170 170 0
-2.983939 -3.328239 30.004411 177 177 177 0
-2.865637 -3.324139 29.967442 177 177 177 0
-2.766072 -3.342337 30.131499 178 178 178 0
-2.647285 -3.337881 30.091333 181 181 181 0
-2.508096 -3.306126 29.805059 184 184 184 0
-2.374426 -3.278969 29.560237 185 185 185 0
-2.246952 -3.258081 29.371923 186 186 186 0
-2.129301 -3.249985 29.298945 186 186 186 0
-2.021429 -3.256747 29.359900 190 190 190 0
-1.909646 -3.257632 29.367875 191 191 191 0
-1.786185 -3.237460 29.186028 191 191 191 0
-1.667272 -3.223393 29.059211 192 192 192 0
-1.550230 -3.211191 28.949209 193 193 193 0
-1.440045 -3.212409 28.960188 196 196 196 0
-1.332052 -3.219126 29.020740 196 196 196 0
-1.220245 -3.217008 29.001654 197 197 197 0
-1.104462 -3.202939 28.874816 198 198 198 0
-0.989573 -3.188626 28.745779 198 198 198 0
-0.880585 -3.192121 28.777294 198 198 198 0
-0.774478 -3.208552 28.925414 201 201 201 0
-0.663490 -3.206867 28.910227 201 201 201 0
-0.549337 -3.186155 28.723511 200 200 200 0
-0.437448 -3.171501 28.591402 201 201 201 0
-0.328318 -3.173745 28.611631 201 201 201 0
-0.220507 -3.197356 28.824482 201 201 201 0
-0.109998 -3.189942 28.757650 202 202 202 0
0.000000 -3.171523 28.591601 203 203 203 0
0.108867 -3.157144 28.461967 204 204 204 0
0.217679 -3.156341 28.454727 204 204 204 0
0.328089 -3.171529 28.591651 204 204 204 0
0.437828 -3.174255 28.616229 204 204 204 0
0.545218 -3.162266 28.508146 205 205 205 0
0.654020 -3.161095 28.497587 205 205 205 0
0.764504 -3.167232 28.552911 205 205 205 0
0.874811 -3.171189 28.588584 205 205 205 0
0.984438 -3.172077 28.596595 206 206 206 0
1.091379 -3.165000 28.532792 207 207 207 0
1.200600 -3.165217 28.534748 206 206 206 0
1.309920 -3.165640 28.538566 206 206 206 0
1.424770 -3.178334 28.653000 207 207 207 0
1.535890 -3.181485 28.681411 207 207 207 0
1.644323 -3.179025 28.659228 207 207 207 0
1.753642 -3.178477 28.654288 207 207 207 0
1.865365 -3.182094 28.686897 207 207 207 0
1.979932 -3.189890 28.757178 208 208 208 0
2.089224 -3.188816 28.747495 208 208 208 0
2.197974 -3.187062 28.731686 207 207 207 0
2.309722 -3.189616 28.754712 207 207 207 0
2.425534 -3.197295 28.823935 207 207 207 0
2.546114 -3.210318 28.941335 208 208 208 0
2.662236 -3.216869 29.000397 208 208 208 0
2.774028 -3.217872 29.009440 207 207 207 0
2.884006 -3.216776 28.999557 208 208 208 0
3.001536 -3.223872 29.063532 207 207 207 0
3.125252 -3.236868 29.180689 206 206 206 0
3.237316 -3.237316 29.184730 207 207 207 0
3.353004 -3.241237 29.220074 207 207 207 0
3.489960 -3.264801 29.432512 208 208 208 0
3.612017 -3.273390 29.509941 207 207 207 0
3.721534 -3.270439 29.483335 206 206 206 0
3.838508 -3.274021 29.515631 206 206 206 0
3.986237 -3.302882 29.775813 206 206 206 0
4.103965 -3.305972 29.803667 206 206 206 0
4.217718 -3.305779 29.801927 205 205 205 0
4.364110 -3.330505 30.024839 204 204 204 0
4.502044 -3.347674 30.179615 204 204 204 0
4.614861 -3.345774 30.162492 205 205 205 0
4.746705 -3.357425 30.267527 203 203 203 0
4.903241 -3.385571 30.521264 201 201 201 0
5.034171 -3.395138 30.607513 202 202 202 0
5.178193 -3.412900 30.767633 201 201 201 0
5.354719 -3.450819 31.109479 199 199 199 0
5.503253 -3.469442 31.277366 199 199 199 0
5.667953 -3.497248 31.528040 198 198 198 0
5.847058 -3.532597 31.846720 195 195 195 0
6.013553 -3.559042 32.085119 193 193 193 0
6.200889 -3.596516 32.422949 190 190 190 0
6.414081 -3.647222 32.880075 186 186 186 0
6.627167 -3.695920 33.319092 169 169 169 0
6.710397 -3.671727 33.100986 91 91 91 0
-4.507419 -3.505770 32.733616 85 85 85 0
-4.289924 -3.431939 32.044247 115 115 115 0
-4.162638 -3.428054 32.007978 135 135 135 0
-3.992512 -3.387586 31.630122 141 141 141 0
-3.825901 -3.347664 31.257365 153 153 153 0
-3.675987 -3.320246 31.001367 156 156 156 0
-3.554354 -3.317397 30.974760 162 162 162 0
-3.423255 -3.305211 30.860984 167 167 167 0
-3.269997 -3.269997 30.532182 168 168 168 0
-3.125652 -3.241417 30.265335 172 172 172 0
-2.984042 -3.213584 30.005454 178 178 178 0
-2.858722 -3.201768 29.895129 177 177 177 0
-2.766982 -3.228146 30.141417 178 178 178 0
-2.643754 -3.218484 30.051201 183 183 183 0
-2.507730 -3.191657 29.800716 185 185 185 0
-2.372225 -3.162966 29.532831 185 185 185 0
-2.244538 -3.142353 29.340365 186 186 186 0
-2.123719 -3.129692 29.222145 188 188 188 0
-2.018689 -3.140183 29.320103 192 192 192 0
-1.907278 -3.141400 29.331465 191 191 191 0
-1.784460 -3.122804 29.157838 192 192 192 0
-1.664522 -3.107108 29.011283 191 191 191 0
-1.547967 -3.095934 28.906948 194 194 194 0
-1.437179 -3.095463 28.902554 196 196 196 0
-1.329860 -3.103008 28.972993 196 196 196 0
-1.218068 -3.100536 28.949914 197 197 197 0
-1.102182 -3.086110 28.815217 197 197 197 0
-0.987846 -3.073300 28.695612 197 197 197 0
-0.878879 -3.076078 28.721546 199 199 199 0
-0.772595 -3.090379 28.855082 200 200 200 0
-0.662261 -3.090550 28.856674 201 201 201 0
-0.549111 -3.075020 28.711676 201 201 201 0
-0.437472 -3.062307 28.592969 202 202 202 0
-0.327722 -3.058743 28.559688 201 201 201 0
-0.220925 -3.092954 28.879125 202 202 202 0
-0.109861 -3.076115 28.721895 203 203 203 0
0.000000 -3.060523 28.576311 204 204 204 0
0.108710 -3.043867 28.420793 204 204 204 0
0.217352 -3.042927 28.412018 205 205 205 0
0.327510 -3.056764 28.541211 205 205 205 0
0.437349 -3.061440 28.584873 204 204 204 0
0.544585 -3.049674 28.475013 205 205 205 0
0.653490 -3.049622 28.474528 205 205 205 0
0.763183 -3.052731 28.503555 205 205 205 0
0.873642 -3.057747 28.550395 206 206 206 0
0.982065 -3.055314 28.527675 206 206 206 0
1.089668 -3.051071 28.488058 206 206 206 0
1.198046 -3.049571 28.474048 207 207 207 0
1.309966 -3.056588 28.539571 207 207 207 0
1.423302 -3.065574 28.623469 207 207 207 0
1.535371 -3.070742 28.671732 207 207 207 0
1.643504 -3.067875 28.644957 207 207 207 0
1.752535 -3.066936 28.636193 208 208 208 0
1.863555 -3.069385 28.659057 207 207 207 0
1.978658 -3.077913 28.738681 208 208 208 0
2.087230 -3.075918 28.720055 208 208 208 0
2.195954 -3.074336 28.705285 208 208 208 0
2.306659 -3.075545 28.716571 207 207 207 0
2.422694 -3.083429 28.790182 207 207 207 0
2.541061 -3.093465 28.883897 208 208 208 0
2.656534 -3.099289 28.938277 208 208 208 0
2.768945 -3.101218 28.956285 208 208 208 0
2.880441 -3.102014 28.963713 208 208 208 0
2.996094 -3.107061 29.010839 207 207 207 0
3.118748 -3.118748 29.119965 208 208 208 0
3.229920 -3.118544 29.118057 207 207 207 0
3.348184 -3.124972 29.178077 208 208 208 0
3.481368 -3.144461 29.360050 207 207 207 0
3.607752 -3.156783 29.475101 207 207 207 0
3.717521 -3.154261 29.451547 207 207 207 0
3.832830 -3.156448 29.471971 206 206 206 0
3.974143 -3.179314 29.685473 206 206 206 0
4.098794 -3.187951 29.766115 206 206 206 0
4.209866 -3.185845 29.746448 205 205 205 0
4.349371 -3.204799 29.923431 205 205 205 0
4.491739 -3.224838 30.110532 204 204 204 0
4.607745 -3.225422 30.115983 204 204 204 0
4.732959 -3.232265 30.179878 204 204 204 0
4.892841 -3.261894 30.456527 203 203 203 0
5.029713 -3.275162 30.580410 202 202 202 0
5.168706 -3.289176 30.711264 202 202 202 0
5.339519 -3.322367 31.021169 200 200 200 0
5.494825 -3.344676 31.229467 199 199 199 0
5.650572 -3.366298 31.431354 198 198 198 0
5.828672 -3.400059 31.746581 196 196 196 0
5.989912 -3.422807 31.958981 194 194 194 0
6.171286 -3.455920 32.268160 191 191 191 0
6.369107 -3.496765 32.649529 188 188 188 0
6.608479 -3.558412 33.225131 179 179 179 0
6.762041 -3.572399 33.355734 125 125 125 0
-4.487814 -3.365860 32.591239 99 99 99 0
-4.301544 -3.318334 32.131048 122 122 122 0
-4.150708 -3.296151 31.916251 137 137 137 0
-3.978353 -3.255016 31.517947 145 145 145 0
-3.821268 -3.224195 31.219513 154 154 154 0
-3.667796 -3.194532 30.932290 156 156 156 0
-3.539468 -3.185521 30.845035 166 166 166 0
-3.410798 -3.175571 30.748686 168 168 168 0
-3.264896 -3.148292 30.484552 168 168 168 0
-3.121739 -3.121739 30.227444 176 176 176 0
-2.981167 -3.095827 29.976541 178 178 178 0
-2.855870 -3.084339 29.865302 177 177 177 0
-2.761238 -3.106393 30.078848 179 179 179 0
-2.639312 -3.098323 30.000709 184 184 184 0
-2.502083 -3.070738 29.733608 185 185 185 0
-2.370650 -3.047979 29.513234 185 185 185 0
-2.241230 -3.025660 29.297120 187 187 187 0
-2.122591 -3.016314 29.206624 190 190 190 0
-2.015134 -3.022701 29.268465 191 191 191 0
-1.905326 -3.026106 29.301440 191 191 191 0
-1.781993 -3.007114 29.117537 192 192 192 0
-1.663030 -2.993454 28.985273 193 193 193 0
-1.546068 -2.981703 28.871491 195 195 195 0
-1.434291 -2.978911 28.844457 196 196 196 0
-1.327093 -2.985960 28.912712 196 196 196 0
-1.216426 -2.985774 28.910906 196 196 196 0
-1.101444 -2.973900 28.795931 196 196 196 0
-0.987341 -2.962023 28.680930 199 199 199 0
-0.877560 -2.961766 28.678444 199 199 199 0
-0.770774 -2.972984 28.787065 201 201 201 0
-0.661804 -2.978118 28.836779 201 201 201 0
-0.548392 -2.961319 28.674114 201 201 201 0
-0.436957 -2.949462 28.559304 201 201 201 0
-0.326955 -2.942598 28.492843 202 202 202 0
-0.192127 -2.593719 25.114688 203 203 203 0
-0.109916 -2.967732 28.736205 204 204 204 0
0.000000 -2.949692 28.561535 203 203 203 0
0.108667 -2.934004 28.409627 204 204 204 0
0.217062 -2.930334 28.374092 204 204 204 0
0.327075 -2.943672 28.503241 205 205 205 0
0.436904 -2.949100 28.555797 204 204 204 0
0.544192 -2.938639 28.454501 205 205 205 0
0.653156 -2.939200 28.459939 205 205 205 0
0.761938 -2.938903 28.457065 205 205 205 0
0.872339 -2.944144 28.507807 206 206 206 0
0.981191 -2.943572 28.502271 206 206 206 0
1.088497 -2.938941 28.457430 207 207 207 0
1.197034 -2.938175 28.450013 207 207 207 0
1.308124 -2.943279 28.499434 206 206 206 0
1.422242 -2.953888 28.602158 207 207 207 0
1.533454 -2.957375 28.635922 208 208 208 0
1.641741 -2.955133 28.614216 208 208 208 0
1.750381 -2.953768 28.600995 208 208 208 0
1.862561 -2.958185 28.643766 208 208 208 0
1.976673 -2.965010 28.709854 209 209 209 0
2.083770 -2.961147 28.672448 208 208 208 0
2.195173 -2.963483 28.695071 209 209 209 0
2.304475 -2.962896 28.689387 208 208 208 0
2.419789 -2.969741 28.755666 207 207 207 0
2.537084 -2.978316 28.838691 208 208 208 0
2.652848 -2.984453 28.898121 208 208 208 0
2.764576 -2.985742 28.910603 208 208 208 0
2.875114 -2.985695 28.910143 209 209 209 0
2.992075 -2.992075 28.971922 209 209 209 0
3.112840 -3.001667 29.064801 208 208 208 0
3.224150 -3.001794 29.066032 208 208 208 0
3.346127 -3.011514 29.160145 207 207 207 0
3.475387 -3.026950 29.309609 207 207 207 0
3.603777 -3.040687 29.442621 207 207 207 0
3.711877 -3.036990 29.406831 207 207 207 0
3.826686 -3.038839 29.424732 206 206 206 0
3.972261 -3.064316 29.671417 207 207 207 0
4.092784 -3.069588 29.722471 206 206 206 0
4.202089 -3.066389 29.691494 206 206 206 0
4.333611 -3.079144 29.815003 206 206 206 0
4.484151 -3.104412 30.059671 204 204 204 0
4.602816 -3.106901 30.083766 204 204 204 0
4.725331 -3.111803 30.131232 205 205 205 0
4.882491 -3.138744 30.392102 203 203 203 0
5.020527 -3.152424 30.524558 202 202 202 0
5.159240 -3.165897 30.655018 203 203 203 0
5.323515 -3.194109 30.928192 201 201 201 0
5.483782 -3.218742 31.166709 199 199 199 0
5.642269 -3.241304 31.385171 199 199 199 0
5.819237 -3.273321 31.695192 197 197 197 0
5.971479 -3.290407 31.860633 195 195 195 0
6.149406 -3.320679 32.153756 192 192 192 0
6.351046 -3.362319 32.556946 190 190 190 0
6.586339 -3.419830 33.113819 184 184 184 0
6.783277 -3.455632 33.460484 153 153 153 0
-4.476450 -3.232992 32.508715 105 105 105 0
-4.298043 -3.192832 32.104899 128 128 128 0
-4.108903 -3.142102 31.594792 136 136 136 0
-3.957741 -3.118220 31.354649 150 150 150 0
-3.808688 -3.094559 31.116731 155 155 155 0
-3.655016 -3.065497 30.824504 159 159 159 0
-3.526473 -3.056276 30.731787 167 167 167 0
-3.404393 -3.052214 30.690942 167 167 167 0
-3.258491 -3.025742 30.424757 170 170 170 0
-3.119554 -3.004015 30.206283 177 177 177 0
-2.977849 -2.977849 29.943174 178 178 178 0
-2.852091 -2.966174 29.825785 178 178 178 0
-2.757026 -2.986778 30.032963 181 181 181 0
-2.636546 -2.980443 29.969260 184 184 184 0
-2.501938 -2.956836 29.731888 185 185 185 0
-2.368983 -2.933027 29.492477 185 185 185 0
-2.241151 -2.913496 29.296086 187 187 187 0
-2.118820 -2.899438 29.154735 191 191 191 0
-2.012695 -2.907226 29.233046 192 192 192 0
-1.902252 -2.909327 29.254167 192 192 192 0
-1.780642 -2.893544 29.095464 192 192 192 0
-1.660062 -2.877440 28.933539 194 194 194 0
-1.544647 -2.868631 28.844958 196 196 196 0
-1.432772 -2.865544 28.813912 197 197 197 0
-1.324905 -2.870628 28.865033 197 197 197 0
-1.215550 -2.873119 28.890081 197 197 197 0
-1.100222 -2.860576 28.763961 197 197 197 0
-0.985753 -2.847732 28.634813 200 200 200 0
-0.875206 -2.844419 28.601496 200 200 200 0
-0.770068 -2.860253 28.760715 200 200 200 0
-0.660844 -2.863659 28.794960 200 200 200 0
-0.547899 -2.849072 28.648290 201 201 201 0
-0.436015 -2.834094 28.497681 201 201 201 0
-0.326399 -2.828789 28.444335 203 203 203 0
-0.218440 -2.839715 28.554200 203 203 203 0
-0.109586 -2.849238 28.649960 204 204 204 0
0.000000 -2.836985 28.526750 204 204 204 0
0.108544 -2.822144 28.377517 204 204 204 0
0.216922 -2.819986 28.355814 205 205 205 0
0.326809 -2.832341 28.480051 204 204 204 0
0.436514 -2.837340 28.530320 205 205 205 0
0.543806 -2.827789 28.434277 206 206 206 0
0.652449 -2.827278 28.429139 206 206 206 0
0.760623 -2.825173 28.407973 207 207 207 0
0.871496 -2.832364 28.480278 207 207 207 0
0.979945 -2.830953 28.466093 207 207 207 0
1.087667 -2.827933 28.435728 207 207 207 0
1.195576 -2.825906 28.415345 207 207 207 0
1.306859 -2.831528 28.471874 207 207 207 0
1.419419 -2.838838 28.545383 208 208 208 0
1.532428 -2.845938 28.616775 207 207 207 0
1.640529 -2.843584 28.593106 208 208 208 0
1.749661 -2.843200 28.589240 209 209 209 0
1.861162 -2.846483 28.622252 208 208 208 0
1.976166 -2.854462 28.702485 208 208 208 0
2.083103 -2.850562 28.663272 209 209 209 0
2.192820 -2.850666 28.664310 208 208 208 0
2.301726 -2.849756 28.655167 209 209 209 0
2.416059 -2.855342 28.711334 209 209 209 0
2.533592 -2.864060 28.798995 209 209 209 0
2.651374 -2.872322 28.882068 208 208 208 0
2.763425 -2.873962 28.898558 209 209 209 0
2.871504 -2.871504 28.873849 208 208 208 0
2.987895 -2.877232 28.931448 208 208 208 0
3.110355 -2.888186 29.041593 208 208 208 0
3.222156 -2.888829 29.048059 208 208 208 0
3.339038 -2.893833 29.098374 207 207 207 0
3.471539 -2.911613 29.277154 208 208 208 0
3.601788 -2.926453 29.426370 208 208 208 0
3.707223 -2.920842 29.369956 208 208 208 0
3.826993 -2.926524 29.427086 207 207 207 0
3.968223 -2.947822 29.641252 206 206 206 0
4.087386 -2.952001 29.683267 206 206 206 0
4.195627 -2.948278 29.645834 207 207 207 0
4.323394 -2.958112 29.744714 207 207 207 0
4.476104 -2.984069 30.005722 204 204 204 0
4.598083 -2.988754 30.052828 205 205 205 0
4.719744 -2.993009 30.095612 204 204 204 0
4.874242 -3.017388 30.340753 204 204 204 0
5.017983 -3.034129 30.509093 203 203 203 0
5.147116 -3.041478 30.582982 202 202 202 0
5.311352 -3.068781 30.857526 202 202 202 0
5.473594 -3.093770 31.108803 200 200 200 0
5.629052 -3.113944 31.311650 199 199 199 0
5.805369 -3.144575 31.619655 199 199 199 0
5.954231 -3.159388 31.768606 196 196 196 0
6.127946 -3.186532 32.041547 194 194 194 0
6.327962 -3.226020 32.438612 191 191 191 0
6.564746 -3.282373 33.005259 187 187 187 0
6.782885 -3.327453 33.458553 169 169 169 0
6.878952 -3.312088 33.304050 86 86 86 0
-4.654879 -3.145188 32.890857 79 79 79 0
-4.467339 -3.102318 32.442546 110 110 110 0
-4.284771 -3.060551 32.005760 132 132 132 0
-4.103152 -3.017024 31.550573 139 139 139 0
-3.942335 -2.986617 31.232599 151 151 151 0
-3.794625 -2.964551 31.001840 156 156 156 0
-3.647217 -2.941304 30.758731 162 162 162 0
-3.514715 -2.928929 30.629325 168 168 168 0
-3.397526 -2.928902 30.629042 168 168 168 0
-3.254778 -2.906051 30.390080 173 173 173 0
-3.112145 -2.881615 30.134541 177 177 177 0
-2.973169 -2.858816 29.896118 177 177 177 0
-2.848212 -2.848212 29.785224 178 178 178 0
-2.750809 -2.865426 29.965242 183 183 183 0
-2.633249 -2.862228 29.931792 184 184 184 0
-2.500953 -2.841992 29.720183 185 185 185 0
-2.366817 -2.817639 29.465510 186 186 186 0
-2.238993 -2.798741 29.267884 189 189 189 0
-2.116557 -2.784943 29.123585 191 191 191 0
-2.010716 -2.792661 29.204303 191 191 191 0
-1.901308 -2.796042 29.239651 191 191 191 0
-1.780979 -2.782780 29.100970 193 193 193 0
-1.659384 -2.765640 28.921728 196 196 196 0
-1.543138 -2.755604 28.816778 196 196 196 0
-1.430258 -2.750497 28.763368 196 196 196 0
-1.323225 -2.756719 28.828433 197 197 197 0
-1.214593 -2.760440 28.867342 197 197 197 0
-1.100332 -2.750829 28.766842 199 199 199 0
-0.984451 -2.734586 28.596980 200 200 200 0
-0.873756 -2.730489 28.554134 200 200 200 0
-0.768409 -2.744317 28.698738 200 200 200 0
-0.659761 -2.749004 28.747753 201 201 201 0
-0.547405 -2.737026 28.622495 200 200 200 0
-0.436140 -2.725876 28.505896 203 203 203 0
-0.326191 -2.718254 28.426191 203 203 203 0
-0.218480 -2.730994 28.559413 203 203 203 0
-0.109693 -2.742313 28.677782 203 203 203 0
0.000000 -2.725647 28.503495 204 204 204 0
0.108452 -2.711303 28.353495 204 204 204 0
0.216886 -2.711079 28.351155 205 205 205 0
0.326575 -2.721456 28.459674 205 205 205 0
0.436076 -2.725477 28.501720 205 205 205 0
0.543594 -2.717972 28.423238 207 207 207 0
0.651643 -2.715180 28.394036 206 206 206 0
0.759670 -2.713107 28.372365 207 207 207 0
0.870874 -2.721481 28.459935 207 207 207 0
0.979065 -2.719625 28.440524 207 207 207 0
1.086608 -2.716520 28.408048 207 207 207 0
1.193545 -2.712602 28.367076 207 207 207 0
1.305111 -2.718980 28.433783 207 207 207 0
1.417694 -2.726335 28.510697 208 208 208 0
1.529876 -2.731921 28.569112 208 208 208 0
1.638996 -2.731660 28.566384 207 207 207 0
1.746882 -2.729503 28.543826 208 208 208 0
1.859879 -2.735117 28.602529 207 207 207 0
1.975848 -2.744233 28.697861 208 208 208 0
2.081487 -2.738798 28.641025 208 208 208 0
2.191240 -2.739050 28.643655 209 209 209 0
2.300078 -2.738188 28.634647 209 209 209 0
2.412535 -2.741518 28.669464 208 208 208 0
2.529960 -2.749957 28.757721 209 209 209 0
2.648878 -2.759247 28.854876 208 208 208 0
2.762701 -2.762701 28.890988 208 208 208 0
2.869184 -2.758830 28.850514 208 208 208 0
2.980973 -2.760160 28.864417 208 208 208 0
3.104996 -2.772318 28.991563 209 209 209 0
3.220033 -2.775890 29.028920 208 208 208 0
3.338002 -2.781669 29.089344 208 208 208 0
3.469388 -2.797894 29.259020 208 208 208 0
3.596032 -2.809400 29.379347 209 209 209 0
3.707384 -2.808624 29.371235 208 208 208 0
3.822190 -2.810434 29.390159 208 208 208 0
3.965406 -2.832433 29.620210 207 207 207 0
4.084723 -2.836613 29.663926 207 207 207 0
4.192926 -2.833058 29.626751 207 207 207 0
4.317372 -2.840376 29.703281 206 206 206 0
4.472555 -2.867022 29.981931 206 206 206 0
4.595550 -2.872219 30.036272 205 205 205 0
4.719554 -2.877777 30.094396 204 204 204 0
4.862946 -2.894611 30.270437 204 204 204 0
5.007897 -2.911568 30.447769 203 203 203 0
5.140178 -2.920556 30.541758 202 202 202 0
5.298351 -2.943528 30.781994 203 203 203 0
5.463026 -2.969036 31.048739 201 201 201 0
5.612451 -2.985346 31.219305 199 199 199 0
5.805601 -3.023751 31.620920 199 199 199 0
5.947562 -3.034470 31.733024 196 196 196 0
6.112189 -3.056094 31.959156 195 195 195 0
6.307365 -3.091846 32.333026 192 192 192 0
6.527155 -3.138055 32.816267 189 189 189 0
6.763593 -3.190374 33.363391 179 179 179 0
6.947801 -3.216575 33.637382 108 108 108 0
-4.634583 -3.006216 32.747451 89 89 89 0
-4.448173 -2.965448 32.303360 115 115 115 0
-4.254865 -2.917622 31.782373 134 134 134 0
-4.104390 -2.897217 31.560096 143 143 143 0
-3.936923 -2.863217 31.189726 154 154 154 0
-3.779001 -2.834251 30.874194 155 155 155 0
-3.635732 -2.814760 30.661879 164 164 164 0
-3.504689 -2.803752 30.541956 168 168 168 0
-3.386033 -2.802234 30.525430 169 169 169 0
-3.252069 -2.787488 30.364788 174 174 174 0
-3.111987 -2.766210 30.133012 177 177 177 0
-2.970327 -2.741840 29.867540 177 177 177 0
-2.844039 -2.730277 29.741584 179 179 179 0
-2.747223 -2.747223 29.926181 184 184 184 0
-2.627885 -2.742141 29.870815 184 184 184 0
-2.497333 -2.724363 29.677155 186 186 186 0
-2.365007 -2.702865 29.442972 186 186 186 0
-2.238013 -2.685616 29.255077 190 190 190 0
-2.114912 -2.671468 29.100954 191 191 191 0
-2.010251 -2.680335 29.197550 191 191 191 0
-1.899936 -2.682263 29.218553 192 192 192 0
-1.780211 -2.670317 29.088423 193 193 193 0
-1.659905 -2.655848 28.930810 195 195 195 0
-1.541699 -2.642913 28.789897 196 196 196 0
-1.430878 -2.641621 28.775823 196 196 196 0
-1.322358 -2.644716 28.809545 196 196 196 0
-1.212575 -2.645618 28.819370 197 197 197 0
-1.098778 -2.637068 28.726227 199 199 199 0
-0.983854 -2.623611 28.579636 200 200 200 0
-0.872271 -2.616812 28.505573 199 199 199 0
-0.766808 -2.629057 28.638964 200 200 200 0
-0.659175 -2.636698 28.722205 200 200 200 0
-0.546786 -2.624571 28.590095 201 201 201 0
-0.435757 -2.614544 28.480876 203 203 203 0
-0.325779 -2.606232 28.390327 203 203 203 0
-0.217962 -2.615540 28.491724 203 203 203 0
-0.109574 -2.629775 28.646787 203 203 203 0
0.000000 -2.615629 28.492692 203 203 203 0
0.108458 -2.602995 28.355066 204 204 204 0
0.216688 -2.600261 28.325287 205 205 205 0
0.326167 -2.609333 28.424108 205 205 205 0
0.435815 -2.614891 28.484652 206 206 206 0
0.543073 -2.606753 28.395999 206 206 206 0
0.650971 -2.603882 28.364728 206 206 206 0
0.758505 -2.600589 28.328854 207 207 207 0
0.869921 -2.609763 28.428786 206 206 206 0
0.978707 -2.609885 28.430116 207 207 207 0
1.086175 -2.606819 28.396719 207 207 207 0
1.192553 -2.601934 28.343512 207 207 207 0
1.303888 -2.607776 28.407142 208 208 208 0
1.416305 -2.614717 28.482755 208 208 208 0
1.527744 -2.618990 28.529302 208 208 208 0
1.637253 -2.619605 28.536007 209 209 209 0
1.747500 -2.621250 28.553922 208 208 208 0
1.860470 -2.626545 28.611604 208 208 208 0
1.983486 -2.644648 28.808798 208 208 208 0
2.080082 -2.627472 28.621703 208 208 208 0
2.188655 -2.626386 28.609873 208 208 208 0
2.298732 -2.627123 28.617896 209 209 209 0
2.410554 -2.629695 28.645915 209 209 209 0
2.528087 -2.638003 28.736422 209 209 209 0
2.643851 -2.643851 28.800119 209 209 209 0
2.759368 -2.648993 28.856136 209 209 209 0
2.868437 -2.647788 28.843009 208 208 208 0
2.979106 -2.648094 28.846339 208 208 208 0
3.102995 -2.659710 28.972879 208 208 208 0
3.218504 -2.663589 29.015134 208 208 208 0
3.335289 -2.668231 29.065701 209 209 209 0
3.461112 -2.679571 29.189226 208 208 208 0
3.591327 -2.693495 29.340903 208 208 208 0
3.702845 -2.692978 29.335274 209 209 209 0
3.818362 -2.695314 29.360721 208 208 208 0
3.964482 -2.718502 29.613312 207 207 207 0
4.082368 -2.721578 29.646825 207 207 207 0
4.190911 -2.718429 29.612512 207 207 207 0
4.311855 -2.723277 29.665324 207 207 207 0
4.464357 -2.747297 29.926978 205 205 205 0
4.592281 -2.755369 30.014911 206 206 206 0
4.714848 -2.759911 30.064389 204 204 204 0
4.855164 -2.774379 30.221998 205 205 205 0
5.002421 -2.792049 30.414476 203 203 203 0
5.130101 -2.798237 30.481884 202 202 202 0
5.289365 -2.820995 30.729792 203 203 203 0
5.451004 -2.844002 30.980413 201 201 201 0
5.599136 -2.859133 31.145242 200 200 200 0
6.079510 -3.039755 33.112800 199 199 199 0
5.926069 -2.902565 31.618351 196 196 196 0
6.096727 -2.926429 31.878312 195 195 195 0
6.290912 -2.960429 32.248682 192 192 192 0
6.503841 -3.001773 32.699051 189 189 189 0
6.709310 -3.038178 33.095620 182 182 182 0
6.937809 -3.083471 33.589005 135 135 135 0
-4.619381 -2.871507 32.640033 99 99 99 0
-4.446386 -2.840747 32.290384 120 120 120 0
-4.239823 -2.786169 31.670010 135 135 135 0
-4.075535 -2.756979 31.338213 146 146 146 0
-3.918084 -2.730786 31.040472 154 154 154 0
-3.771701 -2.710910 30.814547 156 156 156 0
-3.626461 -2.690600 30.583686 165 165 165 0
-3.495737 -2.680065 30.463937 167 167 167 0
-3.378729 -2.679682 30.459585 169 169 169 0
-3.248376 -2.668309 30.330307 176 176 176 0
-3.106379 -2.646174 30.078707 177 177 177 0
-2.966982 -2.624638 29.833906 177 177 177 0
-2.841753 -2.614413 29.717681 180 180 180 0
-2.742497 -2.628227 29.874698 184 184 184 0
-2.625706 -2.625706 29.846052 185 185 185 0
-2.496937 -2.610434 29.672457 185 185 185 0
-2.363076 -2.588130 29.418931 188 188 188 0
-2.236247 -2.571683 29.231981 191 191 191 0
-2.113687 -2.558673 29.084094 192 192 192 0
-2.009305 -2.567445 29.183802 192 192 192 0
-1.899976 -2.570555 29.219157 192 192 192 0
-1.780207 -2.559047 29.088348 194 194 194 0
-1.659367 -2.544362 28.921421 195 195 195 0
-1.542838 -2.534663 28.811176 195 195 195 0
-1.429990 -2.529982 28.757966 196 196 196 0
-1.321599 -2.533064 28.793002 197 197 197 0
-1.211751 -2.533660 28.799775 198 198 198 0
-1.097484 -2.524213 28.692387 200 200 200 0
-0.981992 -2.509535 28.525544 199 199 199 0
-0.870324 -2.502181 28.441955 199 199 199 0
-0.766103 -2.517194 28.612607 200 200 200 0
-0.658615 -2.524691 28.697823 201 201 201 0
-0.546747 -2.515038 28.588094 202 202 202 0
-0.435326 -2.503124 28.452668 204 204 204 0
-0.325488 -2.495412 28.365009 203 203 203 0
-0.217689 -2.503420 28.456043 203 203 203 0
-0.109466 -2.517707 28.618433 203 203 203 0
0.000000 -2.505179 28.476027 204 204 204 0
0.108380 -2.492735 28.334581 205 205 205 0
0.216661 -2.491604 28.321725 205 205 205 0
0.326100 -2.500103 28.418335 205 205 205 0
0.435477 -2.503991 28.462527 206 206 206 0
0.543302 -2.499188 28.407939 206 206 206 0
0.650817 -2.494797 28.358024 206 206 206 0
0.758665 -2.492755 28.334813 206 206 206 0
0.869348 -2.499376 28.410075 207 207 207 0
0.977456 -2.497942 28.393772 206 206 206 0
1.085540 -2.496741 28.380125 208 208 208 0
1.192166 -2.492710 28.334299 207 207 207 0
1.302490 -2.496439 28.376687 207 207 207 0
1.414408 -2.502415 28.444612 208 208 208 0
1.524806 -2.505039 28.474444 207 207 207 0
1.636643 -2.509519 28.525360 208 208 208 0
1.747121 -2.511486 28.547725 208 208 208 0
1.859947 -2.516398 28.603563 208 208 208 0
2.133552 -2.726206 30.988415 208 208 208 0
2.077294 -2.514619 28.583331 209 209 209 0
2.187058 -2.515116 28.588988 209 209 209 0
2.298038 -2.516899 28.609252 208 208 208 0
2.409468 -2.518989 28.633011 209 209 209 0
2.527335 -2.527335 28.727876 209 209 209 0
2.642266 -2.532172 28.782855 209 209 209 0
2.757812 -2.537187 28.839869 209 209 209 0
2.865498 -2.534864 28.813457 209 209 209 0
2.976834 -2.535822 28.824344 209 209 209 0
3.104743 -2.550325 28.989200 208 208 208 0
3.217243 -2.551606 29.003765 208 208 208 0
3.333435 -2.555633 29.049541 208 208 208 0
3.456546 -2.564534 29.150715 208 208 208 0
3.583220 -2.575440 29.274676 207 207 207 0
3.699026 -2.578109 29.305018 208 208 208 0
3.813806 -2.579928 29.325689 208 208 208 0
3.961216 -2.603085 29.588913 208 208 208 0
4.080621 -2.607064 29.634143 207 207 207 0
4.189556 -2.604318 29.602937 207 207 207 0
4.311472 -2.609575 29.662688 206 206 206 0
4.462009 -2.631441 29.911237 206 206 206 0
4.584872 -2.636301 29.966484 205 205 205 0
4.705818 -2.639849 30.006813 206 206 206 0
4.849988 -2.655946 30.189781 205 205 205 0
4.993984 -2.671201 30.363179 205 205 205 0
5.122425 -2.677631 30.436277 203 203 203 0
5.285964 -2.701715 30.710031 203 203 203 0
5.440274 -2.720137 30.919431 202 202 202 0
5.581602 -2.731422 31.047710 200 200 200 0
5.687382 -2.725204 30.977028 199 199 199 0
5.919455 -2.778520 31.583062 197 197 197 0
6.091881 -2.802265 31.852973 195 195 195 0
6.275809 -2.830267 32.171261 194 194 194 0
6.473707 -2.863370 32.547546 190 190 190 0
6.678029 -2.898013 32.941322 185 185 185 0
6.908787 -2.942632 33.448497 155 155 155 0
-4.613675 -2.743266 32.599719 104 104 104 0
-4.432674 -2.708856 32.190805 126 126 126 0
-4.253012 -2.673322 31.768532 136 136 136 0
-4.058705 -2.626221 31.208805 149 149 149 0
-3.914976 -2.609984 31.015854 154 154 154 0
-3.765364 -2.588688 30.762780 159 159 159 0
-3.624154 -2.571980 30.564236 167 167 167 0
-3.492965 -2.561508 30.439783 167 167 167 0
-3.373977 -2.559569 30.416743 170 170 170 0
-3.246111 -2.550516 30.309164 176 176 176 0
-3.105260 -2.530212 30.067878 177 177 177 0
-2.967385 -2.510864 29.837961 178 178 178 0
-2.842955 -2.501801 29.730250 182 182 182 0
-2.822656 -2.587435 30.747885 185 185 185 0
-2.616311 -2.502558 29.739253 185 185 185 0
-2.494443 -2.494443 29.642821 186 186 186 0
-2.361122 -2.473556 29.394605 188 188 188 0
-2.234154 -2.457569 29.204622 191 191 191 0
-2.112157 -2.445656 29.063051 192 192 192 0
-2.008478 -2.454807 29.171796 192 192 192 0
-1.898541 -2.456936 29.197100 191 191 191 0
-1.779455 -2.446751 29.076066 195 195 195 0
-1.659292 -2.433628 28.920118 196 196 196 0
-1.542800 -2.424400 28.810453 196 196 196 0
-1.429935 -2.419890 28.756867 197 197 197 0
-1.320552 -2.421013 28.770202 198 198 198 0
-1.211126 -2.422253 28.784943 200 200 200 0
-1.096694 -2.412727 28.671745 200 200 200 0
-0.981930 -2.400273 28.523739 200 200 200 0
-0.869736 -2.391773 28.422736 201 201 201 0
-0.764708 -2.403369 28.560532 201 201 201 0
-0.658187 -2.413354 28.679193 202 202 202 0
-0.546790 -2.405878 28.590353 203 203 203 0
-0.435191 -2.393549 28.443843 203 203 203 0
-0.325260 -2.385241 28.345114 203 203 203 0
-0.217256 -2.389820 28.399529 204 204 204 0
-0.109351 -2.405725 28.588536 204 204 204 0
0.000000 -2.396077 28.473877 204 204 204 0
0.108415 -2.385129 28.343783 206 206 206 0
0.216495 -2.381449 28.300051 205 205 205 0
0.325961 -2.390384 28.406225 206 206 206 0
0.435315 -2.394233 28.451970 206 206 206 0
0.543125 -2.389752 28.398715 206 206 206 0
0.650446 -2.384968 28.341866 206 206 206 0
0.758641 -2.384302 28.333946 206 206 206 0
0.869210 -2.390327 28.405546 206 206 206 0
0.977463 -2.389355 28.394001 207 207 207 0
1.084257 -2.385365 28.346588 207 207 207 0
1.189899 -2.379798 28.280423 208 208 208 0
1.301483 -2.386052 28.354744 207 207 207 0
1.412153 -2.389798 28.399265 208 208 208 0
1.523715 -2.394409 28.454059 208 208 208 0
1.634373 -2.397080 28.485798 209 209 209 0
1.746020 -2.400777 28.529735 209 209 209 0
1.852663 -2.397564 28.491548 209 209 209 0
1.790868 -2.188839 26.011156 209 209 209 0
2.074296 -2.401816 28.542084 209 209 209 0
2.184967 -2.403464 28.561662 209 209 209 0
2.297929 -2.407354 28.607895 209 209 209 0
2.409535 -2.409535 28.633810 210 210 210 0
2.526932 -2.417065 28.723296 209 209 209 0
2.642650 -2.422429 28.787039 209 209 209 0
2.756251 -2.425501 28.823537 209 209 209 0
2.863709 -2.423138 28.795466 209 209 209 0
2.976498 -2.425294 28.821085 209 209 209 0
3.101248 -2.436695 28.956568 209 209 209 0
3.217447 -2.440822 29.005606 209 209 209 0
3.330509 -2.442373 29.024046 209 209 209 0
3.453227 -2.450677 29.122724 209 209 209 0
3.581887 -2.462547 29.263783 209 209 209 0
3.699144 -2.466096 29.305952 208 208 208 0
3.809724 -2.465115 29.294301 208 208 208 0
4.037984 -2.538161 30.162344 208 208 208 0
4.077086 -2.491553 29.608468 207 207 207 0
4.191599 -2.492302 29.617372 207 207 207 0
4.309078 -2.494729 29.646216 208 208 208 0
4.459200 -2.515446 29.892406 207 207 207 0
4.587422 -2.523082 29.983148 206 206 206 0
4.706955 -2.525683 30.014063 205 205 205 0
4.844994 -2.537854 30.158690 206 206 206 0
4.994182 -2.555163 30.364383 205 205 205 0
5.119515 -2.559758 30.418985 203 203 203 0
5.279809 -2.581240 30.674270 203 203 203 0
5.438248 -2.600901 30.907915 203 203 203 0
5.576704 -2.610372 31.020466 200 200 200 0
5.740740 -2.631173 31.267648 200 200 200 0
5.913108 -2.654865 31.549198 198 198 198 0
6.073292 -2.672249 31.755776 196 196 196 0
6.256602 -2.698927 32.072805 195 195 195 0
6.447364 -2.727731 32.415102 192 192 192 0
6.657034 -2.763297 32.837754 187 187 187 0
6.895698 -2.809358 33.385126 167 167 167 0
6.930000 -2.772000 32.941175 86 86 86 0
-4.797532 -2.651267 33.006754 72 72 72 0
-4.602875 -2.612443 32.523409 108 108 108 0
-4.429577 -2.583920 32.168314 130 130 130 0
-4.225083 -2.535050 31.559912 137 137 137 0
-4.068514 -2.512906 31.284227 151 151 151 0
-3.917073 -2.492683 31.032469 154 154 154 0
-3.760528 -2.467847 30.723272 160 160 160 0
-3.620785 -2.452790 30.535817 166 166 166 0
-3.487393 -2.441175 30.391227 168 168 168 0
-3.369562 -2.440028 30.376942 172 172 172 0
-3.244321 -2.433241 30.292450 177 177 177 0
-3.104174 -2.414358 30.057364 177 177 177 0
-2.965582 -2.395278 29.819833 178 178 178 0
-2.844786 -2.389620 29.749392 183 183 183 0
-3.036245 -2.656714 33.074561 185 185 185 0
-2.607045 -2.380346 29.633932 185 185 185 0
-2.493560 -2.380216 29.632321 185 185 185 0
-2.359474 -2.359474 29.374095 189 189 189 0
-2.235198 -2.346958 29.218271 191 191 191 0
-2.113786 -2.336289 29.085456 192 192 192 0
-2.005443 -2.339684 29.127717 192 192 192 0
-1.899358 -2.346266 29.209656 193 193 193 0
-1.780892 -2.337421 29.099550 195 195 195 0
-1.661137 -2.325592 28.952288 196 196 196 0
-1.542577 -2.313866 28.806299 196 196 196 0
-1.428598 -2.307735 28.729973 197 197 197 0
-1.320111 -2.310195 28.760599 198 198 198 0
-1.210237 -2.310452 28.763792 199 199 199 0
-1.096578 -2.302813 28.668693 200 200 200 0
-0.981823 -2.290920 28.520632 200 200 200 0
-0.869410 -2.282200 28.412079 200 200 200 0
-0.763679 -2.291038 28.522105 201 201 201 0
-0.657907 -2.302674 28.666964 202 202 202 0
-0.546411 -2.294924 28.570488 203 203 203 0
-0.435029 -2.283900 28.433245 203 203 203 0
-0.325147 -2.276031 28.335272 203 203 203 0
-0.217198 -2.280580 28.391909 204 204 204 0
-0.109263 -2.294529 28.565560 204 204 204 0
0.000000 -2.285964 28.458942 206 206 206 0
0.108428 -2.276990 28.347212 206 206 206 0
0.216505 -2.273304 28.301327 206 206 206 0
0.326004 -2.282028 28.409939 205 205 205 0
0.435365 -2.285664 28.455197 206 206 206 0
0.543332 -2.281993 28.409502 206 206 206 0
0.650540 -2.276892 28.345991 207 207 207 0
0.759097 -2.277291 28.350958 207 207 207 0
0.868613 -2.280109 28.386043 207 207 207 0
0.977349 -2.280482 28.390684 208 208 208 0
1.083621 -2.275604 28.329965 207 207 207 0
1.189976 -2.271772 28.282252 209 209 209 0
1.299188 -2.273580 28.304758 208 208 208 0
1.410129 -2.277901 28.358551 208 208 208 0
1.521398 -2.282097 28.410794 208 208 208 0
1.632668 -2.285735 28.456088 209 209 209 0
1.740061 -2.283829 28.432362 208 208 208 0
1.843992 -2.277873 28.358204 210 210 210 0
1.908244 -2.226284 27.715959 209 209 209 0
2.073314 -2.291558 28.528579 209 209 209 0
2.183544 -2.292721 28.543053 209 209 209 0
2.297013 -2.297013 28.596492 209 209 209 0
2.409340 -2.299824 28.631487 210 210 210 0
2.528822 -2.308924 28.744777 210 210 210 0
2.646250 -2.315469 28.826255 209 209 209 0
2.755084 -2.314271 28.811338 210 210 210 0
2.860876 -2.310707 28.766974 209 209 209 0
2.977800 -2.316067 28.833699 209 209 209 0
3.099340 -2.324505 28.938750 210 210 210 0
3.215189 -2.328240 28.985247 209 209 209 0
3.329045 -2.330331 29.011282 210 210 210 0
3.446842 -2.334957 29.068874 208 208 208 0
3.580972 -2.350013 29.256307 209 209 209 0
3.697318 -2.352839 29.291490 209 209 209 0
3.803837 -2.349429 29.249034 209 209 209 0
3.545227 -2.127136 26.481623 208 208 208 0
4.066679 -2.372230 29.532894 208 208 208 0
4.187822 -2.376872 29.590687 206 206 206 0
4.311712 -2.382788 29.664339 207 207 207 0
4.458572 -2.400769 29.888196 207 207 207 0
4.589161 -2.409309 29.994515 206 206 206 0
4.688048 -2.401195 29.893500 206 206 206 0
4.826127 -2.413064 30.041254 206 206 206 0
4.983958 -2.434026 30.302225 204 204 204 0
5.117682 -2.442530 30.408091 204 204 204 0
5.272282 -2.460398 30.630542 203 203 203 0
5.434199 -2.480830 30.884906 203 203 203 0
5.567510 -2.487611 30.969320 201 201 201 0
5.735970 -2.509487 31.241668 200 200 200 0
5.900778 -2.528905 31.483410 198 198 198 0
6.058545 -2.544589 31.678668 196 196 196 0
6.244287 -2.571177 32.009672 195 195 195 0
6.435021 -2.598759 32.353047 192 192 192 0
6.633296 -2.628287 32.720659 188 188 188 0
6.840126 -2.660049 33.116078 174 174 174 0
6.860594 -2.619500 32.611261 94 94 94 0
-4.793974 -2.523144 32.982277 77 77 77 0
-4.584416 -2.478063 32.392977 110 110 110 0
-4.411616 -2.450898 32.037879 132 132 132 0
-4.220641 -2.411795 31.526734 139 139 139 0
-4.059170 -2.387747 31.212377 152 152 152 0
-3.896413 -2.361462 30.868789 155 155 155 0
-3.751672 -2.344795 30.650916 162 162 162 0
-3.614188 -2.331734 30.480186 167 167 167 0
-3.481689 -2.321126 30.341518 169 169 169 0
-3.368594 -2.323169 30.368217 173 173 173 0
-3.242544 -2.316103 30.275853 177 177 177 0
-3.102677 -2.298279 30.042864 177 177 177 0
-2.961457 -2.278044 29.778353 179 179 179 0
-2.833917 -2.267134 29.635738 183 183 183 0
-2.298559 -1.915466 25.038769 184 184 184 0
-2.601216 -2.261927 29.567675 185 185 185 0
-2.490086 -2.263715 29.591041 186 186 186 0
-2.358516 -2.246205 29.362162 191 191 191 0
-2.231782 -2.231782 29.173627 191 191 191 0
-2.113304 -2.224530 29.078828 191 191 191 0
-2.004191 -2.226879 29.109529 191 191 191 0
-1.898583 -2.233627 29.197743 194 194 194 0
-1.780444 -2.225556 29.092229 195 195 195 0
-1.660119 -2.213492 28.934539 196 196 196 0
-1.542337 -2.203338 28.801806 197 197 197 0
-1.428388 -2.197520 28.725757 196 196 196 0
-1.318940 -2.198234 28.735084 198 198 198 0
-1.209955 -2.199919 28.757110 200 200 200 0
-1.095337 -2.190675 28.636273 200 200 200 0
-0.980497 -2.178882 28.482121 200 200 200 0
-0.868938 -2.172345 28.396664 201 201 201 0
-0.763265 -2.180757 28.506632 201 201 201 0
-0.657602 -2.192007 28.653690 203 203 203 0
-0.546077 -2.184307 28.553033 203 203 203 0
-0.435017 -2.175084 28.432467 204 204 204 0
-0.325014 -2.166761 28.323669 204 204 204 0
-0.217115 -2.171154 28.381098 204 204 204 0
-0.109204 -2.184089 28.550185 204 204 204 0
0.000000 -2.176321 28.448644 206 206 206 0
0.108402 -2.168037 28.340348 205 205 205 0
0.216565 -2.165653 28.309193 206 206 206 0
0.325634 -2.170894 28.377702 206 206 206 0
0.435145 -2.175725 28.440848 207 207 207 0
0.543205 -2.172821 28.402894 206 206 206 0
0.650235 -2.167449 28.332669 208 208 208 0
0.759364 -2.169613 28.360948 208 208 208 0
0.867975 -2.169937 28.365188 208 208 208 0
0.976867 -2.170816 28.376679 208 208 208 0
1.083752 -2.167503 28.333378 208 208 208 0
1.188718 -2.161306 28.252365 208 208 208 0
1.298727 -2.164545 28.294702 208 208 208 0
1.409078 -2.167812 28.337412 208 208 208 0
1.521240 -2.173200 28.407848 208 208 208 0
1.631262 -2.175016 28.431581 209 209 209 0
1.739552 -2.174440 28.424052 210 210 210 0
1.847324 -2.173323 28.409446 209 209 209 0
1.950187 -2.166875 28.325159 209 209 209 0
2.074269 -2.183441 28.541708 210 210 210 0
2.182592 -2.182592 28.530618 210 210 210 0
2.294563 -2.185298 28.565986 210 210 210 0
2.407883 -2.188984 28.614173 210 210 210 0
2.525135 -2.195770 28.702875 209 209 209 0
2.643871 -2.203226 28.800340 210 210 210 0
2.748358 -2.198686 28.740996 210 210 210 0
2.859671 -2.199747 28.754863 209 209 209 0
2.977590 -2.205622 28.831665 210 210 210 0
3.097547 -2.212533 28.922005 209 209 209 0
3.214942 -2.217202 28.983029 210 210 210 0
3.325331 -2.216888 28.978923 209 209 209 0
3.446529 -2.223567 29.066238 209 209 209 0
3.578965 -2.236853 29.239907 209 209 209 0
3.690337 -2.236568 29.236181 209 209 209 0
3.800747 -2.235733 29.225273 208 208 208 0
3.844257 -2.196718 28.715274 209 209 209 0
4.069370 -2.260761 29.552436 208 208 208 0
4.191041 -2.265427 29.613429 207 207 207 0
4.301770 -2.264089 29.595939 207 207 207 0
4.458319 -2.286317 29.886500 207 207 207 0
4.594441 -2.297220 30.029024 206 206 206 0
4.675548 -2.280755 29.813795 206 206 206 0
4.810727 -2.290822 29.945389 206 206 206 0
4.976204 -2.314513 30.255078 205 205 205 0
5.111545 -2.323430 30.371629 204 204 204 0
5.262538 -2.338906 30.573929 203 203 203 0
5.424336 -2.358407 30.828848 203 203 203 0
5.561360 -2.366536 30.935115 201 201 201 0
5.728682 -2.386951 31.201973 200 200 200 0
5.890720 -2.404375 31.429744 199 199 199 0
6.050350 -2.420140 31.635819 197 197 197 0
6.235438 -2.445270 31.964309 195 195 195 0
6.422006 -2.470002 32.287612 191 191 191 0
6.612426 -2.495255 32.617716 188 188 188 0
6.784386 -2.512736 32.846217 179 179 179 0
6.856648 -2.493326 32.592503 108 108 108 0
-4.779578 -2.389789 32.883237 84 84 84 0
-4.570859 -2.347198 32.297182 114 114 114 0
-4.401535 -2.323032 31.964668 134 134 134 0
-4.207759 -2.284212 31.430504 140 140 140 0
-4.045817 -2.260898 31.109705 153 153 153 0
-3.897242 -2.243867 30.875361 155 155 155 0
-3.746666 -2.224583 30.610014 163 163 163 0
-3.609209 -2.212096 30.438195 168 168 168 0
-3.478507 -2.203054 30.313784 168 168 168 0
-3.364555 -2.204363 30.331798 174 174 174 0
-3.236354 -2.196097 30.218059 177 177 177 0
-3.096820 -2.179244 29.986153 177 177 177 0
-2.951161 -2.156618 29.674823 180 180 180 0
-2.818028 -2.141701 29.469577 184 184 184 0
-2.535815 -2.007520 27.623257 185 185 185 0
-2.596875 -2.145244 29.518324 186 186 186 0
-2.491642 -2.151873 29.609530 186 186 186 0
-2.361538 -2.136630 29.399792 190 190 190 0
-2.233371 -2.121703 29.194398 191 191 191 0
-2.114134 -2.114134 29.090249 191 191 191 0
-2.002818 -2.114086 29.089586 192 192 192 0
-1.898508 -2.121862 29.196583 194 194 194 0
-1.781416 -2.115432 29.108107 196 196 196 0
-1.658875 -2.101242 28.912856 196 196 196 0
-1.540518 -2.090703 28.767841 197 197 197 0
-1.429113 -2.088704 28.740331 196 196 196 0
-1.317442 -2.085950 28.702440 199 199 199 0
-1.208545 -2.087486 28.723582 200 200 200 0
-1.094692 -2.079915 28.619395 199 199 199 0
-0.980936 -2.070865 28.494869 201 201 201 0
-0.868389 -2.062423 28.378710 201 201 201 0
-0.762519 -2.069693 28.478754 202 202 202 0
-0.657427 -2.081854 28.646078 203 203 203 0
-0.545998 -2.074792 28.548909 203 203 203 0
-0.434663 -2.064647 28.409317 203 203 203 0
-0.324879 -2.057566 28.311888 203 203 203 0
-0.216850 -2.060072 28.346360 203 203 203 0
-0.109262 -2.075986 28.565345 205 205 205 0
0.000000 -2.069830 28.480635 206 206 206 0
0.108342 -2.058502 28.324760 205 205 205 0
0.216053 -2.052503 28.242217 205 205 205 0
0.324744 -2.056711 28.300116 206 206 206 0
0.434505 -2.063900 28.399032 206 206 206 0
0.543211 -2.064200 28.403164 207 207 207 0
0.651119 -2.061876 28.371190 207 207 207 0
0.758895 -2.059859 28.343428 207 207 207 0
0.867717 -2.060828 28.356760 208 208 208 0
0.976475 -2.061447 28.365286 208 208 208 0
1.082181 -2.056144 28.292312 208 208 208 0
