ply
    format ascii 1.0
    element vertex 24895
    property float x
    property float y
    property float z
    property uchar red
    property uchar green
    property uchar blue
    property uchar alpha
    end_header
3.990900 -3.339325 21.293320 216 216 216 0
4.089957 -3.353765 21.385396 215 215 215 0
4.182168 -3.362135 21.438772 215 215 215 0
4.279464 -3.374193 21.515655 216 216 216 0
4.374894 -3.384352 21.580436 216 216 216 0
4.475607 -3.398146 21.668395 215 215 215 0
4.574206 -3.409863 21.743108 215 215 215 0
4.669827 -3.418981 21.801249 215 215 215 0
4.770803 -3.431630 21.881909 214 214 214 0
4.887250 -3.454780 22.029525 214 214 214 0
4.985638 -3.464596 22.092113 215 215 215 0
5.073920 -3.467179 22.108584 215 215 215 0
5.177100 -3.479690 22.188366 214 214 214 0
6.463423 -4.274199 27.254579 215 215 215 0
6.558982 -4.268544 27.218517 215 215 215 0
6.663911 -4.269068 27.221860 214 214 214 0
6.782290 -4.278060 27.279195 215 215 215 0
6.911118 -4.293270 27.376186 214 214 214 0
7.028156 -4.300812 27.424276 214 214 214 0
7.153427 -4.313096 27.502602 214 214 214 0
7.270428 -4.320109 27.547325 214 214 214 0
7.386812 -4.326561 27.588466 214 214 214 0
7.510255 -4.336908 27.654443 213 213 213 0
7.623656 -4.341248 27.682119 214 214 214 0
7.749842 -4.352651 27.754827 214 214 214 0
9.432153 -5.225923 33.323277 214 214 214 0
9.553291 -5.222466 33.301231 214 214 214 0
9.669746 -5.216573 33.263660 213 213 213 0
9.819962 -5.228811 33.341694 214 214 214 0
9.977024 -5.244333 33.440671 213 213 213 0
10.081476 -5.232159 33.363039 214 214 214 0
-5.903087 -3.325683 21.736491 77 77 77 0
-5.838861 -3.336492 21.807136 177 177 177 0
-5.657308 -3.279599 21.435288 210 210 210 0
-5.502637 -3.236845 21.155851 210 210 210 0
-5.366389 -3.203814 20.939964 210 210 210 0
-5.293968 -3.208465 20.970362 210 210 210 0
-5.230785 -3.218945 21.038854 210 210 210 0
-5.155509 -3.222193 21.060085 210 210 210 0
-5.070592 -3.219423 21.041983 210 210 210 0
-4.983550 -3.215194 21.014338 211 211 211 0
-4.936675 -3.237164 21.157936 211 211 211 0
-4.923504 -3.282336 21.453179 210 210 210 0
-4.863677 -3.297408 21.551686 210 210 210 0
-4.764291 -3.285718 21.475282 210 210 210 0
-4.668866 -3.276397 21.414359 210 210 210 0
-4.571382 -3.265273 21.341652 211 211 211 0
-4.528254 -3.293276 21.524680 210 210 210 0
-4.504288 -3.336509 21.807252 211 211 211 0
-4.402477 -3.322624 21.716498 211 211 211 0
-4.287115 -3.297781 21.554122 211 211 211 0
-4.182769 -3.280603 21.441850 211 211 211 0
-4.099646 -3.279717 21.436060 211 211 211 0
-4.065869 -3.319077 21.693313 211 211 211 0
-4.015306 -3.346088 21.869858 211 211 211 0
-3.916243 -3.332973 21.784136 211 211 211 0
-3.824432 -3.325593 21.735905 211 211 211 0
-3.735322 -3.320286 21.701219 211 211 211 0
-3.673011 -3.339101 21.824187 211 211 211 0
-3.609099 -3.357302 21.943149 212 212 212 0
-3.539990 -3.371419 22.035417 212 212 212 0
-3.447141 -3.363065 21.980814 211 211 211 0
-3.353683 -3.353683 21.919495 212 212 212 0
-3.286868 -3.371147 22.033637 211 211 211 0
-3.230320 -3.400336 22.224421 211 211 211 0
-3.157267 -3.413262 22.308901 211 211 211 0
-3.076014 -3.417793 22.338519 212 212 212 0
-2.982572 -3.408654 22.278785 211 211 211 0
-2.895117 -3.406020 22.261566 212 212 212 0
-2.813493 -3.410294 22.289504 213 213 213 0
-2.740351 -3.425439 22.388488 212 212 212 0
-2.670191 -3.445408 22.519009 211 211 211 0
-2.571929 -3.429239 22.413324 211 211 211 0
-2.475364 -3.414295 22.315652 212 212 212 0
-2.395872 -3.422675 22.370423 212 212 212 0
-2.314952 -3.429558 22.415411 212 212 212 0
-2.240444 -3.446837 22.528347 212 212 212 0
-2.157983 -3.452773 22.567146 212 212 212 0
-2.068624 -3.447707 22.534029 212 212 212 0
-1.986711 -3.455150 22.582681 212 212 212 0
-1.905009 -3.463653 22.638252 212 212 212 0
-1.820162 -3.466975 22.659970 212 212 212 0
-1.734071 -3.468142 22.667592 213 213 213 0
-1.651071 -3.475939 22.718557 212 212 212 0
-1.566983 -3.482185 22.759376 214 214 214 0
-1.485976 -3.496414 22.852377 213 213 213 0
-1.399024 -3.497560 22.859871 214 214 214 0
-1.314838 -3.506236 22.916572 213 213 213 0
-1.232756 -3.522159 23.020648 214 214 214 0
-1.145748 -3.525379 23.041696 214 214 214 0
-1.055304 -3.517680 22.991371 213 213 213 0
-0.965017 -3.509151 22.935627 214 214 214 0
-0.837435 -3.349739 21.893717 213 213 213 0
-0.797202 -3.543121 23.157653 213 213 213 0
-0.708020 -3.540102 23.137923 214 214 214 0
-0.617237 -3.527069 23.052736 213 213 213 0
-0.528290 -3.521932 23.019167 213 213 213 0
-0.439718 -3.517746 22.991801 214 214 214 0
-0.354221 -3.542209 23.151692 214 214 214 0
-0.266894 -3.558587 23.258736 214 214 214 0
-0.177433 -3.548659 23.193851 214 214 214 0
-0.088714 -3.548547 23.193115 213 213 213 0
0.000000 -3.543756 23.161807 215 215 215 0
0.088811 -3.552447 23.218610 214 214 214 0
0.176988 -3.539755 23.135653 214 214 214 0
0.259996 -3.466613 22.657604 200 200 200 0
0.337314 -3.373144 22.046694 109 109 109 0
0.411362 -3.290894 21.509109 114 114 114 0
0.492786 -3.285237 21.472138 117 117 117 0
0.566574 -3.237563 21.160542 110 110 110 0
0.639416 -3.197082 20.895960 104 104 104 0
0.710315 -3.156955 20.633695 112 112 112 0
0.764723 -3.058893 19.992764 118 118 118 0
1.142452 -4.154372 27.152759 109 109 109 0
0.897732 -2.992438 19.558421 107 107 107 0
0.962768 -2.962364 19.361857 127 127 127 0
1.032575 -2.950214 19.282442 115 115 115 0
1.109308 -2.958155 19.334346 133 133 133 0
1.189422 -2.973556 19.435003 119 119 119 0
1.262236 -2.969968 19.411552 127 127 127 0
1.332468 -2.961040 19.353205 203 203 203 0
1.408468 -2.965196 19.380365 217 217 217 0
1.488076 -2.976152 19.451971 217 217 217 0
1.577713 -3.005167 19.641616 217 217 217 0
1.659184 -3.016699 19.716987 217 217 217 0
1.732948 -3.013823 19.698192 216 216 216 0
1.809482 -3.015803 19.711131 217 217 217 0
1.892972 -3.028755 19.795786 216 216 216 0
1.982241 -3.049602 19.932038 216 216 216 0
2.056478 -3.046634 19.912640 216 216 216 0
2.133592 -3.047989 19.921495 216 216 216 0
2.212336 -3.051498 19.944428 216 216 216 0
2.298385 -3.064514 20.029502 216 216 216 0
2.388036 -3.081337 20.139458 217 217 217 0
2.470615 -3.088269 20.184766 216 216 216 0
2.555268 -3.097294 20.243753 215 215 215 0
2.642383 -3.108686 20.318207 216 216 216 0
2.731736 -3.121984 20.405124 216 216 216 0
2.818182 -3.131313 20.466101 216 216 216 0
2.903059 -3.138442 20.512696 215 215 215 0
2.992016 -3.149491 20.584907 216 216 216 0
3.078438 -3.157372 20.636418 216 216 216 0
3.179008 -3.179008 20.777833 215 215 215 0
3.272083 -3.192276 20.864549 215 215 215 0
3.356857 -3.197006 20.895467 215 215 215 0
3.442400 -3.202233 20.929625 215 215 215 0
3.532058 -3.210962 20.986678 215 215 215 0
3.635281 -3.231361 21.120007 215 215 215 0
3.710158 -3.226224 21.086434 216 216 216 0
3.797479 -3.231897 21.123509 216 216 216 0
3.888143 -3.240119 21.177251 216 216 216 0
3.990533 -3.257578 21.291359 215 215 215 0
4.090538 -3.272430 21.388434 215 215 215 0
4.180745 -3.279016 21.431476 215 215 215 0
4.278116 -3.290859 21.508881 215 215 215 0
4.373091 -3.300446 21.571541 215 215 215 0
4.475319 -3.315051 21.667001 215 215 215 0
4.574502 -3.326911 21.744514 215 215 215 0
4.670210 -3.335864 21.803035 215 215 215 0
4.772102 -3.348843 21.887865 215 215 215 0
4.886807 -3.370212 22.027528 214 214 214 0
4.985119 -3.379742 22.089815 214 214 214 0
5.073962 -3.382641 22.108765 215 215 215 0
5.175352 -3.393673 22.180870 214 214 214 0
6.460691 -4.168188 27.243058 214 214 214 0
6.555537 -4.162246 27.204220 214 214 214 0
6.663682 -4.164801 27.220924 214 214 214 0
6.777749 -4.170923 27.260931 214 214 214 0
6.908448 -4.186938 27.365610 214 214 214 0
7.026898 -4.195163 27.419367 214 214 214 0
7.148399 -4.204941 27.483273 214 214 214 0
7.269348 -4.214115 27.543234 214 214 214 0
7.384862 -4.219921 27.581185 214 214 214 0
7.509983 -4.230976 27.653440 214 214 214 0
7.626537 -4.236965 27.692583 214 214 214 0
7.749570 -4.246340 27.753853 214 214 214 0
9.431675 -5.098203 33.321586 214 214 214 0
9.557198 -5.097172 33.314852 214 214 214 0
9.668265 -5.088560 33.258565 214 214 214 0
9.821030 -5.101834 33.345319 214 214 214 0
9.976475 -5.116141 33.438831 214 214 214 0
10.079923 -5.103758 33.357899 214 214 214 0
-5.822696 -3.244074 21.746765 178 178 178 0
-5.656030 -3.196886 21.430444 209 209 209 0
-5.500410 -3.154647 21.147290 210 210 210 0
-5.372465 -3.127256 20.963672 210 210 210 0
-5.294823 -3.128759 20.973748 210 210 210 0
-5.232621 -3.139573 21.046240 211 211 211 0
-5.172848 -3.152204 21.130913 211 211 211 0
-5.079332 -3.144348 21.078252 210 210 210 0
-4.984032 -3.135117 21.016369 211 211 211 0
-4.938032 -3.157102 21.163751 210 210 210 0
-4.915410 -3.195017 21.417910 211 211 211 0
-4.869527 -3.218840 21.577610 211 211 211 0
-4.763236 -3.202866 21.470526 211 211 211 0
-4.669695 -3.195054 21.418162 211 211 211 0
-4.574596 -3.185880 21.356660 210 210 210 0
-4.527264 -3.210242 21.519972 211 211 211 0
-4.505902 -3.254263 21.815069 211 211 211 0
-4.402051 -3.239245 21.714397 211 211 211 0
-4.285981 -3.214486 21.548423 211 211 211 0
-4.182959 -3.198733 21.442824 211 211 211 0
-4.099429 -3.197554 21.434921 211 211 211 0
-4.067146 -3.237116 21.700123 212 212 212 0
-4.012572 -3.260215 21.854969 211 211 211 0
-3.919329 -3.252209 21.801302 211 211 211 0
-3.825984 -3.243769 21.744723 211 211 211 0
-3.732180 -3.234556 21.682963 211 211 211 0
-3.672859 -3.255488 21.823284 211 211 211 0
-3.608932 -3.273218 21.942134 211 211 211 0
-3.541256 -3.288309 22.043301 212 212 212 0
-3.452239 -3.283837 22.013319 211 211 211 0
-3.356821 -3.272900 21.940004 211 211 211 0
-3.288823 -3.288823 22.046745 211 211 211 0
-3.231428 -3.316465 22.232046 212 212 212 0
-3.161228 -3.332105 22.336888 212 212 212 0
-3.074015 -3.330183 22.324000 212 212 212 0
-2.983598 -3.324580 22.286444 211 211 211 0
-2.891927 -3.317210 22.237038 211 211 211 0
-2.811143 -3.322260 22.270891 212 212 212 0
-2.740783 -3.340330 22.392022 212 212 212 0
-2.668804 -3.357527 22.507304 212 212 212 0
-2.569071 -3.339792 22.388417 213 213 213 0
-2.475141 -3.328638 22.313646 213 213 213 0
-2.394502 -3.335200 22.357632 212 212 212 0
-2.310657 -3.337616 22.373826 213 213 213 0
-2.239541 -3.359312 22.519268 212 212 212 0
-2.156504 -3.364146 22.551675 212 212 212 0
-2.068661 -3.361574 22.534430 212 212 212 0
-1.988480 -3.371770 22.602784 212 212 212 0
-1.904791 -3.376676 22.635668 212 212 212 0
-1.819498 -3.379068 22.651703 213 213 213 0
-1.734575 -3.382420 22.674177 213 213 213 0
-1.648611 -3.383990 22.684701 212 212 212 0
-1.567395 -3.396022 22.765356 213 213 213 0
-1.486624 -3.410489 22.862338 214 214 214 0
-1.399737 -3.411860 22.871525 212 212 212 0
-1.314309 -3.417204 22.907352 214 214 214 0
-1.232713 -3.433986 23.019848 213 213 213 0
-1.145306 -3.435919 23.032806 212 212 212 0
-1.055662 -3.430901 22.999168 214 214 214 0
-0.965238 -3.422209 22.940900 213 213 213 0
-0.842602 -3.286146 22.028801 213 213 213 0
-0.797085 -3.454033 23.154235 213 213 213 0
-0.707894 -3.450985 23.133802 214 214 214 0
-0.617574 -3.440769 23.065319 214 214 214 0
-0.528005 -3.432030 23.006738 214 214 214 0
-0.439643 -3.429216 22.987874 214 214 214 0
-0.354219 -3.453640 23.151598 214 214 214 0
-0.266802 -3.468423 23.250702 215 215 215 0
-0.177622 -3.463634 23.218598 214 214 214 0
-0.088656 -3.457597 23.178126 214 214 214 0
0.000000 -3.461668 23.205414 214 214 214 0
0.088959 -3.469383 23.257136 214 214 214 0
0.177388 -3.459061 23.187942 215 215 215 0
0.260902 -3.391721 22.736526 201 201 201 0
0.339775 -3.312809 22.207532 119 119 119 0
0.413061 -3.221873 21.597945 113 113 113 0
0.487089 -3.166076 21.223905 112 112 112 0
0.564879 -3.147185 21.097267 113 113 113 0
0.641879 -3.129160 20.976437 105 105 105 0
0.698221 -3.025626 20.282393 126 126 126 0
0.773924 -3.018304 20.233309 97 97 97 0
0.842261 -2.986199 20.018095 120 120 120 0
0.898523 -2.920200 19.575669 123 123 123 0
0.967523 -2.902568 19.457473 120 120 120 0
1.027369 -2.861957 19.185230 130 130 130 0
1.110274 -2.886712 19.351177 120 120 120 0
1.189969 -2.900550 19.443944 101 101 101 0
1.264021 -2.899812 19.438995 128 128 128 0
1.333890 -2.890095 19.373859 203 203 203 0
1.407966 -2.890036 19.373459 217 217 217 0
1.487936 -2.901475 19.450142 216 216 216 0
1.577027 -2.928764 19.633072 216 216 216 0
1.659048 -2.941039 19.715363 217 217 217 0
1.733081 -2.938702 19.699695 216 216 216 0
1.809422 -2.940311 19.710483 216 216 216 0
1.892831 -2.952817 19.794314 217 217 217 0
1.981996 -2.972994 19.929575 216 216 216 0
2.056400 -2.970356 19.911888 216 216 216 0
2.132502 -2.970270 19.911312 216 216 216 0
2.211751 -2.974424 19.939156 216 216 216 0
2.297350 -2.986555 20.020477 216 216 216 0
2.387462 -3.003582 20.134618 216 216 216 0
2.471081 -3.011630 20.188573 216 216 216 0
2.554550 -3.019013 20.238065 216 216 216 0
2.641575 -3.030042 20.311996 216 216 216 0
2.730175 -3.042195 20.393464 216 216 216 0
2.818722 -3.053615 20.470019 216 216 216 0
2.902708 -3.059611 20.510211 216 216 216 0
2.993067 -3.071832 20.592136 216 216 216 0
3.078684 -3.078684 20.638067 215 215 215 0
3.178836 -3.099365 20.776705 215 215 215 0
3.271362 -3.111784 20.859953 215 215 215 0
3.356660 -3.116899 20.894242 215 215 215 0
3.442827 -3.122564 20.932219 216 216 216 0
3.532591 -3.131160 20.989844 216 216 216 0
3.633488 -3.149023 21.109588 216 216 216 0
3.711151 -3.146411 21.092077 215 215 215 0
3.797087 -3.150775 21.121331 216 216 216 0
3.889775 -3.160442 21.186138 215 215 215 0
3.990731 -3.176296 21.292417 216 216 216 0
4.090146 -3.190314 21.386387 215 215 215 0
4.180352 -3.196740 21.429463 215 215 215 0
4.277424 -3.208068 21.505399 215 215 215 0
4.373214 -3.218026 21.572151 216 216 216 0
4.472457 -3.230108 21.653143 214 214 214 0
4.573570 -3.243077 21.740082 214 214 214 0
4.673378 -3.254674 21.817825 216 216 216 0
4.770147 -3.263785 21.878901 215 215 215 0
4.887447 -3.286387 22.030415 215 215 215 0
4.984925 -3.295120 22.088954 215 215 215 0
5.072254 -3.296965 22.101325 215 215 215 0
5.177855 -3.310432 22.191601 215 215 215 0
6.462635 -4.065206 27.251253 215 215 215 0
6.555112 -4.057927 27.202458 215 215 215 0
6.662857 -4.060179 27.217554 214 214 214 0
6.778368 -4.067021 27.263419 214 214 214 0
6.909710 -4.083010 27.370607 214 214 214 0
7.025531 -4.089488 27.414033 214 214 214 0
7.149530 -4.100466 27.487619 214 214 214 0
7.268006 -4.108003 27.538149 214 214 214 0
7.382577 -4.113150 27.572651 214 214 214 0
7.508624 -4.124455 27.648436 213 213 213 0
7.628149 -4.131914 27.698435 214 214 214 0
7.751050 -4.140972 27.759156 214 214 214 0
7.891652 -4.159114 27.880770 214 214 214 0
9.553226 -4.967678 33.301006 214 214 214 0
9.668202 -4.961314 33.258349 214 214 214 0
9.822963 -4.975267 33.351882 214 214 214 0
9.976703 -4.988352 33.439595 214 214 214 0
8.501398 -4.196893 28.134022 214 214 214 0
-5.822800 -3.160949 21.747152 179 179 179 0
-5.657199 -3.115559 21.434872 210 210 210 0
-5.497943 -3.072380 21.137806 211 211 211 0
-5.371880 -3.046738 20.961387 210 210 210 0
-5.302044 -3.052692 21.002352 210 210 210 0
-5.231745 -3.058559 21.042717 211 211 211 0
-5.152142 -3.059085 21.046333 210 210 210 0
-5.069231 -3.057632 21.036337 210 210 210 0
-4.982490 -3.053784 21.009869 210 210 210 0
-4.938958 -3.076728 21.167719 211 211 211 0
-4.915293 -3.113019 21.417398 211 211 211 0
-4.869524 -3.136304 21.577597 211 211 211 0
-4.764976 -3.121881 21.478367 211 211 211 0
-4.668887 -3.112591 21.414455 211 211 211 0
-4.574460 -3.104098 21.356023 211 211 211 0
-4.531062 -3.130552 21.538024 211 211 211 0
-4.509798 -3.173561 21.833927 211 211 211 0
-4.402478 -3.156494 21.716504 211 211 211 0
-4.288001 -3.133539 21.558579 211 211 211 0
-4.183922 -3.117432 21.447759 211 211 211 0
-4.100502 -3.116382 21.440533 211 211 211 0
-4.067615 -3.154477 21.702629 211 211 211 0
-4.009022 -3.173809 21.835633 212 212 212 0
-3.917495 -3.167337 21.791102 210 210 210 0
-3.827411 -3.161774 21.752832 211 211 211 0
-3.734192 -3.153318 21.694652 211 211 211 0
-3.670270 -3.169779 21.807904 211 211 211 0
-3.607493 -3.188017 21.933379 211 211 211 0
-3.539665 -3.202554 22.033394 211 211 211 0
-3.445859 -3.193723 21.972637 211 211 211 0
-3.352676 -3.185042 21.912916 211 211 211 0
-3.290155 -3.205792 22.055675 212 212 212 0
-3.231391 -3.231391 22.231795 211 211 211 0
-3.158124 -3.243479 22.314955 212 212 212 0
-3.078565 -3.249596 22.357043 212 212 212 0
-2.982150 -3.237763 22.275628 212 212 212 0
-2.896996 -3.237820 22.276020 212 212 212 0
-2.816815 -3.243605 22.315826 213 213 213 0
-2.742645 -3.256891 22.407233 212 212 212 0
-2.668917 -3.271575 22.508258 211 211 211 0
-2.573088 -3.259245 22.423429 211 211 211 0
-2.477203 -3.245990 22.332229 212 212 212 0
-2.395811 -3.251458 22.369854 212 212 212 0
-2.312819 -3.255078 22.394757 212 212 212 0
-2.239044 -3.272449 22.514270 212 212 212 0
-2.154988 -3.275582 22.535823 213 213 213 0
-2.069770 -3.277136 22.546514 212 212 212 0
-1.987678 -3.283991 22.593674 213 213 213 0
-1.902581 -3.286276 22.609398 212 212 212 0
-1.821040 -3.295214 22.670893 213 213 213 0
-1.734257 -3.295088 22.670023 212 212 212 0
-1.651768 -3.303536 22.728144 213 213 213 0
-1.567368 -3.308888 22.764964 213 213 213 0
-1.484006 -3.317189 22.822081 213 213 213 0
-1.398615 -3.321712 22.853194 214 214 214 0
-1.315371 -3.332272 22.925849 213 213 213 0
-1.232455 -3.345236 23.015041 213 213 213 0
-1.146125 -3.350212 23.049277 213 213 213 0
-1.055285 -3.341735 22.990952 213 213 213 0
-0.965135 -3.334102 22.938441 214 214 214 0
-0.846642 -3.217240 22.134437 213 213 213 0
-0.796936 -3.364839 23.149906 214 214 214 0
-0.707543 -3.360828 23.122313 213 213 213 0
-0.617307 -3.351093 23.055337 214 214 214 0
-0.528556 -3.347524 23.030779 213 213 213 0
-0.439779 -3.342317 22.994955 214 214 214 0
-0.354123 -3.364166 23.145275 214 214 214 0
-0.266349 -3.373759 23.211274 215 215 215 0
-0.177253 -3.367808 23.170337 215 215 215 0
-0.088627 -3.367823 23.170439 215 215 215 0
0.000000 -3.373756 23.211255 214 214 214 0
0.089094 -3.385573 23.292556 215 215 215 0
0.177621 -3.374807 23.218488 214 214 214 0
0.261630 -3.313979 22.799992 199 199 199 0
0.336780 -3.199409 22.011758 113 113 113 0
0.419753 -3.190120 21.947849 94 94 94 0
0.489919 -3.102819 21.347225 104 104 104 0
0.561596 -3.048662 20.974626 111 111 111 0
0.633248 -3.007926 20.694364 108 108 108 0
0.703115 -2.968708 20.424548 108 108 108 0
0.766587 -2.913030 20.041484 110 110 110 0
0.841866 -2.908265 20.008701 120 120 120 0
0.897825 -2.843112 19.560451 119 119 119 0
0.965289 -2.821614 19.412549 121 121 121 0
1.045292 -2.837222 19.519929 106 106 106 0
1.109549 -2.810857 19.338544 122 122 122 0
1.190435 -2.827284 19.451560 121 121 121 0
1.262359 -2.821743 19.413438 129 129 129 0
1.332351 -2.812740 19.351497 203 203 203 0
1.407925 -2.815850 19.372890 217 217 217 0
1.487984 -2.827170 19.450771 216 216 216 0
1.577563 -2.854638 19.639751 217 217 217 0
1.658904 -2.865379 19.713649 216 216 216 0
1.732684 -2.862695 19.695186 216 216 216 0
1.808452 -2.863382 19.699909 216 216 216 0
1.893948 -2.878801 19.805992 217 217 217 0
1.981413 -2.895912 19.923712 216 216 216 0
2.055800 -2.893348 19.906072 216 216 216 0
2.132451 -2.894040 19.910838 216 216 216 0
2.211787 -2.898204 19.939482 216 216 216 0
2.297423 -2.910069 20.021117 216 216 216 0
2.388205 -2.927477 20.140877 217 217 217 0
2.470131 -2.933281 20.180813 216 216 216 0
2.552309 -2.939023 20.220315 216 216 216 0
2.641389 -2.952141 20.310565 216 216 216 0
2.729867 -2.963855 20.391162 216 216 216 0
2.816984 -2.973483 20.457402 216 216 216 0
2.901472 -2.979890 20.501479 216 216 216 0
2.992131 -2.992131 20.585699 216 216 216 0
3.077360 -2.998454 20.629196 216 216 216 0
3.178530 -3.019603 20.774705 216 216 216 0
3.270626 -3.031312 20.855260 216 216 216 0
3.354973 -3.035451 20.883739 215 215 215 0
3.442203 -3.041947 20.928426 215 215 215 0
3.531922 -3.050296 20.985869 215 215 215 0
3.633550 -3.068331 21.109950 216 216 216 0
3.710299 -3.065030 21.087236 216 216 216 0
3.796652 -3.069633 21.118908 216 216 216 0
3.888717 -3.078568 21.180378 216 216 216 0
3.990006 -3.094290 21.288546 216 216 216 0
4.091895 -3.109840 21.395531 216 216 216 0
4.181125 -3.115348 21.433425 215 215 215 0
4.277197 -3.125644 21.504259 215 215 215 0
4.372046 -3.134674 21.566386 215 215 215 0
4.473446 -3.147980 21.657931 215 215 215 0
4.572708 -3.159326 21.735987 215 215 215 0
4.668792 -3.168109 21.796415 214 214 214 0
4.767615 -3.178410 21.867287 215 215 215 0
4.887274 -3.202007 22.029634 214 214 214 0
4.983140 -3.209480 22.081048 215 215 215 0
5.070649 -3.211411 22.094332 215 215 215 0
5.176459 -3.224679 22.185616 215 215 215 0
6.462346 -3.960793 27.250035 214 214 214 0
6.554515 -3.953517 27.199980 215 215 215 0
6.660192 -3.954489 27.206667 215 215 215 0
6.777026 -3.961954 27.258024 214 214 214 0
6.909441 -3.978163 27.369542 214 214 214 0
7.023751 -3.983620 27.407088 214 214 214 0
7.150404 -3.995814 27.490981 214 214 214 0
7.268611 -4.003003 27.540443 214 214 214 0
7.382956 -4.007890 27.574064 214 214 214 0
7.507696 -4.018204 27.645021 214 214 214 0
7.626943 -4.025331 27.694055 214 214 214 0
7.748346 -4.033385 27.749470 214 214 214 0
7.888214 -4.050705 27.868625 214 214 214 0
9.557422 -4.842427 33.315631 214 214 214 0
9.668143 -4.834071 33.258145 213 213 213 0
9.817660 -4.845079 33.333875 214 214 214 0
9.971673 -4.857995 33.422736 213 213 213 0
8.498054 -4.087671 28.122954 213 213 213 0
-5.788729 -3.059757 21.619902 180 180 180 0
-5.653693 -3.031691 21.421590 210 210 210 0
-5.497231 -2.991141 21.135068 210 210 210 0
-5.366795 -2.963752 20.941547 210 210 210 0
-5.291953 -2.966701 20.962380 210 210 210 0
-5.242756 -2.984338 21.087002 210 210 210 0
-5.166468 -2.986864 21.104854 210 210 210 0
-5.073377 -2.979602 21.053539 210 210 210 0
-4.979474 -2.971621 20.997148 210 210 210 0
-4.936395 -2.994207 21.156734 210 210 210 0
-4.912652 -3.029469 21.405893 210 210 210 0
-4.865753 -3.051404 21.560886 210 210 210 0
-4.758613 -3.035667 21.449689 210 210 210 0
-4.659190 -3.024386 21.369980 211 211 211 0
-4.573263 -3.021620 21.350434 210 210 210 0
-4.530497 -3.047789 21.535340 211 211 211 0
-4.508237 -3.088978 21.826374 212 212 212 0
-4.406011 -3.075895 21.733931 211 211 211 0
-4.288629 -3.051525 21.561737 212 212 212 0
-4.191214 -3.040685 21.485142 210 210 210 0
-4.104267 -3.037157 21.460218 211 211 211 0
-4.067075 -3.071056 21.699745 211 211 211 0
-4.017947 -3.097168 21.884244 211 211 211 0
-3.919787 -3.085790 21.803849 212 212 212 0
-3.826212 -3.077605 21.746018 211 211 211 0
-3.740894 -3.075846 21.733587 212 212 212 0
-3.671637 -3.087513 21.816022 211 211 211 0
-3.609231 -3.105617 21.943948 211 211 211 0
-3.532240 -3.111735 21.987174 212 212 212 0
-3.446518 -3.110272 21.976841 211 211 211 0
-3.351014 -3.099688 21.902052 211 211 211 0
-3.285927 -3.117418 22.027331 212 212 212 0
-3.229842 -3.144847 22.221138 213 213 213 0
-3.157610 -3.157610 22.311326 211 211 211 0
-3.076655 -3.162117 22.343170 212 212 212 0
-2.981614 -3.151992 22.271625 212 212 212 0
-2.894063 -3.149421 22.253462 212 212 212 0
-2.814027 -3.155121 22.293736 212 212 212 0
-2.740084 -3.168222 22.386310 211 211 211 0
-2.670166 -3.186972 22.518792 211 211 211 0
-2.569114 -3.168574 22.388791 212 212 212 0
-2.477692 -3.161194 22.336644 212 212 212 0
-2.395651 -3.165681 22.368354 212 212 212 0
-2.312405 -3.168851 22.390751 213 213 213 0
-2.238745 -3.185907 22.511267 213 213 213 0
-2.156841 -3.192125 22.555200 212 212 212 0
-2.071098 -3.192942 22.560975 212 212 212 0
-1.987452 -3.197206 22.591105 212 212 212 0
-1.904488 -3.203002 22.632061 212 212 212 0
-1.819524 -3.205828 22.652029 213 213 213 0
-1.733635 -3.207225 22.661899 212 212 212 0
-1.651120 -3.215339 22.719228 213 213 213 0
-1.565886 -3.218766 22.743448 212 212 212 0
-1.482428 -3.226462 22.797820 212 212 212 0
-1.397544 -3.231820 22.835681 213 213 213 0
-1.314369 -3.242111 22.908395 213 213 213 0
-1.232561 -3.257483 23.017015 213 213 213 0
-1.145508 -3.260293 23.036870 213 213 213 0
-1.055783 -3.255330 23.001799 212 212 212 0
-0.965247 -3.246740 22.941103 213 213 213 0
-0.854839 -3.162906 22.348744 214 214 214 0
-0.799107 -3.285217 23.212982 214 214 214 0
-0.708103 -3.274975 23.140614 213 213 213 0
-0.617341 -3.263090 23.056636 215 215 215 0
-0.528502 -3.259093 23.028394 213 213 213 0
-0.439736 -3.254046 22.992726 214 214 214 0
-0.353745 -3.272137 23.120557 215 215 215 0
-0.265265 -3.271598 23.116750 215 215 215 0
-0.177414 -3.282154 23.191335 214 214 214 0
-0.088654 -3.280207 23.177580 214 214 214 0
0.000000 -3.284656 23.209014 214 214 214 0
0.088999 -3.292967 23.267742 214 214 214 0
0.177867 -3.290538 23.250575 215 215 215 0
0.261546 -3.225731 22.792659 200 200 200 0
0.339603 -3.141323 22.196243 120 120 120 0
0.414218 -3.065215 21.658467 111 111 111 0
0.489815 -3.020528 21.342715 116 116 116 0
0.563729 -2.979711 21.054309 113 113 113 0
0.642285 -2.970570 20.989719 107 107 107 0
0.703337 -2.891497 20.430999 108 108 108 0
0.773450 -2.861764 20.220908 109 109 109 0
0.846366 -2.846866 20.115642 124 124 124 0
0.899798 -2.774378 19.603447 120 120 120 0
0.970725 -2.762831 19.521861 112 112 112 0
1.031906 -2.727181 19.269959 104 104 104 0
1.111589 -2.741919 19.374095 118 118 118 0
1.188563 -2.748551 19.420960 103 103 103 0
1.261568 -2.745765 19.401269 128 128 128 0
1.333507 -2.741097 19.368288 202 202 202 0
1.407439 -2.740803 19.366211 217 217 217 0
1.487758 -2.752353 19.447818 216 216 216 0
1.577404 -2.779236 19.637772 217 217 217 0
1.658799 -2.789799 19.712409 217 217 217 0
1.732512 -2.787084 19.693229 216 216 216 0
1.808973 -2.788834 19.705590 216 216 216 0
1.894068 -2.803220 19.807243 217 217 217 0
1.980998 -2.819113 19.919539 217 217 217 0
2.055682 -2.817045 19.904932 216 216 216 0
2.133000 -2.818607 19.915966 216 216 216 0
2.210931 -2.820843 19.931764 216 216 216 0
2.296995 -2.832961 20.017387 216 216 216 0
2.388258 -2.850501 20.141325 216 216 216 0
2.469817 -2.855726 20.178241 215 215 215 0
2.554823 -2.864498 20.240228 216 216 216 0
2.641323 -2.874381 20.310058 216 216 216 0
2.730058 -2.886061 20.392587 216 216 216 0
2.817627 -2.895895 20.462073 216 216 216 0
2.902174 -2.902174 20.506441 216 216 216 0
2.993152 -2.914385 20.592720 216 216 216 0
3.076813 -2.919027 20.625524 215 215 215 0
3.176915 -2.938646 20.764150 216 216 216 0
3.270145 -2.951106 20.852191 216 216 216 0
3.354846 -2.955459 20.882948 216 216 216 0
3.441358 -2.961168 20.923287 215 215 215 0
3.532267 -2.970315 20.987919 215 215 215 0
3.632498 -2.986720 21.103836 215 215 215 0
3.709657 -2.983855 21.083587 215 215 215 0
3.795820 -2.988199 21.114283 215 215 215 0
3.888594 -2.997458 21.179708 215 215 215 0
3.990479 -3.013219 21.291073 215 215 215 0
4.089203 -3.026010 21.381454 215 215 215 0
4.181442 -3.033595 21.435046 215 215 215 0
4.278459 -3.044288 21.510605 214 214 214 0
4.373314 -3.053068 21.572644 215 215 215 0
4.470651 -3.063224 21.644401 215 215 215 0
4.572136 -3.075800 21.733265 214 214 214 0
4.668617 -3.084622 21.795599 215 215 215 0
4.767965 -3.094995 21.868890 215 215 215 0
4.885520 -3.116625 22.021727 214 214 214 0
4.983573 -3.125291 22.082963 215 215 215 0
5.071274 -3.127286 22.097055 215 215 215 0
6.337669 -3.844160 27.162408 215 215 215 0
6.460887 -3.855690 27.243882 215 215 215 0
6.556755 -3.850793 27.209275 214 214 214 0
6.661270 -3.851047 27.211071 214 214 214 0
6.775991 -3.857102 27.253859 214 214 214 0
6.908214 -3.872786 27.364680 214 214 214 0
7.024725 -3.879326 27.410886 214 214 214 0
7.146700 -3.888646 27.476740 214 214 214 0
7.270077 -3.898447 27.545995 215 215 215 0
7.382298 -3.902072 27.571607 214 214 214 0
7.507063 -3.912131 27.642688 214 214 214 0
7.625646 -3.918735 27.689346 214 214 214 0
7.747658 -3.926895 27.747005 215 215 215 0
7.884712 -3.942356 27.856250 213 213 213 0
8.020520 -3.956790 27.958238 213 213 213 0
9.664620 -4.705144 33.246025 213 213 213 0
9.815666 -4.716619 33.327105 213 213 213 0
9.970035 -4.729375 33.417244 213 213 213 0
8.494981 -3.978662 28.112786 214 214 214 0
-5.796307 -2.980958 21.648205 180 180 180 0
-5.659036 -2.952541 21.441835 210 210 210 0
-5.502871 -2.913285 21.156750 210 210 210 0
-5.367368 -2.883959 20.943782 210 210 210 0
-5.291997 -2.886544 20.962555 210 210 210 0
-5.217349 -2.889609 20.984814 210 210 210 0
-5.153968 -2.899107 21.053789 210 210 210 0
-5.068871 -2.896498 21.034841 210 210 210 0
-4.983727 -2.893777 21.015085 210 210 210 0
-4.936212 -2.913174 21.155950 210 210 210 0
-4.911769 -2.947061 21.402044 211 211 211 0
-4.860642 -2.965815 21.538238 210 210 210 0
-4.758755 -2.953710 21.450326 211 211 211 0
-4.667996 -2.948208 21.410369 210 210 210 0
-4.573959 -2.940402 21.353684 211 211 211 0
-4.529946 -2.965055 21.532718 211 211 211 0
-4.507020 -3.004680 21.820481 211 211 211 0
-4.407640 -2.993869 21.741967 211 211 211 0
-4.285695 -2.967020 21.546985 211 211 211 0
-4.187283 -2.955729 21.464990 210 210 210 0
-4.106141 -2.956422 21.470021 211 211 211 0
-4.070654 -2.990685 21.718844 211 211 211 0
-4.008171 -3.006128 21.830996 212 212 212 0
-3.924283 -3.005834 21.828857 210 210 210 0
-3.826852 -2.994927 21.749654 211 211 211 0
-3.739726 -2.991780 21.726801 211 211 211 0
-3.673027 -3.005204 21.824285 211 211 211 0
-3.609854 -3.022204 21.947739 211 211 211 0
-3.534103 -3.029231 21.998776 212 212 212 0
-3.440913 -3.021289 21.941098 212 212 212 0
-3.352901 -3.017611 21.914387 210 210 210 0
-3.290748 -3.037614 22.059650 212 212 212 0
-3.229050 -3.059100 22.215688 212 212 212 0
-3.158095 -3.072741 22.314751 212 212 212 0
-3.076436 -3.076436 22.341583 212 212 212 0
-2.980982 -3.066153 22.266907 212 212 212 0
-2.897089 -3.067506 22.276735 212 212 212 0
-2.815019 -3.070930 22.301597 211 211 211 0
-2.741348 -3.084016 22.396630 212 212 212 0
-2.669815 -3.100430 22.515833 212 212 212 0
-2.569203 -3.083044 22.389568 213 213 213 0
-2.477268 -3.075229 22.332817 212 212 212 0
-2.396998 -3.081854 22.380931 212 212 212 0
-2.312155 -3.082873 22.388333 213 213 213 0
-2.240255 -3.101892 22.526447 212 212 212 0
-2.156143 -3.104846 22.547902 212 212 212 0
-2.072825 -3.109238 22.579795 211 211 211 0
-1.990127 -3.114982 22.621510 213 213 213 0
-1.903779 -3.115275 22.623636 213 213 213 0
-1.821553 -3.122662 22.677283 212 212 212 0
-1.736096 -3.124972 22.694060 212 212 212 0
-1.651575 -3.129300 22.725490 213 213 213 0
-1.565201 -3.130402 22.733491 214 214 214 0
-1.484494 -3.143635 22.829596 213 213 213 0
-1.397945 -3.145376 22.842236 213 213 213 0
-1.314313 -3.154352 22.907420 213 213 213 0
-1.233187 -3.171052 23.028699 214 214 214 0
-1.145838 -3.173089 23.043493 213 213 213 0
-1.055798 -3.167395 23.002145 214 214 214 0
-0.965369 -3.159390 22.944011 214 214 214 0
-0.859827 -3.095375 22.479125 213 213 213 0
-0.798502 -3.194007 23.195403 214 214 214 0
-0.707855 -3.185345 23.132502 214 214 214 0
-0.617078 -3.173545 23.046805 214 214 214 0
-0.528071 -3.168424 23.009614 213 213 213 0
-0.440191 -3.169377 23.016536 212 212 212 0
-0.354441 -3.189968 23.166072 213 213 213 0
-0.266689 -3.200272 23.240898 214 214 214 0
-0.177415 -3.193461 23.191441 215 215 215 0
-0.088629 -3.190629 23.170875 214 214 214 0
0.000000 -3.196849 23.216042 214 214 214 0
0.088974 -3.203075 23.261257 214 214 214 0
0.177474 -3.194536 23.199242 214 214 214 0
0.261659 -3.139906 22.802511 199 199 199 0
0.340689 -3.066197 22.267227 119 119 119 0
0.417624 -3.006891 21.836535 115 115 115 0
0.490113 -2.940680 21.355704 101 101 101 0
0.567024 -2.916121 21.177349 116 116 116 0
0.642645 -2.891904 21.001482 98 98 98 0
0.704036 -2.816145 20.451310 121 121 121 0
0.779704 -2.806935 20.384419 113 113 113 0
0.844996 -2.765440 20.083080 107 107 107 0
0.914150 -2.742451 19.916131 104 104 104 0
0.982754 -2.721471 19.763773 103 103 103 0
1.036832 -2.666138 19.361934 115 115 115 0
1.109059 -2.661740 19.329996 110 110 110 0
1.187349 -2.671535 19.401124 105 105 105 0
1.261054 -2.670468 19.393376 123 123 123 0
1.334802 -2.669604 19.387102 202 202 202 0
1.408337 -2.668428 19.378563 216 216 216 0
1.488435 -2.679182 19.456661 217 217 217 0
1.577711 -2.704648 19.641597 216 216 216 0
1.658708 -2.714250 19.711328 217 217 217 0
1.733050 -2.712600 19.699344 217 217 217 0
1.809470 -2.714205 19.711000 216 216 216 0
1.893033 -2.725967 19.796423 216 216 216 0
1.982233 -2.744630 19.931952 216 216 216 0
2.056313 -2.741751 19.911045 216 216 216 0
2.132771 -2.742135 19.913831 216 216 216 0
2.210966 -2.744647 19.932078 217 217 217 0
2.296748 -2.756097 20.015231 216 216 216 0
2.388160 -2.773347 20.140504 215 215 215 0
2.469252 -2.777908 20.173625 216 216 216 0
2.552256 -2.784280 20.219897 216 216 216 0
2.637692 -2.792850 20.282138 216 216 216 0
2.729678 -2.807669 20.389752 216 216 216 0
2.815840 -2.815840 20.449092 215 215 215 0
2.900909 -2.822506 20.497500 216 216 216 0
2.990469 -2.833076 20.574261 216 216 216 0
3.076858 -2.840177 20.625829 216 216 216 0
3.178786 -2.860908 20.776381 216 216 216 0
3.270258 -2.871446 20.852913 216 216 216 0
3.354817 -2.875558 20.882773 216 216 216 0
3.440660 -2.880553 20.919047 215 215 215 0
3.532075 -2.889880 20.986780 216 216 216 0
4.564734 -3.651787 26.519879 215 215 215 0
3.710105 -2.903560 21.086131 216 216 216 0
3.795369 -2.907091 21.111772 216 216 216 0
3.887165 -2.915374 21.171922 215 215 215 0
3.989032 -2.930717 21.283348 215 215 215 0
4.090362 -2.945061 21.387514 215 215 215 0
4.181153 -2.951402 21.433566 215 215 215 0
4.277447 -2.961309 21.505514 216 216 216 0
4.371678 -2.969442 21.564574 215 215 215 0
4.475619 -2.983746 21.668454 215 215 215 0
4.572593 -2.992970 21.735437 215 215 215 0
4.667786 -3.000720 21.791719 215 215 215 0
4.767719 -3.011191 21.867762 215 215 215 0
4.884886 -3.031998 22.018868 214 214 214 0
4.982367 -3.040089 22.077622 214 214 214 0
6.211845 -3.727107 27.066861 214 214 214 0
6.334509 -3.738399 27.148867 215 215 215 0
6.461276 -3.751709 27.245525 215 215 215 0
6.554209 -3.745262 27.198709 215 215 215 0
6.659123 -3.745757 27.202301 215 215 215 0
6.774303 -3.751922 27.247070 215 215 215 0
6.908024 -3.768013 27.363928 214 214 214 0
7.021897 -3.772960 27.399852 214 214 214 0
7.147482 -3.783961 27.479747 214 214 214 0
7.264966 -3.790417 27.526630 214 214 214 0
7.380267 -3.795566 27.564021 214 214 214 0
7.505846 -3.805781 27.638207 214 214 214 0
7.625722 -3.812861 27.689621 214 214 214 0
7.747767 -3.820817 27.747397 214 214 214 0
7.885786 -3.836328 27.860045 214 214 214 0
8.015615 -3.847495 27.941140 213 213 213 0
9.664172 -4.577765 33.244484 214 214 214 0
9.814634 -4.588660 33.323601 213 213 213 0
9.968166 -4.600692 33.410979 214 214 214 0
8.495055 -3.871164 28.113030 213 213 213 0
-5.891299 -2.904161 21.693083 77 77 77 0
-5.746739 -2.873370 21.463078 179 179 179 0
-5.661588 -2.871820 21.451502 210 210 210 0
-5.505556 -2.833742 21.167073 210 210 210 0
-5.377801 -2.809299 20.984493 210 210 210 0
-5.301059 -2.811168 20.998452 210 210 210 0
-5.232135 -2.817304 21.044285 210 210 210 0
-5.160067 -2.821912 21.078704 211 211 211 0
-5.071403 -2.817446 21.045349 210 210 210 0
-4.985211 -2.814232 21.021339 210 210 210 0
-4.937400 -2.832934 21.161041 210 210 210 0
-4.909080 -2.863630 21.390325 210 210 210 0
-4.867224 -2.887337 21.567406 211 211 211 0
-4.759412 -2.872059 21.453288 211 211 211 0
-4.667849 -2.866223 21.409694 211 211 211 0
-4.575465 -2.859666 21.360715 211 211 211 0
-4.530861 -2.883275 21.537068 211 211 211 0
-4.503828 -2.919148 21.805025 211 211 211 0
-4.410469 -2.912574 21.755921 211 211 211 0
-4.287421 -2.885764 21.555663 211 211 211 0
-4.186773 -2.873276 21.462378 211 211 211 0
-4.104314 -2.873020 21.460468 211 211 211 0
-4.074121 -2.910086 21.737340 212 212 212 0
-4.019217 -2.930679 21.891158 210 210 210 0
-3.923926 -2.922073 21.826872 211 211 211 0
-3.830693 -2.914657 21.771483 211 211 211 0
-3.741354 -2.909942 21.736259 211 211 211 0
-3.671516 -2.920524 21.815305 211 211 211 0
-3.607306 -2.936179 21.932245 212 212 212 0
-3.537216 -2.947680 22.018154 212 212 212 0
-3.441575 -2.937930 21.945322 211 211 211 0
-3.354033 -2.934779 21.921786 212 212 212 0
-3.285460 -2.948489 22.024197 211 211 211 0
-3.226605 -2.971873 22.198864 212 212 212 0
-3.157836 -2.987142 22.312922 212 212 212 0
-3.076590 -2.991130 22.342704 212 212 212 0
-2.982526 -2.982526 22.278438 211 211 211 0
-2.895770 -2.980940 22.266593 212 212 212 0
-2.813313 -2.983817 22.288081 212 212 212 0
-2.739534 -2.996365 22.381813 212 212 212 0
-2.669161 -3.013569 22.510321 212 212 212 0
-2.567442 -2.995349 22.374226 213 213 213 0
-2.476670 -2.989084 22.327427 212 212 212 0
-2.395847 -2.994809 22.370187 212 212 212 0
-2.314372 -3.000111 22.409795 212 212 212 0
-2.241263 -3.017085 22.536582 212 212 212 0
-2.158220 -3.021507 22.569616 212 212 212 0
-2.068051 -3.015908 22.527794 213 213 213 0
-1.988850 -3.026511 22.606991 212 212 212 0
-1.905182 -3.030971 22.640304 212 212 212 0
-1.819365 -3.032275 22.650049 213 213 213 0
-1.735371 -3.036899 22.684585 213 213 213 0
-1.651751 -3.042699 22.727910 213 213 213 0
-1.566037 -3.045072 22.745638 213 213 213 0
-1.480423 -3.047930 22.766987 213 213 213 0
-1.396450 -3.054735 22.817812 213 213 213 0
-1.314375 -3.066874 22.908492 214 214 214 0
-1.232447 -3.081118 23.014885 212 212 212 0
-1.145931 -3.085198 23.045362 213 213 213 0
-1.055796 -3.079404 23.002083 214 214 214 0
-0.965513 -3.072086 22.947419 213 213 213 0
-0.861575 -3.015512 22.524830 213 213 213 0
-0.798560 -3.105513 23.197108 214 214 214 0
-0.707747 -3.096395 23.129003 214 214 214 0
-0.617405 -3.087024 23.059004 213 213 213 0
-0.527983 -3.079900 23.005787 214 214 214 0
-0.439739 -3.078174 22.992899 213 213 213 0
-0.354077 -3.098170 23.142257 214 214 214 0
-0.266639 -3.110788 23.236513 215 215 215 0
-0.177197 -3.100955 23.163060 215 215 215 0
-0.088750 -3.106233 23.202488 214 214 214 0
0.000000 -3.108517 23.219551 215 215 215 0
0.088993 -3.114751 23.266110 214 214 214 0
0.177391 -3.104345 23.188382 215 215 215 0
0.261174 -3.047034 22.760290 200 200 200 0
0.339591 -2.971417 22.195459 110 110 110 0
0.417249 -2.920740 21.816917 98 98 98 0
0.489205 -2.853697 21.316129 114 114 114 0
0.566843 -2.834214 21.170600 112 112 112 0
0.643193 -2.813969 21.019374 94 94 94 0
0.704313 -2.738996 20.459353 105 105 105 0
0.776089 -2.716311 20.289905 106 106 106 0
0.837012 -2.663220 19.893335 112 112 112 0
0.901654 -2.629823 19.643870 122 122 122 0
0.963251 -2.593368 19.371564 120 120 120 0
1.040655 -2.601639 19.433342 100 100 100 0
1.109370 -2.588529 19.335419 121 121 121 0
1.190728 -2.604717 19.456338 117 117 117 0
1.264166 -2.602694 19.441228 127 127 127 0
1.335914 -2.597611 19.403256 203 203 203 0
1.409398 -2.596259 19.393159 216 216 216 0
1.488707 -2.605237 19.460223 216 216 216 0
1.577699 -2.629498 19.641439 217 217 217 0
1.658463 -2.638464 19.708417 217 217 217 0
1.732939 -2.637081 19.698083 216 216 216 0
1.809083 -2.638246 19.706789 217 217 217 0
1.892864 -2.650010 19.794656 216 216 216 0
1.982006 -2.668085 19.929671 216 216 216 0
2.055582 -2.664643 19.903963 217 217 217 0
2.132867 -2.666084 19.914723 216 216 216 0
2.211825 -2.669444 19.939826 215 215 215 0
2.297238 -2.680111 20.019502 217 217 217 0
2.387453 -2.695511 20.134537 216 216 216 0
2.467973 -2.699346 20.163180 216 216 216 0
2.552568 -2.707269 20.222368 216 216 216 0
2.638578 -2.716184 20.288954 216 216 216 0
2.729708 -2.729708 20.389979 217 217 217 0
2.814905 -2.736713 20.442301 215 215 215 0
2.900232 -2.743463 20.492718 215 215 215 0
2.988634 -2.752690 20.561641 216 216 216 0
3.076545 -2.761002 20.623727 216 216 216 0
3.177320 -2.780155 20.766797 215 215 215 0
3.270656 -2.792023 20.855450 216 216 216 0
3.354053 -2.795044 20.878011 215 215 215 0
3.442107 -2.801715 20.927845 216 216 216 0
3.530324 -2.808212 20.976374 215 215 215 0
4.564385 -3.550077 26.517849 216 216 216 0
3.709457 -2.822413 21.082447 216 216 216 0
3.795721 -2.826601 21.113731 216 216 216 0
3.886745 -2.834085 21.169633 215 215 215 0
3.987692 -2.848352 21.276203 216 216 216 0
4.088099 -2.861670 21.375684 215 215 215 0
4.181216 -2.869462 21.433888 215 215 215 0
4.274773 -2.877251 21.492071 215 215 215 0
4.370857 -2.886415 21.560521 215 215 215 0
4.474731 -2.900289 21.664154 215 215 215 0
4.571000 -2.908818 21.727866 215 215 215 0
4.667719 -2.917325 21.791407 216 216 216 0
4.764115 -2.925334 21.851235 215 215 215 0
4.884060 -2.947278 22.015146 214 214 214 0
4.981428 -2.955084 22.073458 215 215 215 0
6.211137 -3.623163 27.063780 215 215 215 0
6.334290 -3.634429 27.147927 214 214 214 0
6.460669 -3.647152 27.242965 215 215 215 0
6.555582 -3.641990 27.204409 214 214 214 0
6.657669 -3.640913 27.196359 215 215 215 0
6.774691 -3.647911 27.248632 214 214 214 0
6.905458 -3.661986 27.353767 214 214 214 0
7.018176 -3.666211 27.385332 214 214 214 0
7.143178 -3.676636 27.463200 215 215 215 0
7.262373 -3.683813 27.516807 214 214 214 0
7.380270 -3.690135 27.564033 214 214 214 0
7.507145 -3.700706 27.642992 214 214 214 0
7.624705 -3.706454 27.685928 214 214 214 0
7.746421 -3.714037 27.742576 214 214 214 0
7.884281 -3.729052 27.854727 213 213 213 0
8.016672 -3.741114 27.944827 213 213 213 0
8.122219 -3.740495 27.940209 213 213 213 0
9.817416 -4.462462 33.333049 214 214 214 0
8.389304 -3.764431 28.119002 213 213 213 0
8.495347 -3.763761 28.113997 214 214 214 0
-5.818547 -2.826151 21.731268 179 179 179 0
-5.666366 -2.792122 21.469606 210 210 210 0
-5.511892 -2.755946 21.191435 210 210 210 0
-5.365966 -2.723028 20.938312 211 211 211 0
-5.296519 -2.728510 20.980469 211 211 211 0
-5.227926 -2.734608 21.027356 210 210 210 0
-5.162176 -2.742406 21.087321 210 210 210 0
-5.084895 -2.744229 21.101337 211 211 211 0
-4.993204 -2.738209 21.055045 210 210 210 0
-4.938354 -2.752525 21.165131 211 211 211 0
-4.909822 -2.782233 21.393561 210 210 210 0
-4.861115 -2.801320 21.540334 211 211 211 0
-4.763163 -2.792199 21.470196 210 210 210 0
-4.668011 -2.784428 21.410439 210 210 210 0
-4.572584 -2.776212 21.347265 210 210 210 0
-4.529773 -2.800223 21.531897 211 211 211 0
-4.507071 -2.837786 21.820727 211 211 211 0
-4.403376 -2.824807 21.720930 211 211 211 0
-4.283817 -2.800957 21.537543 210 210 210 0
-4.185558 -2.790372 21.456149 210 210 210 0
-4.104843 -2.791293 21.463233 211 211 211 0
-4.074685 -2.827333 21.740351 211 211 211 0
-4.012754 -2.842368 21.855961 212 212 212 0
-3.916540 -2.833242 21.785787 212 212 212 0
-3.833177 -2.833218 21.785605 212 212 212 0
-3.745394 -2.829854 21.759735 212 212 212 0
-3.677031 -2.841342 21.848075 210 210 210 0
-3.611835 -2.855870 21.959782 211 211 211 0
-3.529972 -2.857597 21.973062 212 212 212 0
-3.445252 -2.857038 21.968770 212 212 212 0
-3.351400 -2.848690 21.904578 211 211 211 0
-3.288640 -2.867020 22.045519 212 212 212 0
-3.228366 -2.888538 22.210983 212 212 212 0
-3.159787 -2.903588 22.326708 212 212 212 0
-3.074534 -2.903727 22.327773 212 212 212 0
-2.982509 -2.897295 22.278314 212 212 212 0
-2.894317 -2.894317 22.255417 213 213 213 0
-2.814089 -2.899364 22.294229 211 211 211 0
-2.741742 -2.913100 22.399849 212 212 212 0
-2.669550 -2.927894 22.513600 212 212 212 0
-2.569384 -2.911969 22.391149 212 212 212 0
-2.477394 -2.904531 22.333956 212 212 212 0
-2.395352 -2.908641 22.365561 213 213 213 0
-2.314742 -2.914860 22.413380 213 213 213 0
-2.239832 -2.929012 22.522197 212 212 212 0
-2.159056 -2.936316 22.578365 212 212 212 0
-2.072409 -2.935913 22.575263 213 213 213 0
-1.987072 -2.937410 22.586778 212 212 212 0
-1.904993 -2.944080 22.638061 213 213 213 0
-1.820821 -2.947995 22.668167 213 213 213 0
-1.734331 -2.948363 22.670996 212 212 212 0
-1.650418 -2.953380 22.709576 213 213 213 0
-1.562991 -2.952317 22.701396 213 213 213 0
-1.480731 -2.961463 22.771723 212 212 212 0
-1.395303 -2.965018 22.799061 214 214 214 0
-1.314194 -2.978839 22.905336 213 213 213 0
-1.230301 -2.987873 22.974800 213 213 213 0
-1.145170 -2.995061 23.030075 213 213 213 0
-1.054837 -2.988704 22.981191 214 214 214 0
-0.965086 -2.982992 22.937273 213 213 213 0
-0.864098 -2.937932 22.590789 213 213 213 0
-0.798492 -3.016525 23.195120 214 214 214 0
-0.707760 -3.007981 23.129418 214 214 214 0
-0.617163 -2.997648 23.049969 212 212 212 0
-0.528403 -2.994284 23.024101 213 213 213 0
-0.439518 -2.988725 22.981353 214 214 214 0
-0.353841 -3.007644 23.126830 215 215 215 0
-0.266303 -3.018103 23.207251 215 215 215 0
-0.177667 -3.020332 23.224388 214 214 214 0
-0.088657 -3.014328 23.178227 214 214 214 0
0.000000 -3.024615 23.257328 215 215 215 0
0.089121 -3.030098 23.299485 215 215 215 0
0.177059 -3.010008 23.145009 214 214 214 0
0.261686 -2.965773 22.804864 198 198 198 0
0.339391 -2.884822 22.182407 106 106 106 0
0.412514 -2.805098 21.569378 108 108 108 0
0.493195 -2.794769 21.489961 107 107 107 0
0.565101 -2.744778 21.105557 111 111 111 0
0.636149 -2.703631 20.789167 118 118 118 0
0.706954 -2.670715 20.536061 104 104 104 0
0.768244 -2.612030 20.084817 110 110 110 0
0.846172 -2.615439 20.111029 112 112 112 0
0.915609 -2.594225 19.947907 109 109 109 0
0.969652 -2.536013 19.500292 118 118 118 0
1.032487 -2.507469 19.280804 122 122 122 0
1.117017 -2.531904 19.468698 112 112 112 0
1.191580 -2.532108 19.470265 110 110 110 0
1.264483 -2.528967 19.446110 127 127 127 0
1.334397 -2.520528 19.381224 202 202 202 0
1.408864 -2.521125 19.385817 216 216 216 0
1.488936 -2.531191 19.463215 216 216 216 0
1.578235 -2.555237 19.648112 216 216 216 0
1.658292 -2.562816 19.706387 217 217 217 0
1.732848 -2.561602 19.697053 216 216 216 0
1.808881 -2.562581 19.704583 216 216 216 0
1.893744 -2.575491 19.803856 216 216 216 0
1.981958 -2.591791 19.929192 216 216 216 0
2.056111 -2.589177 19.909086 216 216 216 0
2.133194 -2.590307 19.917775 216 216 216 0
2.210876 -2.592061 19.931266 216 216 216 0
2.295615 -2.601698 20.005364 217 217 217 0
2.385787 -2.616669 20.120487 216 216 216 0
2.468867 -2.623172 20.170485 217 217 217 0
2.550081 -2.627356 20.202664 216 216 216 0
2.638099 -2.638099 20.285265 216 216 216 0
2.728831 -2.650864 20.383422 216 216 216 0
2.814991 -2.658602 20.442924 216 216 216 0
2.900327 -2.665166 20.493392 216 216 216 0
2.990244 -2.675481 20.572713 216 216 216 0
3.076407 -2.681996 20.622803 216 216 216 0
3.177537 -2.700906 20.768216 216 216 216 0
3.268989 -2.710869 20.844820 216 216 216 0
3.354023 -2.715162 20.877829 216 216 216 0
3.441406 -2.721111 20.923578 216 216 216 0
3.530032 -2.727752 20.974640 215 215 215 0
4.563469 -3.447954 26.512526 216 216 216 0
4.652856 -3.439067 26.444193 216 216 216 0
3.794122 -2.744684 21.104837 215 215 215 0
3.886963 -2.753266 21.170824 215 215 215 0
3.990190 -2.768703 21.289528 215 215 215 0
4.089785 -2.781054 21.384495 216 216 216 0
4.179537 -2.786358 21.425281 216 216 216 0
4.274942 -2.795154 21.492921 215 215 215 0
4.371673 -2.804470 21.564550 215 215 215 0
4.470677 -2.814871 21.644528 215 215 215 0
4.571048 -2.825739 21.728094 216 216 216 0
4.665722 -2.832760 21.782082 215 215 215 0
5.874193 -3.503905 26.942750 214 214 214 0
4.882536 -2.862176 22.008274 214 214 214 0
6.105981 -3.518701 27.056523 215 215 215 0
6.213021 -3.520712 27.071988 215 215 215 0
6.335329 -3.531167 27.152379 214 214 214 0
6.459065 -3.542068 27.236201 215 215 215 0
6.553727 -3.536932 27.196710 214 214 214 0
6.657162 -3.536617 27.194290 214 214 214 0
6.772566 -3.542573 27.240085 214 214 214 0
6.907776 -3.558551 27.362948 214 214 214 0
7.018201 -3.561475 27.385430 214 214 214 0
7.140367 -3.570184 27.452393 215 215 215 0
7.263083 -3.578910 27.519495 214 214 214 0
7.377736 -3.583472 27.554571 214 214 214 0
7.503950 -3.593441 27.631226 214 214 214 0
7.626217 -3.601269 27.691421 214 214 214 0
7.747192 -3.608281 27.745338 213 213 213 0
7.883407 -3.622106 27.851641 213 213 213 0
8.015155 -3.633537 27.939537 213 213 213 0
8.121927 -3.633493 27.939204 214 214 214 0
9.814111 -4.333503 33.321825 213 213 213 0
8.388795 -3.656654 28.117295 213 213 213 0
8.495300 -3.656205 28.113842 214 214 214 0
-5.901875 -2.743125 21.732026 77 77 77 0
-5.822550 -2.744916 21.746218 180 180 180 0
-5.669654 -2.711574 21.482064 210 210 210 0
-5.514919 -2.676358 21.203074 211 211 211 0
-5.376738 -2.648244 20.980345 210 210 210 0
-5.297083 -2.648541 20.982700 210 210 210 0
-5.236536 -2.658549 21.061986 210 210 210 0
-5.158953 -2.660085 21.074153 211 211 211 0
-5.070746 -2.656105 21.042621 210 210 210 0
-4.987328 -2.654546 21.030268 211 211 211 0
-4.934214 -2.669329 21.147387 211 211 211 0
-4.915187 -2.703353 21.416938 210 210 210 0
-4.861373 -2.719073 21.541477 210 210 210 0
-4.760275 -2.708432 21.457178 211 211 211 0
-4.663769 -2.700077 21.390982 211 211 211 0
-4.571380 -2.693849 21.341644 210 210 210 0
