ply
    format ascii 1.0
    element vertex 22999
    property float x
    property float y
    property float z
    property uchar red
    property uchar green
    property uchar blue
    property uchar alpha
    end_header
2.322139 0.625191 23.349810 213 213 213 0
2.416077 0.626390 23.394593 213 213 213 0
2.511346 0.627836 23.448604 214 214 214 0
2.605585 0.628934 23.489606 213 213 213 0
2.698614 0.629677 23.517335 213 213 213 0
2.784605 0.628782 23.483912 214 214 214 0
2.874047 0.628698 23.480773 214 214 214 0
2.967300 0.629427 23.508023 214 214 214 0
3.064800 0.630988 23.566323 214 214 214 0
3.153006 0.630601 23.551867 214 214 214 0
3.240502 0.630098 23.533057 213 213 213 0
3.328719 0.629758 23.520359 215 215 215 0
3.420386 0.630071 23.532069 214 214 214 0
3.519586 0.631721 23.593672 214 214 214 0
3.617051 0.632984 23.640857 214 214 214 0
3.707829 0.633044 23.643098 214 214 214 0
3.799536 0.633256 23.651020 214 214 214 0
3.893184 0.633774 23.670370 214 214 214 0
3.987295 0.634342 23.691594 214 214 214 0
4.086666 0.635704 23.742430 214 214 214 0
4.179550 0.636018 23.754189 214 214 214 0
4.270565 0.636042 23.755052 214 214 214 0
4.360096 0.635847 23.747797 214 214 214 0
4.472141 0.638877 23.860961 214 214 214 0
4.576860 0.640760 23.931292 214 214 214 0
4.660788 0.639716 23.892285 215 215 215 0
4.746006 0.638885 23.861268 214 214 214 0
4.841246 0.639410 23.880854 214 214 214 0
4.947821 0.641384 23.954591 214 214 214 0
5.036876 0.641057 23.942368 214 214 214 0
5.123344 0.640418 23.918507 214 214 214 0
5.204789 0.639185 23.872441 214 214 214 0
5.296251 0.639203 23.873117 214 214 214 0
5.415291 0.642492 23.995972 214 214 214 0
5.517383 0.643695 24.040886 215 215 215 0
5.606262 0.643342 24.027695 214 214 214 0
5.716129 0.645369 24.103432 199 199 199 0
5.806450 0.645161 24.095654 89 89 89 0
-10.713282 1.071328 35.010725 210 210 210 0
-10.579266 1.071318 35.010393 210 210 210 0
-5.947594 0.610010 19.934954 210 210 210 0
-5.869529 0.609821 19.928798 210 210 210 0
-5.758366 0.606144 19.808622 210 210 210 0
-5.684032 0.606297 19.813619 210 210 210 0
-5.626724 0.608294 19.878905 210 210 210 0
-5.552065 0.608446 19.883841 210 210 210 0
-5.539283 0.615476 20.113589 210 210 210 0
-5.486267 0.618171 20.201666 210 210 210 0
-5.424507 0.619944 20.259596 211 211 211 0
-5.357043 0.621106 20.297595 210 210 210 0
-5.298006 0.623295 20.369113 211 211 211 0
-5.227125 0.624134 20.396548 210 210 210 0
-5.170266 0.626699 20.480357 210 210 210 0
-5.121160 0.630297 20.597930 210 210 210 0
-5.084530 0.635566 20.770140 211 211 211 0
-5.007527 0.635876 20.780275 210 210 210 0
-4.938826 0.637268 20.825748 210 210 210 0
-4.872106 0.638965 20.881201 210 210 210 0
-4.820202 0.642694 21.003061 210 210 210 0
-4.792762 0.649866 21.237453 211 211 211 0
-4.717787 0.650729 21.265661 210 210 210 0
-4.604006 0.646176 21.116871 211 211 211 0
-4.503699 0.643386 21.025671 211 211 211 0
-4.438428 0.645590 21.097698 211 211 211 0
-4.410295 0.653377 21.352188 211 211 211 0
-4.337324 0.654690 21.395109 211 211 211 0
-4.246093 0.653245 21.347880 211 211 211 0
-4.142542 0.649811 21.235637 211 211 211 0
-4.042590 0.646814 21.137727 211 211 211 0
-3.968933 0.647989 21.176114 211 211 211 0
-3.941139 0.656856 21.465897 212 212 212 0
-3.880804 0.660562 21.587008 212 212 212 0
-3.782820 0.657882 21.499406 211 211 211 0
-3.690181 0.656032 21.438959 212 212 212 0
-3.614166 0.657121 21.474544 211 211 211 0
-3.553160 0.661053 21.603040 212 212 212 0
-3.483253 0.663477 21.682245 212 212 212 0
-3.409189 0.665208 21.738810 212 212 212 0
-3.313536 0.662707 21.657098 211 211 211 0
-3.234091 0.663403 21.679847 212 212 212 0
-3.157484 0.664733 21.723313 211 211 211 0
-3.107188 0.671824 21.955049 211 211 211 0
-3.032041 0.673787 22.019180 212 212 212 0
-2.946392 0.673461 22.008527 212 212 212 0
-2.853598 0.671435 21.942314 212 212 212 0
-2.771593 0.671901 21.957558 212 212 212 0
-2.699563 0.674891 22.055255 212 212 212 0
-2.628423 0.678303 22.166759 212 212 212 0
-2.536407 0.676375 22.103767 212 212 212 0
-2.443185 0.673982 22.025562 212 212 212 0
-2.357476 0.673564 22.011911 212 212 212 0
-2.276269 0.674450 22.040848 213 213 213 0
-2.195285 0.675472 22.074255 212 212 212 0
-2.117393 0.677566 22.142675 212 212 212 0
-2.036937 0.678979 22.188851 212 212 212 0
-1.950054 0.678280 22.166002 213 213 213 0
-1.869314 0.679750 22.214065 212 212 212 0
-1.789293 0.681635 22.275665 212 212 212 0
-1.707977 0.683191 22.326496 212 212 212 0
-1.620196 0.682188 22.293721 212 212 212 0
-1.539239 0.684106 22.356412 213 213 213 0
-1.455773 0.685069 22.387891 213 213 213 0
-1.374903 0.687452 22.465740 213 213 213 0
-1.290265 0.688141 22.488272 213 213 213 0
-1.207778 0.690159 22.554220 213 213 213 0
-1.124382 0.691928 22.612011 212 212 212 0
-1.039024 0.692682 22.636679 213 213 213 0
-0.951073 0.691690 22.604235 212 212 212 0
-0.863627 0.690901 22.578471 213 213 213 0
-0.778763 0.692233 22.622006 212 212 212 0
-0.695512 0.695512 22.729163 213 213 213 0
-0.607482 0.694265 22.688411 212 212 212 0
-0.519731 0.692975 22.646239 213 213 213 0
-0.432577 0.692123 22.618395 213 213 213 0
-0.345712 0.691424 22.595560 213 213 213 0
-0.260463 0.694568 22.698315 212 212 212 0
-0.174286 0.697144 22.782489 212 212 212 0
-0.087101 0.696809 22.771527 213 213 213 0
0.000000 0.696988 22.777392 213 213 213 0
0.087174 0.697389 22.790496 213 213 213 0
0.174870 0.699480 22.858836 213 213 213 0
0.262651 0.700403 22.888981 213 213 213 0
0.350834 0.701667 22.930305 213 213 213 0
0.438256 0.701210 22.915347 214 214 214 0
0.526106 0.701475 22.924025 213 213 213 0
0.615866 0.703847 23.001535 213 213 213 0
0.707682 0.707682 23.126851 213 213 213 0
0.796239 0.707768 23.129672 213 213 213 0
0.881913 0.705530 23.056549 213 213 213 0
0.968975 0.704709 23.029717 214 214 214 0
1.058892 0.705928 23.069552 213 213 213 0
1.153073 0.709584 23.189005 214 214 214 0
1.240033 0.708590 23.156537 213 213 213 0
1.325591 0.706982 23.103981 213 213 213 0
1.412311 0.706156 23.076979 214 214 214 0
1.501893 0.706773 23.097159 214 214 214 0
1.597874 0.710166 23.208049 214 214 214 0
1.689156 0.711224 23.242606 214 214 214 0
1.776789 0.710716 23.225999 213 213 213 0
1.865107 0.710517 23.219507 214 214 214 0
1.958117 0.712043 23.269368 214 214 214 0
2.050282 0.713142 23.305283 214 214 214 0
2.141256 0.713752 23.325223 214 214 214 0
2.231467 0.714070 23.335605 214 214 214 0
2.321841 0.714413 23.346817 213 213 213 0
2.417214 0.716211 23.405602 214 214 214 0
2.511959 0.717703 23.454336 214 214 214 0
2.605257 0.718692 23.486655 214 214 214 0
2.699891 0.719971 23.528460 214 214 214 0
2.784191 0.718501 23.480424 214 214 214 0
2.873850 0.718462 23.479163 214 214 214 0
2.966790 0.719222 23.503984 214 214 214 0
3.065474 0.721288 23.571505 214 214 214 0
3.152593 0.720593 23.548779 214 214 214 0
3.239798 0.719955 23.527944 214 214 214 0
3.330793 0.720171 23.535015 214 214 214 0
3.420545 0.720115 23.533159 214 214 214 0
3.520827 0.722221 23.601991 214 214 214 0
3.617275 0.723455 23.642322 214 214 214 0
3.706795 0.723277 23.636505 215 215 215 0
3.800832 0.723968 23.659085 214 214 214 0
3.892332 0.724155 23.665189 214 214 214 0
3.985832 0.724697 23.682902 214 214 214 0
4.085000 0.726222 23.732750 214 214 214 0
4.179463 0.726863 23.753695 214 214 214 0
4.270248 0.726851 23.753291 214 214 214 0
4.359999 0.726666 23.747269 214 214 214 0
4.469897 0.729779 23.848992 214 214 214 0
4.574884 0.731981 23.920960 214 214 214 0
4.661099 0.731153 23.893883 214 214 214 0
4.745782 0.730120 23.860139 215 215 215 0
4.838189 0.730293 23.865773 214 214 214 0
4.947403 0.732949 23.952569 215 215 215 0
5.036787 0.732624 23.941944 214 214 214 0
5.123454 0.731922 23.919018 214 214 214 0
5.204783 0.730496 23.872416 214 214 214 0
5.296699 0.730579 23.875138 215 215 215 0
5.412896 0.733952 23.985360 215 215 215 0
5.516701 0.735560 24.037914 215 215 215 0
5.604259 0.734985 24.019110 214 214 214 0
5.716843 0.737657 24.106442 199 199 199 0
5.806802 0.737372 24.097112 89 89 89 0
-10.713293 1.205245 35.010760 210 210 210 0
-10.579278 1.205234 35.010433 209 209 209 0
-5.940648 0.685459 19.911675 210 210 210 0
-5.866986 0.685752 19.920165 210 210 210 0
-5.775406 0.683930 19.867239 210 210 210 0
-5.696236 0.683548 19.856161 210 210 210 0
-5.625675 0.684204 19.875200 210 210 210 0
-5.552946 0.684610 19.886993 210 210 210 0
-5.526633 0.690829 20.067659 210 210 210 0
-5.476731 0.694234 20.166552 211 211 211 0
-5.428061 0.697894 20.272870 210 210 210 0
-5.355954 0.698603 20.293469 210 210 210 0
-5.292795 0.700517 20.349078 210 210 210 0
-5.224200 0.701758 20.385132 210 210 210 0
-5.168332 0.704773 20.472695 210 210 210 0
-5.107710 0.707221 20.543830 211 211 211 0
-5.085996 0.715218 20.776126 210 210 210 0
-5.016362 0.716623 20.816940 210 210 210 0
-4.940908 0.717229 20.834526 210 210 210 0
-4.869842 0.718501 20.871496 211 211 211 0
-4.814593 0.722189 20.978619 211 211 211 0
-4.782407 0.729520 21.191569 210 210 210 0
-4.716894 0.731932 21.261636 211 211 211 0
-4.601879 0.726612 21.107115 211 211 211 0
-4.501393 0.723438 21.014909 211 211 211 0
-4.441268 0.726753 21.111197 211 211 211 0
-4.409772 0.734962 21.349660 211 211 211 0
-4.334590 0.736062 21.381624 211 211 211 0
-4.244848 0.734685 21.341617 211 211 211 0
-4.138208 0.730272 21.213418 210 210 210 0
-4.040231 0.727242 21.125393 211 211 211 0
-3.970953 0.729359 21.186892 211 211 211 0
-3.942713 0.739259 21.474473 211 211 211 0
-3.876876 0.742380 21.565155 211 211 211 0
-3.784420 0.740430 21.508497 211 211 211 0
-3.688673 0.737735 21.430200 211 211 211 0
-3.612475 0.738915 21.464500 212 212 212 0
-3.551247 0.743284 21.591411 211 211 211 0
-3.480413 0.745803 21.664571 212 212 212 0
-3.406318 0.747728 21.720501 212 212 212 0
-3.318210 0.746597 21.687647 211 211 211 0
-3.233573 0.746209 21.676372 212 212 212 0
-3.157320 0.747786 21.722188 212 212 212 0
-3.105118 0.755299 21.940423 212 212 212 0
-3.032090 0.758023 22.019537 212 212 212 0
-2.946451 0.757659 22.008974 211 211 211 0
-2.851988 0.754938 21.929931 212 212 212 0
-2.767121 0.754669 21.922130 212 212 212 0
-2.701765 0.759871 22.073245 212 212 212 0
-2.626452 0.762518 22.150134 212 212 212 0
-2.533866 0.760160 22.081622 212 212 212 0
-2.442728 0.758088 22.021436 212 212 212 0
-2.357532 0.757778 22.012436 212 212 212 0
-2.273031 0.757677 22.009496 212 212 212 0
-2.194524 0.759643 22.066609 212 212 212 0
-2.117448 0.762281 22.143252 212 212 212 0
-2.036656 0.763746 22.185796 212 212 212 0
-1.949082 0.762684 22.154949 212 212 212 0
-1.868375 0.764335 22.202915 212 212 212 0
-1.789051 0.766736 22.272651 212 212 212 0
-1.706618 0.767978 22.308730 213 213 213 0
-1.619726 0.767239 22.287249 212 212 212 0
-1.539812 0.769906 22.364730 213 213 213 0
-1.456238 0.770949 22.395044 213 213 213 0
-1.375094 0.773490 22.468857 212 212 212 0
-1.290078 0.774047 22.485018 213 213 213 0
-1.206902 0.775865 22.537844 213 213 213 0
-1.125123 0.778932 22.626917 212 212 212 0
-1.038823 0.779117 22.632315 213 213 213 0
-0.950798 0.777926 22.597699 212 212 212 0
-0.863091 0.776782 22.564473 213 213 213 0
-0.778377 0.778377 22.610817 213 213 213 0
-0.695441 0.782372 22.726844 213 213 213 0
-0.607341 0.780868 22.683155 213 213 213 0
-0.519733 0.779600 22.646323 213 213 213 0
-0.432745 0.778941 22.627181 212 212 212 0
-0.345832 0.778123 22.603419 213 213 213 0
-0.260508 0.781524 22.702236 213 213 213 0
-0.174306 0.784378 22.785132 212 212 212 0
-0.087132 0.784188 22.779594 213 213 213 0
0.000000 0.783433 22.757673 213 213 213 0
0.087165 0.784484 22.788203 213 213 213 0
0.174890 0.787007 22.861486 213 213 213 0
0.262621 0.787864 22.886390 214 214 214 0
0.350790 0.789277 22.927426 213 213 213 0
0.438433 0.789180 22.924617 213 213 213 0
0.525892 0.788838 22.914678 213 213 213 0
0.615969 0.791960 23.005387 213 213 213 0
0.707306 0.795719 23.114566 213 213 213 0
0.796114 0.796114 23.126035 213 213 213 0
0.881964 0.793767 23.057875 213 213 213 0
0.969300 0.793064 23.037431 213 213 213 0
1.059811 0.794858 23.089567 213 213 213 0
1.153342 0.798467 23.194401 214 214 214 0
1.239900 0.797078 23.154056 213 213 213 0
1.325593 0.795356 23.104022 213 213 213 0
1.411867 0.794175 23.069723 213 213 213 0
1.501707 0.795022 23.094307 214 214 214 0
1.597322 0.798661 23.200033 214 214 214 0
1.689077 0.800089 23.241515 213 213 213 0
1.776492 0.799422 23.222123 214 214 214 0
1.865006 0.799288 23.218251 214 214 214 0
1.957176 0.800663 23.258183 214 214 214 0
2.050301 0.802292 23.305493 214 214 214 0
2.139231 0.802212 23.303175 214 214 214 0
2.230575 0.803007 23.326270 214 214 214 0
2.320959 0.803409 23.337948 214 214 214 0
2.415702 0.805234 23.390968 214 214 214 0
2.511129 0.807149 23.446586 214 214 214 0
2.605933 0.808738 23.492749 213 213 213 0
2.699167 0.809750 23.522149 214 214 214 0
2.784050 0.808273 23.479231 214 214 214 0
2.873530 0.808180 23.476553 214 214 214 0
2.968417 0.809568 23.516869 214 214 214 0
3.065493 0.811454 23.571651 214 214 214 0
3.151238 0.810318 23.538661 214 214 214 0
3.239750 0.809938 23.527598 214 214 214 0
3.329053 0.809770 23.522720 214 214 214 0
3.419878 0.809971 23.528569 214 214 214 0
3.519061 0.812091 23.590149 213 213 213 0
3.616386 0.813687 23.636509 214 214 214 0
3.706448 0.813610 23.634292 214 214 214 0
3.799767 0.814236 23.652457 214 214 214 0
3.891430 0.814485 23.659706 214 214 214 0
3.985394 0.815194 23.680299 215 215 215 0
4.084140 0.816828 23.727758 214 214 214 0
4.179065 0.817643 23.751434 214 214 214 0
4.270171 0.817692 23.752863 215 215 215 0
4.359617 0.817428 23.745189 214 214 214 0
4.470517 0.821115 23.852299 214 214 214 0
4.576124 0.823702 23.927445 214 214 214 0
4.660815 0.822497 23.892427 214 214 214 0
4.746683 0.821541 23.864672 215 215 215 0
4.839745 0.821843 23.873449 214 214 214 0
4.947161 0.824527 23.951399 215 215 215 0
5.036547 0.824162 23.940806 214 214 214 0
5.122707 0.823292 23.915531 214 214 214 0
5.204014 0.821686 23.868887 215 215 215 0
5.295919 0.821781 23.871621 214 214 214 0
5.411643 0.825505 23.979808 214 214 214 0
5.516974 0.827546 24.039101 214 214 214 0
5.605338 0.827017 24.023735 214 214 214 0
5.712193 0.829189 24.086833 199 199 199 0
5.803093 0.829013 24.081724 89 89 89 0
-10.713283 1.339160 35.010727 210 210 210 0
-10.579268 1.339148 35.010401 210 210 210 0
-5.947468 0.762496 19.934534 210 210 210 0
-5.859264 0.760943 19.893943 210 210 210 0
-5.768267 0.758983 19.842681 210 210 210 0
-5.701501 0.760200 19.874513 210 210 210 0
-5.620138 0.759478 19.855637 210 210 210 0
-5.551881 0.760532 19.883181 210 210 210 0
-5.520128 0.766684 20.044037 210 210 210 0
-5.482897 0.772239 20.189257 210 210 210 0
-5.418432 0.774062 20.236909 210 210 210 0
-5.356194 0.776260 20.294379 210 210 210 0
-5.291228 0.778122 20.343054 210 210 210 0
-5.227377 0.780206 20.397532 210 210 210 0
-5.166171 0.782753 20.464135 210 210 210 0
-5.121193 0.787876 20.598059 210 210 210 0
-5.074354 0.792868 20.728572 210 210 210 0
-5.010145 0.795261 20.791140 210 210 210 0
-4.933587 0.795740 20.803654 211 211 211 0
-4.865454 0.797615 20.852689 210 210 210 0
-4.817595 0.802933 20.991700 211 211 211 0
-4.783260 0.810722 21.195346 210 210 210 0
-4.708611 0.811829 21.224300 210 210 210 0
-4.603355 0.807606 21.113886 210 210 210 0
-4.500166 0.803601 21.009178 211 211 211 0
-4.445070 0.808194 21.129267 211 211 211 0
-4.408869 0.816457 21.345286 211 211 211 0
-4.332746 0.817499 21.372531 212 212 212 0
-4.242665 0.815897 21.330643 211 211 211 0
-4.141622 0.812083 21.230919 211 211 211 0
-4.040693 0.808139 21.127807 211 211 211 0
-3.966406 0.809471 21.162632 212 212 212 0
-3.941810 0.821210 21.469555 211 211 211 0
-3.878855 0.825288 21.576164 212 212 212 0
-3.783816 0.822569 21.505064 211 211 211 0
-3.687834 0.819519 21.425324 211 211 211 0
-3.611167 0.820720 21.456728 211 211 211 0
-3.552820 0.826237 21.600971 212 212 212 0
-3.479698 0.828499 21.660118 211 211 211 0
-3.407096 0.830999 21.725466 212 212 212 0
-3.313084 0.828271 21.654143 212 212 212 0
-3.233157 0.829015 21.673586 212 212 212 0
-3.157221 0.830848 21.721506 211 211 211 0
-3.104200 0.838973 21.933936 212 212 212 0
-3.031188 0.841997 22.012983 212 212 212 0
-2.944148 0.841185 21.991770 212 212 212 0
-2.849987 0.838231 21.914546 212 212 212 0
-2.768073 0.838810 21.929674 212 212 212 0
-2.700666 0.843958 22.064266 212 212 212 0
-2.627285 0.847511 22.157161 212 212 212 0
-2.536554 0.845518 22.105043 212 212 212 0
-2.442471 0.842232 22.019125 212 212 212 0
-2.357437 0.841942 22.011548 212 212 212 0
-2.273771 0.842138 22.016668 212 212 212 0
-2.194464 0.844025 22.066002 212 212 212 0
-2.118456 0.847382 22.153784 212 212 212 0
-2.036221 0.848425 22.181054 212 212 212 0
-1.949219 0.847486 22.156505 212 212 212 0
-1.868772 0.849442 22.207626 212 212 212 0
-1.788885 0.851850 22.270589 212 212 212 0
-1.707082 0.853541 22.314792 212 212 212 0
-1.620335 0.852808 22.295630 212 212 212 0
-1.538472 0.854707 22.345278 212 212 212 0
-1.456876 0.856986 22.404861 212 212 212 0
-1.374822 0.859264 22.464416 212 212 212 0
-1.290077 0.860051 22.485004 212 212 212 0
-1.207053 0.862181 22.540677 213 213 213 0
-1.124627 0.865098 22.616933 213 213 213 0
-1.039225 0.866020 22.641058 213 213 213 0
-0.951258 0.864780 22.608638 213 213 213 0
-0.863094 0.863094 22.564560 213 213 213 0
-0.778725 0.865250 22.620902 212 212 212 0
-0.695100 0.868875 22.715679 213 213 213 0
-0.607168 0.867383 22.676675 213 213 213 0
-0.519518 0.865863 22.636948 213 213 213 0
-0.432357 0.864715 22.606926 213 213 213 0
-0.345813 0.864533 22.602177 213 213 213 0
-0.260428 0.868094 22.695276 213 213 213 0
-0.174274 0.871370 22.780925 212 212 212 0
-0.087105 0.871052 22.772595 213 213 213 0
0.000000 0.871059 22.772789 212 212 212 0
0.087162 0.871615 22.787332 213 213 213 0
0.174750 0.873752 22.843178 212 212 212 0
0.262588 0.875293 22.883490 214 214 214 0
0.350757 0.876892 22.925269 213 213 213 0
0.438067 0.876134 22.905457 213 213 213 0
0.526142 0.876903 22.925564 213 213 213 0
0.615985 0.879978 23.005963 214 214 214 0
0.707196 0.883996 23.110996 213 213 213 0
0.796174 0.884637 23.127772 214 214 214 0
0.882038 0.882038 23.059814 213 213 213 0
0.968912 0.880829 23.028204 214 214 214 0
1.059786 0.883155 23.089013 213 213 213 0
1.152784 0.886757 23.183187 213 213 213 0
1.239656 0.885469 23.149510 214 214 214 0
1.325358 0.883572 23.099918 214 214 214 0
1.412346 0.882716 23.077548 214 214 214 0
1.501654 0.883326 23.093489 214 214 214 0
1.598026 0.887792 23.210251 213 213 213 0
1.688608 0.888741 23.235054 214 214 214 0
1.775160 0.887580 23.204703 214 214 214 0
1.863186 0.887231 23.195588 214 214 214 0
1.956524 0.889329 23.250436 213 213 213 0
2.050195 0.891389 23.304288 214 214 214 0
2.139503 0.891459 23.306130 214 214 214 0
2.231241 0.892497 23.333243 214 214 214 0
2.321589 0.892919 23.344285 213 213 213 0
2.416386 0.894958 23.397589 214 214 214 0
2.511918 0.897113 23.453947 214 214 214 0
2.606046 0.898637 23.493768 214 214 214 0
2.699031 0.899677 23.520968 214 214 214 0
2.782963 0.897730 23.470068 214 214 214 0
2.873552 0.897985 23.476732 214 214 214 0
2.966910 0.899064 23.504929 214 214 214 0
3.064692 0.901380 23.565489 214 214 214 0
3.152372 0.900678 23.547133 214 214 214 0
3.238725 0.899646 23.520153 214 214 214 0
3.330015 0.900004 23.529521 214 214 214 0
3.419439 0.899852 23.525551 214 214 214 0
3.518024 0.902057 23.583201 214 214 214 0
3.613688 0.903422 23.618875 214 214 214 0
3.705481 0.903776 23.628124 214 214 214 0
3.799267 0.904587 23.649345 214 214 214 0
3.891514 0.905003 23.660217 214 214 214 0
3.984597 0.905590 23.675564 214 214 214 0
4.083404 0.907423 23.723482 214 214 214 0
4.179422 0.908570 23.753466 214 214 214 0
4.268902 0.908277 23.745805 214 214 214 0
4.359084 0.908142 23.742286 214 214 214 0
4.468828 0.912006 23.843287 214 214 214 0
4.574755 0.914951 23.920290 215 215 215 0
4.659040 0.913537 23.883326 214 214 214 0
4.745028 0.912505 23.856350 214 214 214 0
4.839160 0.913049 23.870565 214 214 214 0
4.946240 0.915970 23.946938 215 215 215 0
5.036276 0.915686 23.939516 214 214 214 0
5.121035 0.914471 23.907728 214 214 214 0
5.203896 0.912964 23.868347 214 214 214 0
5.296074 0.913116 23.872321 214 214 214 0
5.409390 0.916846 23.969825 214 214 214 0
5.515313 0.919219 24.031863 215 215 215 0
5.603120 0.918544 24.014231 214 214 214 0
5.713512 0.921534 24.092398 199 199 199 0
5.800065 0.920645 24.069155 89 89 89 0
-10.713272 1.473075 35.010694 209 209 209 0
-10.579248 1.473060 35.010336 209 209 209 0
-5.932702 0.836663 19.885041 209 209 209 0
-5.867092 0.838156 19.920522 210 210 210 0
-5.765707 0.834510 19.833872 209 209 209 0
-5.686066 0.833956 19.820710 210 210 210 0
-5.629897 0.836877 19.890114 210 210 210 0
-5.551516 0.836530 19.881872 210 210 210 0
-5.522639 0.843737 20.053157 210 210 210 0
-5.483781 0.849600 20.192509 210 210 210 0
-5.427135 0.852836 20.269412 210 210 210 0
-5.364158 0.855156 20.324553 210 210 210 0
-5.289698 0.855686 20.337171 211 211 211 0
-5.224341 0.857728 20.385682 210 210 210 0
-5.164299 0.860717 20.456722 210 210 210 0
-5.116243 0.865826 20.578153 210 210 210 0
-5.065643 0.870657 20.692985 211 211 211 0
-4.999343 0.872901 20.746314 210 210 210 0
-4.939798 0.876416 20.829845 210 210 210 0
-4.865489 0.877383 20.852840 211 211 211 0
-4.820835 0.883820 21.005819 210 210 210 0
-4.784101 0.891951 21.199072 210 210 210 0
-4.708080 0.892912 21.221905 210 210 210 0
-4.598377 0.887406 21.091054 211 211 211 0
-4.495777 0.883099 20.988688 211 211 211 0
-4.438359 0.887672 21.097368 210 210 210 0
-4.403140 0.896936 21.317550 210 210 210 0
-4.327921 0.898248 21.348727 210 210 210 0
-4.238281 0.896560 21.308605 211 211 211 0
-4.138719 0.892665 21.216038 212 212 212 0
-4.036608 0.888054 21.106447 211 211 211 0
-3.971088 0.891469 21.187611 210 210 210 0
-3.942566 0.903505 21.473673 211 211 211 0
-3.878169 0.907657 21.572347 211 211 211 0
-3.783113 0.904658 21.501071 211 211 211 0
-3.685909 0.901000 21.414143 211 211 211 0
-3.613586 0.903397 21.471100 211 211 211 0
-3.553674 0.909079 21.606162 211 211 211 0
-3.482792 0.912160 21.679377 211 211 211 0
-3.407567 0.914225 21.728465 212 212 212 0
-3.316101 0.911928 21.673866 211 211 211 0
-3.232178 0.911640 21.667023 211 211 211 0
-3.157455 0.914000 21.723113 211 211 211 0
-3.105281 0.923192 21.941572 212 212 212 0
-3.031447 0.926276 22.014868 212 212 212 0
-2.945530 0.925738 22.002094 212 212 212 0
-2.850540 0.922233 21.918799 212 212 212 0
-2.770249 0.923416 21.946909 212 212 212 0
-2.700590 0.928328 22.063645 211 211 211 0
-2.629600 0.933084 22.176679 212 212 212 0
-2.536724 0.930132 22.106526 212 212 212 0
-2.443050 0.926674 22.024339 212 212 212 0
-2.355493 0.925372 21.993398 212 212 212 0
-2.274105 0.926487 22.019899 212 212 212 0
-2.195577 0.928898 22.077192 213 213 213 0
-2.117266 0.931597 22.141343 212 212 212 0
-2.035181 0.932792 22.169733 212 212 212 0
-1.948300 0.931796 22.146066 213 213 213 0
-1.870585 0.935293 22.229180 212 212 212 0
-1.789252 0.937227 22.275160 212 212 212 0
-1.707018 0.938860 22.313956 212 212 212 0
-1.620606 0.938246 22.299362 212 212 212 0
-1.537254 0.939433 22.327579 212 212 212 0
-1.455624 0.941874 22.385600 212 212 212 0
-1.374996 0.945309 22.467247 212 212 212 0
-1.289483 0.945621 22.474641 213 213 213 0
-1.207098 0.948435 22.541522 212 212 212 0
-1.124522 0.951519 22.614822 212 212 212 0
-1.038887 0.952313 22.633702 213 213 213 0
-0.951547 0.951547 22.615505 213 213 213 0
-0.863202 0.949522 22.567375 213 213 213 0
-0.778634 0.951664 22.618268 213 213 213 0
-0.695429 0.956215 22.726436 212 212 212 0
-0.606994 0.953848 22.670193 213 213 213 0
-0.519772 0.952916 22.648029 213 213 213 0
-0.432550 0.951610 22.617002 213 213 213 0
-0.345816 0.950995 22.602367 213 213 213 0
-0.260476 0.955078 22.699413 213 213 213 0
-0.174237 0.958306 22.776141 213 213 213 0
-0.087117 0.958284 22.775621 213 213 213 0
0.000000 0.957828 22.764780 213 213 213 0
0.087096 0.958059 22.770260 213 213 213 0
0.174836 0.961600 22.854427 213 213 213 0
0.262545 0.962666 22.879766 213 213 213 0
0.350568 0.964062 22.912945 213 213 213 0
0.438123 0.963871 22.908412 213 213 213 0
0.526140 0.964589 22.925475 214 214 214 0
0.615874 0.967801 23.001818 213 213 213 0
0.707302 0.972540 23.114429 214 214 214 0
0.796207 0.973142 23.128736 213 213 213 0
0.882066 0.970273 23.060558 214 214 214 0
0.969243 0.969243 23.036090 214 214 214 0
1.059097 0.970839 23.074017 213 213 213 0
1.152728 0.975385 23.182059 214 214 214 0
1.239459 0.973860 23.145823 213 213 213 0
1.325274 0.971868 23.098462 213 213 213 0
1.411195 0.970197 23.058747 213 213 213 0
1.500991 0.971230 23.083295 213 213 213 0
1.597748 0.976401 23.206210 213 213 213 0
1.688589 0.977604 23.234803 213 213 213 0
1.775272 0.976400 23.206175 213 213 213 0
1.865161 0.976989 23.220182 213 213 213 0
1.957367 0.978684 23.260453 213 213 213 0
2.050039 0.980453 23.302518 214 214 214 0
2.139687 0.980690 23.308142 213 213 213 0
2.229479 0.980971 23.314816 213 213 213 0
2.320780 0.981868 23.336147 213 213 213 0
2.416195 0.984376 23.395736 214 214 214 0
2.510514 0.986273 23.440841 214 214 214 0
2.605701 0.988369 23.490656 214 214 214 0
2.697967 0.989255 23.511694 214 214 214 0
2.784797 0.988154 23.485534 214 214 214 0
2.873661 0.987821 23.477624 213 213 213 0
2.966851 0.988950 23.504463 214 214 214 0
3.065270 0.991705 23.569938 214 214 214 0
3.152124 0.990668 23.545279 214 214 214 0
3.240021 0.990006 23.529565 214 214 214 0
3.328424 0.989531 23.518276 214 214 214 0
3.419955 0.989987 23.529106 214 214 214 0
3.518118 0.992290 23.583832 214 214 214 0
3.613690 0.993765 23.618891 214 214 214 0
3.705250 0.994091 23.626654 215 215 215 0
3.798427 0.994826 23.644115 214 214 214 0
3.890530 0.995252 23.654232 214 214 214 0
3.985277 0.996319 23.679604 214 214 214 0
4.081597 0.997724 23.712981 214 214 214 0
4.178170 0.999128 23.746347 214 214 214 0
4.268127 0.998923 23.741493 214 214 214 0
4.357183 0.998521 23.731933 213 213 213 0
4.468922 1.003227 23.843790 214 214 214 0
4.571735 1.005782 23.904497 214 214 214 0
4.661016 1.005317 23.893454 214 214 214 0
4.744740 1.003695 23.854904 215 215 215 0
4.838808 1.004281 23.868828 214 214 214 0
4.947285 1.007780 23.951998 215 215 215 0
5.037273 1.007455 23.944259 215 215 215 0
5.121920 1.006091 23.911856 214 214 214 0
5.203854 1.004253 23.868154 214 214 214 0
5.293765 1.003990 23.861911 214 214 214 0
5.410253 1.008691 23.973650 214 214 214 0
5.515748 1.011220 24.033759 214 214 214 0
5.602718 1.010326 24.012505 214 214 214 0
5.715782 1.014090 24.101969 201 201 201 0
5.801265 1.012919 24.074137 89 89 89 0
-10.713276 1.606991 35.010706 210 210 210 0
-10.579256 1.606976 35.010360 209 209 209 0
-5.934759 0.913040 19.891936 209 209 209 0
-5.855419 0.912533 19.880889 209 209 209 0
-5.763843 0.910081 19.827463 210 210 210 0
-5.695106 0.911217 19.852222 209 209 209 0
-5.627083 0.912500 19.880172 211 211 211 0
-5.551268 0.912537 19.880983 210 210 210 0
-5.521169 0.920195 20.047817 210 210 210 0
-5.485815 0.927180 20.199999 210 210 210 0
-5.428385 0.930580 20.274080 210 210 210 0
-5.360488 0.932259 20.310648 210 210 210 0
-5.284829 0.932617 20.318451 210 210 210 0
-5.225836 0.935971 20.391516 211 211 211 0
-5.170171 0.940031 20.479981 210 210 210 0
-5.116619 0.944607 20.579666 210 210 210 0
-5.068671 0.950376 20.705355 210 210 210 0
-4.996053 0.951629 20.732663 210 210 210 0
-4.933572 0.954885 20.803591 211 211 211 0
-4.865443 0.957136 20.852641 211 211 211 0
-4.816444 0.963289 20.986683 211 211 211 0
-4.780676 0.972341 21.183897 210 210 210 0
-4.713783 0.975266 21.247615 211 211 211 0
-4.601297 0.968694 21.104448 211 211 211 0
-4.497055 0.963655 20.994656 211 211 211 0
-4.437806 0.968249 21.094740 211 211 211 0
-4.406882 0.979307 21.335669 210 210 210 0
-4.328162 0.979961 21.349920 211 211 211 0
-4.244239 0.979440 21.338555 212 212 212 0
-4.138088 0.973668 21.212803 211 211 211 0
-4.040228 0.969655 21.125373 211 211 211 0
-3.964789 0.970969 21.154005 212 212 212 0
-3.941835 0.985459 21.469692 211 211 211 0
-3.879203 0.990435 21.578101 211 211 211 0
-3.780953 0.986336 21.488792 211 211 211 0
-3.687110 0.983229 21.421121 211 211 211 0
-3.613637 0.985537 21.471402 212 212 212 0
-3.549529 0.990566 21.580962 211 211 211 0
-3.481739 0.994783 21.672821 211 211 211 0
-3.405880 0.996843 21.717709 211 211 211 0
-3.315108 0.994532 21.667371 211 211 211 0
-3.230883 0.994118 21.658340 211 211 211 0
-3.158465 0.997410 21.730066 212 212 212 0
-3.105793 1.007284 21.945188 211 211 211 0
-3.030966 1.010322 22.011373 212 212 212 0
-2.944303 1.009475 21.992925 212 212 212 0
-2.849759 1.005797 21.912792 212 212 212 0
-2.768610 1.006767 21.933925 212 212 212 0
-2.700544 1.012704 22.063268 212 212 212 0
-2.627973 1.017280 22.162958 212 212 212 0
-2.536030 1.014412 22.100481 212 212 212 0
-2.443015 1.010903 22.024021 212 212 212 0
-2.356635 1.009986 22.004059 212 212 212 0
-2.274946 1.011087 22.028043 212 212 212 0
-2.194912 1.013036 22.070503 212 212 212 0
-2.118072 1.016674 22.149771 212 212 212 0
-2.035955 1.017977 22.178156 212 212 212 0
-1.948611 1.016667 22.149604 212 212 212 0
-1.869500 1.019727 22.216275 212 212 212 0
-1.790151 1.022943 22.286348 213 213 213 0
-1.706215 1.023729 22.303460 212 212 212 0
-1.620460 1.023448 22.297349 212 212 212 0
-1.538650 1.025766 22.347853 212 212 212 0
-1.456228 1.027926 22.394891 212 212 212 0
-1.375428 1.031571 22.474311 213 213 213 0
-1.289749 1.031799 22.479285 212 212 212 0
-1.206872 1.034462 22.537294 213 213 213 0
-1.124853 1.038326 22.621479 212 212 212 0
-1.039080 1.039080 22.637899 212 212 212 0
-0.951888 1.038423 22.623599 213 213 213 0
-0.863119 1.035742 22.565191 213 213 213 0
-0.778636 1.038181 22.618330 213 213 213 0
-0.695402 1.043102 22.725543 213 213 213 0
-0.607401 1.041259 22.685373 213 213 213 0
-0.519539 1.039077 22.637851 213 213 213 0
-0.432543 1.038103 22.616630 213 213 213 0
-0.345764 1.037291 22.598942 213 213 213 0
-0.260313 1.041253 22.685249 213 213 213 0
-0.174241 1.045444 22.776549 213 213 213 0
-0.087057 1.044679 22.759887 214 214 214 0
0.000000 1.044916 22.765065 213 213 213 0
0.087131 1.045575 22.779401 214 214 214 0
0.174728 1.048370 22.840313 214 214 214 0
0.262379 1.049515 22.865257 213 213 213 0
0.350627 1.051880 22.916775 213 213 213 0
0.437876 1.050903 22.895492 212 212 212 0
0.525825 1.051649 22.911750 214 214 214 0
0.616040 1.056068 23.008028 213 213 213 0
0.706954 1.060430 23.103061 212 212 212 0
0.796573 1.062097 23.139376 214 214 214 0
0.881989 1.058387 23.058548 213 213 213 0
0.969023 1.057116 23.030849 213 213 213 0
1.059570 1.059570 23.084310 213 213 213 0
1.152407 1.063760 23.175606 213 213 213 0
1.239687 1.062589 23.150079 213 213 213 0
1.325114 1.060091 23.095668 214 214 214 0
1.411845 1.058883 23.069356 214 214 214 0
1.500911 1.059467 23.082064 213 213 213 0
1.597102 1.064735 23.196840 213 213 213 0
1.688197 1.066229 23.229398 213 213 213 0
1.776731 1.066039 23.225246 214 214 214 0
1.864466 1.065409 23.211526 213 213 213 0
1.957380 1.067662 23.260601 213 213 213 0
2.050853 1.070010 23.311772 213 213 213 0
2.139935 1.069968 23.310842 213 213 213 0
2.229895 1.070349 23.319161 213 213 213 0
2.321019 1.071239 23.338549 214 214 214 0
2.415224 1.073433 23.386334 213 213 213 0
2.511010 1.076147 23.445469 214 214 214 0
2.605159 1.077997 23.485769 214 214 214 0
2.698853 1.079541 23.519414 214 214 214 0
2.784389 1.077828 23.482093 214 214 214 0
2.873280 1.077480 23.474511 214 214 214 0
2.967283 1.079012 23.507890 214 214 214 0
3.064567 1.081612 23.564530 214 214 214 0
3.152718 1.080932 23.549713 214 214 214 0
3.238536 1.079512 23.518782 214 214 214 0
3.329296 1.079772 23.524434 214 214 214 0
3.419630 1.079883 23.526866 214 214 214 0
3.518890 1.082735 23.589003 214 214 214 0
3.615086 1.084526 23.628010 214 214 214 0
3.706482 1.084824 23.634507 214 214 214 0
3.796893 1.084827 23.634565 214 214 214 0
3.890259 1.085654 23.652583 215 215 215 0
3.984213 1.086604 23.673283 214 214 214 0
4.079909 1.087976 23.703176 214 214 214 0
4.176110 1.089420 23.734639 214 214 214 0
4.268658 1.089870 23.744447 214 214 214 0
4.357004 1.089251 23.730957 214 214 214 0
4.469247 1.094509 23.845521 214 214 214 0
4.572515 1.097403 23.908573 214 214 214 0
4.659718 1.096404 23.886802 214 214 214 0
4.744637 1.094916 23.854384 214 214 214 0
4.839908 1.095828 23.874255 215 215 215 0
4.948794 1.099732 23.959304 215 215 215 0
5.037517 1.099095 23.945418 215 215 215 0
5.121841 1.097537 23.911488 215 215 215 0
5.203351 1.095442 23.865845 215 215 215 0
5.294162 1.095344 23.863699 215 215 215 0
5.409761 1.100290 23.971470 214 214 214 0
5.516126 1.103225 24.035407 214 214 214 0
5.602014 1.102036 24.009490 214 214 214 0
5.714678 1.106067 24.097316 201 201 201 0
5.799886 1.104740 24.068413 95 95 95 0
-10.713257 1.740904 35.010643 209 209 209 0
-10.579257 1.740890 35.010365 210 210 210 0
-5.931267 0.988545 19.880232 209 209 209 0
-5.850364 0.987724 19.863728 209 209 209 0
-5.762741 0.985732 19.823670 210 210 210 0
-5.693634 0.986897 19.847090 210 210 210 0
-5.619292 0.987173 19.852649 210 210 210 0
-5.551744 0.988667 19.882691 210 210 210 0
-5.529767 0.998430 20.079037 209 209 209 0
-5.495034 1.006133 20.233947 210 210 210 0
-5.429469 1.008330 20.278128 210 210 210 0
-5.356656 1.009225 20.296130 211 211 211 0
-5.284077 1.010191 20.315560 210 210 210 0
-5.224141 1.013639 20.384902 210 210 210 0
-5.163313 1.017016 20.452816 210 210 210 0
-5.116490 1.023298 20.579143 210 210 210 0
-5.077084 1.031283 20.739724 211 211 211 0
-5.009884 1.033786 20.790056 210 210 210 0
-4.933852 1.034517 20.804774 211 211 211 0
-4.865144 1.036834 20.851360 211 211 211 0
-4.811478 1.042487 20.965046 211 211 211 0
-4.779631 1.053139 21.179268 211 211 211 0
-4.711345 1.055991 21.236623 211 211 211 0
-4.597690 1.048596 21.087905 211 211 211 0
-4.497441 1.044049 20.996455 210 210 210 0
-4.439553 1.049349 21.103047 210 210 210 0
-4.407790 1.061135 21.340063 211 211 211 0
-4.335135 1.063335 21.384315 211 211 211 0
-4.241546 1.060387 21.325018 211 211 211 0
-4.137653 1.054696 21.210574 211 211 211 0
-4.041097 1.050685 21.129919 211 211 211 0
-3.964419 1.051785 21.152028 211 211 211 0
-3.940397 1.067191 21.461859 212 212 212 0
-3.879882 1.073159 21.581878 211 211 211 0
-3.784346 1.069489 21.508077 211 211 211 0
-3.689422 1.065833 21.434548 211 211 211 0
-3.613031 1.067486 21.467800 211 211 211 0
-3.551004 1.073559 21.589929 211 211 211 0
-3.476245 1.075981 21.638623 211 211 211 0
-3.406910 1.080240 21.724281 211 211 211 0
-3.316309 1.077800 21.675221 212 212 212 0
-3.234570 1.078190 21.683056 212 212 212 0
-3.159979 1.081046 21.740484 212 212 212 0
-3.104272 1.090690 21.934439 212 212 212 0
-3.032411 1.095037 22.021864 212 212 212 0
-2.944834 1.093796 21.996895 211 211 211 0
-2.851858 1.090416 21.928937 212 212 212 0
-2.768555 1.090643 21.933488 212 212 212 0
-2.699284 1.096584 22.052975 212 212 212 0
-2.630098 1.102944 22.180883 211 211 211 0
-2.536189 1.099015 22.101868 212 212 212 0
-2.443839 1.095514 22.031456 212 212 212 0
-2.355401 1.093579 21.992535 212 212 212 0
-2.273799 1.094792 22.016937 212 212 212 0
-2.194096 1.097048 22.062303 212 212 212 0
-2.116678 1.100673 22.135196 213 213 213 0
-2.036062 1.102867 22.179325 212 212 212 0
-1.947640 1.100840 22.138566 212 212 212 0
-1.869404 1.104648 22.215143 213 213 213 0
-1.789453 1.107756 22.277656 212 212 212 0
-1.705487 1.108567 22.293950 212 212 212 0
-1.620441 1.108723 22.297093 212 212 212 0
-1.538387 1.111057 22.344042 212 212 212 0
-1.455950 1.113374 22.390622 212 212 212 0
-1.375208 1.117357 22.470720 213 213 213 0
-1.289725 1.117762 22.478866 213 213 213 0
-1.206118 1.119966 22.523205 212 212 212 0
-1.124274 1.124274 22.609825 213 213 213 0
-1.037800 1.124284 22.610032 212 212 212 0
-0.951356 1.124329 22.610945 213 213 213 0
-0.862888 1.121754 22.559162 213 213 213 0
-0.777989 1.123762 22.599547 213 213 213 0
-0.694944 1.129284 22.710579 212 212 212 0
-0.606356 1.126091 22.646366 213 213 213 0
-0.519531 1.125651 22.637527 213 213 213 0
-0.432526 1.124567 22.615721 213 213 213 0
-0.345601 1.123203 22.588289 212 212 212 0
-0.260420 1.128486 22.694549 213 213 213 0
-0.174215 1.132396 22.773176 213 213 213 0
-0.087105 1.132359 22.772422 213 213 213 0
0.000000 1.131955 22.764311 213 213 213 0
0.087092 1.132197 22.769171 213 213 213 0
0.174694 1.135513 22.835852 214 214 214 0
0.262536 1.137655 22.878925 213 213 213 0
0.350513 1.139167 22.909333 213 213 213 0
0.437719 1.138071 22.887291 213 213 213 0
0.526024 1.139719 22.920438 213 213 213 0
0.615530 1.143128 22.988994 213 213 213 0
0.706933 1.148766 23.102377 213 213 213 0
0.795770 1.149446 23.116055 213 213 213 0
0.881577 1.146051 23.047776 213 213 213 0
0.968864 1.145021 23.027072 214 214 214 0
1.059131 1.147392 23.074754 214 214 214 0
1.152374 1.152374 23.174939 213 213 213 0
1.239440 1.150909 23.145481 214 214 214 0
1.324994 1.148328 23.093576 213 213 213 0
1.411253 1.146643 23.059697 214 214 214 0
1.500476 1.147423 23.075371 213 213 213 0
1.596910 1.153324 23.194047 213 213 213 0
1.688471 1.155269 23.233171 214 214 214 0
1.775973 1.154383 23.215337 214 214 214 0
1.864207 1.154033 23.208301 213 213 213 0
1.957218 1.156538 23.258675 213 213 213 0
2.049712 1.158533 23.298796 213 213 213 0
2.138857 1.158548 23.299099 214 214 214 0
2.230357 1.159786 23.323997 214 214 214 0
2.320760 1.160380 23.335949 214 214 214 0
2.414794 1.162678 23.382170 214 214 214 0
2.510625 1.165648 23.441881 214 214 214 0
2.604127 1.167367 23.476469 214 214 214 0
2.696531 1.168497 23.499184 214 214 214 0
2.783309 1.167194 23.472986 214 214 214 0
2.874419 1.167733 23.483815 214 214 214 0
2.966613 1.168666 23.502576 213 213 213 0
3.065626 1.172151 23.572669 214 214 214 0
3.151310 1.170487 23.539200 214 214 214 0
3.239878 1.169956 23.528523 214 214 214 0
3.328344 1.169418 23.517711 214 214 214 0
3.419014 1.169663 23.522629 214 214 214 0
3.517358 1.172453 23.578737 215 215 215 0
3.615016 1.174880 23.627555 214 214 214 0
3.704233 1.174513 23.620170 214 214 214 0
3.795419 1.174773 23.625392 215 215 215 0
3.889186 1.175800 23.646061 214 214 214 0
3.983416 1.176918 23.668544 214 214 214 0
4.082236 1.179313 23.716693 214 214 214 0
4.176843 1.180412 23.738804 214 214 214 0
4.267798 1.180455 23.739662 214 214 214 0
4.356427 1.179866 23.727814 214 214 214 0
4.469259 1.185722 23.845586 214 214 214 0
4.571904 1.188695 23.905382 214 214 214 0
4.659564 1.187732 23.886011 214 214 214 0
4.744578 1.186145 23.854088 214 214 214 0
4.839114 1.186952 23.870335 214 214 214 0
4.945389 1.190557 23.942818 214 214 214 0
5.035806 1.190281 23.937284 214 214 214 0
5.119668 1.188494 23.901345 214 214 214 0
5.203009 1.186651 23.864277 215 215 215 0
5.293744 1.186529 23.861817 215 215 215 0
5.409506 1.191925 23.970340 214 214 214 0
5.517112 1.195374 24.039706 214 214 214 0
5.601477 1.193757 24.007186 215 215 215 0
5.713444 1.197980 24.092112 200 200 200 0
5.812349 1.199374 24.120132 89 89 89 0
-10.713275 1.874823 35.010701 210 210 210 0
-10.579262 1.874806 35.010382 210 210 210 0
-5.925710 1.063589 19.861607 209 209 209 0
-5.853016 1.064185 19.872732 210 210 210 0
-5.764265 1.061838 19.828911 210 210 210 0
-5.698738 1.063764 19.864880 210 210 210 0
-5.625233 1.064233 19.873639 210 210 210 0
-5.551741 1.064717 19.882679 211 211 211 0
-5.532403 1.075745 20.088609 210 210 210 0
-5.488864 1.082311 20.211228 210 210 210 0
-5.434273 1.086855 20.296070 210 210 210 0
-5.356566 1.086840 20.295789 210 210 210 0
-5.289315 1.088977 20.335696 210 210 210 0
-5.222831 1.091338 20.379793 210 210 210 0
-5.166473 1.095919 20.465332 210 210 210 0
-5.118100 1.102360 20.585619 210 210 210 0
-5.074397 1.110024 20.728746 211 211 211 0
-5.002776 1.111728 20.760560 211 211 211 0
-4.933424 1.113999 20.802967 210 210 210 0
-4.861231 1.115692 20.834590 211 211 211 0
-4.816619 1.123878 20.987445 210 210 210 0
-4.778466 1.133873 21.174103 210 210 210 0
-4.709486 1.136772 21.228242 210 210 210 0
-4.600873 1.130039 21.102501 210 210 210 0
-4.497616 1.124404 20.997273 211 211 211 0
-4.437810 1.129624 21.094758 211 211 211 0
-4.405465 1.142158 21.328806 211 211 211 0
-4.333983 1.144826 21.378633 211 211 211 0
-4.237777 1.140940 21.306068 211 211 211 0
-4.137837 1.135877 21.211521 211 211 211 0
-4.038767 1.130855 21.117735 211 211 211 0
-3.973336 1.135239 21.199604 211 211 211 0
-3.938474 1.148721 21.451382 210 210 210 0
-3.882303 1.156431 21.595342 212 212 212 0
-3.781676 1.150945 21.492903 211 211 211 0
-3.690024 1.148008 21.438049 211 211 211 0
-3.612192 1.149334 21.462816 211 211 211 0
-3.551680 1.156361 21.594039 211 211 211 0
-3.483729 1.161243 21.685212 212 212 212 0
-3.407108 1.163403 21.725541 211 211 211 0
-3.316676 1.160837 21.677621 211 211 211 0
-3.234810 1.161214 21.684669 212 212 212 0
-3.156106 1.162776 21.713837 211 211 211 0
-3.104183 1.174556 21.933815 212 212 212 0
-3.030223 1.178420 22.005976 212 212 212 0
-2.943653 1.177461 21.988069 212 212 212 0
-2.851550 1.174168 21.926566 212 212 212 0
-2.767330 1.174019 21.923786 212 212 212 0
-2.699030 1.180825 22.050896 212 212 212 0
-2.629348 1.187447 22.174556 212 212 212 0
-2.535677 1.183316 22.097399 212 212 212 0
-2.442829 1.179297 22.022348 212 212 212 0
-2.356168 1.178084 21.999697 212 212 212 0
-2.273227 1.178710 22.011392 211 211 211 0
-2.194160 1.181471 22.062945 212 212 212 0
-2.116311 1.185134 22.131357 212 212 212 0
-2.035966 1.187647 22.178276 212 212 212 0
-1.947948 1.185707 22.142058 212 212 212 0
-1.866704 1.187903 22.183054 212 212 212 0
-1.788544 1.192363 22.266341 212 212 212 0
-1.706533 1.194573 22.307621 212 212 212 0
-1.619929 1.193632 22.290041 213 213 213 0
-1.538074 1.196280 22.339491 212 212 212 0
-1.456309 1.199314 22.396144 212 212 212 0
-1.376381 1.204334 22.489891 212 212 212 0
-1.290280 1.204261 22.488533 213 213 213 0
-1.206562 1.206562 22.531511 212 212 212 0
-1.123745 1.210187 22.599194 213 213 213 0
-1.038519 1.211606 22.625695 212 212 212 0
-0.951373 1.210838 22.611354 212 212 212 0
-0.862705 1.207787 22.554381 212 212 212 0
-0.777939 1.210127 22.598084 213 213 213 0
-0.694850 1.215988 22.707516 213 213 213 0
-0.607037 1.214074 22.671774 212 212 212 0
-0.519570 1.212331 22.639234 213 213 213 0
-0.432678 1.211498 22.623686 213 213 213 0
-0.345931 1.210760 22.609890 212 212 212 0
-0.260210 1.214312 22.676232 212 212 212 0
-0.174213 1.219488 22.772884 213 213 213 0
-0.087053 1.218742 22.758962 212 212 212 0
0.000000 1.218192 22.748682 213 213 213 0
0.087077 1.219083 22.765331 213 213 213 0
0.174662 1.222633 22.831624 213 213 213 0
0.262557 1.225268 22.880827 213 213 213 0
0.350570 1.226995 22.913077 213 213 213 0
0.437732 1.225649 22.887930 213 213 213 0
0.525978 1.227281 22.918417 213 213 213 0
0.615633 1.231266 22.992825 213 213 213 0
0.706884 1.237046 23.100768 213 213 213 0
0.795975 1.238184 23.122016 213 213 213 0
0.881876 1.234626 23.055577 214 214 214 0
0.968835 1.233062 23.026376 214 214 214 0
1.058839 1.235312 23.068393 214 214 214 0
1.153100 1.241800 23.189539 213 213 213 0
1.239495 1.239495 23.146502 214 214 214 0
1.325058 1.236721 23.094690 213 213 213 0
1.411274 1.234865 23.060034 213 213 213 0
1.500037 1.235324 23.068613 214 214 214 0
1.596048 1.241371 23.181523 214 214 214 0
1.687914 1.243726 23.225510 214 214 214 0
1.775156 1.242609 23.204653 214 214 214 0
1.864526 1.243017 23.212274 213 213 213 0
1.955639 1.244497 23.239912 214 214 214 0
2.048088 1.246662 23.280342 214 214 214 0
2.138038 1.247189 23.290173 214 214 214 0
2.228826 1.248143 23.307987 214 214 214 0
2.320025 1.249244 23.328562 213 213 213 0
2.414802 1.252120 23.382255 214 214 214 0
2.511228 1.255614 23.447503 214 214 214 0
2.604976 1.257575 23.484120 214 214 214 0
2.696949 1.258576 23.502822 214 214 214 0
2.783162 1.256912 23.471741 214 214 214 0
2.872979 1.256928 23.472049 214 214 214 0
2.967245 1.258831 23.507584 214 214 214 0
3.064840 1.261993 23.566625 214 214 214 0
3.151985 1.260794 23.544238 214 214 214 0
3.239595 1.259843 23.526473 214 214 214 0
3.329198 1.259696 23.523744 213 213 213 0
3.419050 1.259650 23.522873 214 214 214 0
3.516408 1.262300 23.572367 214 214 214 0
3.614666 1.265133 23.625268 214 214 214 0
3.702955 1.264424 23.612022 214 214 214 0
3.797470 1.265823 23.638160 214 214 214 0
3.889809 1.266449 23.649847 214 214 214 0
3.983193 1.267379 23.667216 214 214 214 0
4.082259 1.270036 23.716827 214 214 214 0
4.177192 1.271319 23.740792 214 214 214 0
4.267121 1.271057 23.735896 214 214 214 0
4.356212 1.270562 23.726645 214 214 214 0
4.467773 1.276507 23.837660 214 214 214 0
4.571469 1.280011 23.903108 214 214 214 0
4.661405 1.279601 23.895450 215 215 215 0
4.744760 1.277436 23.855005 214 214 214 0
4.839746 1.278423 23.873453 214 214 214 0
4.947365 1.282650 23.952386 214 214 214 0
5.036590 1.282041 23.941011 214 214 214 0
5.120883 1.280221 23.907018 214 214 214 0
5.202430 1.277790 23.861621 214 214 214 0
5.294093 1.277884 23.863388 214 214 214 0
5.407492 1.283134 23.961414 214 214 214 0
5.515783 1.287016 24.033911 214 214 214 0
5.601372 1.285561 24.006739 214 214 214 0
5.712887 1.290007 24.089761 201 201 201 0
5.831221 1.295827 24.198447 88 88 88 0
-10.713272 2.008739 35.010694 209 209 209 0
-10.579263 2.008721 35.010386 210 210 210 0
-5.921152 1.138683 19.846329 209 209 209 0
-5.859924 1.141544 19.896185 210 210 210 0
-5.764909 1.137811 19.831129 209 209 209 0
-5.705289 1.141058 19.887717 209 209 209 0
-5.628080 1.140827 19.883694 209 209 209 0
-5.557232 1.141897 19.902342 209 209 209 0
-5.534094 1.152936 20.094748 210 210 210 0
-5.495340 1.160987 20.235075 210 210 210 0
-5.416444 1.160667 20.229484 210 210 210 0
-5.363339 1.165943 20.321451 211 211 211 0
-5.290513 1.167025 20.340302 210 210 210 0
-5.229266 1.170731 20.404901 210 210 210 0
-5.169189 1.174816 20.476090 210 210 210 0
-5.112505 1.179809 20.563116 210 210 210 0
-5.068912 1.188026 20.706338 210 210 210 0
-5.011725 1.193268 20.797697 210 210 210 0
-4.929428 1.192604 20.786120 210 210 210 0
-4.858560 1.194728 20.823143 211 211 211 0
-4.811498 1.202874 20.965132 211 211 211 0
-4.781585 1.215657 21.187927 211 211 211 0
-4.710095 1.218128 21.230987 211 211 211 0
-4.597167 1.209781 21.085502 211 211 211 0
-4.497672 1.204734 20.997537 211 211 211 0
-4.438662 1.210544 21.098808 210 210 210 0
-4.404027 1.223341 21.321845 211 211 211 0
-4.329528 1.225338 21.356656 211 211 211 0
-4.241951 1.223640 21.327055 211 211 211 0
-4.140015 1.217651 21.222682 211 211 211 0
-4.038878 1.211663 21.118315 211 211 211 0
-3.972563 1.216091 21.195479 211 211 211 0
-3.943888 1.232465 21.480874 211 211 211 0
-3.880010 1.238301 21.582589 211 211 211 0
-3.783367 1.233707 21.502514 211 211 211 0
-3.685902 1.228634 21.414099 211 211 211 0
-3.615318 1.232495 21.481393 212 212 212 0
-3.548724 1.237927 21.576071 211 211 211 0
-3.481169 1.243275 21.669277 211 211 211 0
-3.406897 1.246426 21.724194 211 211 211 0
-3.315863 1.243449 21.672308 211 211 211 0
-3.231803 1.243001 21.664507 211 211 211 0
-3.157510 1.246386 21.723496 212 212 212 0
-3.103965 1.258364 21.932277 211 211 211 0
-3.030162 1.262568 22.005537 212 212 212 0
-2.943727 1.261597 21.988621 211 211 211 0
-2.852296 1.258366 21.932304 212 212 212 0
-2.767813 1.258097 21.927613 211 211 211 0
-2.696818 1.264134 22.032830 212 212 212 0
-2.630166 1.272661 22.181457 211 211 211 0
-2.533993 1.266997 22.082728 212 212 212 0
-2.441451 1.262819 22.009923 212 212 212 0
-2.355751 1.262010 21.995810 211 211 211 0
-2.274614 1.263674 22.024823 212 212 212 0
-2.194992 1.266341 22.071308 213 213 213 0
-2.117365 1.270419 22.142382 213 213 213 0
-2.034891 1.271807 22.166566 212 212 212 0
-1.949056 1.271123 22.154654 212 212 212 0
-1.870177 1.275121 22.224329 212 212 212 0
-1.789507 1.278219 22.278329 212 212 212 0
-1.706031 1.279523 22.301059 212 212 212 0
-1.620833 1.279605 22.302488 212 212 212 0
-1.538952 1.282460 22.352250 212 212 212 0
-1.454901 1.283736 22.374481 212 212 212 0
-1.375341 1.289382 22.472891 212 212 212 0
-1.290042 1.290042 22.484389 213 213 213 0
-1.206129 1.292281 22.523412 212 212 212 0
-1.125191 1.298298 22.628280 212 212 212 0
-1.038570 1.298212 22.626792 213 213 213 0
-0.951033 1.296863 22.603273 212 212 212 0
-0.862492 1.293737 22.548800 213 213 213 0
-0.778316 1.297193 22.609025 213 213 213 0
-0.695033 1.303187 22.713492 212 212 212 0
-0.606864 1.300422 22.665309 213 213 213 0
-0.519437 1.298593 22.633422 213 213 213 0
-0.432450 1.297350 22.611758 213 213 213 0
