ply
format ascii 1.0
element vertex 1125
property float x
property float y
property float z
property uchar red
property uchar green
property uchar blue
property uchar alpha
end_header
-3.206747 0.346675 22.658519 212 212 212 0
-3.128743 0.347638 22.721443 212 212 212 0
-3.053454 0.348966 22.808250 212 212 212 0
-2.974234 0.349910 22.869930 212 212 212 0
-2.893236 0.350695 22.921261 213 213 213 0
-2.824662 0.353083 23.077305 213 213 213 0
-2.752276 0.355132 23.211271 212 212 212 0
-2.665918 0.355456 23.232399 213 213 213 0
-2.579747 0.355827 23.256682 214 214 214 0
-2.479192 0.354170 23.148387 214 214 214 0
-2.355026 0.348893 22.803443 201 201 201 0
-2.242091 0.344937 22.544910 194 194 194 0
-2.126055 0.340169 22.233255 192 192 192 0
-2.054827 0.342471 22.383736 194 194 194 0
-1.997841 0.347451 22.709189 196 196 196 0
-1.867297 0.339508 22.190097 196 196 196 0
-1.786190 0.340227 22.237033 194 194 194 0
-1.708828 0.341766 22.337626 194 194 194 0
-1.623360 0.341760 22.337262 197 197 197 0
-1.525068 0.338904 22.150591 197 197 197 0
-1.432509 0.337061 22.030132 197 197 197 0
-1.345282 0.336321 21.981734 197 197 197 0
-1.246208 0.332322 21.720397 196 196 196 0
-1.161501 0.331857 21.690029 197 197 197 0
-1.073773 0.330392 21.594233 198 198 198 0
-0.991275 0.330425 21.596408 199 199 199 0
-0.905172 0.329153 21.513289 199 199 199 0
-0.819502 0.327801 21.424893 201 201 201 0
-0.735127 0.326723 21.354445 200 200 200 0
-0.652556 0.326278 21.325370 201 201 201 0
-0.566431 0.323675 21.155229 200 200 200 0
-0.486305 0.324203 21.189771 200 200 200 0
-0.405765 0.324612 21.216474 201 201 201 0
-0.324773 0.324773 21.226982 203 203 203 0
-0.241937 0.322582 21.083804 204 204 204 0
-0.160353 0.320706 20.961164 204 204 204 0
-0.080270 0.321079 20.985579 203 203 203 0
0.000000 0.320506 20.948130 203 203 203 0
0.080092 0.320369 20.939168 203 203 203 0
0.159812 0.319624 20.890442 204 204 204 0
0.238935 0.318580 20.822226 205 205 205 0
0.318308 0.318308 20.804419 206 206 206 0
0.397077 0.317662 20.762196 206 206 206 0
0.475257 0.316838 20.708379 206 206 206 0
0.554574 0.316899 20.712380 207 207 207 0
0.633117 0.316559 20.690102 207 207 207 0
0.711591 0.316263 20.670777 206 206 206 0
0.789108 0.315643 20.630287 208 208 208 0
0.866076 0.314937 20.584108 206 206 206 0
0.943432 0.314477 20.554072 207 207 207 0
1.020988 0.314150 20.532692 208 208 208 0
1.100697 0.314485 20.554569 207 207 207 0
1.178582 0.314288 20.541726 208 208 208 0
1.254894 0.313724 20.504812 208 208 208 0
1.332507 0.313531 20.492225 209 209 209 0
1.409015 0.313114 20.464996 209 209 209 0
1.484969 0.312625 20.433008 210 210 210 0
1.564104 0.312821 20.445802 210 210 210 0
1.641774 0.312719 20.439144 210 210 210 0
1.718229 0.312405 20.418648 210 210 210 0
1.794997 0.312173 20.403495 211 211 211 0
1.871224 0.311871 20.383700 211 211 211 0
1.950289 0.312046 20.395177 211 211 211 0
2.028539 0.312083 20.397577 211 211 211 0
2.106600 0.312089 20.397963 211 211 211 0
2.183059 0.311866 20.383368 211 211 211 0
2.258896 0.311572 20.364178 212 212 212 0
2.336652 0.311554 20.362981 211 211 211 0
2.416337 0.311785 20.378128 212 212 212 0
2.493847 0.311731 20.374570 212 212 212 0
2.573243 0.311908 20.386160 212 212 212 0
2.647505 0.311471 20.357595 212 212 212 0
2.727126 0.311672 20.370687 212 212 212 0
2.806531 0.311837 20.381492 213 213 213 0
2.887670 0.312181 20.403959 213 213 213 0
2.967308 0.312348 20.414917 212 212 212 0
3.044452 0.312251 20.408595 212 212 212 0
3.123175 0.312318 20.412909 213 213 213 0
3.201821 0.312373 20.416523 213 213 213 0
3.284443 0.312804 20.444713 213 213 213 0
3.367084 0.313217 20.471708 213 213 213 0
3.444828 0.313166 20.468379 213 213 213 0
3.524526 0.313291 20.476546 213 213 213 0
3.605755 0.313544 20.493065 213 213 213 0
3.691147 0.314140 20.532037 213 213 213 0
3.771453 0.314288 20.541685 213 213 213 0
3.854872 0.314683 20.567542 212 212 212 0
3.937289 0.314983 20.587130 212 212 212 0
4.022257 0.315471 20.619030 213 213 213 0
4.109183 0.316091 20.659542 214 214 214 0
4.193110 0.316461 20.683736 212 212 212 0
4.276895 0.316807 20.706343 213 213 213 0
4.361927 0.317231 20.734054 213 213 213 0
4.449233 0.317802 20.771397 213 213 213 0
4.538812 0.318513 20.817850 212 212 212 0
4.628135 0.319182 20.861552 212 212 212 0
4.715756 0.319712 20.896225 212 212 212 0
4.807633 0.320509 20.948294 212 212 212 0
4.897957 0.321178 20.991995 212 212 212 0
4.989631 0.321912 21.039977 213 213 213 0
5.081628 0.322643 21.087781 212 212 212 0
5.175829 0.323489 21.143091 212 212 212 0
5.270716 0.324352 21.199462 211 211 211 0
5.370819 0.325504 21.274782 211 211 211 0
5.464428 0.326235 21.322517 211 211 211 0
5.567499 0.327500 21.405225 211 211 211 0
5.669117 0.328644 21.480029 211 211 211 0
5.767002 0.329543 21.538756 210 210 210 0
5.868013 0.330592 21.607340 210 210 210 0
5.976958 0.332053 21.702824 208 208 208 0
6.094212 0.333929 21.825451 208 208 208 0
6.200187 0.335145 21.904918 209 209 209 0
6.316200 0.336864 22.017255 207 207 207 0
6.430880 0.338467 22.122051 207 207 207 0
6.549606 0.340239 22.237862 206 206 206 0
6.683145 0.342725 22.400353 205 205 205 0
6.818582 0.345245 22.565010 205 205 205 0
-6.320844 0.395053 20.656352 210 210 210 0
-6.240906 0.394994 20.653285 211 211 211 0
-6.179471 0.396120 20.712154 211 211 211 0
-6.090004 0.395455 20.677374 211 211 211 0
-6.038128 0.397245 20.770994 211 211 211 0
-6.010164 0.400678 20.950464 211 211 211 0
-5.896266 0.398396 20.831182 210 210 210 0
-5.865984 0.401780 21.008092 210 210 210 0
-5.808504 0.403368 21.091155 211 211 211 0
-5.710181 0.402125 21.026164 210 210 210 0
-5.651848 0.403703 21.108676 211 211 211 0
-5.582089 0.404499 21.150287 210 210 210 0
-5.520090 0.405889 21.222953 211 211 211 0
-5.453374 0.406968 21.279384 210 210 210 0
-5.380612 0.407622 21.313576 211 211 211 0
-5.298612 0.407586 21.311660 210 210 210 0
-5.216783 0.407561 21.310388 211 211 211 0
-5.155922 0.409200 21.396085 211 211 211 0
-5.083587 0.409967 21.436165 211 211 211 0
-5.011506 0.410779 21.478649 210 210 210 0
-4.933122 0.411093 21.495083 211 211 211 0
-4.864169 0.412218 21.553867 210 210 210 0
-4.791052 0.413022 21.595906 211 211 211 0
-4.720033 0.414038 21.649047 211 211 211 0
-4.671748 0.417120 21.810214 211 211 211 0
-4.584894 0.416809 21.793912 212 212 212 0
-4.494808 0.416186 21.761353 211 211 211 0
-4.427495 0.417688 21.839906 212 212 212 0
-4.374166 0.420593 21.991785 210 210 210 0
-4.309832 0.422533 22.093205 212 212 212 0
-4.201202 0.420120 21.967069 211 211 211 0
-4.129071 0.421334 22.030526 211 211 211 0
-4.056145 0.422515 22.092293 210 210 210 0
-3.993489 0.424839 22.213816 210 210 210 0
-3.914056 0.425441 22.245277 212 212 212 0
-3.848830 0.427648 22.360669 211 211 211 0
-3.759327 0.427196 22.337058 211 211 211 0
-3.669901 0.426733 22.312820 212 212 212 0
-3.598699 0.428417 22.400868 213 213 213 0
-3.521581 0.429461 22.455483 212 212 212 0
-3.441699 0.430212 22.494764 211 211 211 0
-3.350544 0.429557 22.460496 211 211 211 0
-3.264597 0.429552 22.460246 213 213 213 0
-3.204080 0.432984 22.639675 212 212 212 0
-3.133824 0.435253 22.758344 212 212 212 0
-3.053785 0.436255 22.810721 212 212 212 0
-2.968245 0.436507 22.823872 212 212 212 0
-2.890453 0.437947 22.899209 212 212 212 0
-2.819093 0.440483 23.031806 212 212 212 0
-2.748366 0.443285 23.178289 213 213 213 0
-2.661924 0.443654 23.197595 213 213 213 0
-2.569071 0.442943 23.160434 213 213 213 0
-2.474583 0.441890 23.105347 212 212 212 0
-2.320838 0.429785 22.472406 195 195 195 0
-2.219697 0.426865 22.319731 193 193 193 0
-2.140290 0.428058 22.382113 193 193 193 0
-2.079248 0.433177 22.649758 196 196 196 0
-1.984123 0.431331 22.553255 195 195 195 0
-1.880743 0.427442 22.349893 195 195 195 0
-1.792116 0.426694 22.310808 194 194 194 0
-1.709156 0.427289 22.341915 193 193 193 0
-1.599940 0.421037 22.015001 195 195 195 0
-1.519252 0.422014 22.066113 197 197 197 0
-1.435755 0.422281 22.080048 196 196 196 0
-1.338606 0.418314 21.872645 197 197 197 0
-1.248599 0.416200 21.762070 196 196 196 0
-1.157421 0.413365 21.613835 197 197 197 0
-1.075827 0.413780 21.635531 199 199 199 0
-0.993260 0.413858 21.639659 200 200 200 0
-0.904420 0.411100 21.495415 201 201 201 0
-0.818228 0.409114 21.391576 199 199 199 0
-0.736332 0.409073 21.389449 200 200 200 0
-0.651914 0.407446 21.304380 199 199 199 0
-0.565657 0.404041 21.126305 200 200 200 0
-0.486745 0.405621 21.208929 201 201 201 0
-0.404589 0.404589 21.154963 202 202 202 0
-0.323127 0.403909 21.119407 203 203 203 0
-0.242000 0.403334 21.089335 203 203 203 0
-0.160717 0.401792 21.008732 203 203 203 0
-0.080115 0.400574 20.945042 204 204 204 0
0.000000 0.400211 20.926056 204 204 204 0
0.079760 0.398798 20.852173 204 204 204 0
0.159824 0.399560 20.892043 204 204 204 0
0.239672 0.399453 20.886430 205 205 205 0
0.317404 0.396754 20.745332 206 206 206 0
0.396712 0.396712 20.743131 206 206 206 0
0.473989 0.394991 20.653108 206 206 206 0
0.553654 0.395467 20.678022 207 207 207 0
0.632679 0.395425 20.675795 207 207 207 0
0.709136 0.393964 20.599449 207 207 207 0
0.789559 0.394779 20.642063 206 206 206 0
0.865057 0.393208 20.559871 207 207 207 0
0.941023 0.392093 20.501595 207 207 207 0
1.020246 0.392402 20.517761 207 207 207 0
1.098007 0.392146 20.504340 207 207 207 0
1.176462 0.392154 20.504781 207 207 207 0
1.250759 0.390862 20.437234 208 208 208 0
1.329625 0.391066 20.447911 209 209 209 0
1.405585 0.390440 20.415173 210 210 210 0
1.484000 0.390526 20.419679 210 210 210 0
1.561322 0.390331 20.409441 210 210 210 0
1.639938 0.390461 20.416282 211 211 211 0
1.714566 0.389674 20.375122 211 211 211 0
1.791020 0.389352 20.358280 211 211 211 0
1.869302 0.389438 20.362772 211 211 211 0
1.944789 0.388958 20.337664 210 210 210 0
2.024522 0.389331 20.357185 211 211 211 0
2.103097 0.389462 20.364051 211 211 211 0
2.180034 0.389292 20.355125 212 212 212 0
2.256517 0.389055 20.342724 211 211 211 0
2.330624 0.388437 20.310446 211 211 211 0
2.412893 0.389176 20.349087 212 212 212 0
2.490130 0.389083 20.344201 212 212 212 0
2.568553 0.389175 20.349004 212 212 212 0
2.644817 0.388944 20.336923 212 212 212 0
2.721490 0.388784 20.328589 212 212 212 0
2.802312 0.389210 20.350853 213 213 213 0
2.881512 0.389394 20.360447 212 212 212 0
2.962259 0.389771 20.380179 213 213 213 0
3.039394 0.389666 20.374690 213 213 213 0
3.117568 0.389696 20.376260 213 213 213 0
3.196636 0.389834 20.383458 213 213 213 0
3.280993 0.390594 20.423235 213 213 213 0
3.361033 0.390818 20.434917 213 213 213 0
3.438043 0.390687 20.428065 213 213 213 0
3.517701 0.390856 20.436896 213 213 213 0
3.599242 0.391222 20.456049 213 213 213 0
3.683324 0.391843 20.488523 212 212 212 0
3.763973 0.392080 20.500940 213 213 213 0
3.848601 0.392714 20.534085 213 213 213 0
3.930577 0.393058 20.552035 213 213 213 0
4.015695 0.393696 20.585393 213 213 213 0
4.100371 0.394266 20.615239 213 213 213 0
4.184791 0.394792 20.642698 214 214 214 0
4.269213 0.395297 20.669149 213 213 213 0
4.353930 0.395812 20.696044 213 213 213 0
4.444107 0.396795 20.747464 213 213 213 0
4.530896 0.397447 20.781543 214 214 214 0
4.616738 0.397995 20.810177 212 212 212 0
4.703734 0.398622 20.842957 212 212 212 0
4.795830 0.399652 20.896862 212 212 212 0
4.888935 0.400732 20.953326 212 212 212 0
4.979419 0.401566 20.996918 212 212 212 0
5.069250 0.402321 21.036416 212 212 212 0
5.164474 0.403475 21.096709 213 213 213 0
5.260225 0.404633 21.157265 212 212 212 0
5.355083 0.405688 21.212449 211 211 211 0
5.449958 0.406713 21.266053 211 211 211 0
5.550311 0.408111 21.339143 211 211 211 0
5.653961 0.409707 21.422607 211 211 211 0
5.752756 0.410911 21.485549 211 211 211 0
5.852920 0.412177 21.551763 211 211 211 0
5.957313 0.413702 21.631494 210 210 210 0
6.073478 0.415992 21.751199 208 208 208 0
6.183980 0.417837 21.847661 208 208 208 0
6.300100 0.420007 21.961133 208 208 208 0
6.415024 0.422041 22.067505 208 208 208 0
6.528727 0.423943 22.166969 207 207 207 0
6.654326 0.426559 22.303757 205 205 205 0
6.796814 0.430178 22.492971 205 205 205 0
-6.302862 0.472715 20.597589 211 211 211 0
-6.262308 0.475618 20.724110 211 211 211 0
-6.204057 0.477235 20.794561 210 210 210 0
-6.121560 0.477005 20.784516 211 211 211 0
-6.026215 0.475754 20.730014 211 211 211 0
-5.963048 0.477044 20.786224 211 211 211 0
-5.912061 0.479356 20.886984 211 211 211 0
-5.848481 0.480697 20.945406 210 210 210 0
-5.784122 0.482010 21.002623 211 211 211 0
-5.686162 0.480521 20.937723 210 210 210 0
-5.634189 0.482930 21.042723 210 210 210 0
-5.575543 0.484830 21.125483 210 210 210 0
-5.506814 0.485895 21.171910 211 211 211 0
-5.420809 0.485446 21.152314 210 210 210 0
-5.362095 0.487463 21.240225 211 211 211 0
-5.317172 0.490816 21.386314 210 210 210 0
-5.235255 0.490805 21.385847 211 211 211 0
-5.150142 0.490490 21.372102 211 211 211 0
-5.088852 0.492470 21.458366 211 211 211 0
-5.021143 0.493883 21.519953 211 211 211 0
-4.934455 0.493446 21.500894 211 211 211 0
-4.868613 0.495113 21.573559 211 211 211 0
-4.797095 0.496251 21.623148 213 213 213 0
-4.724983 0.497367 21.671748 211 211 211 0
-4.656393 0.498899 21.738531 211 211 211 0
-4.600435 0.501866 21.867785 211 211 211 0
-4.501556 0.500173 21.794026 211 211 211 0
-4.429670 0.501472 21.850636 211 211 211 0
-4.363466 0.503477 21.937990 211 211 211 0
-4.284793 0.504093 21.964848 210 210 210 0
-4.211313 0.505358 22.019939 211 211 211 0
-4.145464 0.507608 22.117988 211 211 211 0
-4.066990 0.508374 22.151361 211 211 211 0
-3.986997 0.508978 22.177703 212 212 212 0
-3.927855 0.512329 22.323699 212 212 212 0
-3.836420 0.511523 22.288569 211 211 211 0
-3.761475 0.512928 22.349820 211 211 211 0
-3.677929 0.513199 22.361630 211 211 211 0
-3.595740 0.513677 22.382448 212 212 212 0
-3.519603 0.515064 22.442872 212 212 212 0
-3.432996 0.514949 22.437879 211 211 211 0
-3.343449 0.514377 22.412930 212 212 212 0
-3.269426 0.516225 22.493468 211 211 211 0
-3.198465 0.518670 22.600000 212 212 212 0
-3.133536 0.522256 22.756252 212 212 212 0
-3.050268 0.522903 22.784449 211 211 211 0
-2.962379 0.522773 22.778766 214 214 214 0
-2.893044 0.526008 22.919736 212 212 212 0
-2.822826 0.529280 23.062304 213 213 213 0
-2.735533 0.529458 23.070064 213 213 213 0
-2.649598 0.529920 23.090176 214 214 214 0
-2.562839 0.530242 23.104247 213 213 213 0
-2.460700 0.527293 22.975726 206 206 206 0
-2.311631 0.513696 22.383260 193 193 193 0
-2.212545 0.510587 22.247810 194 194 194 0
-2.148246 0.515579 22.465320 191 191 191 0
-2.071413 0.517853 22.564417 194 194 194 0
-1.965379 0.512708 22.340199 195 195 195 0
-1.881154 0.513042 22.354767 195 195 195 0
-1.786688 0.510482 22.243232 193 193 193 0
-1.692412 0.507724 22.123031 195 195 195 0
-1.606395 0.507283 22.103814 197 197 197 0
-1.511763 0.503921 21.957340 198 198 198 0
-1.423200 0.502306 21.886964 196 196 196 0
-1.334185 0.500319 21.800404 197 197 197 0
-1.242881 0.497152 21.662415 197 197 197 0
-1.151367 0.493443 21.500786 197 197 197 0
-1.071131 0.494368 21.541092 200 200 200 0
-0.985190 0.492595 21.463834 200 200 200 0
-0.903505 0.492821 21.473688 200 200 200 0
-0.818700 0.491220 21.403920 200 200 200 0
-0.735253 0.490169 21.358126 200 200 200 0
-0.649144 0.486858 21.213847 200 200 200 0
-0.566902 0.485916 21.172805 201 201 201 0
-0.485890 0.485890 21.171697 203 203 203 0
-0.404179 0.485015 21.133550 203 203 203 0
-0.322773 0.484160 21.096287 202 202 202 0
-0.241636 0.483273 21.057625 204 204 204 0
-0.160246 0.480738 20.947176 204 204 204 0
-0.079591 0.477547 20.808127 204 204 204 0
0.000000 0.479447 20.890916 203 203 203 0
0.079750 0.478500 20.849685 204 204 204 0
0.159336 0.478009 20.828259 203 203 203 0
0.238921 0.477841 20.820975 205 205 205 0
0.317202 0.475803 20.732164 206 206 206 0
0.394708 0.473650 20.638339 206 206 206 0
0.473983 0.473983 20.652865 206 206 206 0
0.551917 0.473072 20.613152 207 207 207 0
0.631878 0.473908 20.649604 206 206 206 0
0.709754 0.473169 20.617388 207 207 207 0
0.785556 0.471334 20.537416 207 207 207 0
0.862566 0.470490 20.500668 207 207 207 0
0.940625 0.470312 20.492917 207 207 207 0
1.017395 0.469567 20.460440 207 207 207 0
1.096192 0.469796 20.470435 208 208 208 0
1.173061 0.469224 20.445499 209 209 209 0
1.252519 0.469695 20.465998 209 209 209 0
1.325724 0.467903 20.387914 209 209 209 0
1.400881 0.466960 20.346853 210 210 210 0
1.480093 0.467398 20.365911 210 210 210 0
1.559336 0.467801 20.383473 210 210 210 0
1.636162 0.467475 20.369281 210 210 210 0
1.713615 0.467350 20.363819 211 211 211 0
1.788127 0.466468 20.325402 211 211 211 0
1.867088 0.466772 20.338644 210 210 210 0
1.942419 0.466180 20.312875 211 211 211 0
2.022596 0.466753 20.337820 210 210 210 0
2.099217 0.466493 20.326477 211 211 211 0
2.176357 0.466362 20.320792 211 211 211 0
2.252000 0.465931 20.302010 211 211 211 0
2.328075 0.465615 20.288238 212 212 212 0
2.407401 0.465949 20.302771 212 212 212 0
2.486038 0.466132 20.310769 212 212 212 0
2.564682 0.466306 20.318339 212 212 212 0
2.640727 0.466011 20.305474 212 212 212 0
2.718727 0.466067 20.307949 212 212 212 0
2.796262 0.466044 20.306917 212 212 212 0
2.875695 0.466329 20.319341 212 212 212 0
2.956397 0.466800 20.339852 213 213 213 0
3.034622 0.466865 20.342701 213 213 213 0
3.112571 0.466886 20.343599 213 213 213 0
3.191250 0.467012 20.349115 213 213 213 0
3.275479 0.467926 20.388916 213 213 213 0
3.355686 0.468235 20.402407 213 213 213 0
3.433381 0.468188 20.400362 213 213 213 0
3.512712 0.468362 20.407912 214 214 214 0
3.594306 0.468823 20.427998 214 214 214 0
3.678496 0.469595 20.461666 213 213 213 0
3.759835 0.469979 20.478406 213 213 213 0
3.842465 0.470506 20.501346 213 213 213 0
3.923061 0.470767 20.512738 213 213 213 0
4.006404 0.471342 20.537762 213 213 213 0
4.091034 0.472042 20.568294 213 213 213 0
4.176135 0.472770 20.600000 213 213 213 0
4.262469 0.473608 20.636501 213 213 213 0
4.347743 0.474299 20.666635 213 213 213 0
4.434116 0.475084 20.700821 213 213 213 0
4.523189 0.476125 20.746194 214 214 214 0
4.608908 0.476784 20.774882 213 213 213 0
4.694029 0.477359 20.799949 213 213 213 0
4.785478 0.478548 20.851754 212 212 212 0
4.876437 0.479650 20.899763 213 213 213 0
4.970504 0.481017 20.959326 213 213 213 0
5.061603 0.482057 21.004683 213 213 213 0
5.153318 0.483124 21.051134 212 212 212 0
5.250841 0.484693 21.119520 212 212 212 0
5.345576 0.485961 21.174792 212 212 212 0
5.439219 0.487094 21.224149 211 211 211 0
5.536977 0.488557 21.287878 211 211 211 0
5.638673 0.490319 21.364680 211 211 211 0
5.743457 0.492296 21.450821 211 211 211 0
5.842931 0.493769 21.514980 211 211 211 0
5.945147 0.495429 21.587317 210 210 210 0
6.058115 0.497927 21.696176 209 209 209 0
6.167057 0.500032 21.787870 208 208 208 0
6.282286 0.502583 21.899035 208 208 208 0
6.398790 0.505168 22.011661 208 208 208 0
6.518524 0.507937 22.132328 207 207 207 0
6.636906 0.510531 22.245369 205 205 205 0
6.775624 0.514604 22.422847 206 206 206 0
-6.329854 0.553862 20.685798 211 211 211 0
-6.243531 0.553224 20.661971 210 210 210 0
-6.192838 0.555767 20.756956 211 211 211 0
-6.103905 0.554900 20.724575 210 210 210 0
-6.063078 0.558441 20.856822 211 211 211 0
-5.972775 0.557459 20.820129 209 209 209 0
-5.926804 0.560644 20.939072 210 210 210 0
-5.836107 0.559627 20.901091 211 211 211 0
-5.787339 0.562658 21.014302 211 211 211 0
-5.753237 0.567221 21.184707 211 211 211 0
-5.653644 0.565364 21.115384 211 211 211 0
-5.584490 0.566542 21.159383 211 211 211 0
-5.500573 0.566235 21.147916 210 210 210 0
-5.448000 0.569194 21.258416 211 211 211 0
-5.380612 0.570671 21.313576 210 210 210 0
-5.294005 0.570124 21.293132 210 210 210 0
-5.224086 0.571384 21.340221 210 210 210 0
-5.146334 0.571815 21.356299 211 211 211 0
-5.087673 0.574415 21.453396 211 211 211 0
-5.015043 0.575497 21.493811 211 211 211 0
-4.945954 0.577028 21.550997 210 210 210 0
-4.840414 0.574286 21.448605 211 211 211 0
-4.776566 0.576482 21.530612 212 212 212 0
-4.731801 0.581098 21.703018 211 211 211 0
-4.647847 0.580981 21.698630 211 211 211 0
-4.563263 0.580779 21.691091 211 211 211 0
-4.491699 0.582257 21.746303 212 212 212 0
-4.424792 0.584406 21.826572 211 211 211 0
-4.365056 0.587604 21.945985 211 211 211 0
-4.288881 0.588670 21.985807 211 211 211 0
-4.205264 0.588737 21.988307 211 211 211 0
-4.132152 0.590307 22.046962 211 211 211 0
-4.068252 0.593287 22.158235 210 210 210 0
-3.986104 0.593675 22.172739 212 212 212 0
-3.915763 0.595877 22.254975 212 212 212 0
-3.831749 0.596050 22.261433 211 211 211 0
-3.760501 0.598261 22.344032 211 211 211 0
-3.669607 0.597378 22.311035 212 212 212 0
-3.595463 0.599244 22.380720 211 211 211 0
-3.511097 0.599456 22.388634 211 211 211 0
-3.420406 0.598571 22.355597 212 212 212 0
-3.355836 0.602330 22.495968 213 213 213 0
-3.267648 0.601935 22.481237 212 212 212 0
-3.200778 0.605553 22.616341 212 212 212 0
-3.127207 0.608068 22.710288 212 212 212 0
-3.056108 0.611222 22.828072 211 211 211 0
-2.963689 0.610171 22.788841 212 212 212 0
-2.899961 0.615143 22.974538 214 214 214 0
-2.817565 0.616342 23.019323 213 213 213 0
-2.746046 0.620075 23.158729 215 215 215 0
-2.659778 0.620615 23.178890 215 215 215 0
-2.568581 0.620002 23.156018 213 213 213 0
-2.444360 0.611090 22.823154 204 204 204 0
-2.302492 0.596942 22.294763 194 194 194 0
-2.210482 0.595130 22.227068 193 193 193 0
-2.160516 0.604944 22.593628 196 196 196 0
-2.070795 0.603982 22.557683 195 195 195 0
-1.979130 0.602344 22.496502 194 194 194 0
-1.872920 0.595929 22.256923 194 194 194 0
-1.784587 0.594862 22.217080 194 194 194 0
-1.685980 0.590093 22.038958 198 198 198 0
-1.598065 0.588761 21.989202 197 197 197 0
-1.510710 0.587498 21.942046 197 197 197 0
-1.423617 0.586195 21.893382 197 197 197 0
-1.328831 0.581363 21.712921 197 197 197 0
-1.232356 0.575100 21.478977 197 197 197 0
-1.159977 0.579988 21.661563 199 199 199 0
-1.066165 0.574089 21.441217 201 201 201 0
-0.984774 0.574452 21.454777 200 200 200 0
-0.902419 0.574267 21.447878 200 200 200 0
-0.819335 0.573535 21.420533 199 199 199 0
-0.733062 0.570159 21.294466 200 200 200 0
-0.649609 0.568408 21.229039 200 200 200 0
-0.566568 0.566568 21.160348 201 201 201 0
-0.484545 0.565302 21.113068 202 202 202 0
-0.402310 0.563234 21.035821 202 202 202 0
-0.321228 0.562149 20.995290 203 203 203 0
-0.240845 0.561972 20.988688 203 203 203 0
-0.159813 0.559344 20.890531 203 203 203 0
-0.079927 0.559486 20.895846 203 203 203 0
0.000000 0.556728 20.792840 203 203 203 0
0.079635 0.557444 20.819569 204 204 204 0
0.158935 0.556272 20.775793 205 205 205 0
0.237908 0.555118 20.732712 206 206 206 0
0.317306 0.555286 20.738965 207 207 207 0
0.394988 0.552983 20.652969 207 207 207 0
0.473589 0.552521 20.635697 206 206 206 0
0.551840 0.551840 20.610271 207 207 207 0
0.630018 0.551266 20.588835 207 207 207 0
0.708332 0.550925 20.576099 207 207 207 0
0.783704 0.548593 20.489004 207 207 207 0
0.861007 0.547913 20.463616 207 207 207 0
0.937112 0.546648 20.416374 207 207 207 0
1.015745 0.546939 20.427244 208 208 208 0
1.094318 0.547159 20.435441 209 209 209 0
1.173212 0.547499 20.448134 209 209 209 0
1.251567 0.547561 20.450440 209 209 209 0
1.324584 0.545417 20.370376 210 210 210 0
1.401784 0.545138 20.359971 211 211 211 0
1.477981 0.544519 20.336861 210 210 210 0
1.555984 0.544595 20.339666 210 210 210 0
1.634696 0.544899 20.351026 211 211 211 0
1.709992 0.544088 20.320760 211 211 211 0
1.786136 0.543607 20.302765 210 210 210 0
1.863192 0.543431 20.296212 211 211 211 0
1.939879 0.543166 20.286314 211 211 211 0
2.019102 0.543604 20.302684 211 211 211 0
2.095972 0.543400 20.295062 211 211 211 0
2.170559 0.542640 20.266654 212 212 212 0
2.248374 0.542711 20.269314 211 211 211 0
2.324893 0.542475 20.260507 211 211 211 0
2.404650 0.542985 20.279566 212 212 212 0
2.481088 0.542738 20.270325 212 212 212 0
2.558927 0.542803 20.272743 212 212 212 0
2.636756 0.542862 20.274944 212 212 212 0
2.712917 0.542583 20.264550 213 213 213 0
2.792812 0.543047 20.281857 212 212 212 0
2.873073 0.543554 20.300818 213 213 213 0
2.951381 0.543675 20.305340 213 213 213 0
3.029319 0.543724 20.307148 213 213 213 0
3.109629 0.544185 20.324376 213 213 213 0
3.186491 0.544035 20.318767 213 213 213 0
3.269818 0.544970 20.353678 213 213 213 0
3.350081 0.545362 20.368329 213 213 213 0
3.429364 0.545581 20.376493 214 214 214 0
3.508826 0.545817 20.385335 213 213 213 0
3.589054 0.546160 20.398145 214 214 214 0
3.671346 0.546796 20.421893 214 214 214 0
3.754198 0.547487 20.447704 213 213 213 0
3.837072 0.548153 20.472573 214 214 214 0
3.915722 0.548201 20.474363 214 214 214 0
3.999566 0.548960 20.502708 214 214 214 0
4.084814 0.549879 20.537023 213 213 213 0
4.171686 0.550977 20.578056 214 214 214 0
4.255869 0.551687 20.604547 213 213 213 0
4.338079 0.552119 20.620698 213 213 213 0
4.427461 0.553433 20.669753 214 214 214 0
4.515699 0.554560 20.711840 213 213 213 0
4.600987 0.555292 20.739180 213 213 213 0
4.687735 0.556172 20.772060 213 213 213 0
4.774017 0.556969 20.801818 213 213 213 0
4.868213 0.558647 20.864514 213 213 213 0
4.961397 0.560158 20.920924 212 212 212 0
5.052929 0.561437 20.968684 212 212 212 0
5.145599 0.562800 21.019604 212 212 212 0
5.236948 0.563979 21.063642 212 212 212 0
5.334631 0.565794 21.131434 213 213 213 0
5.427344 0.567036 21.177812 212 212 212 0
5.523102 0.568555 21.234534 211 211 211 0
5.627464 0.570902 21.322209 211 211 211 0
5.730868 0.573087 21.403800 211 211 211 0
5.829916 0.574780 21.467057 211 211 211 0
5.931365 0.576661 21.537274 211 211 211 0
6.043702 0.579533 21.644560 210 210 210 0
6.150062 0.581763 21.727827 208 208 208 0
6.266720 0.584894 21.844775 208 208 208 0
6.381874 0.587804 21.953471 208 208 208 0
6.500648 0.590968 22.071633 208 208 208 0
6.618299 0.593950 22.183004 207 207 207 0
6.750702 0.598163 22.340372 205 205 205 0
-6.319728 0.631973 20.652706 211 211 211 0
-6.238869 0.631784 20.646544 211 211 211 0
-6.221049 0.638056 20.851512 211 211 211 0
-6.078673 0.631550 20.638904 211 211 211 0
-6.041584 0.635956 20.782884 211 211 211 0
-5.969977 0.636798 20.810379 211 211 211 0
-5.893558 0.637141 20.821613 210 210 210 0
-5.834648 0.639413 20.895864 210 210 210 0
-5.789564 0.643285 21.022384 210 210 210 0
-5.703075 0.642600 21.000000 210 210 210 0
-5.653644 0.646131 21.115384 211 211 211 0
-5.562821 0.644965 21.077280 210 210 210 0
-5.498730 0.646909 21.140829 211 211 211 0
-5.465771 0.652629 21.327757 211 211 211 0
-5.362864 0.650044 21.243271 210 210 210 0
-5.292749 0.651415 21.288081 211 211 211 0
-5.218753 0.652344 21.318435 210 210 210 0
-5.145202 0.653359 21.351601 210 210 210 0
-5.082762 0.655840 21.432689 210 210 210 0
-5.017907 0.658086 21.506083 210 210 210 0
-4.951675 0.660223 21.575927 210 210 210 0
-4.849714 0.657588 21.489813 211 211 211 0
-4.773740 0.658447 21.517871 211 211 211 0
-4.725881 0.663282 21.675869 211 211 211 0
-4.655221 0.665032 21.733056 211 211 211 0
-4.577183 0.665772 21.757256 211 211 211 0
-4.494495 0.665851 21.759839 212 212 212 0
-4.428683 0.668481 21.845769 211 211 211 0
-4.353581 0.669782 21.888291 211 211 211 0
-4.280526 0.671455 21.942975 212 212 212 0
-4.216715 0.674674 22.048183 212 212 212 0
-4.125227 0.673506 22.010013 211 211 211 0
-4.056145 0.676024 22.092293 212 212 212 0
-3.981670 0.677731 22.148072 211 211 211 0
-3.922814 0.682229 22.295052 212 212 212 0
-3.835848 0.681928 22.285244 211 211 211 0
-3.756040 0.682916 22.317527 212 212 212 0
-3.659009 0.680746 22.246597 212 212 212 0
-3.594491 0.684665 22.374671 212 212 212 0
-3.512061 0.685280 22.394777 211 211 211 0
-3.423390 0.684678 22.375097 212 212 212 0
-3.341756 0.685488 22.401584 212 212 212 0
-3.265639 0.687503 22.467417 212 212 212 0
-3.197975 0.691454 22.596536 212 212 212 0
-3.132976 0.696217 22.752185 212 212 212 0
-3.053154 0.697864 22.806002 212 212 212 0
-2.961087 0.696726 22.768834 213 213 213 0
-2.891464 0.700961 22.907219 213 213 213 0
-2.812944 0.703236 22.981565 212 212 212 0
-2.737755 0.706517 23.088801 212 212 212 0
-2.654795 0.707945 23.135471 214 214 214 0
-2.554986 0.704824 23.033453 213 213 213 0
-2.420199 0.691486 22.597566 201 201 201 0
-2.301216 0.681842 22.282408 192 192 192 0
-2.220999 0.683384 22.332817 195 195 195 0
-2.132238 0.682316 22.297913 194 194 194 0
-2.067226 0.689075 22.518802 195 195 195 0
-1.970665 0.685449 22.400283 195 195 195 0
-1.867463 0.679078 22.192075 194 194 194 0
-1.765785 0.672680 21.983007 196 196 196 0
-1.678231 0.671292 21.937658 197 197 197 0
-1.601268 0.674218 22.033276 196 196 196 0
-1.503300 0.668133 21.834420 197 197 197 0
-1.420663 0.668547 21.847957 198 198 198 0
-1.334069 0.667035 21.798521 197 197 197 0
-1.237924 0.660226 21.576011 199 199 199 0
-1.153316 0.659038 21.537189 200 200 200 0
-1.065802 0.655878 21.433918 200 200 200 0
-0.985140 0.656760 21.462746 200 200 200 0
-0.896232 0.651805 21.300826 199 199 199 0
-0.813104 0.650483 21.257630 200 200 200 0
-0.729527 0.648469 21.191785 200 200 200 0
-0.645143 0.645143 21.083088 201 201 201 0
-0.567421 0.648481 21.192193 201 201 201 0
-0.482646 0.643528 21.030315 203 203 203 0
-0.402229 0.643567 21.031600 203 203 203 0
-0.321467 0.642935 21.010935 204 204 204 0
-0.240600 0.641600 20.967324 203 203 203 0
-0.159864 0.639454 20.897205 202 202 202 0
-0.079734 0.637875 20.845601 204 204 204 0
0.000000 0.635304 20.761560 203 203 203 0
0.079471 0.635764 20.776616 205 205 205 0
0.158795 0.635182 20.757569 206 206 206 0
0.237881 0.634350 20.730384 206 206 206 0
0.317171 0.634343 20.730155 206 206 206 0
0.394782 0.631651 20.642185 206 206 206 0
0.471744 0.628992 20.555284 206 206 206 0
0.549694 0.628222 20.530124 207 207 207 0
0.629662 0.629662 20.577176 207 207 207 0
0.706938 0.628389 20.535590 207 207 207 0
0.785567 0.628453 20.537688 207 207 207 0
0.859992 0.625449 20.439513 208 208 208 0
0.937535 0.625023 20.425595 208 208 208 0
1.014748 0.624460 20.407202 209 209 209 0
1.092887 0.624507 20.408713 209 209 209 0
1.170351 0.624187 20.398282 210 210 210 0
1.248148 0.624074 20.394573 210 210 210 0
1.324453 0.623272 20.368361 210 210 210 0
1.398594 0.621597 20.313638 210 210 210 0
1.475784 0.621383 20.306629 211 211 211 0
1.555490 0.622196 20.333200 210 210 210 0
1.631550 0.621543 20.311858 211 211 211 0
1.708800 0.621382 20.306599 211 211 211 0
1.783247 0.620260 20.269930 210 210 210 0
1.860027 0.620009 20.261727 211 211 211 0
1.936715 0.619749 20.253229 211 211 211 0
2.016361 0.620419 20.275126 211 211 211 0
2.092639 0.620041 20.262786 211 211 211 0
2.168685 0.619624 20.249160 212 212 212 0
2.242314 0.618570 20.214690 212 212 212 0
2.319921 0.618646 20.217180 212 212 212 0
2.397425 0.618690 20.218640 212 212 212 0
2.478233 0.619558 20.247006 212 212 212 0
2.554022 0.619157 20.233882 212 212 212 0
2.631906 0.619272 20.237643 212 212 212 0
2.710731 0.619596 20.248223 213 213 213 0
2.788140 0.619587 20.247930 213 213 213 0
2.867144 0.619923 20.258925 213 213 213 0
2.947283 0.620481 20.277144 213 213 213 0
3.025530 0.620621 20.281747 213 213 213 0
3.102991 0.620598 20.280990 213 213 213 0
3.182067 0.620891 20.290558 214 214 214 0
3.264892 0.621884 20.323010 213 213 213 0
3.344827 0.622293 20.336387 213 213 213 0
3.424759 0.622683 20.349131 214 214 214 0
3.503521 0.622848 20.354514 213 213 213 0
3.581174 0.622813 20.353361 214 214 214 0
3.667479 0.624252 20.400381 214 214 214 0
3.746382 0.624397 20.405130 214 214 214 0
3.831288 0.625516 20.441715 214 214 214 0
3.909741 0.625559 20.443092 214 214 214 0
3.992995 0.626352 20.469023 213 213 213 0
4.078316 0.627433 20.504352 214 214 214 0
4.163302 0.628423 20.536699 213 213 213 0
4.248391 0.629391 20.568344 214 214 214 0
4.334129 0.630419 20.601922 213 213 213 0
4.419499 0.631357 20.632582 214 214 214 0
4.507360 0.632612 20.673592 213 213 213 0
4.594441 0.633716 20.709675 214 214 214 0
4.677235 0.634201 20.725534 214 214 214 0
4.766098 0.635480 20.767311 214 214 214 0
4.856608 0.636932 20.814776 212 212 212 0
4.954355 0.639272 20.891229 212 212 212 0
5.043508 0.640445 20.929591 213 213 213 0
5.134564 0.641821 20.974527 212 212 212 0
5.228674 0.643529 21.030364 212 212 212 0
5.322824 0.645191 21.084667 212 212 212 0
5.418155 0.646944 21.141958 213 213 213 0
5.511020 0.648355 21.188082 212 212 212 0
5.613163 0.650802 21.268025 212 212 212 0
5.718968 0.653596 21.359356 210 210 210 0
5.818650 0.655622 21.425571 211 211 211 0
5.918223 0.657580 21.489554 210 210 210 0
6.029084 0.660722 21.592208 210 210 210 0
6.136576 0.663414 21.680183 209 209 209 0
6.245635 0.666201 21.771276 209 209 209 0
6.363540 0.669846 21.890402 208 208 208 0
6.485516 0.673820 22.020256 208 208 208 0
6.596095 0.676523 22.108580 208 208 208 0
6.726065 0.681121 22.258841 206 206 206 0
-6.291449 0.707788 20.560290 210 210 210 0
-6.247072 0.711692 20.673690 210 210 210 0
-6.169004 0.711808 20.677072 210 210 210 0
-6.101882 0.713207 20.717704 211 211 211 0
-6.049634 0.716404 20.810575 211 211 211 0
-5.967963 0.716156 20.803358 211 211 211 0
-5.911107 0.718918 20.883615 210 210 210 0
-5.844841 0.720597 20.932371 210 210 210 0
-5.760830 0.720104 20.918048 211 211 211 0
-5.681544 0.720196 20.920717 211 211 211 0
-5.652615 0.726765 21.111540 210 210 210 0
-5.554202 0.724461 21.044624 210 210 210 0
-5.497758 0.727644 21.137095 210 210 210 0
-5.439655 0.730700 21.225850 211 211 211 0
-5.383405 0.734101 21.324637 210 210 210 0
-5.278139 0.730819 21.229316 212 212 212 0
-5.208441 0.732437 21.276311 212 212 212 0
-5.144355 0.734908 21.348085 210 210 210 0
-5.077197 0.737012 21.409222 210 210 210 0
-5.000812 0.737825 21.432817 211 211 211 0
-4.929544 0.739432 21.479493 211 211 211 0
-4.854105 0.740457 21.509273 210 210 210 0
-4.779887 0.741707 21.545582 211 211 211 0
-4.709686 0.743635 21.601589 211 211 211 0
-4.643754 0.746318 21.679524 211 211 211 0
-4.581448 0.749691 21.777530 211 211 211 0
-4.493620 0.748937 21.755605 211 211 211 0
-4.429778 0.752226 21.851167 211 211 211 0
-4.353277 0.753452 21.886765 211 211 211 0
-4.287667 0.756647 21.979584 210 210 210 0
-4.208540 0.757537 22.005440 211 211 211 0
-4.138268 0.760090 22.079595 210 210 210 0
-4.059965 0.761243 22.113101 212 212 212 0
-3.978738 0.761886 22.131764 211 211 211 0
-3.902354 0.763504 22.178768 211 211 211 0
-3.820842 0.764168 22.198063 211 211 211 0
-3.756627 0.768401 22.321014 212 212 212 0
-3.660807 0.766215 22.257527 211 211 211 0
-3.591417 0.769589 22.355539 212 212 212 0
-3.522108 0.773146 22.458844 212 212 212 0
-3.424603 0.770536 22.383023 212 212 212 0
-3.343640 0.771609 22.414214 212 212 212 0
-3.260930 0.772325 22.435018 213 213 213 0
-3.192442 0.776540 22.557444 212 212 212 0
-3.132005 0.783001 22.745131 212 212 212 0
-3.057611 0.786243 22.839300 213 213 213 0
-2.970484 0.786305 22.841090 214 214 214 0
-2.891309 0.788539 22.905990 212 212 212 0
-2.818223 0.792625 23.024698 214 214 214 0
-2.730466 0.792716 23.027329 214 214 214 0
-2.643513 0.793054 23.037147 213 213 213 0
-2.547727 0.790674 22.968014 214 214 214 0
-2.414007 0.775931 22.539746 197 197 197 0
-2.304574 0.768191 22.314926 193 193 193 0
-2.228503 0.771405 22.408275 197 197 197 0
-2.142885 0.771439 22.409259 195 195 195 0
-2.056038 0.771014 22.396928 196 196 196 0
-1.959243 0.766660 22.270449 195 195 195 0
-1.863643 0.762399 22.146674 194 194 194 0
-1.773400 0.760029 22.077807 197 197 197 0
-1.683732 0.757679 22.009569 199 199 199 0
-1.593947 0.755028 21.932540 196 196 196 0
-1.503192 0.751596 21.832854 197 197 197 0
-1.416986 0.750169 21.791410 198 198 198 0
-1.329374 0.747773 21.721801 197 197 197 0
-1.236832 0.742099 21.556987 200 200 200 0
-1.152165 0.740677 21.515680 200 200 200 0
-1.065593 0.737718 21.429717 198 198 198 0
-0.979670 0.734752 21.343571 200 200 200 0
-0.899127 0.735649 21.369617 199 199 199 0
-0.813930 0.732537 21.279209 201 201 201 0
-0.728489 0.728489 21.161622 200 200 200 0
-0.649890 0.731126 21.238221 202 202 202 0
-0.563130 0.724024 21.031933 203 203 203 0
-0.481411 0.722117 20.976529 203 203 203 0
-0.401234 0.722221 20.979538 202 202 202 0
-0.320724 0.721628 20.962331 202 202 202 0
-0.240503 0.721508 20.958852 203 203 203 0
-0.159672 0.718524 20.872163 203 203 203 0
-0.079538 0.715838 20.794128 204 204 204 0
0.000000 0.714113 20.744028 205 205 205 0
0.079087 0.711783 20.676349 206 206 206 0
0.158578 0.713600 20.729111 206 206 206 0
0.237358 0.712073 20.684775 207 207 207 0
0.315634 0.710177 20.629687 206 206 206 0
0.393991 0.709183 20.600817 206 206 206 0
0.472025 0.708037 20.567538 205 205 205 0
0.549573 0.706594 20.525594 206 206 206 0
0.627877 0.706362 20.518870 206 206 206 0
0.706437 0.706437 20.521043 207 207 207 0
0.782907 0.704616 20.468161 207 207 207 0
0.860393 0.703958 20.449021 208 208 208 0
0.934764 0.701073 20.365237 209 209 209 0
1.014240 0.702166 20.396992 210 210 210 0
1.090832 0.701249 20.370345 209 209 209 0
1.169429 0.701658 20.382210 209 209 209 0
1.244069 0.699789 20.327922 209 209 209 0
1.320918 0.699309 20.313997 210 210 210 0
1.396399 0.698199 20.281753 210 210 210 0
1.475379 0.698864 20.301052 210 210 210 0
1.552458 0.698606 20.293567 210 210 210 0
1.629513 0.698363 20.286499 210 210 210 0
1.705442 0.697681 20.266686 211 211 211 0
1.782661 0.697563 20.263264 211 211 211 0
1.857828 0.696685 20.237773 211 211 211 0
1.933179 0.695944 20.216251 211 211 211 0
2.009057 0.695443 20.201682 211 211 211 0
2.088916 0.696305 20.226736 212 212 212 0
2.166153 0.696263 20.225514 212 212 212 0
2.243384 0.696223 20.224331 212 212 212 0
2.318049 0.695415 20.200861 213 213 213 0
2.395855 0.695571 20.205400 212 212 212 0
2.474657 0.695997 20.217788 213 213 213 0
2.552473 0.696129 20.221610 213 213 213 0
2.629801 0.696124 20.221463 213 213 213 0
2.706803 0.696035 20.218884 213 213 213 0
2.784325 0.696081 20.220223 213 213 213 0
2.863909 0.696626 20.236063 213 213 213 0
2.941527 0.696678 20.237547 213 213 213 0
3.021302 0.697223 20.253404 213 213 213 0
3.100268 0.697560 20.263190 213 213 213 0
3.179078 0.697846 20.271499 213 213 213 0
3.259252 0.698411 20.287904 213 213 213 0
3.338886 0.698837 20.300267 214 214 214 0
3.419403 0.699423 20.317308 214 214 214 0
3.498423 0.699685 20.324899 213 213 213 0
3.576834 0.699815 20.328698 214 214 214 0
3.661917 0.701218 20.369443 214 214 214 0
3.743175 0.701845 20.387666 214 214 214 0
3.825482 0.702640 20.410737 214 214 214 0
3.905308 0.702956 20.419913 214 214 214 0
3.987707 0.703713 20.441920 214 214 214 0
4.070287 0.704473 20.463985 214 214 214 0
4.157792 0.706040 20.509516 213 213 213 0
4.240313 0.706719 20.529232 214 214 214 0
4.324393 0.707628 20.555639 214 214 214 0
4.415097 0.709569 20.612031 214 214 214 0
4.499880 0.710507 20.639285 214 214 214 0
4.587449 0.711846 20.678158 214 214 214 0
4.669571 0.712307 20.691572 213 213 213 0
4.759591 0.713939 20.738960 213 213 213 0
4.850796 0.715691 20.789870 213 213 213 0
4.940473 0.717165 20.832692 212 212 212 0
5.031290 0.718756 20.878886 213 213 213 0
5.124888 0.720687 20.935001 213 213 213 0
5.219568 0.722709 20.993739 212 212 212 0
5.313628 0.724586 21.048238 213 213 213 0
5.408283 0.726486 21.103435 213 213 213 0
5.503752 0.728438 21.160139 212 212 212 0
5.601589 0.730642 21.224171 211 211 211 0
5.703218 0.733271 21.300534 210 210 210 0
5.809529 0.736419 21.391986 211 211 211 0
5.908557 0.738570 21.454457 211 211 211 0
6.019351 0.742112 21.557349 210 210 210 0
6.125054 0.744939 21.639476 210 210 210 0
6.235001 0.748200 21.734207 208 208 208 0
6.348785 0.751830 21.839645 208 208 208 0
6.467671 0.755962 21.959667 209 209 209 0
6.581684 0.759425 22.060278 208 208 208 0
6.706839 0.764070 22.195214 206 206 206 0
-6.294379 0.786797 20.569866 211 211 211 0
-6.241456 0.790058 20.655104 211 211 211 0
-6.167812 0.790745 20.673075 211 211 211 0
-6.093030 0.791303 20.687649 210 210 210 0
-6.029815 0.793397 20.742399 211 211 211 0
-5.990824 0.798776 20.883045 211 211 211 0
-5.890650 0.796034 20.811342 211 211 211 0
-5.842221 0.800304 20.922988 211 211 211 0
-5.782299 0.803097 20.996002 211 211 211 0
-5.698350 0.802585 20.982602 211 211 211 0
-5.616630 0.802376 20.977143 211 211 211 0
-5.561027 0.805946 21.070481 210 210 210 0
-5.497758 0.808494 21.137095 210 210 210 0
-5.434628 0.811139 21.206236 210 210 210 0
-5.359167 0.811995 21.228628 210 210 210 0
-5.282183 0.812644 21.245582 211 211 211 0
-5.204743 0.813241 21.261207 210 210 210 0
-5.142483 0.816267 21.340316 211 211 211 0
-5.062857 0.816590 21.348755 211 211 211 0
-4.993155 0.818550 21.400000 210 210 210 0
-4.925290 0.820882 21.460957 211 211 211 0
-4.861560 0.823993 21.542306 211 211 211 0
-4.783461 0.824735 21.561691 211 211 211 0
-4.719567 0.827994 21.646907 210 210 210 0
-4.635529 0.827773 21.641124 211 211 211 0
-4.567907 0.830529 21.713167 211 211 211 0
-4.483420 0.830263 21.706221 211 211 211 0
-4.419590 0.833885 21.800915 212 212 212 0
-4.345607 0.835694 21.848199 212 212 212 0
-4.292549 0.841676 22.004607 212 212 212 0
-4.202218 0.840444 21.972380 211 211 211 0
-4.110559 0.838890 21.931754 212 212 212 0
-4.050428 0.843839 22.061152 212 212 212 0
-3.976191 0.845998 22.117597 212 212 212 0
-3.898665 0.847536 22.157800 211 211 211 0
-3.812921 0.847316 22.152048 211 211 211 0
-3.727657 0.847195 22.148883 212 212 212 0
-3.661356 0.851478 22.260865 211 211 211 0
-3.589045 0.854535 22.340772 211 211 211 0
-3.510821 0.856298 22.386872 212 212 212 0
-3.422492 0.855623 22.369226 212 212 212 0
-3.330646 0.854012 22.327108 212 212 212 0
-3.258415 0.857478 22.417714 212 212 212 0
-3.188768 0.861829 22.531481 213 213 213 0
-3.127298 0.868694 22.710952 212 212 212 0
-3.051386 0.871825 22.792798 212 212 212 0
-2.973230 0.874479 22.862205 213 213 213 0
-2.892934 0.876647 22.918866 213 213 213 0
-2.807525 0.877352 22.937299 213 213 213 0
-2.728584 0.880188 23.011459 213 213 213 0
-2.639126 0.879709 22.998921 214 214 214 0
-2.534481 0.873959 22.848603 212 212 212 0
-2.397999 0.856428 22.390282 197 197 197 0
-2.268989 0.840366 21.970365 195 195 195 0
-2.210795 0.850306 22.230221 196 196 196 0
-2.139184 0.855674 22.370555 196 196 196 0
-2.048770 0.853654 22.317761 194 194 194 0
-1.947821 0.846879 22.140619 194 194 194 0
-1.860261 0.845573 22.106486 196 196 196 0
-1.767941 0.841877 22.009853 198 198 198 0
-1.685716 0.842858 22.035504 197 197 197 0
-1.591821 0.837800 21.903275 196 196 196 0
-1.507290 0.837383 21.892374 197 197 197 0
-1.408279 0.828399 21.657495 198 198 198 0
-1.327012 0.829383 21.683203 198 198 198 0
-1.235029 0.823353 21.525558 199 199 199 0
-1.152091 0.822922 21.514309 201 201 201 0
-1.060971 0.816132 21.336772 200 200 200 0
-0.977649 0.814707 21.299533 200 200 200 0
-0.898053 0.816412 21.344111 200 200 200 0
-0.817148 0.817148 21.363349 201 201 201 0
-0.729352 0.810391 21.186688 201 201 201 0
-0.647375 0.809219 21.156046 202 202 202 0
-0.564514 0.806448 21.083609 202 202 202 0
-0.482418 0.804030 21.020382 203 203 203 0
-0.401279 0.802558 20.981916 202 202 202 0
-0.320578 0.801445 20.952803 203 203 203 0
-0.240041 0.800138 20.918631 203 203 203 0
-0.159766 0.798829 20.884424 202 202 202 0
-0.079336 0.793361 20.741468 204 204 204 0
0.000000 0.792753 20.725575 205 205 205 0
0.079135 0.791350 20.688893 205 205 205 0
0.157961 0.789805 20.648506 205 205 205 0
0.237817 0.792725 20.724834 207 207 207 0
0.315966 0.789915 20.651369 206 206 206 0
0.393321 0.786641 20.565786 207 207 207 0
0.469618 0.782697 20.462666 206 206 206 0
0.548535 0.783621 20.486834 208 208 208 0
0.627170 0.783962 20.495743 206 206 206 0
0.704989 0.783321 20.478983 208 208 208 0
0.781768 0.781768 20.438379 208 208 208 0
0.859078 0.780980 20.417775 209 209 209 0
0.935205 0.779338 20.374839 209 209 209 0
1.012531 0.778870 20.362608 209 209 209 0
1.089592 0.778280 20.347197 210 210 210 0
1.167938 0.778625 20.356215 210 210 210 0
1.245451 0.778407 20.350502 210 210 210 0
1.319557 0.776210 20.293078 210 210 210 0
1.396048 0.775582 20.276657 210 210 210 0
1.473261 0.775401 20.271914 210 210 210 0
1.549658 0.774829 20.256962 210 210 210 0
1.626245 0.774403 20.245817 210 210 210 0
1.702293 0.773770 20.229268 210 210 210 0
1.779692 0.773779 20.229521 211 211 211 0
1.854203 0.772585 20.198290 211 211 211 0
1.933027 0.773211 20.214657 212 212 212 0
2.008133 0.772359 20.192384 212 212 212 0
2.086440 0.772755 20.202758 213 213 213 0
2.162778 0.772421 20.194002 212 212 212 0
2.238187 0.771788 20.177476 212 212 212 0
2.315821 0.771940 20.181448 213 213 213 0
2.392346 0.771725 20.175808 213 213 213 0
2.472774 0.772742 20.202403 213 213 213 0
2.549317 0.772520 20.196612 213 213 213 0
2.627010 0.772650 20.200000 214 214 214 0
2.702854 0.772244 20.189386 214 214 214 0
2.780854 0.772460 20.195020 213 213 213 0
2.859830 0.772927 20.207240 214 214 214 0
2.936421 0.772742 20.202412 214 214 214 0
3.015192 0.773126 20.212447 213 213 213 0
3.092219 0.773055 20.210581 213 213 213 0
3.172104 0.773684 20.227031 213 213 213 0
3.254099 0.774786 20.255830 213 213 213 0
3.333036 0.775125 20.264694 213 213 213 0
3.415236 0.776190 20.292551 213 213 213 0
3.494585 0.776574 20.302597 213 213 213 0
3.572919 0.776722 20.306447 214 214 214 0
3.654850 0.777628 20.330133 214 214 214 0
3.737111 0.778565 20.354633 214 214 214 0
3.821596 0.779918 20.390000 214 214 214 0
3.898436 0.779687 20.383980 215 215 215 0
3.982414 0.780866 20.414786 214 214 214 0
4.064086 0.781555 20.432812 214 214 214 0
4.150149 0.783047 20.471818 214 214 214 0
4.234933 0.784247 20.503185 214 214 214 0
4.321011 0.785638 20.539564 213 213 213 0
4.404411 0.786502 20.562142 214 214 214 0
4.491315 0.787950 20.600000 214 214 214 0
4.580997 0.789827 20.649075 214 214 214 0
4.665001 0.790678 20.671325 214 214 214 0
4.753341 0.792223 20.711725 214 214 214 0
4.843274 0.793979 20.757628 214 214 214 0
4.932694 0.795596 20.799889 213 213 213 0
5.022784 0.797267 20.843591 212 212 212 0
5.116555 0.799462 20.900960 212 212 212 0
5.208534 0.801313 20.949357 213 213 213 0
5.303437 0.803551 21.007870 212 212 212 0
5.401144 0.806141 21.075577 213 213 213 0
5.491348 0.807551 21.112449 213 213 213 0
5.591250 0.810326 21.184997 212 212 212 0
5.693192 0.813313 21.263089 211 211 211 0
5.799285 0.816801 21.354266 212 212 212 0
5.897066 0.819037 21.412731 211 211 211 0
6.006219 0.822770 21.510320 211 211 211 0
6.113379 0.826132 21.598231 210 210 210 0
6.217316 0.828976 21.672562 210 210 210 0
6.334511 0.833488 21.790544 209 209 209 0
6.449508 0.837599 21.898000 208 208 208 0
6.565047 0.841673 22.004513 209 209 209 0
6.685339 0.846245 22.124064 208 208 208 0
-6.315160 0.868335 20.637779 211 211 211 0
-6.224805 0.866745 20.600000 210 210 210 0
-6.136055 0.865341 20.566634 210 210 210 0
-6.092399 0.870343 20.685507 211 211 211 0
-6.039878 0.874193 20.777015 210 210 210 0
-5.981065 0.877223 20.849028 211 211 211 0
-5.917600 0.879643 20.906554 212 212 212 0
-5.845875 0.880885 20.936072 210 210 210 0
-5.771398 0.881741 20.956418 211 211 211 0
-5.669446 0.878365 20.876172 211 211 211 0
-5.636965 0.885809 21.053092 211 211 211 0
-5.557632 0.885999 21.057617 210 210 210 0
-5.492277 0.888457 21.116023 211 211 211 0
-5.441679 0.893410 21.233749 211 211 211 0
-5.333745 0.888958 21.127927 211 211 211 0
-5.272681 0.892300 21.207363 210 210 210 0
-5.217632 0.896781 21.313856 211 211 211 0
-5.140028 0.897465 21.330131 210 210 210 0
-5.075535 0.900498 21.402212 211 211 211 0
-4.993155 0.900405 21.400000 211 211 211 0
-4.920176 0.902032 21.438674 211 211 211 0
-4.847072 0.903691 21.478108 211 211 211 0
-4.769323 0.904527 21.497963 211 211 211 0
-4.707148 0.908397 21.589947 211 211 211 0
-4.652803 0.913943 21.721769 211 211 211 0
-4.558541 0.911708 21.668642 211 211 211 0
-4.479372 0.912465 21.686622 211 211 211 0
-4.423210 0.918025 21.818770 211 211 211 0
-4.340942 0.918276 21.824748 211 211 211 0
-4.279018 0.922925 21.935243 212 212 212 0
-4.191162 0.922056 21.914571 211 211 211 0
-4.113472 0.923432 21.947295 211 211 211 0
-4.049199 0.927941 22.054462 211 211 211 0
-3.975210 0.930368 22.112142 211 211 211 0
-3.901541 0.932977 22.174147 211 211 211 0
-3.833120 0.936985 22.269399 211 211 211 0
-3.748989 0.937247 22.275633 211 211 211 0
-3.656742 0.935446 22.232816 211 211 211 0
-3.583155 0.938445 22.304107 211 211 211 0
-3.510851 0.941936 22.387061 212 212 212 0
-3.414742 0.939054 22.318577 212 212 212 0
-3.329422 0.939068 22.318904 211 211 211 0
-3.256717 0.942734 22.406037 212 212 212 0
-3.189497 0.948229 22.536635 212 212 212 0
-3.122754 0.954175 22.677955 213 213 213 0
-3.059719 0.961626 22.855040 213 213 213 0
-2.965284 0.959357 22.801108 213 213 213 0
-2.891154 0.963718 22.904767 213 213 213 0
