ply
format ascii 1.0
element vertex 1097
property float x
property float y
property float z
property uchar red
property uchar green
property uchar blue
property uchar alpha
end_header
-6.443135 -4.602239 21.876361 192 192 192 0
-6.371582 -4.611013 21.918068 193 193 193 0
-6.281972 -4.606779 21.897941 193 193 193 0
-6.199977 -4.608091 21.904177 193 193 193 0
-6.101867 -4.597297 21.852867 194 194 194 0
-5.979896 -4.567976 21.713491 194 194 194 0
-5.891008 -4.563457 21.692011 193 193 193 0
-5.803126 -4.559599 21.673674 194 194 194 0
-5.718306 -4.558070 21.666406 194 194 194 0
-5.655692 -4.574457 21.744299 195 195 195 0
-5.548238 -4.554524 21.649550 195 195 195 0
-5.455712 -4.546426 21.611058 195 195 195 0
-5.340461 -4.518852 21.479986 195 195 195 0
-5.264987 -4.524598 21.507300 196 196 196 0
-5.183749 -4.525495 21.511562 196 196 196 0
-5.093118 -4.518089 21.476358 195 195 195 0
-4.991212 -4.500273 21.391672 195 195 195 0
-4.905914 -4.497088 21.376530 195 195 195 0
-4.799208 -4.473838 21.266016 196 196 196 0
-4.715205 -4.471315 21.254022 195 195 195 0
-4.631753 -4.469236 21.244139 196 196 196 0
-4.549150 -4.467915 21.237860 196 196 196 0
-4.467207 -4.467207 21.234497 197 197 197 0
-4.368022 -4.448911 21.147527 196 196 196 0
-4.274494 -4.435796 21.085186 196 196 196 0
-4.184368 -4.425774 21.037545 197 197 197 0
-4.107154 -4.429284 21.054231 198 198 198 0
-4.021213 -4.423334 21.025950 197 197 197 0
-3.937767 -4.419943 21.009828 197 197 197 0
-3.843325 -4.403810 20.933141 197 197 197 0
-3.756581 -4.395999 20.896013 198 198 198 0
-3.666987 -4.384441 20.841075 197 197 197 0
-3.586804 -4.383872 20.838368 198 198 198 0
-3.502905 -4.378631 20.813456 197 197 197 0
-3.421633 -4.376507 20.803360 198 198 198 0
-3.336408 -4.369106 20.768180 198 198 198 0
-3.243454 -4.350975 20.681997 198 198 198 0
-3.158538 -4.342990 20.644042 199 199 199 0
-3.073912 -4.335004 20.606079 199 199 199 0
-2.992425 -4.331142 20.587722 199 199 199 0
-2.914207 -4.331930 20.591468 199 199 199 0
-2.828948 -4.322004 20.544284 199 199 199 0
-2.744857 -4.313346 20.503131 199 199 199 0
-2.657606 -4.299069 20.435267 199 199 199 0
-2.576496 -4.294160 20.411932 199 199 199 0
-2.497011 -4.291738 20.400416 199 199 199 0
-2.415474 -4.285518 20.370854 200 200 200 0
-2.336729 -4.284003 20.363649 200 200 200 0
-2.254831 -4.276404 20.327532 199 199 199 0
-2.166592 -4.255806 20.229618 200 200 200 0
-2.088099 -4.253536 20.218827 200 200 200 0
-2.007456 -4.246541 20.185578 200 200 200 0
-1.929224 -4.244294 20.174897 200 200 200 0
-1.850255 -4.240169 20.155287 200 200 200 0
-1.771080 -4.235192 20.131633 201 201 201 0
-1.687635 -4.219087 20.055079 200 200 200 0
-1.608825 -4.213588 20.028939 201 201 201 0
-1.528397 -4.203093 19.979050 201 201 201 0
-1.451345 -4.201263 19.970354 202 202 202 0
-1.374972 -4.201302 19.970538 201 201 201 0
-1.296003 -4.192950 19.930837 202 202 202 0
-1.216441 -4.181515 19.876483 201 201 201 0
-1.524784 -5.590874 26.575755 200 200 200 0
-1.336639 -5.251080 24.960571 200 200 200 0
-1.237598 -5.235993 24.888853 200 200 200 0
-1.133752 -5.196364 24.700483 200 200 200 0
-1.042520 -5.212599 24.777656 200 200 200 0
-0.949261 -5.220935 24.817276 201 201 201 0
-0.851954 -5.206385 24.748119 203 203 203 0
-0.756471 -5.200740 24.721281 203 203 203 0
-0.658481 -5.173776 24.593113 202 202 202 0
-0.565238 -5.181350 24.629117 203 203 203 0
-0.470089 -5.170975 24.579798 203 203 203 0
-0.375931 -5.169047 24.570632 205 205 205 0
-0.281333 -5.157774 24.517050 204 204 204 0
-0.187192 -5.147770 24.469495 205 205 205 0
-0.093504 -5.142747 24.445618 206 206 206 0
0.000000 -5.153363 24.496079 206 206 206 0
0.093599 -5.147964 24.470418 206 206 206 0
0.187055 -5.144004 24.451592 205 205 205 0
0.280350 -5.139747 24.431357 206 206 206 0
0.373089 -5.129974 24.384903 207 207 207 0
0.466656 -5.133221 24.400338 206 206 206 0
0.559929 -5.132687 24.397797 207 207 207 0
0.652803 -5.129163 24.381047 207 207 207 0
0.744797 -5.120477 24.339759 208 208 208 0
0.837726 -5.119436 24.334813 208 208 208 0
0.931257 -5.121913 24.346584 208 208 208 0
1.027078 -5.135391 24.410652 209 209 209 0
1.121027 -5.138038 24.423236 208 208 208 0
1.214283 -5.137349 24.419960 208 208 208 0
1.306656 -5.133291 24.400673 209 209 209 0
1.400783 -5.136203 24.414511 208 208 208 0
1.497976 -5.149294 24.476737 208 208 208 0
1.590743 -5.146522 24.463561 208 208 208 0
1.685378 -5.149765 24.478977 208 208 208 0
1.780011 -5.152662 24.492749 208 208 208 0
1.873765 -5.152853 24.493656 208 208 208 0
1.970582 -5.161048 24.532610 208 208 208 0
2.067512 -5.168781 24.569369 209 209 209 0
2.162407 -5.170973 24.579789 208 208 208 0
2.257994 -5.174569 24.596880 209 209 209 0
2.356499 -5.184297 24.643124 208 208 208 0
2.453741 -5.190607 24.673115 208 208 208 0
2.552403 -5.199340 24.714631 208 208 208 0
2.648380 -5.202174 24.728101 209 209 209 0
2.749159 -5.213923 24.783948 208 208 208 0
2.850548 -5.226004 24.841375 208 208 208 0
2.949392 -5.232792 24.873640 208 208 208 0
3.051367 -5.244536 24.929465 207 207 207 0
3.152143 -5.253572 24.972416 208 208 208 0
3.258307 -5.270791 25.054266 208 208 208 0
3.360532 -5.280837 25.102016 206 206 206 0
3.465070 -5.293856 25.163905 206 206 206 0
3.573622 -5.312141 25.250821 206 206 206 0
3.681088 -5.327891 25.325683 206 206 206 0
3.788396 -5.342610 25.395652 205 205 205 0
3.896388 -5.357533 25.466586 204 204 204 0
4.013010 -5.383306 25.589098 205 205 205 0
4.126326 -5.403522 25.685192 204 204 204 0
4.240439 -5.423817 25.781661 204 204 204 0
4.359269 -5.449086 25.901775 202 202 202 0
4.481690 -5.477621 26.037413 202 202 202 0
4.603952 -5.504725 26.166252 202 202 202 0
4.729669 -5.534719 26.308826 200 200 200 0
4.864524 -5.573934 26.495228 198 198 198 0
4.995758 -5.607483 26.654703 199 199 199 0
5.141777 -5.655954 26.885106 195 195 195 0
5.296190 -5.711578 27.149509 194 194 194 0
5.461154 -5.776220 27.456780 190 190 190 0
5.652804 -5.866117 27.884099 186 186 186 0
5.853857 -5.962262 28.341116 160 160 160 0
6.011443 -6.011443 28.574892 78 78 78 0
-6.764319 -4.565915 22.105618 193 193 193 0
-6.671722 -4.560417 22.079000 192 192 192 0
-6.556523 -4.539131 21.975943 193 193 193 0
-6.452938 -4.525437 21.909643 194 194 194 0
-6.347692 -4.510202 21.835886 193 193 193 0
-6.271230 -4.515286 21.860497 193 193 193 0
-6.191204 -4.517906 21.873182 194 194 194 0
-6.098267 -4.511046 21.839973 193 193 193 0
-5.991423 -4.493567 21.755348 194 194 194 0
-5.881087 -4.472939 21.655479 194 194 194 0
-5.790436 -4.466908 21.626279 194 194 194 0
-5.720489 -4.476905 21.674677 194 194 194 0
-5.625670 -4.467444 21.628874 195 195 195 0
-5.541916 -4.466619 21.624881 195 195 195 0
-5.435656 -4.447355 21.531614 195 195 195 0
-5.331652 -4.429373 21.444554 195 195 195 0
-5.243202 -4.423952 21.418311 194 194 194 0
-5.154464 -4.418112 21.390035 196 196 196 0
-5.086496 -4.430174 21.448435 196 196 196 0
-4.998783 -4.425152 21.424122 196 196 196 0
-4.892737 -4.403463 21.319116 195 195 195 0
-4.791167 -4.385136 21.230383 195 195 195 0
-4.695628 -4.371792 21.165780 195 195 195 0
-4.621871 -4.378615 21.198812 196 196 196 0
-4.544144 -4.381853 21.214491 196 196 196 0
-4.459846 -4.378758 21.199507 196 196 196 0
-4.365567 -4.365567 21.135642 196 196 196 0
-4.264537 -4.345000 21.036070 197 197 197 0
-4.170729 -4.331142 20.968974 197 197 197 0
-4.096614 -4.337592 21.000202 197 197 197 0
-4.013932 -4.335047 20.987881 197 197 197 0
-3.928966 -4.329880 20.962868 197 197 197 0
-3.842034 -4.322288 20.926110 198 198 198 0
-3.748674 -4.306988 20.852034 198 198 198 0
-3.653722 -4.289152 20.765684 198 198 198 0
-3.578497 -4.294197 20.790108 198 198 198 0
-3.495082 -4.289419 20.766977 198 198 198 0
-3.410884 -4.283436 20.738010 199 199 199 0
-3.326812 -4.277329 20.708445 199 199 199 0
-3.238459 -4.265287 20.650143 199 199 199 0
-3.146619 -4.247936 20.566140 198 198 198 0
-3.066552 -4.245995 20.556743 199 199 199 0
-2.985585 -4.242674 20.540662 198 198 198 0
-2.907551 -4.243453 20.544435 198 198 198 0
-2.828843 -4.243264 20.543521 199 199 199 0
-2.739269 -4.226300 20.461390 200 200 200 0
-2.652343 -4.212545 20.394797 199 199 199 0
-2.568539 -4.203063 20.348889 199 199 199 0
-2.489636 -4.201261 20.340165 200 200 200 0
-2.411653 -4.200945 20.338633 200 200 200 0
-2.333358 -4.200044 20.334275 200 200 200 0
-2.247179 -4.184402 20.258541 200 200 200 0
-2.163174 -4.171836 20.197707 201 201 201 0
-2.082779 -4.165557 20.167307 201 201 201 0
-2.003001 -4.160080 20.140788 200 200 200 0
-1.922609 -4.152835 20.105712 200 200 200 0
-1.845592 -4.152583 20.104491 201 201 201 0
-1.767791 -4.150465 20.094237 201 201 201 0
-1.686377 -4.139290 20.040136 201 201 201 0
-1.605628 -4.128757 19.989139 201 201 201 0
-1.524898 -4.117224 19.933305 201 201 201 0
-1.447703 -4.114523 19.920229 201 201 201 0
-1.373415 -4.120244 19.947928 202 202 202 0
-1.293818 -4.109773 19.897232 202 202 202 0
-1.213487 -4.095519 19.828220 201 201 201 0
-1.519565 -5.470433 26.484791 200 200 200 0
-1.336783 -5.156162 24.963263 198 198 198 0
-1.233800 -5.125017 24.812475 201 201 201 0
-1.135378 -5.109202 24.735908 199 199 199 0
-1.040639 -5.108593 24.732960 202 202 202 0
-0.945900 -5.107858 24.729400 202 202 202 0
-0.852545 -5.115268 24.765277 203 203 203 0
-0.754175 -5.090682 24.646243 203 203 203 0
-0.656788 -5.066653 24.529909 201 201 201 0
-0.562955 -5.066598 24.529643 203 203 203 0
-0.469781 -5.073638 24.563730 203 203 203 0
-0.375806 -5.073377 24.562463 205 205 205 0
-0.281863 -5.073529 24.563201 204 204 204 0
-0.187382 -5.059322 24.494418 205 205 205 0
-0.093361 -5.041490 24.408084 205 205 205 0
0.000000 -5.050825 24.453281 206 206 206 0
0.093510 -5.049543 24.447073 206 206 206 0
0.187064 -5.050719 24.452768 206 206 206 0
0.280691 -5.052442 24.461108 206 206 206 0
0.372022 -5.022303 24.315192 207 207 207 0
0.465428 -5.026622 24.336102 207 207 207 0
0.559295 -5.033658 24.370167 207 207 207 0
0.652511 -5.033656 24.370157 207 207 207 0
0.745491 -5.032067 24.362462 208 208 208 0
0.838171 -5.029025 24.347737 207 207 207 0
0.931521 -5.030214 24.353491 208 208 208 0
1.025393 -5.033746 24.370591 208 208 208 0
1.117941 -5.030734 24.356010 209 209 209 0
1.212898 -5.038192 24.392118 208 208 208 0
1.305924 -5.037134 24.386994 208 208 208 0
1.398542 -5.034750 24.375454 208 208 208 0
1.493748 -5.041401 24.407653 208 208 208 0
1.588482 -5.045767 24.428790 209 209 209 0
1.685380 -5.056141 24.479017 209 209 209 0
1.776585 -5.049243 24.445620 208 208 208 0
1.871864 -5.054034 24.468817 208 208 208 0
1.967955 -5.060457 24.499913 209 209 209 0
2.064841 -5.068245 24.537619 209 209 209 0
2.159007 -5.068973 24.541142 210 210 210 0
2.255875 -5.075719 24.573801 209 209 209 0
2.352375 -5.081130 24.600000 209 209 209 0
2.450814 -5.090153 24.643684 209 209 209 0
2.550830 -5.101661 24.699398 208 208 208 0
2.648919 -5.108629 24.733133 208 208 208 0
2.746114 -5.113453 24.756492 209 209 209 0
2.848748 -5.127747 24.825693 208 208 208 0
2.949392 -5.137650 24.873640 208 208 208 0
3.048169 -5.143785 24.903343 208 208 208 0
3.150655 -5.155617 24.960626 208 208 208 0
3.253320 -5.167038 25.015919 208 208 208 0
3.356047 -5.177901 25.068510 207 207 207 0
3.459704 -5.189556 25.124938 207 207 207 0
3.568221 -5.207674 25.212657 207 207 207 0
3.674684 -5.221919 25.281624 206 206 206 0
3.783358 -5.238496 25.361880 206 206 206 0
3.892435 -5.254787 25.440752 206 206 206 0
4.008236 -5.279140 25.558654 205 205 205 0
4.120630 -5.297953 25.649736 205 205 205 0
4.232116 -5.314751 25.731060 205 205 205 0
4.350138 -5.338806 25.847523 203 203 203 0
4.474537 -5.369444 25.995857 202 202 202 0
4.593738 -5.392649 26.108200 202 202 202 0
4.720372 -5.423406 26.257110 201 201 201 0
4.853968 -5.460714 26.437732 199 199 199 0
4.986230 -5.495029 26.603868 198 198 198 0
5.123484 -5.533363 26.789461 196 196 196 0
5.282469 -5.593202 27.079169 195 195 195 0
5.434074 -5.643077 27.320634 192 192 192 0
5.622637 -5.728724 27.735290 189 189 189 0
5.827096 -5.827096 28.211551 176 176 176 0
5.989253 -5.880358 28.469415 105 105 105 0
-6.747683 -4.470340 22.051250 193 193 193 0
-6.656579 -4.465806 22.028888 193 193 193 0
-6.549748 -4.450470 21.953236 193 193 193 0
-6.446480 -4.437188 21.887718 193 193 193 0
-6.328527 -4.413315 21.769957 193 193 193 0
-6.262123 -4.425233 21.828750 193 193 193 0
-6.185279 -4.429997 21.852249 194 194 194 0
-6.082475 -4.416044 21.783420 194 194 194 0
-5.972883 -4.396705 21.688028 194 194 194 0
-5.880188 -4.389436 21.652168 195 195 195 0
-5.770208 -4.368872 21.550731 194 194 194 0
-5.694951 -4.374383 21.577914 194 194 194 0
-5.621002 -4.381075 21.610925 194 194 194 0
-5.532355 -4.376340 21.587572 194 194 194 0
-5.429403 -4.359975 21.506845 195 195 195 0
-5.332874 -4.348343 21.449467 195 195 195 0
-5.237448 -4.337262 21.394805 195 195 195 0
-5.148548 -4.331319 21.365488 196 196 196 0
-5.067782 -4.332136 21.369521 195 195 195 0
-4.976123 -4.323517 21.327003 196 196 196 0
-4.892139 -4.321390 21.316511 196 196 196 0
-4.782475 -4.296121 21.191868 196 196 196 0
-4.692664 -4.288124 21.152420 196 196 196 0
-4.609806 -4.286311 21.143475 196 196 196 0
-4.527803 -4.285242 21.138201 196 196 196 0
-4.443047 -4.281482 21.119653 197 197 197 0
-4.354698 -4.274055 21.083020 197 197 197 0
-4.253786 -4.253786 20.983039 197 197 197 0
-4.166085 -4.246202 20.945627 198 198 198 0
-4.084316 -4.244485 20.937156 197 197 197 0
-4.006641 -4.247040 20.949759 197 197 197 0
-3.920735 -4.240795 20.918953 197 197 197 0
-3.827768 -4.226494 20.848411 197 197 197 0
-3.744564 -4.222593 20.829169 198 198 198 0
-3.649133 -4.204436 20.739602 198 198 198 0
-3.564283 -4.197933 20.707526 198 198 198 0
-3.485055 -4.197907 20.707395 198 198 198 0
-3.403181 -4.194619 20.691177 198 198 198 0
-3.320573 -4.190247 20.669613 199 199 199 0
-3.234583 -4.181290 20.625428 199 199 199 0
-3.142680 -4.164052 20.540395 199 199 199 0
-3.059617 -4.157941 20.510251 199 199 199 0
-2.982300 -4.159524 20.518062 199 199 199 0
-2.902258 -4.157289 20.507035 199 199 199 0
-2.818846 -4.149968 20.470923 199 199 199 0
-2.734407 -4.140673 20.425074 200 200 200 0
-2.646739 -4.125800 20.351707 199 199 199 0
-2.561630 -4.114133 20.294157 200 200 200 0
-2.484975 -4.115740 20.302083 200 200 200 0
-2.404967 -4.111718 20.282243 200 200 200 0
-2.325419 -4.108240 20.265087 200 200 200 0
-2.243238 -4.099711 20.223015 201 201 201 0
-2.161592 -4.091585 20.182931 200 200 200 0
-2.079214 -4.081420 20.132789 200 200 200 0
-1.996595 -4.069981 20.076365 201 201 201 0
-1.918806 -4.067868 20.065942 201 201 201 0
-1.843645 -4.071384 20.083283 201 201 201 0
-1.762975 -4.062508 20.039501 200 200 200 0
-1.682388 -4.053026 19.992730 202 202 202 0
-1.599692 -4.037318 19.915245 201 201 201 0
-1.521868 -4.032951 19.893702 201 201 201 0
-1.444909 -4.030534 19.881783 201 201 201 0
-1.368138 -4.028407 19.871290 201 201 201 0
-1.290886 -4.024527 19.852152 201 201 201 0
-1.210299 -4.009117 19.776135 202 202 202 0
-1.512298 -5.343453 26.358137 200 200 200 0
-1.335309 -5.055099 24.935744 199 199 199 0
-1.236944 -5.042925 24.875693 199 199 199 0
-1.136356 -5.018905 24.757206 199 199 199 0
-1.040125 -5.011512 24.720739 202 202 202 0
-0.947780 -5.023236 24.778573 203 203 203 0
-0.851574 -5.014822 24.737066 204 204 204 0
-0.755290 -5.003793 24.682664 204 204 204 0
-0.657266 -4.976445 24.547762 204 204 204 0
-0.563821 -4.980421 24.567374 204 204 204 0
-0.469200 -4.973519 24.533329 204 204 204 0
-0.375563 -4.976206 24.546582 207 207 207 0
-0.281043 -4.965089 24.491744 205 205 205 0
-0.187218 -4.961281 24.472962 205 205 205 0
-0.093694 -4.965779 24.495148 206 206 206 0
0.000000 -4.947000 24.402518 205 205 205 0
0.093453 -4.953008 24.432150 205 205 205 0
0.186770 -4.949406 24.414386 206 206 206 0
0.279730 -4.941888 24.377299 207 207 207 0
0.372813 -4.939771 24.366857 208 208 208 0
0.465504 -4.934345 24.340091 207 207 207 0
0.559587 -4.943020 24.382883 208 208 208 0
0.652356 -4.939268 24.364375 208 208 208 0
0.745276 -4.937452 24.355419 208 208 208 0
0.838142 -4.935727 24.346909 209 209 209 0
0.930682 -4.932612 24.331545 208 208 208 0
1.023745 -4.932590 24.331433 208 208 208 0
1.117629 -4.936193 24.349208 209 209 209 0
1.211543 -4.939366 24.364861 208 208 208 0
1.304894 -4.939957 24.367773 208 208 208 0
1.398298 -4.940653 24.371208 208 208 208 0
1.493043 -4.945704 24.396121 208 208 208 0
1.588559 -4.952567 24.429978 209 209 209 0
1.681114 -4.949947 24.417054 209 209 209 0
1.774470 -4.949838 24.416513 209 209 209 0
1.871840 -4.960376 24.468494 209 209 209 0
1.966999 -4.964332 24.488009 208 208 208 0
2.064038 -4.972455 24.528079 209 209 209 0
2.159642 -4.976566 24.548357 209 209 209 0
2.253606 -4.976712 24.549081 209 209 209 0
2.350946 -4.984004 24.585051 209 209 209 0
2.448343 -4.990853 24.618832 209 209 209 0
2.546411 -4.998511 24.656609 208 208 208 0
2.645528 -5.007607 24.701480 209 209 209 0
2.743484 -5.013953 24.732783 209 209 209 0
2.845519 -5.027084 24.797554 209 209 209 0
2.944900 -5.034829 24.835757 209 209 209 0
3.043418 -5.040661 24.864527 208 208 208 0
3.147482 -5.055047 24.935490 208 208 208 0
3.249973 -5.066134 24.990180 208 208 208 0
3.355006 -5.080438 25.060737 208 208 208 0
3.454304 -5.085504 25.085725 207 207 207 0
3.565153 -5.106841 25.190977 207 207 207 0
3.671429 -5.120678 25.259231 207 207 207 0
3.778622 -5.135050 25.330129 207 207 207 0
3.889165 -5.153143 25.419378 207 207 207 0
4.001952 -5.173256 25.518587 204 204 204 0
4.116728 -5.194918 25.625444 205 205 205 0
4.228005 -5.211262 25.706063 204 204 204 0
4.342961 -5.231294 25.804878 204 204 204 0
4.464510 -5.258200 25.937602 202 202 202 0
4.587549 -5.285654 26.073025 202 202 202 0
4.711756 -5.313256 26.209181 201 201 201 0
4.843101 -5.347591 26.378546 200 200 200 0
4.974289 -5.380354 26.540158 198 198 198 0
5.110450 -5.417077 26.721309 198 198 198 0
5.259903 -5.466174 26.963491 195 195 195 0
5.413869 -5.517982 27.219048 194 194 194 0
5.588376 -5.588376 27.566291 189 189 189 0
5.788250 -5.681060 28.023482 184 184 184 0
5.986694 -5.768996 28.457249 141 141 141 0
-6.735971 -4.378381 22.012979 193 193 193 0
-6.633230 -4.366177 21.951618 193 193 193 0
-6.524977 -4.349985 21.870210 193 193 193 0
-6.430009 -4.342344 21.831795 193 193 193 0
-6.330867 -4.331646 21.778009 193 193 193 0
-6.253193 -4.335547 21.797624 194 194 194 0
-6.159883 -4.328566 21.762526 193 193 193 0
-6.073485 -4.326318 21.751221 194 194 194 0
-5.970250 -4.311847 21.678467 194 194 194 0
-5.868045 -4.297723 21.607457 194 194 194 0
-5.771935 -4.287723 21.557181 195 195 195 0
-5.682340 -4.282343 21.530132 194 194 194 0
-5.600896 -4.283038 21.533624 194 194 194 0
-5.506443 -4.273657 21.486460 195 195 195 0
-5.415375 -4.266659 21.451278 195 195 195 0
-5.308913 -4.247131 21.353095 195 195 195 0
-5.225655 -4.245845 21.346630 195 195 195 0
-5.137881 -4.240791 21.321221 196 196 196 0
-5.056736 -4.241133 21.322943 195 195 195 0
-4.969537 -4.236326 21.298775 195 195 195 0
-4.873205 -4.223444 21.234009 197 197 197 0
-4.776419 -4.209726 21.165035 196 196 196 0
-4.685786 -4.201050 21.121417 196 196 196 0
-4.597978 -4.194647 21.089225 197 197 197 0
-4.524685 -4.201493 21.123647 197 197 197 0
-4.435022 -4.193112 21.081507 197 197 197 0
-4.340581 -4.179819 21.014675 197 197 197 0
-4.244117 -4.164039 20.935340 196 196 196 0
-4.165662 -4.165662 20.943498 197 197 197 0
-4.070810 -4.150630 20.867922 197 197 197 0
-3.991103 -4.150747 20.868514 197 197 197 0
-3.914192 -4.153836 20.884045 197 197 197 0
-3.825408 -4.144192 20.835555 198 198 198 0
-3.731298 -4.128245 20.755379 198 198 198 0
-3.641241 -4.116186 20.694749 198 198 198 0
-3.560463 -4.114312 20.685331 198 198 198 0
-3.481981 -4.115068 20.689130 198 198 198 0
-3.396603 -4.107520 20.651180 198 198 198 0
-3.311292 -4.099695 20.611840 198 198 198 0
-3.224524 -4.089640 20.561289 198 198 198 0
-3.137701 -4.079011 20.507847 199 199 199 0
-3.051625 -4.068833 20.456678 199 199 199 0
-2.972267 -4.067313 20.449035 199 199 199 0
-2.890785 -4.062725 20.425969 199 199 199 0
-2.813925 -4.064558 20.435183 199 199 199 0
-2.725761 -4.049702 20.360494 199 199 199 0
-2.643838 -4.043517 20.329399 200 200 200 0
-2.560329 -4.034458 20.283850 200 200 200 0
-2.478191 -4.027060 20.246658 200 200 200 0
-2.401487 -4.028302 20.252899 200 200 200 0
-2.320897 -4.022888 20.225684 200 200 200 0
-2.239311 -4.015317 20.187617 200 200 200 0
-2.155267 -4.002639 20.123876 200 200 200 0
-2.073185 -3.992801 20.074415 201 201 201 0
-1.992172 -3.984345 20.031899 201 201 201 0
-1.916168 -3.985630 20.038360 201 201 201 0
-1.838000 -3.982334 20.021791 201 201 201 0
-1.758283 -3.975248 19.986163 201 201 201 0
-1.679099 -3.968780 19.953646 201 201 201 0
-1.596637 -3.953577 19.877210 201 201 201 0
-1.518127 -3.947130 19.844794 201 201 201 0
-1.442163 -3.946973 19.844007 201 201 201 0
-1.365018 -3.943385 19.825968 202 202 202 0
-1.287224 -3.937391 19.795834 202 202 202 0
-1.206897 -3.922416 19.720542 201 201 201 0
-1.508322 -5.228851 26.288841 199 199 199 0
-1.333008 -4.951173 24.892775 199 199 199 0
-1.236523 -4.946091 24.867223 199 199 199 0
-1.137067 -4.927288 24.772691 201 201 201 0
-1.039679 -4.914848 24.710144 202 202 202 0
-0.944304 -4.910380 24.687684 203 203 203 0
-0.852126 -4.923397 24.753130 203 203 203 0
-0.753335 -4.896678 24.618795 203 203 203 0
-0.655640 -4.870468 24.487021 204 204 204 0
-0.560091 -4.854120 24.404825 205 205 205 0
-0.468784 -4.875356 24.511593 204 204 204 0
-0.376044 -4.888568 24.578020 205 205 205 0
-0.280690 -4.865290 24.460983 204 204 204 0
-0.186571 -4.850847 24.388370 205 205 205 0
-0.093390 -4.856266 24.415614 206 206 206 0
0.000000 -4.851093 24.389605 205 205 205 0
0.093486 -4.861265 24.440749 207 207 207 0
0.186572 -4.850879 24.388533 208 208 208 0
0.278901 -4.834278 24.305068 208 208 208 0
0.372738 -4.845588 24.361932 208 208 208 0
0.465748 -4.843782 24.352849 207 207 207 0
0.559447 -4.848538 24.376764 207 207 207 0
0.651305 -4.838263 24.325105 207 207 207 0
0.743357 -4.831821 24.292715 207 207 207 0
0.837842 -4.840863 24.338173 208 208 208 0
0.930459 -4.838387 24.325725 208 208 208 0
1.023445 -4.838102 24.324295 208 208 208 0
1.118163 -4.845371 24.360841 209 209 209 0
1.209488 -4.837953 24.323543 208 208 208 0
1.304493 -4.845261 24.360289 209 209 209 0
1.396729 -4.841993 24.343856 208 208 208 0
1.492524 -4.850703 24.387648 209 209 209 0
1.587326 -4.855349 24.411005 209 209 209 0
1.680984 -4.856177 24.415167 209 209 209 0
1.773882 -4.854834 24.408416 210 210 210 0
1.870614 -4.863598 24.452476 209 209 209 0
1.965167 -4.866127 24.465193 209 209 209 0
2.058152 -4.864723 24.458132 209 209 209 0
2.157247 -4.877255 24.521139 209 209 209 0
2.252123 -4.879599 24.532926 210 210 210 0
2.347940 -4.883715 24.553621 209 209 209 0
2.446453 -4.892906 24.599829 208 208 208 0
2.545627 -4.902689 24.649016 209 209 209 0
2.642423 -4.907357 24.672483 209 209 209 0
2.742327 -4.917275 24.722350 208 208 208 0
2.842484 -4.926972 24.771100 209 209 209 0
2.941206 -4.933636 24.804604 209 209 209 0
3.040609 -4.940989 24.841574 208 208 208 0
3.142043 -4.951098 24.892400 208 208 208 0
3.246302 -4.964933 24.961955 208 208 208 0
3.349516 -4.976423 25.019726 208 208 208 0
3.451700 -4.985788 25.066809 207 207 207 0
3.560389 -5.003789 25.157311 207 207 207 0
3.667591 -5.018809 25.232826 207 207 207 0
3.778312 -5.037749 25.328048 207 207 207 0
3.883769 -5.048900 25.384112 206 206 206 0
3.993927 -5.065469 25.467415 205 205 205 0
4.108976 -5.087303 25.577191 205 205 205 0
4.223827 -5.107884 25.680665 205 205 205 0
4.338329 -5.127116 25.777357 204 204 204 0
4.456725 -5.149994 25.892377 203 203 203 0
4.581302 -5.178863 26.037524 203 203 203 0
4.703070 -5.203397 26.160869 202 202 202 0
4.830597 -5.233147 26.310441 200 200 200 0
4.963542 -5.267433 26.482819 199 199 199 0
5.099893 -5.303888 26.666106 198 198 198 0
5.246903 -5.349784 26.896851 196 196 196 0
5.397125 -5.397125 27.134867 194 194 194 0
5.563668 -5.458693 27.444411 191 191 191 0
5.753712 -5.540612 27.856267 187 187 187 0
5.965992 -5.640574 28.358844 166 166 166 0
6.131096 -5.693161 28.623233 82 82 82 0
-6.712334 -4.279113 21.935731 192 192 192 0
-6.617605 -4.272125 21.899910 193 193 193 0
-6.517470 -4.261423 21.845048 193 193 193 0
-6.405007 -4.242277 21.746905 194 194 194 0
-6.306499 -4.231993 21.694184 193 193 193 0
-6.228122 -4.235123 21.710229 194 194 194 0
-6.141693 -4.232788 21.698261 194 194 194 0
-6.058575 -4.232703 21.697824 194 194 194 0
-5.956929 -4.219492 21.630100 194 194 194 0
-5.844294 -4.198014 21.519999 194 194 194 0
-5.735872 -4.178993 21.422492 194 194 194 0
-5.677559 -4.196456 21.512015 195 195 195 0
-5.591323 -4.193492 21.496819 195 195 195 0
-5.498558 -4.185470 21.455695 195 195 195 0
-5.400112 -4.172814 21.390818 195 195 195 0
-5.293110 -4.153056 21.289533 195 195 195 0
-5.206656 -4.149054 21.269021 195 195 195 0
-5.125537 -4.149244 21.269996 196 196 196 0
-5.042388 -4.147771 21.262444 196 196 196 0
-4.961107 -4.147810 21.262645 195 195 195 0
-4.858698 -4.129893 21.170796 196 196 196 0
-4.766540 -4.120230 21.121260 196 196 196 0
-4.675486 -4.111203 21.074986 197 197 197 0
-4.586415 -4.103635 21.036191 196 196 196 0
-4.508563 -4.106013 21.048381 196 196 196 0
-4.428294 -4.106236 21.049525 197 197 197 0
-4.327806 -4.087373 20.952827 197 197 197 0
-4.232701 -4.072977 20.879029 197 197 197 0
-4.154018 -4.074133 20.884958 198 198 198 0
-4.064905 -4.064905 20.837653 197 197 197 0
-3.984920 -4.064618 20.836181 197 197 197 0
-3.905544 -4.064954 20.837903 197 197 197 0
-3.815501 -4.053970 20.781598 197 197 197 0
-3.727155 -4.044360 20.732332 197 197 197 0
-3.634708 -4.029785 20.657620 198 198 198 0
-3.545066 -4.017741 20.595879 198 198 198 0
-3.472359 -4.024780 20.631960 198 198 198 0
-3.388012 -4.018340 20.598949 198 198 198 0
-3.303915 -4.011897 20.565920 199 199 199 0
-3.218046 -4.002935 20.519982 199 199 199 0
-3.131422 -3.992563 20.466810 199 199 199 0
-3.047645 -3.985382 20.429998 199 199 199 0
-2.963961 -3.977948 20.391891 199 199 199 0
-2.887543 -3.980127 20.403063 200 200 200 0
-2.807596 -3.977427 20.389220 199 199 199 0
-2.719609 -3.962859 20.314540 200 200 200 0
-2.637424 -3.956136 20.280075 200 200 200 0
-2.553273 -3.945968 20.227951 200 200 200 0
-2.471197 -3.938470 20.189514 200 200 200 0
-2.394415 -3.939198 20.193251 200 200 200 0
-2.315770 -3.936808 20.180998 200 200 200 0
-2.235187 -3.930846 20.150435 200 200 200 0
-2.151206 -3.918267 20.085953 201 201 201 0
-2.068125 -3.906459 20.025419 200 200 200 0
-1.988147 -3.899828 19.991427 200 200 200 0
-1.910820 -3.898072 19.982428 201 201 201 0
-1.834942 -3.899253 19.988480 201 201 201 0
-1.755009 -3.891542 19.948953 201 201 201 0
-1.676007 -3.885288 19.916895 200 200 200 0
-1.595438 -3.874635 19.862283 202 202 202 0
-1.514334 -3.861551 19.795212 202 202 202 0
-1.439539 -3.864027 19.807904 201 201 201 0
-1.361449 -3.857438 19.774129 201 201 201 0
-1.285389 -3.856168 19.767617 202 202 202 0
-1.204438 -3.839145 19.680353 202 202 202 0
-1.505143 -5.117487 26.233432 200 200 200 0
-1.335564 -4.865268 24.940499 200 200 200 0
-1.229822 -4.824688 24.732475 200 200 200 0
-1.137607 -4.834831 24.784473 202 202 202 0
-1.040401 -4.823679 24.727304 203 203 203 0
-0.945518 -4.822140 24.719416 202 202 202 0
-0.851080 -4.822787 24.722732 202 202 202 0
-0.751864 -4.793132 24.570713 202 202 202 0
-0.658558 -4.798069 24.596020 203 203 203 0
-0.563363 -4.788587 24.547416 205 205 205 0
-0.467936 -4.772945 24.467231 206 206 206 0
-0.374893 -4.779890 24.502833 205 205 205 0
-0.280832 -4.774136 24.473337 205 205 205 0
-0.187101 -4.771072 24.457630 205 205 205 0
-0.093365 -4.761600 24.409072 205 205 205 0
0.000000 -4.752124 24.360499 207 207 207 0
0.093284 -4.757501 24.388060 206 206 206 0
0.186429 -4.753930 24.369757 206 206 206 0
0.279324 -4.748516 24.342003 208 208 208 0
0.372805 -4.753267 24.366356 208 208 208 0
0.465124 -4.744267 24.320218 208 208 208 0
0.557730 -4.740704 24.301957 208 208 208 0
0.651883 -4.749431 24.346695 208 208 208 0
0.744693 -4.747418 24.336373 208 208 208 0
0.837526 -4.745980 24.328999 209 209 209 0
0.929410 -4.739990 24.298295 208 208 208 0
1.022144 -4.739033 24.293391 208 208 208 0
1.117808 -4.750684 24.353114 208 208 208 0
1.211925 -4.754477 24.372558 209 209 209 0
1.302514 -4.744872 24.323320 209 209 209 0
1.396247 -4.747240 24.335462 208 208 208 0
1.491026 -4.752647 24.363178 208 208 208 0
1.585824 -4.757471 24.387908 209 209 209 0
1.677943 -4.754173 24.371001 210 210 210 0
1.771486 -4.755042 24.375456 210 210 210 0
1.867678 -4.762579 24.414090 209 209 209 0
1.963033 -4.767366 24.438633 209 209 209 0
2.059541 -4.774391 24.474643 210 210 210 0
2.155086 -4.778669 24.496572 210 210 210 0
2.249520 -4.780230 24.504573 209 209 209 0
2.347129 -4.788143 24.545141 209 209 209 0
2.445647 -4.797230 24.591724 209 209 209 0
2.541911 -4.801387 24.613033 209 209 209 0
2.639389 -4.807458 24.644155 209 209 209 0
2.739006 -4.816872 24.692409 209 209 209 0
2.838753 -4.825880 24.738588 209 209 209 0
2.937923 -4.833357 24.776915 209 209 209 0
3.037866 -4.841599 24.819166 208 208 208 0
3.141789 -4.855492 24.890385 208 208 208 0
3.244894 -4.867342 24.951129 208 208 208 0
3.346674 -4.876582 24.998498 208 208 208 0
3.450464 -4.888158 25.057838 208 208 208 0
3.556849 -4.902684 25.132305 206 206 206 0
3.663719 -4.917097 25.206186 206 206 206 0
3.773474 -4.934544 25.295622 207 207 207 0
3.879721 -4.946644 25.357651 207 207 207 0
3.988720 -4.961579 25.434210 206 206 206 0
4.103502 -4.982824 25.543120 204 204 204 0
4.217299 -5.001912 25.640971 205 205 205 0
4.332386 -5.021630 25.742047 205 205 205 0
4.448749 -5.041915 25.846035 204 204 204 0
4.573142 -5.070222 25.991143 202 202 202 0
4.694036 -5.093528 26.110616 202 202 202 0
4.826449 -5.128102 26.287846 201 201 201 0
4.955210 -5.157464 26.438364 200 200 200 0
5.090755 -5.192570 26.618326 199 199 199 0
5.233542 -5.233542 26.828358 197 197 197 0
5.384131 -5.280590 27.069539 195 195 195 0
5.544578 -5.335349 27.350245 193 193 193 0
5.731433 -5.413020 27.748405 189 189 189 0
5.935192 -5.503542 28.212439 178 178 178 0
6.112096 -5.566373 28.534528 109 109 109 0
-6.690660 -4.181662 21.864901 192 192 192 0
-6.608558 -4.182632 21.869970 193 193 193 0
-6.509610 -4.172827 21.818701 193 193 193 0
-6.384016 -4.145465 21.675632 194 194 194 0
-6.302428 -4.146334 21.680178 193 193 193 0
-6.209134 -4.139423 21.644042 194 194 194 0
-6.137450 -4.146925 21.683270 193 193 193 0
-6.044462 -4.140042 21.647281 194 194 194 0
-5.933051 -4.120174 21.543394 194 194 194 0
-5.832169 -4.107161 21.475353 194 194 194 0
-5.728134 -4.091524 21.393589 194 194 194 0
-5.649801 -4.094059 21.406843 195 195 195 0
-5.569791 -4.095434 21.414036 195 195 195 0
-5.501460 -4.105567 21.467018 195 195 195 0
-5.385082 -4.079608 21.331282 196 196 196 0
-5.284896 -4.065304 21.256494 196 196 196 0
-5.193643 -4.057533 21.215860 195 195 195 0
-5.111271 -4.056565 21.210795 195 195 195 0
-5.031344 -4.057535 21.215872 196 196 196 0
-4.944125 -4.052561 21.189862 196 196 196 0
-4.857940 -4.048283 21.167495 196 196 196 0
-4.758531 -4.032653 21.085767 196 196 196 0
-4.660664 -4.017814 21.008175 196 196 196 0
-4.581430 -4.018799 21.013326 196 196 196 0
-4.493389 -4.011955 20.977542 196 196 196 0
-4.415991 -4.014538 20.991046 197 197 197 0
-4.324271 -4.003954 20.935709 197 197 197 0
-4.238444 -3.998532 20.907358 197 197 197 0
-4.138537 -3.979363 20.807125 197 197 197 0
-4.053872 -3.974384 20.781093 197 197 197 0
-3.979464 -3.979464 20.807654 197 197 197 0
-3.892900 -3.972346 20.770439 197 197 197 0
-3.807043 -3.965670 20.735528 199 199 199 0
-3.718813 -3.956184 20.685929 197 197 197 0
-3.627983 -3.943460 20.619397 199 199 199 0
-3.544896 -3.938773 20.594893 198 198 198 0
-3.463494 -3.935788 20.579284 198 198 198 0
-3.386001 -3.937211 20.586723 198 198 198 0
-3.301036 -3.929804 20.547997 198 198 198 0
-3.214277 -3.919850 20.495947 199 199 199 0
-3.124607 -3.905759 20.422267 199 199 199 0
-3.041306 -3.899111 20.387506 199 199 199 0
-2.958932 -3.893331 20.357287 199 199 199 0
-2.877636 -3.888697 20.333058 199 199 199 0
-2.800595 -3.889715 20.338381 200 200 200 0
-2.716054 -3.880077 20.287983 199 199 199 0
-2.630662 -3.868621 20.228083 200 200 200 0
-2.546524 -3.858370 20.174483 200 200 200 0
-2.465403 -3.852192 20.142178 200 200 200 0
-2.391225 -3.856814 20.166349 200 200 200 0
-2.311079 -3.851798 20.140120 200 200 200 0
-2.228958 -3.843032 20.094283 200 200 200 0
-2.146657 -3.833317 20.043487 201 201 201 0
-2.063861 -3.821964 19.984126 200 200 200 0
-1.984605 -3.816548 19.955804 201 201 201 0
-1.908075 -3.816149 19.953721 201 201 201 0
-1.828932 -3.810275 19.923006 202 202 202 0
-1.753544 -3.812052 19.932296 201 201 201 0
-1.673582 -3.803595 19.888078 201 201 201 0
-1.591615 -3.789559 19.814686 201 201 201 0
-1.513715 -3.784288 19.787129 202 202 202 0
-1.434878 -3.775994 19.743758 202 202 202 0
-1.358196 -3.772768 19.726890 202 202 202 0
-1.282474 -3.771983 19.722787 203 203 203 0
-1.201162 -3.753633 19.626837 201 201 201 0
-1.490258 -4.967526 25.973991 201 201 201 0
-1.335554 -4.769834 24.940309 200 200 200 0
-1.230009 -4.730803 24.736223 201 201 201 0
-1.137048 -4.737698 24.772277 203 203 203 0
-1.038899 -4.722267 24.691590 202 202 202 0
-0.944519 -4.722595 24.693306 203 203 203 0
-0.851720 -4.731777 24.741318 203 203 203 0
-0.751836 -4.698973 24.569792 204 204 204 0
-0.655791 -4.684224 24.492673 203 203 203 0
-0.560710 -4.672583 24.431805 205 205 205 0
-0.469005 -4.690053 24.523153 205 205 205 0
-0.374878 -4.685978 24.501848 205 205 205 0
-0.280073 -4.667883 24.407234 205 205 205 0
-0.186741 -4.668537 24.410651 206 206 206 0
-0.093035 -4.651769 24.322974 205 205 205 0
0.000000 -4.659748 24.364694 205 205 205 0
0.093347 -4.667369 24.404543 207 207 207 0
0.186343 -4.658581 24.358596 208 208 208 0
0.279050 -4.650832 24.318073 208 208 208 0
0.371907 -4.648833 24.307622 208 208 208 0
0.464138 -4.641375 24.268630 208 208 208 0
0.558505 -4.654208 24.335728 207 207 207 0
0.651635 -4.654534 24.337435 207 207 207 0
0.743831 -4.648942 24.308193 208 208 208 0
0.837349 -4.651938 24.323861 208 208 208 0
0.928076 -4.640382 24.263434 208 208 208 0
1.022150 -4.646137 24.293528 208 208 208 0
1.114747 -4.644779 24.286428 210 210 210 0
1.211294 -4.658825 24.359869 209 209 209 0
1.302875 -4.653124 24.330059 209 209 209 0
1.395145 -4.650482 24.316246 209 209 209 0
1.490918 -4.659120 24.361413 210 210 210 0
1.584812 -4.661211 24.372343 209 209 209 0
1.677939 -4.660940 24.370930 210 210 210 0
1.771842 -4.662741 24.380344 209 209 209 0
1.867217 -4.668043 24.408069 209 209 209 0
1.963020 -4.673858 24.438474 209 209 209 0
2.057371 -4.675844 24.448856 209 209 209 0
2.153085 -4.680619 24.473824 210 210 210 0
2.250175 -4.687866 24.511715 209 209 209 0
2.345498 -4.690996 24.528086 209 209 209 0
2.441984 -4.696123 24.554890 209 209 209 0
2.541221 -4.705965 24.606351 209 209 209 0
2.637935 -4.710598 24.630576 209 209 209 0
2.738419 -4.721413 24.687126 209 209 209 0
2.838689 -4.731148 24.738028 209 209 209 0
2.935646 -4.734913 24.757715 209 209 209 0
3.034481 -4.741376 24.791509 209 209 209 0
3.136673 -4.752535 24.849854 208 208 208 0
3.242246 -4.768008 24.930762 208 208 208 0
3.346650 -4.780929 24.998322 208 208 208 0
3.445736 -4.785745 25.023503 209 209 209 0
3.553113 -4.801504 25.105903 207 207 207 0
3.662825 -4.819506 25.200033 207 207 207 0
3.769861 -4.833156 25.271401 207 207 207 0
3.873806 -4.842258 25.318995 208 208 208 0
3.984630 -4.859305 25.408129 206 206 206 0
4.100451 -4.881489 25.524124 205 205 205 0
4.211824 -4.897470 25.607685 205 205 205 0
4.328014 -4.918198 25.716067 205 205 205 0
4.445243 -4.939159 25.825670 205 205 205 0
4.567210 -4.964358 25.957429 203 203 203 0
4.687494 -4.986695 26.074224 203 203 203 0
4.817948 -5.018696 26.241547 202 202 202 0
4.946615 -5.047566 26.392503 200 200 200 0
5.083896 -5.083896 26.582462 200 200 200 0
5.226014 -5.123543 26.789768 198 198 198 0
5.370618 -5.164056 27.001601 195 195 195 0
5.530271 -5.217237 27.279668 194 194 194 0
5.707180 -5.284426 27.630986 190 190 190 0
5.914133 -5.376484 28.112335 184 184 184 0
6.113635 -5.458603 28.541715 136 136 136 0
-6.676119 -4.089123 21.817382 192 192 192 0
-6.592752 -4.089175 21.817662 193 193 193 0
-6.472603 -4.066123 21.694665 194 194 194 0
-6.370046 -4.053666 21.628202 194 194 194 0
-6.280221 -4.049090 21.603788 194 194 194 0
-6.193412 -4.046363 21.589237 194 194 194 0
-6.105654 -4.042933 21.570936 194 194 194 0
-6.028147 -4.046291 21.588853 194 194 194 0
-5.916999 -4.026847 21.485109 194 194 194 0
-5.826441 -4.021065 21.454260 195 195 195 0
-5.713176 -3.999223 21.337725 194 194 194 0
-5.641442 -4.006241 21.375171 196 196 196 0
-5.560361 -4.006730 21.377780 195 195 195 0
-5.476331 -4.005078 21.368963 196 196 196 0
-5.381684 -3.995492 21.317820 195 195 195 0
-5.279077 -3.979612 21.233091 196 196 196 0
-5.175858 -3.962766 21.143210 196 196 196 0
-5.095536 -3.963195 21.145498 195 195 195 0
-5.012039 -3.961128 21.134468 196 196 196 0
-4.938421 -3.966928 21.165416 196 196 196 0
-4.838081 -3.951100 21.080963 196 196 196 0
-4.757891 -3.951468 21.082931 196 196 196 0
-4.658324 -3.935481 20.997631 197 197 197 0
-4.566458 -3.925552 20.944654 196 196 196 0
-4.483974 -3.923478 20.933587 197 197 197 0
-4.411731 -3.930451 20.970795 197 197 197 0
-4.319726 -3.919752 20.913708 197 197 197 0
-4.218417 -3.900046 20.808567 197 197 197 0
-4.129840 -3.891580 20.763401 197 197 197 0
-4.046478 -3.887792 20.743190 198 198 198 0
-3.965921 -3.886602 20.736840 198 198 198 0
-3.886494 -3.886494 20.736260 198 198 198 0
-3.800888 -3.880074 20.702006 198 198 198 0
-3.711085 -3.869004 20.642945 197 197 197 0
-3.623509 -3.859825 20.593971 199 199 199 0
-3.530311 -3.844117 20.510161 198 198 198 0
-3.457826 -3.850761 20.545608 198 198 198 0
-3.376048 -3.847124 20.526205 199 199 199 0
-3.292244 -3.840952 20.493274 199 199 199 0
-3.209405 -3.835630 20.464880 199 199 199 0
-3.117503 -3.818941 20.375834 200 200 200 0
-3.034628 -3.812737 20.342735 200 200 200 0
-2.952008 -3.806536 20.309650 199 199 199 0
-2.874819 -3.807193 20.313155 199 199 199 0
-2.796184 -3.805917 20.306349 199 199 199 0
-2.715851 -3.802191 20.286469 200 200 200 0
-2.627595 -3.786828 20.204497 200 200 200 0
-2.543635 -3.776912 20.151592 200 200 200 0
-2.460882 -3.768225 20.105245 200 200 200 0
-2.383517 -3.767495 20.101346 200 200 200 0
-2.306779 -3.767739 20.102647 200 200 200 0
-2.224672 -3.758928 20.055637 201 201 201 0
-2.145540 -3.754695 20.033054 200 200 200 0
-2.059173 -3.737018 19.938740 200 200 200 0
-1.980091 -3.731710 19.910419 201 201 201 0
-1.902940 -3.729762 19.900023 202 202 202 0
-1.825719 -3.727510 19.888010 201 201 201 0
-1.747589 -3.723124 19.864606 201 201 201 0
-1.667500 -3.713977 19.815802 201 201 201 0
-1.588660 -3.706874 19.777905 202 202 202 0
-1.508705 -3.696327 19.721631 201 201 201 0
-1.430994 -3.690459 19.690323 202 202 202 0
-1.355281 -3.689375 19.684543 202 202 202 0
-1.280478 -3.690790 19.692091 203 203 203 0
-1.200739 -3.677263 19.619916 203 203 203 0
-1.490302 -4.868319 25.974758 199 199 199 0
-1.330310 -4.656084 24.842387 201 201 201 0
-1.231219 -4.640747 24.760554 200 200 200 0
-1.130375 -4.615699 24.626910 203 203 203 0
-1.038710 -4.626982 24.687113 203 203 203 0
-0.943697 -4.624116 24.671822 203 203 203 0
-0.848762 -4.621036 24.655385 203 203 203 0
-0.750321 -4.595719 24.520307 202 202 202 0
-0.656793 -4.597549 24.530072 204 204 204 0
-0.562267 -4.591846 24.499647 205 205 205 0
-0.468301 -4.589354 24.486351 204 204 204 0
-0.374566 -4.588430 24.481420 205 205 205 0
-0.279916 -4.571964 24.393567 207 207 207 0
-0.186584 -4.571308 24.390068 205 205 205 0
-0.093214 -4.567491 24.369702 206 206 206 0
0.000000 -4.560432 24.332036 208 208 208 0
0.093249 -4.569189 24.378757 208 208 208 0
0.186440 -4.567770 24.371190 207 207 207 0
0.279532 -4.565682 24.360046 207 207 207 0
0.371480 -4.550635 24.279766 207 207 207 0
0.464284 -4.549985 24.276295 208 208 208 0
0.557429 -4.552340 24.288864 208 208 208 0
0.650861 -4.556027 24.308537 208 208 208 0
0.744560 -4.560428 24.332013 209 209 209 0
0.834642 -4.544162 24.245228 208 208 208 0
0.928997 -4.552086 24.287505 209 209 209 0
1.022065 -4.552833 24.291494 209 209 209 0
1.116208 -4.557851 24.318264 208 208 208 0
1.209104 -4.557391 24.315809 209 209 209 0
1.301659 -4.555806 24.307352 209 209 209 0
1.393257 -4.551308 24.283354 210 210 210 0
1.490187 -4.563698 24.349464 209 209 209 0
1.584528 -4.567169 24.367979 208 208 208 0
1.678977 -4.570549 24.386016 210 210 210 0
1.768926 -4.561966 24.340223 209 209 209 0
1.865412 -4.570260 24.384474 209 209 209 0
1.961574 -4.577006 24.420465 210 210 210 0
2.056781 -4.581013 24.441845 210 210 210 0
2.151720 -4.584100 24.458315 210 210 210 0
2.248593 -4.590877 24.494473 210 210 210 0
2.345437 -4.597057 24.527451 210 210 210 0
2.442649 -4.603454 24.561580 209 209 209 0
2.540632 -4.610777 24.600652 209 209 209 0
2.637087 -4.614902 24.622662 209 209 209 0
2.737562 -4.625536 24.679396 209 209 209 0
2.837390 -4.634404 24.726710 209 209 209 0
2.935449 -4.639904 24.756055 209 209 209 0
3.034578 -4.646697 24.792302 209 209 209 0
3.136072 -4.656592 24.845096 208 208 208 0
3.240756 -4.670501 24.919304 208 208 208 0
3.342537 -4.679551 24.967595 209 209 209 0
3.444429 -4.688251 25.014011 208 208 208 0
3.550216 -4.701638 25.085437 207 207 207 0
3.660025 -4.719506 25.180770 207 207 207 0
3.766544 -4.732325 25.249164 208 208 208 0
3.873522 -4.745064 25.317134 207 207 207 0
3.981883 -4.758835 25.390611 206 206 206 0
4.098353 -4.781412 25.511067 205 205 205 0
4.210590 -4.798114 25.600183 206 206 206 0
4.321516 -4.812597 25.677455 205 205 205 0
4.440738 -4.835470 25.799495 205 205 205 0
4.560841 -4.858288 25.921236 203 203 203 0
4.681421 -4.880630 26.040444 203 203 203 0
4.808519 -4.908697 26.190192 203 203 203 0
4.938147 -4.938147 26.347320 200 200 200 0
5.071916 -4.970477 26.519820 200 200 200 0
5.213947 -5.009478 26.727907 198 198 198 0
5.360068 -5.050833 26.948555 195 195 195 0
5.516913 -5.100542 27.213777 195 195 195 0
5.687189 -5.160597 27.534199 190 190 190 0
5.885717 -5.243639 27.977265 186 186 186 0
6.096826 -5.334723 28.463241 158 158 158 0
6.209668 -5.338135 28.481448 78 78 78 0
-6.678658 -4.007195 21.825680 193 193 193 0
-6.580377 -3.998204 21.776710 194 194 194 0
-6.461322 -3.976198 21.656852 193 193 193 0
-6.365426 -3.968058 21.612516 194 194 194 0
-6.271272 -3.960804 21.573004 193 193 193 0
-6.189750 -3.961440 21.576469 194 194 194 0
-6.096355 -3.954393 21.538087 194 194 194 0
-6.020214 -3.958497 21.560440 195 195 195 0
-5.909276 -3.939518 21.457068 194 194 194 0
-5.818771 -3.933817 21.426020 194 194 194 0
-5.715941 -3.919502 21.348052 195 195 195 0
-5.633580 -3.919012 21.345383 195 195 195 0
-5.553768 -3.920307 21.352433 195 195 195 0
-5.460250 -3.911821 21.306215 196 196 196 0
-5.371840 -3.906793 21.278828 195 195 195 0
-5.271981 -3.893155 21.204550 196 196 196 0
-5.177719 -3.883289 21.150811 196 196 196 0
-5.089885 -3.878007 21.122045 196 196 196 0
-5.013450 -3.881381 21.140417 196 196 196 0
-4.926967 -3.876957 21.116326 196 196 196 0
-4.840589 -3.872471 21.091891 196 196 196 0
-4.736855 -3.853713 20.989722 197 197 197 0
-4.650689 -3.848846 20.963212 196 196 196 0
-4.556028 -3.836655 20.896814 197 197 197 0
-4.478650 -3.838843 20.908731 197 197 197 0
-4.390198 -3.831446 20.868441 197 197 197 0
-4.303194 -3.825061 20.833667 197 197 197 0
-4.217048 -3.819213 20.801815 197 197 197 0
-4.120513 -3.803550 20.716504 198 198 198 0
-4.031003 -3.793885 20.663862 198 198 198 0
-3.956951 -3.798673 20.689941 197 197 197 0
-3.880130 -3.800944 20.702309 198 198 198 0
-3.787067 -3.787067 20.626726 198 198 198 0
-3.702057 -3.780824 20.592726 198 198 198 0
-3.613548 -3.770659 20.537359 198 198 198 0
-3.524562 -3.759533 20.476757 199 199 199 0
-3.443156 -3.756170 20.458444 199 199 199 0
-3.370066 -3.761935 20.489840 198 198 198 0
-3.287467 -3.757105 20.463533 199 199 199 0
-3.197702 -3.743651 20.390254 199 199 199 0
-3.113591 -3.736309 20.350268 199 199 199 0
-3.028129 -3.726928 20.299174 199 199 199 0
-2.946439 -3.721817 20.271337 199 199 199 0
-2.867849 -3.720453 20.263907 199 199 199 0
-2.791899 -3.722532 20.275228 200 200 200 0
-2.703865 -3.708157 20.196934 200 200 200 0
-2.618527 -3.696744 20.134769 200 200 200 0
-2.540289 -3.694966 20.125085 200 200 200 0
-2.455119 -3.682678 20.058161 200 200 200 0
-2.377065 -3.680616 20.046930 200 200 200 0
-2.301894 -3.683030 20.060076 201 201 201 0
-2.221945 -3.677702 20.031059 200 200 200 0
-2.139847 -3.668309 19.979899 200 200 200 0
-2.055868 -3.654876 19.906730 201 201 201 0
-1.976810 -3.649496 19.877429 202 202 202 0
-1.898091 -3.644334 19.849314 201 201 201 0
-1.820870 -3.641741 19.835190 201 201 201 0
-1.744754 -3.641225 19.832379 201 201 201 0
-1.665466 -3.633745 19.791638 202 202 202 0
-1.584817 -3.622439 19.730060 202 202 202 0
-1.506396 -3.615350 19.691451 202 202 202 0
-1.429013 -3.610139 19.663066 202 202 202 0
-1.352940 -3.607839 19.650540 202 202 202 0
-1.278451 -3.609744 19.660916 202 202 202 0
-1.196326 -3.588979 19.547817 202 202 202 0
-1.483829 -4.748252 25.861941 200 200 200 0
-1.329719 -4.559036 24.831352 201 201 201 0
-1.227927 -4.533885 24.694365 202 202 202 0
-1.130302 -4.521208 24.625318 202 202 202 0
-1.036644 -4.523536 24.637998 202 202 202 0
-0.942447 -4.523745 24.639135 203 203 203 0
-0.848667 -4.526224 24.652635 203 203 203 0
-0.753946 -4.523674 24.638746 204 204 204 0
-0.656093 -4.498922 24.503930 205 205 205 0
-0.562073 -4.496587 24.491212 205 205 205 0
-0.468338 -4.496047 24.488274 206 206 206 0
-0.374475 -4.493705 24.475516 206 206 206 0
-0.280781 -4.492496 24.468932 206 206 206 0
-0.186721 -4.481307 24.407991 206 206 206 0
-0.093341 -4.480360 24.402830 208 208 208 0
0.000000 -4.467865 24.334777 207 207 207 0
0.093096 -4.468616 24.338868 207 207 207 0
0.186126 -4.467013 24.330138 208 208 208 0
0.279335 -4.469365 24.342944 207 207 207 0
0.372284 -4.467407 24.332283 206 206 206 0
0.463925 -4.453682 24.257527 207 207 207 0
0.558303 -4.466428 24.326948 209 209 209 0
0.649356 -4.452728 24.252333 209 209 209 0
0.742135 -4.452810 24.252777 208 208 208 0
0.835434 -4.455649 24.268243 209 209 209 0
0.927894 -4.453892 24.258669 209 209 209 0
1.022545 -4.462017 24.302922 209 209 209 0
1.115068 -4.460271 24.293417 209 209 209 0
1.207531 -4.458577 24.284191 208 208 208 0
1.300487 -4.458811 24.285464 209 209 209 0
1.394851 -4.463524 24.311131 209 209 209 0
1.489061 -4.467182 24.331056 209 209 209 0
1.584178 -4.472975 24.362606 209 209 209 0
1.675806 -4.468817 24.339963 210 210 210 0
1.770615 -4.473133 24.363467 210 210 210 0
1.864244 -4.474186 24.369206 210 210 210 0
1.960221 -4.480504 24.403617 209 209 209 0
2.057209 -4.488456 24.446930 210 210 210 0
2.151527 -4.490144 24.456123 209 209 209 0
2.248141 -4.496283 24.489558 209 209 209 0
2.344748 -4.501916 24.520238 209 209 209 0
2.442716 -4.509629 24.562252 209 209 209 0
2.536795 -4.509857 24.563494 209 209 209 0
2.637859 -4.522044 24.629869 209 209 209 0
2.734428 -4.525950 24.651141 209 209 209 0
2.834447 -4.535116 24.701067 209 209 209 0
2.934989 -4.544499 24.752172 210 210 210 0
3.033203 -4.549805 24.781073 209 209 209 0
3.134463 -4.559220 24.832350 208 208 208 0
3.238832 -4.572469 24.904513 209 209 209 0
3.341099 -4.582078 24.956853 208 208 208 0
3.443759 -4.591679 25.009145 208 208 208 0
3.549804 -4.605152 25.082526 208 208 208 0
3.655833 -4.617894 25.151929 208 208 208 0
3.765337 -4.634261 25.241071 207 207 207 0
3.868512 -4.642214 25.284391 207 207 207 0
3.978099 -4.657287 25.366486 207 207 207 0
4.090614 -4.674988 25.462895 206 206 206 0
4.205659 -4.694689 25.570201 206 206 206 0
4.319273 -4.711934 25.664128 205 205 205 0
4.436148 -4.731891 25.772825 205 205 205 0
4.556603 -4.754716 25.897147 204 204 204 0
4.676415 -4.775913 26.012599 203 203 203 0
4.806663 -4.806663 26.180082 202 202 202 0
4.933058 -4.832383 26.320169 201 201 201 0
5.064198 -4.861630 26.479468 200 200 200 0
5.204555 -4.898405 26.679764 199 199 199 0
5.347354 -4.936019 26.884634 197 197 197 0
5.503667 -4.984454 27.148440 195 195 195 0
5.669959 -5.039964 27.450783 191 191 191 0
5.862751 -5.116582 27.868096 188 188 188 0
6.075487 -5.207560 28.363617 172 172 172 0
6.228814 -5.245317 28.569267 89 89 89 0
-6.648575 -3.906038 21.727369 193 193 193 0
-6.570351 -3.908943 21.743529 193 193 193 0
-6.467972 -3.897368 21.679142 194 194 194 0
-6.366433 -3.886004 21.615933 194 194 194 0
-6.236805 -3.856972 21.454439 195 195 195 0
