ply
format ascii 1.0
element vertex 1090
property float x
property float y
property float z
property uchar red
property uchar green
property uchar blue
property uchar alpha
end_header
-2.676769 -2.283126 20.582614 212 212 212 0
-2.607674 -2.291593 20.658938 212 212 212 0
-2.533465 -2.295952 20.698240 212 212 212 0
-2.458920 -2.300280 20.737257 212 212 212 0
-2.378581 -2.299295 20.728371 211 211 211 0
-2.301687 -2.301687 20.749936 212 212 212 0
-2.227630 -2.307188 20.799534 211 211 211 0
-2.150244 -2.309521 20.820564 211 211 211 0
-2.073437 -2.312679 20.849037 212 212 212 0
-1.996500 -2.315940 20.878431 212 212 212 0
-1.918335 -2.317988 20.896891 212 212 212 0
-1.844077 -2.325141 20.961375 211 211 211 0
-1.766147 -2.328103 20.988084 211 211 211 0
-1.690936 -2.335102 21.051175 212 212 212 0
-1.612586 -2.338250 21.079554 211 211 211 0
-1.534410 -2.341994 21.113312 211 211 211 0
-1.458059 -2.349096 21.177334 211 211 211 0
-1.378135 -2.350936 21.193927 211 211 211 0
-1.301053 -2.358158 21.259032 211 211 211 0
-1.222726 -2.363936 21.311124 211 211 211 0
-1.141313 -2.364148 21.313030 211 211 211 0
-1.064357 -2.374336 21.404873 211 211 211 0
-0.987465 -2.386374 21.513401 210 210 210 0
-0.906896 -2.390907 21.554266 211 211 211 0
-0.826857 -2.397886 21.617184 211 211 211 0
-0.745760 -2.403006 21.663340 210 210 210 0
-0.665009 -2.410659 21.732331 209 209 209 0
-0.584129 -2.419965 21.816227 209 209 209 0
-0.502525 -2.428869 21.896499 209 209 209 0
-0.420028 -2.436164 21.962259 208 208 208 0
-0.337369 -2.445926 22.050271 209 209 209 0
-0.254313 -2.458361 22.162375 207 207 207 0
-0.170501 -2.472268 22.287740 207 207 207 0
-0.085469 -2.478601 22.344833 207 207 207 0
0.000000 -2.487199 22.422346 207 207 207 0
0.086344 -2.503973 22.573570 206 206 206 0
0.173527 -2.516137 22.683226 204 204 204 0
0.261691 -2.529677 22.805295 204 204 204 0
0.351129 -2.545688 22.949634 203 203 203 0
0.442200 -2.564760 23.121569 202 202 202 0
0.534559 -2.583703 23.292339 201 201 201 0
0.627164 -2.598249 23.423478 200 200 200 0
0.723135 -2.621364 23.631858 198 198 198 0
0.821653 -2.647548 23.867909 198 198 198 0
0.920854 -2.670478 24.074627 196 196 196 0
1.027094 -2.707793 24.411029 192 192 192 0
1.135359 -2.743784 24.735485 189 189 189 0
1.252722 -2.794534 25.193006 180 180 180 0
1.362481 -2.822282 25.443153 118 118 118 0
-6.497937 -2.274278 21.235089 193 193 193 0
-6.348791 -2.250204 21.010311 193 193 193 0
-6.286590 -2.256725 21.071192 193 193 193 0
-6.213972 -2.259626 21.098284 196 196 196 0
-6.118128 -2.254047 21.046191 196 196 196 0
-6.000094 -2.240035 20.915360 197 197 197 0
-5.994637 -2.268241 21.178720 198 198 198 0
-5.893328 -2.260454 21.106018 197 197 197 0
-5.823379 -2.264647 21.145166 199 199 199 0
-5.673796 -2.237553 20.892187 200 200 200 0
-5.604653 -2.241861 20.932409 200 200 200 0
-5.478154 -2.223019 20.756479 201 201 201 0
-5.399144 -2.223177 20.757954 202 202 202 0
-5.340780 -2.231968 20.840035 202 202 202 0
-5.249919 -2.227239 20.795878 202 202 202 0
-5.212811 -2.245518 20.966559 202 202 202 0
-5.095184 -2.229143 20.813662 204 204 204 0
-4.969450 -2.208644 20.622264 205 205 205 0
-4.878473 -2.203181 20.571253 206 206 206 0
-4.840391 -2.221819 20.745276 205 205 205 0
-4.764839 -2.223592 20.761827 206 206 206 0
-4.693592 -2.227467 20.798014 206 206 206 0
-4.570360 -2.206380 20.601125 207 207 207 0
-4.452706 -2.187294 20.422914 207 207 207 0
-4.410089 -2.205044 20.588649 207 207 207 0
-4.310596 -2.194485 20.490059 208 208 208 0
-4.242051 -2.199582 20.537648 208 208 208 0
-4.168784 -2.202376 20.563738 208 208 208 0
-4.080735 -2.197319 20.516518 208 208 208 0
-4.003175 -2.197822 20.521212 209 209 209 0
-3.917959 -2.194057 20.486058 210 210 210 0
-3.844892 -2.197081 20.514297 209 209 209 0
-3.770198 -2.199282 20.534848 209 209 209 0
-3.704591 -2.206991 20.606821 209 209 209 0
-3.597266 -2.189640 20.444820 210 210 210 0
-3.520959 -2.190819 20.455824 210 210 210 0
-3.452197 -2.196853 20.512165 210 210 210 0
-3.383264 -2.203055 20.570079 210 210 210 0
-3.294149 -2.196099 20.505129 210 210 210 0
-3.240494 -2.213020 20.663120 211 211 211 0
-3.143226 -2.200259 20.543964 211 211 211 0
-3.069390 -2.203665 20.575768 211 211 211 0
-2.992238 -2.204807 20.586434 211 211 211 0
-2.922016 -2.211256 20.646645 211 211 211 0
-2.841734 -2.210238 20.637140 212 212 212 0
-2.773012 -2.218409 20.713439 212 212 212 0
-2.691439 -2.216479 20.695419 212 212 212 0
-2.611828 -2.216096 20.691841 210 210 210 0
-2.534006 -2.217255 20.702661 211 211 211 0
-2.459984 -2.221921 20.746226 212 212 212 0
-2.379824 -2.221169 20.739204 211 211 211 0
-2.310548 -2.230874 20.829821 212 212 212 0
-2.231387 -2.231387 20.834610 211 211 211 0
-2.153493 -2.233252 20.852025 211 211 211 0
-2.079642 -2.239614 20.911432 212 212 212 0
-1.998533 -2.238357 20.899692 211 211 211 0
-1.925318 -2.246204 20.972961 212 212 212 0
-1.845552 -2.246759 20.978141 211 211 211 0
-1.770416 -2.253256 21.038808 211 211 211 0
-1.691215 -2.254953 21.054651 211 211 211 0
-1.613652 -2.259113 21.093490 212 212 212 0
-1.535615 -2.263011 21.129891 211 211 211 0
-1.458870 -2.269353 21.189102 211 211 211 0
-1.381593 -2.275565 21.247105 211 211 211 0
-1.303741 -2.281546 21.302953 211 211 211 0
-1.225244 -2.287121 21.355008 210 210 210 0
-1.147026 -2.294052 21.419717 210 210 210 0
-1.066820 -2.297765 21.454391 210 210 210 0
-0.988521 -2.306550 21.536412 210 210 210 0
-0.907639 -2.310355 21.571938 210 210 210 0
-0.827725 -2.317630 21.639867 210 210 210 0
-0.747245 -2.324764 21.706476 209 209 209 0
-0.666334 -2.332170 21.775626 209 209 209 0
-0.585462 -2.341849 21.866007 209 209 209 0
-0.503088 -2.347744 21.921046 208 208 208 0
-0.420610 -2.355418 21.992695 209 209 209 0
-0.338034 -2.366235 22.093701 208 208 208 0
-0.254762 -2.377776 22.201453 207 207 207 0
-0.170619 -2.388667 22.303142 207 207 207 0
-0.085643 -2.398011 22.390389 207 207 207 0
0.000000 -2.408636 22.489598 207 207 207 0
0.086434 -2.420141 22.597021 205 205 205 0
0.174234 -2.439279 22.775717 205 205 205 0
0.262185 -2.447060 22.848365 205 205 205 0
0.351727 -2.462088 22.988683 204 204 204 0
0.443129 -2.481525 23.170167 202 202 202 0
0.534955 -2.496458 23.309597 201 201 201 0
0.628113 -2.512453 23.458941 200 200 200 0
0.724610 -2.536134 23.680058 198 198 198 0
0.825014 -2.566712 23.965563 197 197 197 0
0.921408 -2.579943 24.089106 194 194 194 0
1.029391 -2.620268 24.465622 192 192 192 0
1.141465 -2.663417 24.868510 189 189 189 0
1.255950 -2.705122 25.257909 178 178 178 0
1.370309 -2.740618 25.589337 103 103 103 0
-6.480713 -2.187241 21.178801 193 193 193 0
-6.404722 -2.188956 21.195406 194 194 194 0
-6.292196 -2.178068 21.089982 194 194 194 0
-6.207061 -2.176502 21.074820 194 194 194 0
-6.040171 -2.145850 20.778022 197 197 197 0
-6.023258 -2.168373 20.996107 198 198 198 0
-5.976626 -2.180661 21.115090 198 198 198 0
-5.910260 -2.185987 21.166658 198 198 198 0
-5.776086 -2.166032 20.973441 199 199 199 0
-5.699353 -2.167360 20.986294 199 199 199 0
-5.621360 -2.168239 20.994808 202 202 202 0
-5.515964 -2.158421 20.899740 202 202 202 0
-5.395931 -2.142502 20.745603 202 202 202 0
-5.347422 -2.154931 20.865954 202 202 202 0
-5.232820 -2.140699 20.728144 202 202 202 0
-5.147409 -2.138155 20.703507 203 203 203 0
-5.038129 -2.125461 20.580591 204 204 204 0
-4.990465 -2.138771 20.709471 205 205 205 0
-4.903300 -2.135308 20.675943 205 205 205 0
-4.829485 -2.137641 20.698534 206 206 206 0
-4.779544 -2.150795 20.825899 206 206 206 0
-4.656873 -2.131112 20.635309 207 207 207 0
-4.599994 -2.141377 20.734703 206 206 206 0
-4.472203 -2.118412 20.512341 207 207 207 0
-4.410899 -2.126683 20.592430 208 208 208 0
-4.351108 -2.135998 20.682627 208 208 208 0
-4.236888 -2.118444 20.512651 207 207 207 0
-4.145406 -2.111810 20.448418 208 208 208 0
-4.090545 -2.123937 20.565838 208 208 208 0
-3.996648 -2.115873 20.487752 209 209 209 0
-3.938069 -2.126557 20.591208 209 209 209 0
-3.875375 -2.135411 20.676938 210 210 210 0
-3.793201 -2.133676 20.660137 210 210 210 0
-3.687321 -2.118248 20.510753 210 210 210 0
-3.605629 -2.116347 20.492348 210 210 210 0
-3.530707 -2.118424 20.512461 210 210 210 0
-3.463523 -2.125343 20.579458 211 211 211 0
-3.387914 -2.127295 20.598353 210 210 210 0
-3.311713 -2.128958 20.614460 210 210 210 0
-3.216460 -2.118156 20.509866 211 211 211 0
-3.148489 -2.125230 20.578361 210 210 210 0
-3.075441 -2.129152 20.616330 211 211 211 0
-2.997309 -2.129667 20.621318 212 212 212 0
-2.920840 -2.131424 20.638335 211 211 211 0
-2.847686 -2.135764 20.680362 211 211 211 0
-2.760142 -2.129252 20.617308 212 212 212 0
-2.692099 -2.137844 20.700495 211 211 211 0
-2.612174 -2.137234 20.694589 211 211 211 0
-2.538341 -2.141725 20.738081 212 212 212 0
-2.459216 -2.141898 20.739753 211 211 211 0
-2.381962 -2.143766 20.757838 211 211 211 0
-2.307281 -2.148158 20.800370 212 212 212 0
-2.230853 -2.151180 20.829629 211 211 211 0
-2.157310 -2.157310 20.888989 212 212 212 0
-2.082189 -2.162273 20.937043 212 212 212 0
-2.005956 -2.166433 20.977322 211 211 211 0
-1.925996 -2.166746 20.980350 212 212 212 0
-1.847078 -2.168309 20.995488 211 211 211 0
-1.769329 -2.171449 21.025896 211 211 211 0
-1.695338 -2.179721 21.105986 211 211 211 0
-1.614939 -2.180167 21.110310 212 212 212 0
-1.537225 -2.184478 21.152047 211 211 211 0
-1.460570 -2.190855 21.213794 211 211 211 0
-1.383761 -2.197738 21.280448 211 211 211 0
-1.304609 -2.201528 21.317140 211 211 211 0
-1.226859 -2.208347 21.383172 210 210 210 0
-1.147650 -2.213325 21.431375 210 210 210 0
-1.067909 -2.217965 21.476303 210 210 210 0
-0.988760 -2.224710 21.541610 210 210 210 0
-0.910117 -2.233925 21.630837 210 210 210 0
-0.828428 -2.236757 21.658260 209 209 209 0
-0.748252 -2.244755 21.735706 209 209 209 0
-0.668051 -2.254671 21.831723 208 208 208 0
-0.586126 -2.260771 21.890785 209 209 209 0
-0.504020 -2.268092 21.961671 209 209 209 0
-0.421611 -2.276699 22.045013 209 209 209 0
-0.338607 -2.285600 22.131200 207 207 207 0
-0.255134 -2.296205 22.233894 207 207 207 0
-0.170953 -2.307866 22.346803 207 207 207 0
-0.085739 -2.314951 22.415409 207 207 207 0
0.000000 -2.325208 22.514718 206 206 206 0
0.086599 -2.338162 22.640158 204 204 204 0
0.174214 -2.351891 22.773092 204 204 204 0
0.262892 -2.366028 22.909982 205 205 205 0
0.352100 -2.376674 23.013064 204 204 204 0
0.444183 -2.398586 23.225238 201 201 201 0
0.536023 -2.412101 23.356100 201 201 201 0
0.629358 -2.427522 23.505417 200 200 200 0
0.727004 -2.453639 23.758301 197 197 197 0
0.824663 -2.473989 23.955352 198 198 198 0
0.924691 -2.496666 24.174936 194 194 194 0
1.031786 -2.532567 24.522554 191 191 191 0
1.141558 -2.568505 24.870544 187 187 187 0
1.263583 -2.624366 25.411432 173 173 173 0
1.368626 -2.639492 25.557901 87 87 87 0
-6.479881 -2.105961 21.176082 195 195 195 0
-6.401333 -2.106768 21.184191 196 196 196 0
-6.325486 -2.108495 21.201563 195 195 195 0
-6.214500 -2.098403 21.100078 195 195 195 0
-6.096651 -2.085696 20.972312 196 196 196 0
-6.011332 -2.083928 20.954533 198 198 198 0
-5.958180 -2.093415 21.049921 199 199 199 0
-5.911352 -2.105413 21.170567 199 199 199 0
-5.767296 -2.082635 20.941524 199 199 199 0
-5.714558 -2.092655 21.042282 199 199 199 0
-5.615228 -2.085656 20.971907 202 202 202 0
-5.492169 -2.069513 20.809582 201 201 201 0
-5.442493 -2.080953 20.924619 202 202 202 0
-5.336171 -2.070753 20.822051 202 202 202 0
-5.292502 -2.084925 20.964555 203 203 203 0
-5.159658 -2.063863 20.752774 203 203 203 0
-5.077788 -2.062852 20.742599 204 204 204 0
-4.989404 -2.059119 20.705069 205 205 205 0
-4.925544 -2.065551 20.769743 205 205 205 0
-4.839872 -2.062896 20.743048 206 206 206 0
-4.753463 -2.059834 20.712255 206 206 206 0
-4.675356 -2.060326 20.717209 206 206 206 0
-4.538657 -2.034570 20.458224 207 207 207 0
-4.497886 -2.051667 20.630137 208 208 208 0
-4.417828 -2.051135 20.624781 207 207 207 0
-4.338328 -2.050846 20.621882 208 208 208 0
-4.281050 -2.061246 20.726460 208 208 208 0
-4.204739 -2.062702 20.741097 208 208 208 0
-4.065425 -2.032713 20.439545 208 208 208 0
-3.994619 -2.036472 20.477349 209 209 209 0
-3.941651 -2.049659 20.609940 209 209 209 0
-3.863633 -2.050091 20.614286 210 210 210 0
-3.789388 -2.052585 20.639368 210 210 210 0
-3.677671 -2.034456 20.457079 209 209 209 0
-3.605877 -2.038104 20.493760 210 210 210 0
-3.541537 -2.046221 20.575379 210 210 210 0
-3.460225 -2.044678 20.559860 210 210 210 0
-3.405111 -2.058905 20.702912 210 210 210 0
-3.316120 -2.052836 20.641893 211 211 211 0
-3.237002 -2.052733 20.640855 211 211 211 0
-3.148015 -2.046210 20.575260 211 211 211 0
-3.080992 -2.053995 20.653542 211 211 211 0
-3.002173 -2.054118 20.654784 210 210 210 0
-2.927762 -2.057347 20.687246 211 211 211 0
-2.853708 -2.061011 20.724097 211 211 211 0
-2.763974 -2.053238 20.645933 211 211 211 0
-2.693276 -2.059564 20.709542 211 211 211 0
-2.615353 -2.060581 20.719770 211 211 211 0
-2.545856 -2.068508 20.799480 212 212 212 0
-2.466804 -2.068933 20.803746 211 211 211 0
-2.396246 -2.076747 20.882320 211 211 211 0
-2.315140 -2.075642 20.871215 211 211 211 0
-2.232963 -2.073466 20.849327 211 211 211 0
-2.161438 -2.081385 20.928961 212 212 212 0
-2.085503 -2.085503 20.970371 212 212 212 0
-2.007106 -2.087390 20.989345 212 212 212 0
-1.926311 -2.086837 20.983785 211 211 211 0
-1.848206 -2.089276 21.008309 210 210 210 0
-1.771650 -2.093768 21.053475 211 211 211 0
-1.698023 -2.102314 21.139409 211 211 211 0
-1.619353 -2.105159 21.168018 210 210 210 0
-1.541284 -2.109125 21.207893 211 211 211 0
-1.463791 -2.114364 21.260576 211 211 211 0
-1.385177 -2.118505 21.302216 211 211 211 0
-1.305809 -2.121939 21.336743 211 211 211 0
-1.227825 -2.128230 21.400000 210 210 210 0
-1.149938 -2.135599 21.474101 210 210 210 0
-1.070028 -2.140057 21.518923 211 211 211 0
-0.990348 -2.145754 21.576214 210 210 210 0
-0.911285 -2.153945 21.658575 210 210 210 0
-0.829622 -2.157016 21.689454 209 209 209 0
-0.748719 -2.162967 21.749289 209 209 209 0
-0.668003 -2.171010 21.830170 209 209 209 0
-0.587814 -2.183308 21.953825 209 209 209 0
-0.504726 -2.187146 21.992416 208 208 208 0
-0.422210 -2.195494 22.076357 208 208 208 0
-0.339026 -2.203671 22.158580 208 208 208 0
-0.255886 -2.217680 22.299444 207 207 207 0
-0.171225 -2.225931 22.382408 207 207 207 0
-0.085782 -2.230340 22.426747 208 208 208 0
0.000000 -2.245385 22.578025 206 206 206 0
0.086815 -2.257196 22.696795 204 204 204 0
0.174752 -2.271782 22.843459 205 205 205 0
0.263180 -2.280897 22.935116 204 204 204 0
0.352978 -2.294358 23.070468 203 203 203 0
0.445027 -2.314143 23.269409 202 202 202 0
0.538258 -2.332449 23.453489 201 201 201 0
0.630358 -2.341331 23.542795 200 200 200 0
0.728673 -2.368187 23.812838 198 198 198 0
0.827383 -2.390217 24.034364 196 196 196 0
0.928609 -2.414383 24.277359 192 192 192 0
1.036155 -2.449093 24.626374 191 191 191 0
1.150810 -2.493423 25.072124 187 187 187 0
1.268265 -2.536530 25.505579 163 163 163 0
-6.488537 -2.027668 21.204370 195 195 195 0
-6.389107 -2.021869 21.143732 195 195 195 0
-6.306194 -2.021216 21.136900 194 194 194 0
-6.165081 -2.001650 20.932283 195 195 195 0
-6.035180 -1.985257 20.760854 195 195 195 0
-6.052016 -2.017339 21.096352 198 198 198 0
-5.946931 -2.009098 21.010177 198 198 198 0
-5.887406 -2.016235 21.084809 198 198 198 0
-5.761387 -2.000482 20.920070 199 199 199 0
-5.633919 -1.983774 20.745351 200 200 200 0
-5.554669 -1.983810 20.745728 200 200 200 0
-5.502566 -1.993683 20.848977 201 201 201 0
-5.400479 -1.985470 20.763089 202 202 202 0
-5.374033 -2.005236 20.969791 203 203 203 0
-5.259116 -1.992089 20.832308 203 203 203 0
-5.170845 -1.988787 20.797769 203 203 203 0
-5.063256 -1.977835 20.683237 204 204 204 0
-5.000021 -1.984135 20.749126 204 204 204 0
-4.920649 -1.984133 20.749099 204 204 204 0
-4.839751 -1.983504 20.742530 205 205 205 0
-4.775413 -1.989755 20.807899 205 205 205 0
-4.648261 -1.969602 20.597147 206 206 206 0
-4.588794 -1.977928 20.684219 206 206 206 0
-4.497320 -1.972509 20.627542 207 207 207 0
-4.418242 -1.972429 20.626714 207 207 207 0
-4.339777 -1.972626 20.628766 208 208 208 0
-4.287891 -1.985135 20.759578 208 208 208 0
-4.184431 -1.973788 20.640924 209 209 209 0
-4.083646 -1.963291 20.531150 208 208 208 0
-4.002398 -1.961960 20.517227 209 209 209 0
-3.951757 -1.975879 20.662782 209 209 209 0
-3.869194 -1.974079 20.643960 209 209 209 0
-3.791640 -1.974813 20.651636 210 210 210 0
-3.710068 -1.973440 20.637283 209 209 209 0
-3.635877 -1.976020 20.664261 210 210 210 0
-3.553197 -1.973998 20.643118 210 210 210 0
-3.476258 -1.975147 20.655128 210 210 210 0
-3.396266 -1.974574 20.649135 211 211 211 0
-3.316363 -1.974025 20.643402 210 210 210 0
-3.236677 -1.973583 20.638779 210 210 210 0
-3.157110 -1.973194 20.634708 210 210 210 0
-3.076767 -1.972287 20.625221 210 210 210 0
-3.004775 -1.976826 20.672687 210 210 210 0
-2.938175 -1.985253 20.760819 211 211 211 0
-2.850844 -1.979753 20.703297 211 211 211 0
-2.770418 -1.978870 20.694068 211 211 211 0
-2.699671 -1.985052 20.758719 211 211 211 0
-2.624439 -1.988211 20.791752 211 211 211 0
-2.547260 -1.990047 20.810948 212 212 212 0
-2.477974 -1.998366 20.897946 211 211 211 0
-2.390739 -1.992282 20.834327 211 211 211 0
-2.315042 -1.995726 20.870334 212 212 212 0
-2.237253 -1.997547 20.889383 211 211 211 0
-2.161223 -2.001133 20.926877 212 212 212 0
-2.089749 -2.009375 21.013067 211 211 211 0
-2.011591 -2.011591 21.036244 211 211 211 0
-1.928500 -2.008854 21.007621 211 211 211 0
-1.853538 -2.014715 21.068919 211 211 211 0
-1.778257 -2.020747 21.131991 211 211 211 0
-1.697647 -2.021009 21.134733 211 211 211 0
-1.622604 -2.028254 21.210504 210 210 210 0
-1.541858 -2.028761 21.215803 211 211 211 0
-1.465435 -2.035326 21.284457 211 211 211 0
-1.385491 -2.037487 21.307051 210 210 210 0
-1.308756 -2.044930 21.384894 210 210 210 0
-1.229378 -2.048963 21.427063 210 210 210 0
-1.151030 -2.055410 21.494484 210 210 210 0
-1.071886 -2.061320 21.556287 210 210 210 0
-0.992541 -2.067793 21.623984 210 210 210 0
-0.911251 -2.071026 21.657785 210 210 210 0
-0.832250 -2.080625 21.758172 209 209 209 0
-0.749963 -2.083232 21.785432 209 209 209 0
-0.670103 -2.094071 21.898786 208 208 208 0
-0.588367 -2.101311 21.974489 208 208 208 0
-0.506829 -2.111787 22.084049 209 209 209 0
-0.423043 -2.115215 22.119895 207 207 207 0
-0.340065 -2.125409 22.226503 207 207 207 0
-0.256244 -2.135371 22.330672 206 206 206 0
-0.171612 -2.145147 22.432908 207 207 207 0
-0.086117 -2.152930 22.514296 206 206 206 0
0.000000 -2.164306 22.633261 205 205 205 0
0.086900 -2.172512 22.719085 204 204 204 0
0.175234 -2.190421 22.906365 205 205 205 0
0.263566 -2.196380 22.968685 204 204 204 0
0.354535 -2.215844 23.172224 202 202 202 0
0.446170 -2.230848 23.329129 202 202 202 0
0.538771 -2.244880 23.475866 201 201 201 0
0.632506 -2.258951 23.623013 198 198 198 0
0.730439 -2.282622 23.870557 197 197 197 0
0.829536 -2.304266 24.096902 197 197 197 0
0.931560 -2.328899 24.354501 193 193 193 0
1.040301 -2.364321 24.724920 190 190 190 0
1.155078 -2.406412 25.165092 184 184 184 0
1.272340 -2.446807 25.587522 149 149 149 0
1.797270 -3.209410 33.562462 78 78 78 0
-6.603850 -1.981155 21.581210 203 203 203 0
-6.453087 -1.960432 21.355464 194 194 194 0
-6.305289 -1.940089 21.133866 195 195 195 0
-6.159140 -1.919732 20.912114 195 195 195 0
-6.114530 -1.930904 21.033815 196 196 196 0
-6.043398 -1.933887 21.066311 197 197 197 0
-5.980252 -1.939541 21.127899 198 198 198 0
-5.904446 -1.941188 21.145835 199 199 199 0
-5.749674 -1.916558 20.877539 201 201 201 0
-5.648852 -1.909471 20.800340 200 200 200 0
-5.554781 -1.904496 20.746146 200 200 200 0
-5.503642 -1.914310 20.853052 201 201 201 0
-5.432746 -1.917440 20.887142 202 202 202 0
-5.376070 -1.925756 20.977737 203 203 203 0
-5.300514 -1.927459 20.996291 203 203 203 0
-5.164754 -1.906986 20.773269 204 204 204 0
-5.081115 -1.905418 20.756190 204 204 204 0
-4.999674 -1.904638 20.747686 204 204 204 0
-4.895634 -1.895084 20.643617 204 204 204 0
-4.854875 -1.910115 20.807351 205 205 205 0
-4.767915 -1.907166 20.775229 205 205 205 0
-4.687677 -1.906852 20.771805 205 205 205 0
-4.581628 -1.895846 20.651919 206 206 206 0
-4.499525 -1.894537 20.637656 207 207 207 0
-4.423066 -1.895600 20.649234 208 208 208 0
-4.356720 -1.901114 20.709305 208 208 208 0
-4.282309 -1.903249 20.732554 208 208 208 0
-4.192016 -1.898272 20.678339 208 208 208 0
-4.119124 -1.901134 20.709521 208 208 208 0
-4.020197 -1.891857 20.608469 208 208 208 0
-3.955387 -1.898586 20.681762 209 209 209 0
-3.877911 -1.899385 20.690467 210 210 210 0
-3.816930 -1.908465 20.789381 209 209 209 0
-3.709043 -1.893980 20.631586 209 209 209 0
-3.647252 -1.902914 20.728911 210 210 210 0
-3.558091 -1.897649 20.671555 210 210 210 0
-3.484897 -1.900853 20.706460 210 210 210 0
-3.399254 -1.897258 20.667298 210 210 210 0
-3.335934 -1.906248 20.765228 211 211 211 0
-3.239126 -1.896074 20.654399 210 210 210 0
-3.166415 -1.899849 20.695522 210 210 210 0
-3.082740 -1.897071 20.665259 211 211 211 0
-3.015791 -1.904710 20.748476 210 210 210 0
-2.931311 -1.901391 20.712317 210 210 210 0
-2.862336 -1.908224 20.786754 210 210 210 0
-2.770482 -1.899759 20.694546 210 210 210 0
-2.699935 -1.905837 20.760747 212 212 212 0
-2.630594 -1.913159 20.840517 211 211 211 0
-2.546012 -1.909509 20.800752 211 211 211 0
-2.472356 -1.914082 20.850571 212 212 212 0
-2.397398 -1.917918 20.892354 211 211 211 0
-2.319042 -1.919207 20.906392 211 211 211 0
-2.240851 -1.920729 20.922976 211 211 211 0
-2.165028 -1.924469 20.963716 211 211 211 0
-2.088546 -1.927888 21.000962 212 212 212 0
-2.014981 -1.934382 21.071696 210 210 210 0
-1.934625 -1.934625 21.074347 211 211 211 0
-1.858000 -1.938783 21.119638 210 210 210 0
-1.782144 -1.944157 21.178182 211 211 211 0
-1.705366 -1.948990 21.230824 211 211 211 0
-1.625413 -1.950495 21.247224 211 211 211 0
-1.545890 -1.952704 21.271282 211 211 211 0
-1.467269 -1.956359 21.311100 210 210 210 0
-1.389246 -1.961288 21.364793 210 210 210 0
-1.310029 -1.965044 21.405707 210 210 210 0
-1.231970 -1.971153 21.472251 209 209 209 0
-1.152565 -1.975825 21.523149 210 210 210 0
-1.073758 -1.982322 21.593925 210 210 210 0
-0.995307 -1.990614 21.684253 210 210 210 0
-0.914131 -1.994468 21.726234 208 208 208 0
-0.832599 -1.998238 21.767304 208 208 208 0
-0.751630 -2.004346 21.833835 208 208 208 0
-0.671174 -2.013523 21.933803 208 208 208 0
-0.588919 -2.019151 21.995104 209 209 209 0
-0.506560 -2.026239 22.072325 208 208 208 0
-0.423415 -2.032391 22.139337 206 206 206 0
-0.340261 -2.041568 22.239300 206 206 206 0
-0.256657 -2.053253 22.366588 206 206 206 0
-0.172061 -2.064727 22.491577 207 207 207 0
-0.086272 -2.070539 22.554894 206 206 206 0
0.000000 -2.080100 22.659042 204 204 204 0
0.087156 -2.091742 22.785855 204 204 204 0
0.175551 -2.106608 22.947802 204 204 204 0
0.264104 -2.112831 23.015588 202 202 202 0
0.354907 -2.129444 23.196557 202 202 202 0
0.447101 -2.146086 23.377840 201 201 201 0
0.540258 -2.161030 23.540635 200 200 200 0
0.634809 -2.176488 23.709016 198 198 198 0
0.733564 -2.200693 23.972696 197 197 197 0
0.830881 -2.215683 24.135981 195 195 195 0
0.935850 -2.246039 24.466659 193 193 193 0
1.046033 -2.282254 24.861157 188 188 188 0
1.161659 -2.323317 25.308468 180 180 180 0
1.273262 -2.350638 25.606083 119 119 119 0
-6.644773 -1.910372 21.714943 205 205 205 0
-6.530114 -1.901172 21.610372 203 203 203 0
-6.372513 -1.879074 21.359185 199 199 199 0
-6.190703 -1.849171 21.019278 197 197 197 0
-6.054468 -1.832273 20.827202 196 196 196 0
-5.996914 -1.839054 20.904277 197 197 197 0
-5.959349 -1.852230 21.054051 196 196 196 0
-5.923254 -1.866231 21.213195 199 199 199 0
-5.828478 -1.861875 21.163681 199 199 199 0
-5.699135 -1.846199 20.985491 200 200 200 0
-5.558477 -1.826357 20.759951 200 200 200 0
-5.559158 -1.853053 21.063402 200 200 200 0
-5.458096 -1.846121 20.984606 201 201 201 0
-5.370053 -1.843451 20.954258 202 202 202 0
-5.304454 -1.848522 21.011901 203 203 203 0
-5.178237 -1.832299 20.827501 204 204 204 0
-5.100059 -1.832834 20.833575 204 204 204 0
-4.989149 -1.821435 20.704012 204 204 204 0
-4.950088 -1.836323 20.873236 205 205 205 0
-4.862211 -1.833293 20.838791 205 205 205 0
-4.802527 -1.840969 20.926044 205 205 205 0
-4.685637 -1.826604 20.762764 205 205 205 0
-4.585296 -1.818307 20.668454 205 205 205 0
-4.517514 -1.822857 20.720165 206 206 206 0
-4.438705 -1.823040 20.722247 207 207 207 0
-4.372831 -1.828639 20.785889 207 207 207 0
-4.292922 -1.828467 20.783938 208 208 208 0
-4.190017 -1.818309 20.668479 208 208 208 0
-4.105009 -1.815677 20.638557 208 208 208 0
-4.039653 -1.821804 20.708205 208 208 208 0
-3.951328 -1.817611 20.660541 209 209 209 0
-3.892419 -1.827054 20.767877 209 209 209 0
-3.779508 -1.811014 20.585556 209 209 209 0
-3.718017 -1.819455 20.681503 209 209 209 0
-3.648669 -1.824334 20.736962 209 209 209 0
-3.560693 -1.819910 20.686670 210 210 210 0
-3.491021 -1.824852 20.742847 210 210 210 0
-3.420854 -1.829759 20.798627 210 210 210 0
-3.347975 -1.833415 20.840180 210 210 210 0
-3.248773 -1.822482 20.715913 211 211 211 0
-3.181060 -1.829110 20.791243 211 211 211 0
-3.094867 -1.825178 20.746554 211 211 211 0
-3.012065 -1.823092 20.722842 211 211 211 0
-2.949035 -1.833184 20.837553 211 211 211 0
-2.862470 -1.828800 20.787726 210 210 210 0
-2.780698 -1.827316 20.770854 210 210 210 0
-2.702697 -1.828295 20.781981 211 211 211 0
-2.635189 -1.836647 20.876920 211 211 211 0
-2.558972 -1.839261 20.906638 210 210 210 0
-2.464515 -1.828511 20.784444 210 210 210 0
-2.399710 -1.839778 20.912505 211 211 211 0
-2.321008 -1.840800 20.924124 211 211 211 0
-2.244056 -1.843332 20.952907 211 211 211 0
-2.168107 -1.846906 20.993536 211 211 211 0
-2.094136 -1.852505 21.057175 210 210 210 0
-2.015639 -1.854388 21.078577 210 210 210 0
-1.938479 -1.857709 21.116329 210 210 210 0
-1.858284 -1.858284 21.122868 211 211 211 0
-1.784390 -1.865498 21.204871 210 210 210 0
-1.707961 -1.870624 21.263134 211 211 211 0
-1.625393 -1.869202 21.246969 211 211 211 0
-1.550019 -1.876339 21.328091 211 211 211 0
-1.469757 -1.878023 21.347232 211 211 211 0
-1.391641 -1.882809 21.401633 210 210 210 0
-1.312492 -1.886708 21.445954 209 209 209 0
-1.235401 -1.894281 21.532039 209 209 209 0
-1.154029 -1.895905 21.550494 209 209 209 0
-1.075275 -1.902410 21.624439 210 210 210 0
-0.995268 -1.907598 21.683406 210 210 210 0
-0.915636 -1.914511 21.761995 208 208 208 0
-0.834661 -1.919720 21.821197 208 208 208 0
-0.753836 -1.926470 21.897925 208 208 208 0
-0.672622 -1.933787 21.981100 208 208 208 0
-0.591137 -1.942308 22.077956 208 208 208 0
-0.507892 -1.946920 22.130375 207 207 207 0
-0.423995 -1.950375 22.169647 206 206 206 0
-0.341209 -1.961953 22.301253 207 207 207 0
-0.257328 -1.972845 22.425059 206 206 206 0
-0.172314 -1.981616 22.524765 206 206 206 0
-0.086484 -1.989129 22.610160 205 205 205 0
0.000000 -1.998404 22.715586 205 205 205 0
0.087390 -2.009978 22.847147 204 204 204 0
0.175751 -2.021140 22.974023 204 204 204 0
0.264991 -2.031597 23.092895 201 201 201 0
0.355996 -2.046977 23.267709 201 201 201 0
0.449360 -2.067058 23.495965 201 201 201 0
0.541167 -2.074472 23.580245 199 199 199 0
0.636899 -2.092668 23.787072 197 197 197 0
0.736051 -2.116146 24.053952 196 196 196 0
0.835077 -2.134086 24.257869 193 193 193 0
0.939627 -2.161143 24.565421 192 192 192 0
1.052035 -2.199709 25.003802 188 188 188 0
1.166243 -2.235300 25.408351 174 174 174 0
1.277113 -2.259508 25.683519 97 97 97 0
-6.670049 -1.834263 21.797545 205 205 205 0
-6.532262 -1.819111 21.617482 205 205 205 0
-6.429407 -1.813423 21.549881 204 204 204 0
-6.271715 -1.791919 21.294339 199 199 199 0
-6.105481 -1.767376 21.002688 196 196 196 0
-6.063412 -1.778601 21.136078 196 196 196 0
-5.973734 -1.775975 21.104871 197 197 197 0
-5.901189 -1.778440 21.134170 198 198 198 0
-5.830369 -1.781502 21.170547 200 200 200 0
-5.696784 -1.765201 20.976834 200 200 200 0
-5.562223 -1.748127 20.773940 201 201 201 0
-5.532805 -1.764083 20.963552 201 201 201 0
-5.457214 -1.765569 20.981214 202 202 202 0
-5.390581 -1.770041 21.034361 201 201 201 0
-5.281616 -1.760539 20.921436 203 203 203 0
-5.162283 -1.747234 20.763332 204 204 204 0
-5.096934 -1.752071 20.820810 203 203 203 0
-5.026453 -1.755269 20.858816 205 205 205 0
-4.948465 -1.755907 20.866391 205 205 205 0
-4.861602 -1.753365 20.836181 205 205 205 0
-4.791417 -1.756853 20.877635 205 205 205 0
-4.685537 -1.747149 20.762321 205 205 205 0
-4.589720 -1.740928 20.688392 205 205 205 0
-4.515007 -1.742634 20.708667 206 206 206 0
-4.453121 -1.749440 20.789546 207 207 207 0
-4.377056 -1.750822 20.805971 207 207 207 0
-4.306344 -1.754437 20.848920 207 207 207 0
-4.195976 -1.741726 20.697873 208 208 208 0
-4.123604 -1.744602 20.732045 209 209 209 0
-4.043489 -1.744250 20.727871 208 208 208 0
-3.952190 -1.738964 20.665046 208 208 208 0
-3.892368 -1.747594 20.767603 209 209 209 0
-3.791459 -1.737752 20.650650 209 209 209 0
-3.726553 -1.744344 20.728982 210 210 210 0
-3.628045 -1.735152 20.619752 210 210 210 0
-3.567933 -1.744323 20.728731 210 210 210 0
-3.496980 -1.748490 20.778253 211 211 211 0
-3.419502 -1.749513 20.790404 210 210 210 0
-3.349182 -1.754333 20.847691 211 211 211 0
-3.254210 -1.746162 20.750583 209 209 209 0
-3.176151 -1.746883 20.759158 210 210 210 0
-3.100576 -1.749043 20.784821 210 210 210 0
-3.025065 -1.751353 20.812278 211 211 211 0
-2.949733 -1.753895 20.842489 210 210 210 0
-2.864016 -1.750232 20.798954 210 210 210 0
-2.782961 -1.749290 20.787760 211 211 211 0
-2.704568 -1.750015 20.796372 211 211 211 0
-2.631220 -1.754147 20.845477 211 211 211 0
-2.558412 -1.758908 20.902060 211 211 211 0
-2.483111 -1.762208 20.941269 211 211 211 0
-2.410292 -1.767547 21.004719 211 211 211 0
-2.321124 -1.760852 20.925163 210 210 210 0
-2.247912 -1.766216 20.988903 210 210 210 0
-2.166972 -1.765681 20.982538 211 211 211 0
-2.094964 -1.772662 21.065503 211 211 211 0
-2.020488 -1.778029 21.129285 210 210 210 0
-1.942769 -1.780872 21.163066 211 211 211 0
-1.863257 -1.782246 21.179391 211 211 211 0
-1.786346 -1.786346 21.228113 211 211 211 0
-1.708209 -1.789553 21.266222 210 210 210 0
-1.631303 -1.794433 21.324221 210 210 210 0
-1.549888 -1.794607 21.326288 210 210 210 0
-1.473314 -1.800717 21.398891 210 210 210 0
-1.393865 -1.803826 21.435838 209 209 209 0
-1.316121 -1.809667 21.505249 210 210 210 0
-1.236153 -1.813025 21.545154 209 209 209 0
-1.157644 -1.819155 21.618002 210 210 210 0
-1.076378 -1.821562 21.646611 210 210 210 0
-0.998180 -1.829996 21.746836 209 209 209 0
-0.916052 -1.832105 21.771895 209 209 209 0
-0.836267 -1.839788 21.863199 208 208 208 0
-0.755702 -1.847273 21.952140 208 208 208 0
-0.674063 -1.853674 22.028211 209 209 209 0
-0.591300 -1.858371 22.084034 208 208 208 0
-0.509324 -1.867523 22.192787 207 207 207 0
-0.425890 -1.873915 22.268741 206 206 206 0
-0.342063 -1.881346 22.357058 207 207 207 0
-0.257553 -1.888719 22.444667 206 206 206 0
-0.172600 -1.898597 22.562060 206 206 206 0
-0.086585 -1.904865 22.636541 204 204 204 0
0.000000 -1.916158 22.770748 204 204 204 0
0.087530 -1.925659 22.883649 205 205 205 0
0.175817 -1.933986 22.982598 203 203 203 0
0.266005 -1.950702 23.181250 201 201 201 0
0.357233 -1.964782 23.348563 202 202 202 0
0.448312 -1.972573 23.441150 201 201 201 0
0.542377 -1.988717 23.632996 199 199 199 0
0.638993 -2.008263 23.865274 197 197 197 0
0.738228 -2.030126 24.125083 195 195 195 0
0.839263 -2.051532 24.379465 195 195 195 0
0.943842 -2.076452 24.675605 191 191 191 0
1.055156 -2.110311 25.077973 187 187 187 0
1.172470 -2.149529 25.544017 161 161 161 0
1.628668 -2.756208 32.753512 79 79 79 0
-6.636441 -1.742066 21.687716 205 205 205 0
-6.554046 -1.742215 21.689570 205 205 205 0
-6.454778 -1.737825 21.634918 206 206 206 0
-6.362501 -1.735227 21.602583 206 206 206 0
-6.217167 -1.717901 21.386884 200 200 200 0
-6.079657 -1.702304 21.192704 198 198 198 0
-5.982397 -1.697707 21.135477 198 198 198 0
-5.929111 -1.705635 21.234169 199 199 199 0
-5.769819 -1.682864 20.950688 199 199 199 0
-5.686076 -1.681797 20.937405 201 201 201 0
-5.605209 -1.681563 20.934489 201 201 201 0
-5.506702 -1.675953 20.864646 202 202 202 0
-5.470638 -1.689462 21.032825 202 202 202 0
-5.401497 -1.693007 21.076958 202 202 202 0
-5.357267 -1.704585 21.221100 203 203 203 0
-5.173942 -1.671581 20.810224 203 203 203 0
-5.077845 -1.666168 20.742832 204 204 204 0
-5.031413 -1.677138 20.879398 205 205 205 0
-4.953205 -1.677698 20.886380 205 205 205 0
-4.899276 -1.686636 20.997648 205 205 205 0
-4.780691 -1.673242 20.830897 206 206 206 0
-4.729692 -1.683450 20.957979 205 205 205 0
-4.621237 -1.673206 20.830455 206 206 206 0
-4.536408 -1.671308 20.806824 207 207 207 0
-4.466629 -1.674986 20.852609 206 206 206 0
-4.383835 -1.673828 20.838193 207 207 207 0
-4.294173 -1.669956 20.789992 207 207 207 0
-4.224545 -1.673876 20.838797 208 208 208 0
-4.102543 -1.656796 20.626159 209 209 209 0
-4.032670 -1.660511 20.672408 209 209 209 0
-3.970032 -1.667413 20.758337 208 208 208 0
-3.918582 -1.679392 20.907468 208 208 208 0
-3.832418 -1.676683 20.873734 209 209 209 0
-3.749723 -1.675408 20.857868 210 210 210 0
-3.649832 -1.666228 20.743573 210 210 210 0
-3.574408 -1.668057 20.766350 210 210 210 0
-3.505018 -1.672850 20.826016 209 209 209 0
-3.425262 -1.672802 20.825424 210 210 210 0
-3.352042 -1.676021 20.865499 211 211 211 0
-3.257126 -1.668284 20.769177 210 210 210 0
-3.186922 -1.673134 20.829557 210 210 210 0
-3.102696 -1.670683 20.799036 210 210 210 0
-3.029951 -1.674447 20.845897 210 210 210 0
-2.956967 -1.678279 20.893602 210 210 210 0
-2.872178 -1.675437 20.858231 211 211 211 0
-2.785999 -1.671600 20.810453 210 210 210 0
-2.711838 -1.674958 20.852268 211 211 211 0
-2.641217 -1.680775 20.924677 211 211 211 0
-2.559842 -1.679896 20.913743 211 211 211 0
-2.485095 -1.683451 20.957998 210 210 210 0
-2.408529 -1.685970 20.989361 211 211 211 0
-2.331820 -1.688559 21.021591 211 211 211 0
-2.248681 -1.686511 20.996090 211 211 211 0
-2.176365 -1.692728 21.073491 209 209 209 0
-2.100370 -1.696452 21.119856 210 210 210 0
-2.020858 -1.697521 21.133153 211 211 211 0
-1.945429 -1.702250 21.192034 211 211 211 0
-1.866366 -1.704073 21.214729 211 211 211 0
-1.791609 -1.710172 21.290659 210 210 210 0
-1.711519 -1.711519 21.307425 210 210 210 0
-1.632638 -1.714269 21.341667 210 210 210 0
-1.552935 -1.716402 21.368219 210 210 210 0
-1.477914 -1.724232 21.465702 210 210 210 0
-1.398108 -1.727075 21.501088 209 209 209 0
-1.318864 -1.731009 21.550061 210 210 210 0
-1.238559 -1.733982 21.587078 209 209 209 0
-1.158116 -1.737174 21.626819 210 210 210 0
-1.079300 -1.743484 21.705370 209 209 209 0
-1.000181 -1.750318 21.790446 208 208 208 0
-0.918760 -1.753996 21.836245 208 208 208 0
-0.838021 -1.759844 21.909046 208 208 208 0
-0.756132 -1.764308 21.964622 209 209 209 0
-0.674650 -1.770958 22.047401 208 208 208 0
-0.592918 -1.778755 22.144482 207 207 207 0
-0.509733 -1.784065 22.210581 207 207 207 0
-0.426028 -1.789317 22.275965 206 206 206 0
-0.342801 -1.799708 22.405322 207 207 207 0
-0.258303 -1.808122 22.510072 206 206 206 0
-0.172876 -1.815193 22.598105 205 205 205 0
-0.086837 -1.823583 22.702553 204 204 204 0
0.000000 -1.834097 22.833447 204 204 204 0
0.087795 -1.843689 22.952862 204 204 204 0
0.176225 -1.850362 23.035935 202 202 202 0
0.266873 -1.868110 23.256897 201 201 201 0
0.358399 -1.881596 23.424784 200 200 200 0
0.450888 -1.893729 23.575831 200 200 200 0
0.545131 -1.907960 23.753004 198 198 198 0
0.641154 -1.923461 23.945983 198 198 198 0
0.741576 -1.946637 24.234513 195 195 195 0
0.842839 -1.966624 24.483339 194 194 194 0
0.950173 -1.995364 24.841137 189 189 189 0
1.064671 -2.032554 25.304133 185 185 185 0
1.178446 -2.062281 25.674213 138 138 138 0
-6.627592 -1.656898 21.658796 204 204 204 0
-6.581154 -1.666115 21.779281 205 205 205 0
-6.474785 -1.660201 21.701979 205 205 205 0
-6.377644 -1.656531 21.653998 206 206 206 0
-6.259439 -1.647221 21.532298 206 206 206 0
-6.145274 -1.638740 21.421433 205 205 205 0
-6.037465 -1.631747 21.330031 201 201 201 0
-5.934647 -1.625931 21.253996 199 199 199 0
-5.810699 -1.614083 21.099125 199 199 199 0
-5.688066 -1.602272 20.944733 201 201 201 0
-5.627735 -1.607924 21.018620 202 202 202 0
-5.550964 -1.608975 21.032353 201 201 201 0
-5.505191 -1.619174 21.165669 201 201 201 0
-5.406015 -1.613736 21.094585 203 203 203 0
-5.289250 -1.602803 20.951674 203 203 203 0
-5.175266 -1.592390 20.815549 202 202 202 0
-5.085627 -1.589258 20.774620 204 204 204 0
-5.030123 -1.596864 20.874044 204 204 204 0
-4.971468 -1.603699 20.963390 205 205 205 0
-4.881968 -1.600645 20.923468 205 205 205 0
-4.794067 -1.598022 20.889183 207 207 207 0
-4.710970 -1.596939 20.875018 206 206 206 0
-4.611536 -1.590185 20.786728 207 207 207 0
-4.510230 -1.582537 20.686757 207 207 207 0
-4.474183 -1.597922 20.887875 207 207 207 0
-4.393896 -1.597780 20.886017 207 207 207 0
-4.278014 -1.584450 20.711761 208 208 208 0
-4.211420 -1.589215 20.774055 208 208 208 0
-4.111124 -1.581202 20.669301 208 208 208 0
-4.048717 -1.587732 20.754668 208 208 208 0
-3.987792 -1.595117 20.851197 209 209 209 0
-3.915388 -1.598117 20.890423 209 209 209 0
-3.836930 -1.598721 20.898311 210 210 210 0
-3.747099 -1.594510 20.843272 208 208 208 0
-3.653445 -1.588454 20.764109 209 209 209 0
-3.582613 -1.592273 20.814022 209 209 209 0
-3.515135 -1.597788 20.886123 211 211 211 0
-3.436974 -1.598592 20.896633 210 210 210 0
-3.353776 -1.597036 20.876292 210 210 210 0
-3.268992 -1.594630 20.844843 210 210 210 0
-3.187372 -1.593686 20.832496 210 210 210 0
-3.105313 -1.592468 20.816581 211 211 211 0
-3.035549 -1.597658 20.884412 210 210 210 0
-2.947221 -1.593093 20.824739 210 210 210 0
-2.856859 -1.587144 20.746977 211 211 211 0
-2.804303 -1.602459 20.947177 211 211 211 0
-2.724276 -1.602515 20.947914 211 211 211 0
-2.646090 -1.603691 20.963280 211 211 211 0
-2.573204 -1.608252 21.022906 210 210 210 0
-2.487704 -1.604970 20.980004 211 211 211 0
-2.411719 -1.607813 21.017162 210 210 210 0
-2.329790 -1.606752 21.003295 210 210 210 0
-2.259595 -1.613997 21.097994 210 210 210 0
-2.184957 -1.618487 21.156691 210 210 210 0
-2.105392 -1.619533 21.170360 210 210 210 0
-2.026378 -1.621103 21.190884 210 210 210 0
-1.943646 -1.619705 21.172613 210 210 210 0
-1.872255 -1.628048 21.281675 210 210 210 0
-1.793291 -1.630265 21.310653 210 210 210 0
-1.716573 -1.634832 21.370349 210 210 210 0
-1.635937 -1.635937 21.384799 209 209 209 0
-1.556400 -1.638316 21.415889 209 209 209 0
-1.477452 -1.641613 21.458997 209 209 209 0
-1.399847 -1.646878 21.527821 209 209 209 0
-1.320120 -1.650150 21.570586 210 210 210 0
-1.241070 -1.654759 21.630843 210 210 210 0
-1.162182 -1.660260 21.702741 209 209 209 0
-1.081167 -1.663333 21.742919 208 208 208 0
-1.003205 -1.672008 21.856308 207 207 207 0
-0.922514 -1.677298 21.925467 208 208 208 0
-0.838460 -1.676920 21.920519 208 208 208 0
-0.758214 -1.684919 22.025087 208 208 208 0
-0.676606 -1.691514 22.111300 207 207 207 0
-0.593780 -1.696515 22.176671 207 207 207 0
-0.510763 -1.702545 22.255487 206 206 206 0
-0.427455 -1.709821 22.350600 206 206 206 0
-0.343801 -1.719006 22.470669 207 207 207 0
-0.258909 -1.726059 22.562868 206 206 206 0
-0.173298 -1.732985 22.653396 204 204 204 0
-0.087057 -1.741136 22.759949 204 204 204 0
0.000000 -1.750657 22.884404 204 204 204 0
0.088152 -1.763049 23.046393 203 203 203 0
0.177264 -1.772635 23.171705 202 202 202 0
0.267037 -1.780249 23.271226 201 201 201 0
0.359300 -1.796501 23.483671 202 202 202 0
0.453382 -1.813527 23.706233 198 198 198 0
0.546720 -1.822399 23.822214 198 198 198 0
0.644037 -1.840105 24.053654 198 198 198 0
0.744991 -1.862478 24.346123 194 194 194 0
0.846337 -1.880748 24.584942 192 192 192 0
0.955920 -1.911841 24.991383 188 188 188 0
1.072911 -1.950748 25.499970 177 177 177 0
1.181139 -1.968566 25.732885 110 110 110 0
-6.608075 -1.569418 21.595015 204 204 204 0
-6.592964 -1.585650 21.818363 206 206 206 0
-6.471462 -1.576382 21.690840 205 205 205 0
-6.384309 -1.575349 21.676629 206 206 206 0
-6.289297 -1.572324 21.635008 205 205 205 0
-6.177918 -1.565073 21.535226 206 206 206 0
-6.057270 -1.555245 21.400000 205 205 205 0
-5.959600 -1.551129 21.343362 201 201 201 0
-5.838398 -1.540688 21.199703 199 199 199 0
-5.707156 -1.527267 21.015028 201 201 201 0
-5.639224 -1.530646 21.061526 200 200 200 0
-5.557373 -1.530291 21.056639 202 202 202 0
-5.469770 -1.528318 21.029488 202 202 202 0
-5.428005 -1.539285 21.180392 203 203 203 0
-5.332940 -1.535240 21.124739 203 203 203 0
-5.167961 -1.510635 20.786169 203 203 203 0
-5.109620 -1.516918 20.872631 204 204 204 0
-5.034616 -1.518376 20.892688 204 204 204 0
-4.982181 -1.526797 21.008563 204 204 204 0
-4.894003 -1.524362 20.975047 204 204 204 0
-4.804579 -1.521450 20.934983 206 206 206 0
-4.698435 -1.513055 20.819475 206 206 206 0
-4.641293 -1.520423 20.920860 207 207 207 0
-4.535948 -1.511983 20.804714 207 207 207 0
-4.468179 -1.515989 20.859845 206 206 206 0
-4.399228 -1.519733 20.911361 207 207 207 0
-4.312501 -1.517362 20.878727 208 208 208 0
-4.214505 -1.510860 20.789273 207 207 207 0
-4.172904 -1.524715 20.979912 208 208 208 0
-4.064828 -1.514348 20.837257 209 209 209 0
-3.998000 -1.519240 20.904575 208 208 208 0
-3.908505 -1.515543 20.853700 208 208 208 0
-3.834083 -1.517658 20.882807 208 208 208 0
-3.751940 -1.516742 20.870201 209 209 209 0
-3.656083 -1.510121 20.779101 209 209 209 0
-3.586731 -1.514397 20.837941 210 210 210 0
-3.518785 -1.519475 20.907811 210 210 210 0
-3.433399 -1.517083 20.874898 209 209 209 0
-3.364613 -1.522087 20.943750 211 211 211 0
-3.277801 -1.518981 20.901011 211 211 211 0
-3.186265 -1.513476 20.825262 210 210 210 0
-3.122506 -1.521221 20.931828 210 210 210 0
-3.041117 -1.520558 20.922714 210 210 210 0
-2.948540 -1.514115 20.834056 211 211 211 0
-2.887454 -1.523934 20.969162 211 211 211 0
-2.794777 -1.517164 20.876015 210 210 210 0
-2.727731 -1.524320 20.974478 211 211 211 0
-2.646277 -1.523614 20.964760 210 210 210 0
-2.576883 -1.530024 21.052966 210 210 210 0
-2.490153 -1.526223 21.000658 210 210 210 0
-2.408956 -1.525672 20.993084 211 211 211 0
-2.335574 -1.530203 21.055432 211 211 211 0
-2.261482 -1.534577 21.115609 210 210 210 0
-2.185567 -1.537991 21.162592 210 210 210 0
-2.111217 -1.542813 21.228930 210 210 210 0
-2.030937 -1.543512 21.238558 210 210 210 0
-1.952372 -1.545627 21.267664 210 210 210 0
-1.874790 -1.548740 21.310489 209 209 209 0
-1.798272 -1.553053 21.369845 209 209 209 0
-1.719359 -1.555611 21.405031 209 209 209 0
-1.640337 -1.558320 21.442318 209 209 209 0
-1.560202 -1.560202 21.468208 209 209 209 0
-1.480667 -1.562926 21.505694 209 209 209 0
-1.404409 -1.569634 21.597988 209 209 209 0
-1.323960 -1.572203 21.633336 209 209 209 0
-1.242398 -1.573704 21.653998 209 209 209 0
-1.163582 -1.579147 21.728885 208 208 208 0
-1.086408 -1.587828 21.848335 208 208 208 0
-1.003442 -1.588783 21.861477 208 208 208 0
-0.923786 -1.595630 21.955699 207 207 207 0
-0.842142 -1.600071 22.016795 207 207 207 0
-0.759550 -1.603494 22.063902 207 207 207 0
-0.677428 -1.608892 22.138180 206 206 206 0
-0.595532 -1.616443 22.242075 206 206 206 0
-0.512873 -1.624097 22.347397 206 206 206 0
-0.428565 -1.628547 22.408625 206 206 206 0
-0.344507 -1.636406 22.516766 205 205 205 0
-0.259580 -1.644005 22.621327 204 204 204 0
-0.173938 -1.652409 22.736964 204 204 204 0
-0.087255 -1.657852 22.811856 204 204 204 0
0.000000 -1.667226 22.940842 204 204 204 0
0.088307 -1.677825 23.086685 202 202 202 0
0.177593 -1.687129 23.214707 201 201 201 0
0.267981 -1.697212 23.353453 201 201 201 0
0.360650 -1.713088 23.571901 199 199 199 0
0.453063 -1.721639 23.689564 197 197 197 0
0.548939 -1.738308 23.918931 197 197 197 0
0.648216 -1.759444 24.209762 195 195 195 0
0.747029 -1.774193 24.412696 194 194 194 0
0.850574 -1.795657 24.708041 191 191 191 0
0.962419 -1.828596 25.161276 188 188 188 0
1.071919 -1.851497 25.476397 164 164 164 0
-6.588294 -1.482366 21.530372 204 204 204 0
-6.517863 -1.485083 21.569829 204 204 204 0
-6.441742 -1.486556 21.591224 205 205 205 0
-6.389821 -1.493724 21.695344 206 206 206 0
-6.256126 -1.481714 21.520903 206 206 206 0
-6.197291 -1.487350 21.602756 206 206 206 0
-6.092819 -1.482037 21.525591 205 205 205 0
-6.008901 -1.481647 21.519923 207 207 207 0
-5.887663 -1.471916 21.378588 207 207 207 0
-5.733089 -1.453459 21.110518 201 201 201 0
-5.678056 -1.460072 21.206560 201 201 201 0
-5.587415 -1.457587 21.170465 201 201 201 0
-5.504235 -1.457003 21.161995 203 203 203 0
-5.405145 -1.452129 21.091191 203 203 203 0
-5.273273 -1.438165 20.888384 203 203 203 0
-5.179786 -1.434402 20.833728 203 203 203 0
-5.120449 -1.440126 20.916866 203 203 203 0
-5.038513 -1.439575 20.908864 203 203 203 0
-4.977102 -1.444965 20.987148 205 205 205 0
-4.897321 -1.445111 20.989268 205 205 205 0
-4.777912 -1.433374 20.818791 205 205 205 0
-4.700361 -1.434008 20.828009 207 207 207 0
-4.659241 -1.445971 21.001764 207 207 207 0
-4.553773 -1.438033 20.886471 207 207 207 0
-4.491010 -1.443539 20.966431 207 207 207 0
-4.392671 -1.437601 20.880195 207 207 207 0
-4.324810 -1.441603 20.938319 208 208 208 0
-4.242617 -1.440889 20.927942 208 208 208 0
-4.141017 -1.433429 20.819595 209 209 209 0
-4.076334 -1.438706 20.896239 208 208 208 0
-4.005400 -1.441944 20.943266 208 208 208 0
-3.914581 -1.438009 20.886120 209 209 209 0
-3.861288 -1.447983 21.030983 209 209 209 0
-3.750849 -1.436495 20.864130 209 209 209 0
-3.666778 -1.434826 20.839886 209 209 209 0
-3.600547 -1.440219 20.918209 210 210 210 0
-3.531061 -1.444525 20.980753 211 211 211 0
-3.442155 -1.440902 20.928135 210 210 210 0
-3.347111 -1.434476 20.834803 210 210 210 0
-3.270875 -1.435994 20.856844 210 210 210 0
-3.199656 -1.439845 20.912786 210 210 210 0
-3.120043 -1.440020 20.915319 210 210 210 0
-3.050947 -1.445186 20.990349 210 210 210 0
-2.970331 -1.445026 20.988027 211 211 211 0
-2.878841 -1.439421 20.906617 211 211 211 0
-2.795013 -1.437435 20.877780 210 210 210 0
-2.727787 -1.444122 20.974906 210 210 210 0
-2.650811 -1.445897 21.000681 210 210 210 0
-2.569977 -1.445612 20.996542 209 209 209 0
-2.505917 -1.455048 21.133600 210 210 210 0
-2.417256 -1.450353 21.065408 210 210 210 0
-2.339633 -1.452186 21.092023 211 211 211 0
-2.265319 -1.456277 21.151442 210 210 210 0
-2.192529 -1.461686 21.230009 210 210 210 0
-2.117201 -1.465754 21.289098 210 210 210 0
-2.039023 -1.468096 21.323113 210 210 210 0
-1.954810 -1.466108 21.294227 210 210 210 0
-1.877847 -1.469619 21.345236 209 209 209 0
-1.800328 -1.472996 21.394276 209 209 209 0
-1.727269 -1.480516 21.503507 209 209 209 0
-1.641607 -1.477446 21.458911 209 209 209 0
-1.563851 -1.481543 21.518421 209 209 209 0
-1.484956 -1.484956 21.567986 209 209 209 0
-1.405151 -1.487807 21.609401 209 209 209 0
-1.326387 -1.492186 21.672994 208 208 208 0
-1.247447 -1.496936 21.741995 207 207 207 0
-1.165988 -1.499128 21.773827 208 208 208 0
-1.087179 -1.505324 21.863826 208 208 208 0
-1.004751 -1.507127 21.890008 208 208 208 0
-0.924369 -1.512604 21.969557 208 208 208 0
-0.842062 -1.515711 22.014682 208 208 208 0
-0.761723 -1.523446 22.127029 206 206 206 0
-0.680748 -1.531683 22.246663 206 206 206 0
-0.597424 -1.536233 22.312748 206 206 206 0
-0.514114 -1.542342 22.401478 206 206 206 0
-0.429331 -1.545593 22.448703 207 207 207 0
-0.345784 -1.556029 22.600269 204 204 204 0
-0.260425 -1.562553 22.695027 203 203 203 0
-0.174470 -1.570233 22.806574 204 204 204 0
-0.087625 -1.577249 22.908482 204 204 204 0
0.000000 -1.584688 23.016530 202 202 202 0
0.088592 -1.594648 23.161185 201 201 201 0
0.178027 -1.602244 23.271516 202 202 202 0
0.269034 -1.614204 23.445227 200 200 200 0
0.361782 -1.628020 23.645903 199 199 199 0
0.456107 -1.641986 23.848741 198 198 198 0
0.550593 -1.651780 23.990993 197 197 197 0
0.651493 -1.675269 24.332156 195 195 195 0
0.751401 -1.690653 24.555595 194 194 194 0
0.857199 -1.714399 24.900489 191 191 191 0
0.972183 -1.749930 25.416551 185 185 185 0
1.080365 -1.767870 25.677121 136 136 136 0
-6.569221 -1.395959 21.468042 205 205 205 0
-6.513035 -1.401539 21.553850 205 205 205 0
-6.476473 -1.411539 21.707635 206 206 206 0
-6.368912 -1.406123 21.624351 205 205 205 0
-6.268589 -1.402184 21.563775 206 206 206 0
-6.137889 -1.391255 21.395693 206 206 206 0
-6.087090 -1.398386 21.505353 206 206 206 0
-6.008394 -1.399215 21.518108 206 206 206 0
-5.938842 -1.402227 21.564423 208 208 208 0
-5.823172 -1.394281 21.442224 207 207 207 0
