ply
format ascii 1.0
element vertex 1106
property float x
property float y
property float z
property uchar red
property uchar green
property uchar blue
property uchar alpha
end_header
3.921189 -3.783604 17.985045 214 214 214 0
3.991940 -3.785460 17.993868 214 214 214 0
4.059603 -3.784376 17.988713 215 215 215 0
4.134454 -3.789916 18.015049 215 215 215 0
4.206765 -3.792985 18.029635 214 214 214 0
4.279529 -3.796356 18.045661 215 215 215 0
4.354075 -3.801177 18.068577 215 215 215 0
4.424947 -3.802688 18.075762 215 215 215 0
4.496369 -3.804620 18.084941 215 215 215 0
4.572475 -3.810396 18.112400 215 215 215 0
4.648906 -3.816266 18.140304 216 216 216 0
4.724006 -3.820887 18.162267 215 215 215 0
4.800171 -3.826223 18.187631 214 214 214 0
4.876330 -3.831402 18.212249 214 214 214 0
4.954835 -3.838253 18.244815 215 215 215 0
5.035895 -3.846865 18.285750 215 215 215 0
5.112087 -3.851573 18.308130 215 215 215 0
5.190011 -3.857440 18.336020 215 215 215 0
5.271254 -3.865586 18.374742 216 216 216 0
5.353817 -3.874473 18.416984 215 215 215 0
5.436124 -3.882946 18.457258 215 215 215 0
5.519482 -3.891943 18.500024 214 214 214 0
5.601586 -3.899838 18.537556 213 213 213 0
-1.888265 -4.634832 22.439275 71 71 71 0
-1.771027 -4.554069 22.048264 109 109 109 0
-1.660187 -4.482505 21.701789 118 118 118 0
-1.554787 -4.418868 21.393694 139 139 139 0
-1.459170 -4.377511 21.193468 146 146 146 0
-1.363686 -4.331708 20.971715 147 147 147 0
-1.274048 -4.299912 20.817776 159 159 159 0
-1.187742 -4.275873 20.701393 163 163 163 0
-1.101622 -4.249114 20.571844 165 165 165 0
-1.016484 -4.222319 20.442117 166 166 166 0
-0.931204 -4.190418 20.287668 173 173 173 0
-0.847958 -4.162703 20.153489 178 178 178 0
-0.766485 -4.139020 20.038829 177 177 177 0
-0.685166 -4.110994 19.903143 179 179 179 0
-0.605421 -4.086593 19.785007 178 178 178 0
-0.527513 -4.069390 19.701717 183 183 183 0
-0.451362 -4.062261 19.667206 187 187 187 0
-0.374921 -4.049148 19.603718 187 187 187 0
-0.298650 -4.031774 19.519603 188 188 188 0
-0.222989 -4.013804 19.432602 187 187 187 0
-0.148041 -3.997116 19.351811 188 188 188 0
-0.073537 -3.970982 19.225283 191 191 191 0
0.000000 -3.957465 19.159838 194 194 194 0
0.073133 -3.949187 19.119762 195 195 195 0
0.145955 -3.940773 19.079025 195 195 195 0
0.218401 -3.931221 19.032780 195 195 195 0
0.290235 -3.918167 18.969580 196 196 196 0
0.361793 -3.907367 18.917294 196 196 196 0
0.432397 -3.891575 18.840838 197 197 197 0
0.502553 -3.876837 18.769484 201 201 201 0
0.572903 -3.867098 18.722335 201 201 201 0
0.642909 -3.857452 18.675635 201 201 201 0
0.714410 -3.857812 18.677376 201 201 201 0
0.784447 -3.850923 18.644024 201 201 201 0
0.853307 -3.839882 18.590567 202 202 202 0
0.922222 -3.830769 18.546449 202 202 202 0
0.989115 -3.815158 18.470869 202 202 202 0
1.056661 -3.803978 18.416743 203 203 203 0
1.126921 -3.803357 18.413735 206 206 206 0
1.196198 -3.799686 18.395964 206 206 206 0
1.264819 -3.794457 18.370646 206 206 206 0
1.334266 -3.792124 18.359353 206 206 206 0
1.400249 -3.780671 18.303903 206 206 206 0
1.466115 -3.770009 18.252284 207 207 207 0
1.534698 -3.766987 18.237650 207 207 207 0
1.601778 -3.760696 18.207192 208 208 208 0
1.670288 -3.758147 18.194855 207 207 207 0
1.737239 -3.752435 18.167200 208 208 208 0
1.805573 -3.750036 18.155584 209 209 209 0
1.872066 -3.744132 18.126999 209 209 209 0
1.938063 -3.737693 18.095828 210 210 210 0
2.004395 -3.732322 18.069822 211 211 211 0
2.072728 -3.730910 18.062986 211 211 211 0
2.141368 -3.730125 18.059187 211 211 211 0
2.209424 -3.728403 18.050850 211 211 211 0
2.276396 -3.725011 18.034427 212 212 212 0
2.341032 -3.718109 18.001012 211 211 211 0
2.406259 -3.712514 17.973922 211 211 211 0
2.474089 -3.711133 17.967238 212 212 212 0
2.542297 -3.710380 17.963590 212 212 212 0
2.611304 -3.710800 17.965625 212 212 212 0
2.678498 -3.708690 17.955410 212 212 212 0
2.744464 -3.705026 17.937671 212 212 212 0
2.811412 -3.702835 17.927064 213 213 213 0
2.875138 -3.696605 17.896903 213 213 213 0
2.945732 -3.699291 17.909905 213 213 213 0
3.015515 -3.700859 17.917496 213 213 213 0
3.083638 -3.700366 17.915110 214 214 214 0
3.149816 -3.697610 17.901769 214 214 214 0
3.217061 -3.696197 17.894928 214 214 214 0
3.285054 -3.695686 17.892453 214 214 214 0
3.354277 -3.696551 17.896638 214 214 214 0
3.424733 -3.698712 17.907103 214 214 214 0
3.495947 -3.701591 17.921040 215 215 215 0
3.563462 -3.700519 17.915850 214 214 214 0
3.630349 -3.698846 17.907750 215 215 215 0
3.701650 -3.701650 17.921328 214 214 214 0
3.771656 -3.703080 17.928251 215 215 215 0
3.845992 -3.708635 17.955144 214 214 214 0
3.915689 -3.709601 17.959819 214 214 214 0
3.982577 -3.707916 17.951663 215 215 215 0
4.052811 -3.709353 17.958619 214 214 214 0
4.125607 -3.713046 17.976499 215 215 215 0
4.200483 -3.718461 18.002714 214 214 214 0
4.273391 -3.721986 18.019780 215 215 215 0
4.346939 -3.725948 18.038964 215 215 215 0
4.413285 -3.723709 18.028125 215 215 215 0
4.489088 -3.729396 18.055658 215 215 215 0
4.563900 -3.734100 18.078433 216 216 216 0
4.642068 -3.741368 18.113621 215 215 215 0
4.716226 -3.745238 18.132356 216 216 216 0
4.789679 -3.748444 18.147878 215 215 215 0
4.866849 -3.754427 18.176841 215 215 215 0
4.947267 -3.762710 18.216947 215 215 215 0
5.024511 -3.768383 18.244413 215 215 215 0
5.104594 -3.776001 18.281293 215 215 215 0
5.179706 -3.779786 18.299616 215 215 215 0
5.261552 -3.788318 18.340924 215 215 215 0
5.344818 -3.797634 18.386026 215 215 215 0
5.426881 -3.805864 18.425874 215 215 215 0
5.506564 -3.812236 18.456724 214 214 214 0
5.591281 -3.821889 18.503455 213 213 213 0
-1.867460 -4.498881 22.192040 88 88 88 0
-1.752089 -4.421940 21.812505 115 115 115 0
-1.646671 -4.363679 21.525117 127 127 127 0
-1.547383 -4.316383 21.291813 144 144 144 0
-1.450411 -4.270654 21.066242 146 146 146 0
-1.357094 -4.230939 20.870337 151 151 151 0
-1.268850 -4.203066 20.732845 163 163 163 0
-1.181530 -4.174739 20.593114 164 164 164 0
-1.096855 -4.152381 20.482827 164 164 164 0
-1.013522 -4.132049 20.382535 169 169 169 0
-0.928828 -4.102323 20.235903 177 177 177 0
-0.846567 -4.078916 20.120439 177 177 177 0
-0.763988 -4.049134 19.973530 177 177 177 0
-0.682734 -4.020547 19.832518 178 178 178 0
-0.604150 -4.002495 19.743472 181 181 181 0
-0.526327 -3.985049 19.657412 187 187 187 0
-0.449929 -3.974369 19.604733 188 188 188 0
-0.374144 -3.965931 19.563107 188 188 188 0
-0.298073 -3.949473 19.481922 188 188 188 0
-0.222401 -3.929092 19.381389 188 188 188 0
-0.147561 -3.910369 19.289031 189 189 189 0
-0.073421 -3.891326 19.195097 194 194 194 0
0.000000 -3.876221 19.120585 195 195 195 0
0.072994 -3.868672 19.083350 195 195 195 0
0.145633 -3.859267 19.036954 195 195 195 0
0.217899 -3.849549 18.989018 196 196 196 0
0.289719 -3.838778 18.935890 196 196 196 0
0.361288 -3.829653 18.890874 196 196 196 0
0.431678 -3.813158 18.809509 199 199 199 0
0.502008 -3.800916 18.749124 201 201 201 0
0.571666 -3.787287 18.681892 201 201 201 0
0.642369 -3.782842 18.659968 202 202 202 0
0.712705 -3.777338 18.632819 201 201 201 0
0.782763 -3.771494 18.603993 202 202 202 0
0.852159 -3.763703 18.565560 202 202 202 0
0.919891 -3.750324 18.499563 201 201 201 0
0.988025 -3.740382 18.450519 202 202 202 0
1.055202 -3.728379 18.391312 205 205 205 0
1.124339 -3.724373 18.371552 205 205 205 0
1.194255 -3.723265 18.366089 206 206 206 0
1.262851 -3.718395 18.342062 206 206 206 0
1.331626 -3.714536 18.323031 207 207 207 0
1.397118 -3.702364 18.262986 207 207 207 0
1.464485 -3.696082 18.231999 206 206 206 0
1.531530 -3.689595 18.200000 208 208 208 0
1.598801 -3.684193 18.173351 207 207 207 0
1.666082 -3.679265 18.149045 208 208 208 0
1.734208 -3.676522 18.135513 209 209 209 0
1.802654 -3.674640 18.126232 210 210 210 0
1.869176 -3.669124 18.099018 210 210 210 0
1.934383 -3.661511 18.061468 210 210 210 0
2.000229 -3.655591 18.032265 211 211 211 0
2.068940 -3.655127 18.029974 210 210 210 0
2.138055 -3.655385 18.031249 211 211 211 0
2.205249 -3.652443 18.016737 211 211 211 0
2.272268 -3.649401 18.001729 211 211 211 0
2.338199 -3.644840 17.979234 211 211 211 0
2.402034 -3.637366 17.942364 212 212 212 0
2.469481 -3.635625 17.933776 212 212 212 0
2.538455 -3.636165 17.936440 211 211 211 0
2.606019 -3.634711 17.929269 212 212 212 0
2.674893 -3.635111 17.931243 212 212 212 0
2.739283 -3.629550 17.903812 213 213 213 0
2.806725 -3.628205 17.897176 213 213 213 0
2.872873 -3.625292 17.882808 214 214 214 0
2.941396 -3.625441 17.883544 214 214 214 0
3.010327 -3.626076 17.886673 214 214 214 0
3.078287 -3.625538 17.884022 214 214 214 0
3.146455 -3.625264 17.882667 214 214 214 0
3.212891 -3.623047 17.871732 214 214 214 0
3.282518 -3.624447 17.878639 215 215 215 0
3.350779 -3.624312 17.877972 215 215 215 0
3.418490 -3.623599 17.874456 215 215 215 0
3.489886 -3.626744 17.889970 216 216 216 0
3.557992 -3.626415 17.888347 216 216 216 0
3.625698 -3.625698 17.884810 215 215 215 0
3.693503 -3.625105 17.881886 215 215 215 0
3.765331 -3.628410 17.898187 215 215 215 0
3.836966 -3.631414 17.913005 215 215 215 0
3.906464 -3.632326 17.917504 215 215 215 0
3.974014 -3.631427 17.913069 216 216 216 0
4.045739 -3.634308 17.927282 215 215 215 0
4.119241 -3.638663 17.948762 216 216 216 0
4.191875 -3.642121 17.965822 215 215 215 0
4.267619 -3.648126 17.995442 215 215 215 0
4.340518 -3.651547 18.012317 215 215 215 0
4.410681 -3.652595 18.017488 215 215 215 0
4.482871 -3.655264 18.030652 215 215 215 0
4.559153 -3.661138 18.059629 216 216 216 0
4.634866 -3.666387 18.085518 216 216 216 0
4.708320 -3.669720 18.101961 216 216 216 0
4.783402 -3.674207 18.124096 216 216 216 0
4.856710 -3.677223 18.138974 215 215 215 0
4.936574 -3.685048 18.177571 215 215 215 0
5.016890 -3.692988 18.216739 215 215 215 0
5.093161 -3.697774 18.240346 216 216 216 0
5.171157 -3.703667 18.269413 215 215 215 0
5.253754 -3.712652 18.313738 215 215 215 0
5.335592 -3.720874 18.354291 215 215 215 0
5.417328 -3.728811 18.393442 215 215 215 0
5.496947 -3.735105 18.424491 214 214 214 0
5.578117 -3.742281 18.459890 215 215 215 0
-1.853945 -4.382051 22.031430 107 107 107 0
-1.744266 -4.319135 21.715110 118 118 118 0
-1.638665 -4.260529 21.420455 138 138 138 0
-1.540028 -4.214814 21.190620 145 145 145 0
-1.443556 -4.170273 20.966680 147 147 147 0
-1.351757 -4.134785 20.788263 158 158 158 0
-1.262691 -4.103746 20.632209 163 163 163 0
-1.177394 -4.081633 20.521033 164 164 164 0
-1.092140 -4.056521 20.394776 165 165 165 0
-1.010146 -4.040584 20.314649 173 173 173 0
-0.927737 -4.020192 20.212126 177 177 177 0
-0.844728 -3.993259 20.076716 177 177 177 0
-0.762729 -3.966193 19.940640 178 178 178 0
-0.682007 -3.940488 19.811401 178 178 178 0
-0.602018 -3.913115 19.673783 184 184 184 0
-0.524827 -3.898714 19.601379 188 188 188 0
-0.448456 -3.886622 19.540584 187 187 187 0
-0.372856 -3.877702 19.495734 188 188 188 0
-0.297364 -3.865736 19.435577 188 188 188 0
-0.222228 -3.851956 19.366295 188 188 188 0
-0.147279 -3.829244 19.252106 192 192 192 0
-0.073290 -3.811066 19.160714 195 195 195 0
0.000000 -3.795672 19.083319 195 195 195 0
0.072876 -3.789529 19.052434 196 196 196 0
0.145312 -3.778101 18.994975 195 195 195 0
0.217557 -3.770980 18.959173 196 196 196 0
0.289155 -3.759018 18.899037 196 196 196 0
0.360716 -3.751448 18.860976 198 198 198 0
0.430783 -3.733450 18.770488 201 201 201 0
0.501223 -3.723372 18.719819 200 200 200 0
0.570730 -3.709748 18.651322 201 201 201 0
0.640937 -3.703190 18.618352 201 201 201 0
0.711583 -3.700234 18.603488 202 202 202 0
0.781093 -3.692441 18.564311 201 201 201 0
0.850536 -3.685656 18.530198 202 202 202 0
0.919074 -3.676295 18.483134 202 202 202 0
0.986683 -3.664824 18.425460 205 205 205 0
1.054140 -3.654353 18.372816 205 205 205 0
1.122701 -3.648777 18.344781 206 206 206 0
1.192458 -3.647519 18.338454 206 206 206 0
1.260840 -3.642426 18.312849 206 206 206 0
1.330139 -3.640380 18.302563 207 207 207 0
1.396131 -3.629939 18.250073 206 206 206 0
1.463032 -3.622746 18.213908 207 207 207 0
1.527729 -3.610996 18.154834 207 207 207 0
1.596055 -3.608471 18.142137 207 207 207 0
1.664673 -3.606791 18.133691 210 210 210 0
1.732343 -3.603273 18.116004 210 210 210 0
1.800748 -3.601496 18.107071 210 210 210 0
1.867463 -3.596595 18.082429 210 210 210 0
1.933067 -3.589981 18.049174 210 210 210 0
1.999138 -3.584662 18.022433 210 210 210 0
2.065534 -3.580260 18.000299 210 210 210 0
2.134976 -3.581249 18.005276 211 211 211 0
2.202214 -3.578597 17.991940 211 211 211 0
2.268140 -3.574039 17.969026 211 211 211 0
2.334338 -3.570164 17.949544 211 211 211 0
2.399351 -3.564750 17.922321 211 211 211 0
2.466830 -3.563199 17.914527 211 211 211 0
2.532669 -3.559426 17.895558 213 213 213 0
2.602094 -3.560760 17.902263 213 213 213 0
2.671628 -3.562171 17.909358 213 213 213 0
2.736092 -3.556920 17.882956 213 213 213 0
2.803837 -3.556085 17.878760 214 214 214 0
2.868575 -3.551570 17.856057 214 214 214 0
2.937176 -3.551934 17.857887 214 214 214 0
3.007787 -3.554657 17.871579 214 214 214 0
3.074243 -3.552458 17.860523 214 214 214 0
3.146127 -3.556492 17.880804 215 215 215 0
3.209104 -3.550499 17.850671 215 215 215 0
3.277523 -3.550649 17.851430 214 214 214 0
3.345360 -3.550177 17.849057 214 214 214 0
3.416252 -3.552902 17.862755 215 215 215 0
3.486650 -3.555016 17.873384 215 215 215 0
3.551325 -3.551325 17.854829 215 215 215 0
3.621982 -3.553642 17.866477 215 215 215 0
3.691080 -3.554374 17.870154 215 215 215 0
3.759806 -3.554726 17.871924 215 215 215 0
3.832592 -3.558836 17.892588 215 215 215 0
3.903575 -3.561156 17.904253 216 216 216 0
3.971489 -3.560646 17.901687 215 215 215 0
4.038989 -3.559787 17.897372 215 215 215 0
4.114009 -3.565474 17.925964 215 215 215 0
4.186165 -3.568534 17.941349 215 215 215 0
4.259521 -3.572501 17.961294 215 215 215 0
4.334825 -3.577951 17.988693 216 216 216 0
4.400433 -3.575352 17.975626 215 215 215 0
4.476738 -3.581390 18.005983 216 216 216 0
4.552083 -3.586490 18.031622 216 216 216 0
4.627988 -3.591871 18.058680 216 216 216 0
4.702356 -3.595919 18.079031 216 216 216 0
4.776759 -3.599877 18.098928 216 216 216 0
4.851208 -3.603755 18.118425 216 216 216 0
4.926013 -3.607785 18.138685 215 215 215 0
5.005382 -3.614998 18.174953 215 215 215 0
5.083996 -3.621477 18.207525 215 215 215 0
5.162753 -3.627880 18.239719 215 215 215 0
5.241806 -3.634319 18.272092 215 215 215 0
5.324802 -3.643286 18.317173 215 215 215 0
5.409352 -3.653069 18.366361 215 215 215 0
5.489229 -3.659486 18.398621 215 215 215 0
5.569007 -3.665675 18.429740 215 215 215 0
-1.955668 -4.336481 22.229816 86 86 86 0
-1.840244 -4.266019 21.868610 114 114 114 0
-1.735373 -4.214476 21.604390 126 126 126 0
-1.630554 -4.157914 21.314436 144 144 144 0
-1.534034 -4.117671 21.108142 146 146 146 0
-1.439949 -4.079855 20.914291 150 150 150 0
-1.347967 -4.043900 20.729975 163 163 163 0
-1.257233 -4.007432 20.543030 164 164 164 0
-1.172910 -3.987894 20.442876 164 164 164 0
-1.088714 -3.966030 20.330794 168 168 168 0
-1.006189 -3.947356 20.235067 176 176 176 0
-0.924525 -3.929232 20.142163 177 177 177 0
-0.842404 -3.905692 20.021489 178 178 178 0
-0.760378 -3.877929 19.879169 177 177 177 0
-0.679378 -3.849809 19.735021 179 179 179 0
-0.601516 -3.834664 19.657381 186 186 186 0
-0.523511 -3.814149 19.552220 187 187 187 0
-0.447537 -3.804062 19.500512 188 188 188 0
-0.371809 -3.792450 19.440984 188 188 188 0
-0.296587 -3.781487 19.384787 188 188 188 0
-0.221626 -3.767641 19.313807 190 190 190 0
-0.147082 -3.750587 19.226383 194 194 194 0
-0.073164 -3.731339 19.127713 194 194 194 0
0.000000 -3.713245 19.034959 195 195 195 0
0.072680 -3.706683 19.001321 195 195 195 0
0.145058 -3.698989 18.961881 195 195 195 0
0.217257 -3.693363 18.933043 196 196 196 0
0.288791 -3.682083 18.875217 197 197 197 0
0.360118 -3.673206 18.829714 200 200 200 0
0.430355 -3.658018 18.751854 201 201 201 0
0.500079 -3.643436 18.677103 201 201 201 0
0.570310 -3.635725 18.637577 201 201 201 0
0.639957 -3.626425 18.589902 202 202 202 0
0.709840 -3.620183 18.557904 201 201 201 0
0.779720 -3.615065 18.531669 201 201 201 0
0.849058 -3.608496 18.497994 202 202 202 0
0.918421 -3.603036 18.470004 204 204 204 0
0.985684 -3.590706 18.406798 206 206 206 0
1.052025 -3.576886 18.335955 205 205 205 0
1.121127 -3.573591 18.319063 206 206 206 0
1.190387 -3.571161 18.306607 206 206 206 0
1.259229 -3.567816 18.289458 206 206 206 0
1.326361 -3.560232 18.250581 207 207 207 0
1.393820 -3.554242 18.219874 206 206 206 0
1.460248 -3.546317 18.179251 206 206 206 0
1.526866 -3.539553 18.144573 208 208 208 0
1.593579 -3.533589 18.114003 210 210 210 0
1.661220 -3.530092 18.096077 209 209 209 0
1.729486 -3.528151 18.086125 210 210 210 0
1.798241 -3.527319 18.081862 210 210 210 0
1.864098 -3.521073 18.049843 210 210 210 0
1.930717 -3.516664 18.027240 210 210 210 0
1.995449 -3.509237 17.989170 210 210 210 0
2.062387 -3.506057 17.972868 211 211 211 0
2.131017 -3.505866 17.971887 211 211 211 0
2.198805 -3.504346 17.964095 211 211 211 0
2.265114 -3.500631 17.945053 211 211 211 0
2.331539 -3.497308 17.928020 211 211 211 0
2.395331 -3.490340 17.892296 211 211 211 0
2.462707 -3.488834 17.884579 213 213 213 0
2.530807 -3.488409 17.882400 213 213 213 0
2.598957 -3.488074 17.880681 213 213 213 0
2.667157 -3.487821 17.879383 214 214 214 0
2.734368 -3.486319 17.871685 214 214 214 0
2.799320 -3.482081 17.849960 214 214 214 0
2.865653 -3.479721 17.837864 213 213 213 0
2.934247 -3.480153 17.840077 214 214 214 0
3.003436 -3.481255 17.845726 215 215 215 0
3.069923 -3.479246 17.835429 214 214 214 0
3.139478 -3.480725 17.843011 214 214 214 0
3.204550 -3.477277 17.825336 215 215 215 0
3.274273 -3.478915 17.833733 215 215 215 0
3.343983 -3.480472 17.841712 215 215 215 0
3.410275 -3.478481 17.831505 215 215 215 0
3.481400 -3.481400 17.846468 215 215 215 0
3.546348 -3.478149 17.829802 215 215 215 0
3.617915 -3.481390 17.846418 216 216 216 0
3.686043 -3.481263 17.845767 215 215 215 0
3.756667 -3.483455 17.857005 215 215 215 0
3.827162 -3.485451 17.867235 215 215 215 0
3.896073 -3.485960 17.869844 216 216 216 0
3.965509 -3.486913 17.874733 216 216 216 0
4.035572 -3.488376 17.882229 216 216 216 0
4.106486 -3.490513 17.893183 216 216 216 0
4.181239 -3.495790 17.920236 216 216 216 0
4.252762 -3.498240 17.932793 216 216 216 0
4.325625 -3.501697 17.950515 215 215 215 0
4.397491 -3.504250 17.963605 216 216 216 0
4.471019 -3.508030 17.982982 215 215 215 0
4.542282 -3.509945 17.992799 215 215 215 0
4.620413 -3.517031 18.029120 216 216 216 0
4.697166 -3.522874 18.059076 216 216 216 0
4.768512 -3.524552 18.067679 216 216 216 0
4.843080 -3.528530 18.088069 216 216 216 0
4.917605 -3.532364 18.107724 216 216 216 0
4.996256 -3.539015 18.141817 216 216 216 0
5.074639 -3.545296 18.174015 216 216 216 0
5.154552 -3.552462 18.210749 215 215 215 0
5.232612 -3.558176 18.240041 215 215 215 0
5.314913 -3.566586 18.283153 215 215 215 0
5.400360 -3.576862 18.335828 215 215 215 0
5.479877 -3.582997 18.367278 216 216 216 0
5.559340 -3.588941 18.397749 215 215 215 0
-1.939012 -4.215244 22.040494 106 106 106 0
-1.830239 -4.159634 21.749722 118 118 118 0
-1.723827 -4.104350 21.460651 137 137 137 0
-1.626845 -4.067113 21.265951 146 146 146 0
-1.528458 -4.022257 21.031410 147 147 147 0
-1.433752 -3.982646 20.824291 158 158 158 0
-1.342661 -3.949004 20.648389 164 164 164 0
-1.254153 -3.919227 20.492688 164 164 164 0
-1.169142 -3.897138 20.377195 165 165 165 0
-1.084666 -3.873808 20.255204 173 173 173 0
-1.002789 -3.856882 20.166704 177 177 177 0
-0.922538 -3.843908 20.098868 177 177 177 0
-0.839828 -3.817400 19.960260 178 178 178 0
-0.758876 -3.794379 19.839890 179 179 179 0
-0.678497 -3.769430 19.709437 183 183 183 0
-0.600343 -3.752144 19.619056 187 187 187 0
-0.522752 -3.733941 19.523873 187 187 187 0
-0.446639 -3.721996 19.461415 187 187 187 0
-0.370916 -3.709157 19.394285 188 188 188 0
-0.296218 -3.702728 19.360669 188 188 188 0
-0.221352 -3.689193 19.289898 192 192 192 0
-0.146951 -3.673781 19.209311 194 194 194 0
-0.073080 -3.653998 19.105870 194 194 194 0
0.000000 -3.639194 19.028468 194 194 194 0
0.072495 -3.624752 18.952950 195 195 195 0
0.144761 -3.619036 18.923066 196 196 196 0
0.216605 -3.610091 18.876294 196 196 196 0
0.288162 -3.602030 18.834144 199 199 199 0
0.359683 -3.596826 18.806934 200 200 200 0
0.429678 -3.580653 18.722366 201 201 201 0
0.499826 -3.570186 18.667641 201 201 201 0
0.569358 -3.558491 18.606487 201 201 201 0
0.638913 -3.549517 18.559567 201 201 201 0
0.708710 -3.543549 18.528361 201 201 201 0
0.778553 -3.538877 18.503933 201 201 201 0
0.848006 -3.533357 18.475072 204 204 204 0
0.916555 -3.525210 18.432471 205 205 205 0
0.984337 -3.515488 18.381636 206 206 206 0
1.051349 -3.504497 18.324168 206 206 206 0
1.119651 -3.498908 18.294946 207 207 207 0
1.189385 -3.498191 18.291194 206 206 206 0
1.257561 -3.493225 18.265230 207 207 207 0
1.325366 -3.487805 18.236890 206 206 206 0
1.392245 -3.480614 18.199287 206 206 206 0
1.458938 -3.473663 18.162943 207 207 207 0
1.525373 -3.466756 18.126831 208 208 208 0
1.591880 -3.460609 18.094690 210 210 210 0
1.659875 -3.458073 18.081430 209 209 209 0
1.727778 -3.455556 18.068264 209 209 209 0
1.796651 -3.455099 18.065876 210 210 210 0
1.863097 -3.450179 18.040151 210 210 210 0
1.927538 -3.442032 17.997555 211 211 211 0
1.992889 -3.436015 17.966091 210 210 210 0
2.059585 -3.432642 17.948454 211 211 211 0
2.128156 -3.432510 17.947765 211 211 211 0
2.195877 -3.431058 17.940171 211 211 211 0
2.262651 -3.428259 17.925539 211 211 211 0
2.328719 -3.424586 17.906334 212 212 212 0
2.393131 -3.418759 17.875863 213 213 213 0
2.459897 -3.416523 17.864175 213 213 213 0
2.527404 -3.415411 17.858356 213 213 213 0
2.597818 -3.418182 17.872846 214 214 214 0
2.663650 -3.414936 17.855877 213 213 213 0
2.730140 -3.412675 17.844050 214 214 214 0
2.795721 -3.409416 17.827010 213 213 213 0
2.863375 -3.408780 17.823686 214 214 214 0
2.930066 -3.407053 17.814658 214 214 214 0
3.000182 -3.409298 17.826392 214 214 214 0
3.068069 -3.408966 17.824657 215 215 215 0
3.134826 -3.407419 17.816571 214 214 214 0
3.200747 -3.405050 17.804182 215 215 215 0
3.270812 -3.407096 17.814879 214 214 214 0
3.338293 -3.406421 17.811351 215 215 215 0
3.407904 -3.407904 17.819105 215 215 215 0
3.477673 -3.409483 17.827363 215 215 215 0
3.543085 -3.406812 17.813397 215 215 215 0
3.612676 -3.408185 17.820575 216 216 216 0
3.682706 -3.409913 17.829610 216 216 216 0
3.751859 -3.410781 17.834148 216 216 216 0
3.824108 -3.414382 17.852977 216 216 216 0
3.894633 -3.416345 17.863241 215 215 215 0
3.961350 -3.414957 17.855982 216 216 216 0
4.030121 -3.415356 17.858073 216 216 216 0
4.101034 -3.417528 17.869428 216 216 216 0
4.175211 -3.422304 17.894400 216 216 216 0
4.246030 -3.424218 17.904408 216 216 216 0
4.322276 -3.430378 17.936617 215 215 215 0
4.390505 -3.430082 17.935070 215 215 215 0
4.461400 -3.431846 17.944292 215 215 215 0
4.537252 -3.437312 17.972875 216 216 216 0
4.613125 -3.442631 18.000684 217 217 217 0
4.692136 -3.450100 18.039740 216 216 216 0
4.765898 -3.453549 18.057775 216 216 216 0
4.837072 -3.455051 18.065629 216 216 216 0
4.911242 -3.458621 18.084294 216 216 216 0
4.991983 -3.466655 18.126299 216 216 216 0
5.066199 -3.469999 18.143787 216 216 216 0
5.145471 -3.476670 18.178664 216 216 216 0
5.222982 -3.481988 18.206473 215 215 215 0
5.308196 -3.492234 18.260047 216 216 216 0
5.390878 -3.500570 18.303635 215 215 215 0
5.472048 -3.507723 18.341035 215 215 215 0
5.550937 -3.513251 18.369941 215 215 215 0
-2.028113 -4.140731 22.092737 83 83 83 0
-1.925629 -4.102428 21.888369 113 113 113 0
-1.822129 -4.058379 21.653349 123 123 123 0
-1.714513 -4.000529 21.344694 144 144 144 0
-1.618926 -3.966370 21.162437 145 145 145 0
-1.521936 -3.924992 20.941666 149 149 149 0
-1.427411 -3.885730 20.732188 162 162 162 0
-1.338083 -3.856829 20.577985 165 165 165 0
-1.249673 -3.827124 20.419496 165 165 165 0
-1.164838 -3.805138 20.302193 167 167 167 0
-1.081638 -3.785733 20.198657 176 176 176 0
-1.000354 -3.770565 20.117729 177 177 177 0
-0.919391 -3.754181 20.030313 177 177 177 0
-0.838027 -3.733031 19.917467 178 178 178 0
-0.756883 -3.708725 19.787784 179 179 179 0
-0.677574 -3.689012 19.682602 186 186 186 0
-0.598565 -3.666208 19.560934 187 187 187 0
-0.521566 -3.650963 19.479593 187 187 187 0
-0.445760 -3.640375 19.423101 187 187 187 0
-0.370213 -3.628088 19.357547 187 187 187 0
-0.295506 -3.619949 19.314119 189 189 189 0
-0.220802 -3.606435 19.242017 195 195 195 0
-0.146654 -3.593022 19.170451 194 194 194 0
-0.072968 -3.575428 19.076582 194 194 194 0
0.000000 -3.562404 19.007090 195 195 195 0
0.072395 -3.547338 18.926708 195 195 195 0
0.144428 -3.538475 18.879417 195 195 195 0
0.216161 -3.530636 18.837593 197 197 197 0
0.288016 -3.528196 18.824575 200 200 200 0
0.359250 -3.520649 18.784311 201 201 201 0
0.429013 -3.503604 18.693365 201 201 201 0
0.498642 -3.490494 18.623418 201 201 201 0
0.568024 -3.479145 18.562868 201 201 201 0
0.638044 -3.473796 18.534328 201 201 201 0
0.707629 -3.467380 18.500092 201 201 201 0
0.777768 -3.464601 18.485268 203 203 203 0
0.847262 -3.459652 18.458859 205 205 205 0
0.914816 -3.448151 18.397496 205 205 205 0
0.983587 -3.442554 18.367637 206 206 206 0
1.049984 -3.429948 18.300377 206 206 206 0
1.118471 -3.425316 18.275662 206 206 206 0
1.187117 -3.421691 18.256323 205 205 205 0
1.255614 -3.418059 18.236945 207 207 207 0
1.323227 -3.412533 18.207458 206 206 206 0
1.390853 -3.407590 18.181088 206 206 206 0
1.457029 -3.399733 18.139167 209 209 209 0
1.523229 -3.392647 18.101360 210 210 210 0
1.590003 -3.387398 18.073354 210 210 210 0
1.657897 -3.384873 18.059880 210 210 210 0
1.725683 -3.382339 18.046358 210 210 210 0
1.794451 -3.381850 18.043752 210 210 210 0
1.860953 -3.377285 18.019394 210 210 210 0
1.925513 -3.369649 17.978650 210 210 210 0
1.990092 -3.362570 17.940881 210 210 210 0
2.057209 -3.360107 17.927744 211 211 211 0
2.125156 -3.359117 17.922460 210 210 210 0
2.192616 -3.357443 17.913528 211 211 211 0
2.259341 -3.354778 17.899311 212 212 212 0
2.326466 -3.352848 17.889014 213 213 213 0
2.391330 -3.347863 17.862412 214 214 214 0
2.458327 -3.346057 17.852776 213 213 213 0
2.525312 -3.344332 17.843576 213 213 213 0
2.593985 -3.344875 17.846472 214 214 214 0
2.660288 -3.342414 17.833339 214 214 214 0
2.728466 -3.342370 17.833108 214 214 214 0
2.792219 -3.337043 17.804683 213 213 213 0
2.861254 -3.338130 17.810483 214 214 214 0
2.928603 -3.337246 17.805766 215 215 215 0
2.995740 -3.336165 17.800000 214 214 214 0
3.062839 -3.335091 17.794272 214 214 214 0
3.133998 -3.338389 17.811865 215 215 215 0
3.199225 -3.335363 17.795719 215 215 215 0
3.265020 -3.333041 17.783334 215 215 215 0
3.331810 -3.331810 17.776763 215 215 215 0
3.403017 -3.334957 17.793555 215 215 215 0
3.471834 -3.335683 17.797431 215 215 215 0
3.539478 -3.335277 17.795261 215 215 215 0
3.607705 -3.335426 17.796055 216 216 216 0
3.677185 -3.336705 17.802880 215 215 215 0
3.748424 -3.339505 17.817822 216 216 216 0
3.817859 -3.340626 17.823804 216 216 216 0
3.888973 -3.343152 17.837280 216 216 216 0
3.958773 -3.344480 17.844366 216 216 216 0
4.029283 -3.346353 17.854360 215 215 215 0
4.097697 -3.346452 17.854887 216 216 216 0
4.169637 -3.349380 17.870509 217 217 217 0
4.240441 -3.351316 17.880840 216 216 216 0
4.316197 -3.357042 17.911389 216 216 216 0
4.384003 -3.356502 17.908509 216 216 216 0
4.457112 -3.359977 17.927047 216 216 216 0
4.530907 -3.363855 17.947741 216 216 216 0
4.606933 -3.369250 17.976523 216 216 216 0
4.685399 -3.376243 18.013836 216 216 216 0
4.757846 -3.378760 18.027264 216 216 216 0
4.830349 -3.381244 18.040518 217 217 217 0
4.903130 -3.383850 18.054424 216 216 216 0
4.985320 -3.392787 18.102106 216 216 216 0
5.061947 -3.397745 18.128561 216 216 216 0
5.136533 -3.401218 18.147087 216 216 216 0
5.216486 -3.408104 18.183828 216 216 216 0
5.298365 -3.416051 18.226231 215 215 215 0
5.380590 -3.424012 18.268705 215 215 215 0
5.463987 -3.432505 18.314019 216 216 216 0
5.542616 -3.437825 18.342403 216 216 216 0
-2.029258 -4.058517 22.105211 100 100 100 0
-1.918495 -4.003817 21.807280 115 115 115 0
-1.810625 -3.950456 21.516643 133 133 133 0
-1.708698 -3.905596 21.272309 144 144 144 0
-1.611499 -3.867598 21.065346 145 145 145 0
-1.517102 -3.832678 20.875153 155 155 155 0
-1.424767 -3.799377 20.693776 163 163 163 0
-1.334122 -3.766934 20.517069 164 164 164 0
-1.245813 -3.737440 20.356428 164 164 164 0
-1.161876 -3.718004 20.250566 171 171 171 0
-1.077933 -3.695769 20.129463 177 177 177 0
-0.996616 -3.679811 20.042545 177 177 177 0
-0.916710 -3.666840 19.971896 178 178 178 0
-0.836804 -3.651508 19.888390 177 177 177 0
-0.755335 -3.625609 19.747326 183 183 183 0
-0.676411 -3.607528 19.648844 187 187 187 0
-0.597805 -3.586827 19.536097 187 187 187 0
-0.520238 -3.567346 19.429988 187 187 187 0
-0.444570 -3.556557 19.371225 188 188 188 0
-0.369311 -3.545384 19.310372 188 188 188 0
-0.294969 -3.539630 19.279033 192 192 192 0
-0.220581 -3.529295 19.222740 194 194 194 0
-0.146486 -3.515673 19.148547 195 195 195 0
-0.072844 -3.496515 19.044201 195 195 195 0
0.000000 -3.481251 18.961062 195 195 195 0
0.072281 -3.469487 18.896987 195 195 195 0
0.144244 -3.461854 18.855413 196 196 196 0
0.216014 -3.456227 18.824764 199 199 199 0
0.287368 -3.448411 18.782196 200 200 200 0
0.358502 -3.441619 18.745200 201 201 201 0
0.428893 -3.431142 18.688136 201 201 201 0
0.498257 -3.416616 18.609020 201 201 201 0
0.567809 -3.406854 18.555850 201 201 201 0
0.637390 -3.399413 18.515322 202 202 202 0
0.706407 -3.390755 18.468166 202 202 202 0
0.776436 -3.388084 18.453616 204 204 204 0
0.846036 -3.384143 18.432154 205 205 205 0
0.914485 -3.376560 18.390849 205 205 205 0
0.981736 -3.365952 18.333072 205 205 205 0
1.049185 -3.357391 18.286441 205 205 205 0
1.116925 -3.350774 18.250404 206 206 206 0
1.184951 -3.345745 18.223010 206 206 206 0
1.253419 -3.342451 18.205071 206 206 206 0
1.323136 -3.342659 18.206204 207 207 207 0
1.388111 -3.331466 18.145238 208 208 208 0
1.455601 -3.327087 18.121388 209 209 209 0
1.521546 -3.319737 18.081355 210 210 210 0
1.588596 -3.315331 18.057357 210 210 210 0
1.655777 -3.311554 18.036784 209 209 209 0
1.724739 -3.311498 18.036482 209 209 209 0
1.791163 -3.306762 18.010688 210 210 210 0
1.858437 -3.303887 17.995030 210 210 210 0
1.922691 -3.296041 17.952293 210 210 210 0
1.987872 -3.290271 17.920866 210 210 210 0
2.054945 -3.287912 17.908020 210 210 210 0
2.123333 -3.287742 17.907092 212 212 212 0
2.190415 -3.285623 17.895548 213 213 213 0
2.258432 -3.284992 17.892112 212 212 212 0
2.325470 -3.283017 17.881355 214 214 214 0
2.388591 -3.275782 17.841949 213 213 213 0
2.455362 -3.273815 17.831239 213 213 213 0
2.524238 -3.274687 17.835984 213 213 213 0
2.589226 -3.270602 17.813736 214 214 214 0
2.658866 -3.272450 17.823804 213 213 213 0
2.725396 -3.270475 17.813046 213 213 213 0
2.790103 -3.266462 17.791188 213 213 213 0
2.855285 -3.263183 17.773329 214 214 214 0
2.925545 -3.265725 17.787171 214 214 214 0
2.991259 -3.263192 17.773374 214 214 214 0
3.059689 -3.263669 17.775972 214 214 214 0
3.126385 -3.262315 17.768598 215 215 215 0
3.194761 -3.262735 17.770888 215 215 215 0
3.263060 -3.263060 17.772656 214 214 214 0
3.328374 -3.260448 17.758431 215 215 215 0
3.398352 -3.262418 17.769163 216 216 216 0
3.467308 -3.263349 17.774233 215 215 215 0
3.536589 -3.264544 17.780738 216 216 216 0
3.605296 -3.265173 17.784169 215 215 215 0
3.672080 -3.264071 17.778166 215 215 215 0
3.743474 -3.267032 17.794291 216 216 216 0
3.814035 -3.269173 17.805954 216 216 216 0
3.884816 -3.271424 17.818214 216 216 216 0
3.954002 -3.272277 17.822861 217 217 217 0
4.023144 -3.273066 17.827159 217 217 217 0
4.091008 -3.272807 17.825745 217 217 217 0
4.163568 -3.276250 17.844499 216 216 216 0
4.236345 -3.279751 17.863567 217 217 217 0
4.309483 -3.283416 17.883528 217 217 217 0
4.377417 -3.283063 17.881605 217 217 217 0
4.450561 -3.286568 17.900696 217 217 217 0
4.523916 -3.290121 17.920048 217 217 217 0
4.601261 -3.296426 17.954390 216 216 216 0
4.676310 -3.300924 17.978891 216 216 216 0
4.751320 -3.305266 18.002539 216 216 216 0
4.824922 -3.308518 18.020248 217 217 217 0
4.898614 -3.311739 18.037796 216 216 216 0
4.978255 -3.318837 18.076454 216 216 216 0
5.055579 -3.324216 18.105752 217 217 217 0
5.131788 -3.328727 18.130323 217 217 217 0
5.207805 -3.332995 18.153569 216 216 216 0
5.289938 -3.341014 18.197241 216 216 216 0
5.371408 -3.348410 18.237528 215 215 215 0
5.454370 -3.356535 18.281783 215 215 215 0
5.534217 -3.362562 18.314609 216 216 216 0
-2.136740 -4.017072 22.344997 74 74 74 0
-2.019229 -3.954323 21.995958 110 110 110 0
-1.908184 -3.899332 21.690068 117 117 117 0
-1.804906 -3.855935 21.448673 140 140 140 0
-1.704695 -3.815270 21.222475 144 144 144 0
-1.606874 -3.776155 21.004894 146 146 146 0
-1.514263 -3.745807 20.836086 159 159 159 0
-1.422028 -3.713074 20.654006 163 163 163 0
-1.329698 -3.676223 20.449022 164 164 164 0
-1.243664 -3.653263 20.321306 165 165 165 0
-1.158432 -3.629754 20.190538 174 174 174 0
-1.075375 -3.610188 20.081702 177 177 177 0
-0.995017 -3.597371 20.010406 177 177 177 0
-0.914913 -3.583409 19.932741 177 177 177 0
-0.834532 -3.565726 19.834383 179 179 179 0
-0.754809 -3.547603 19.733572 185 185 185 0
-0.674913 -3.524545 19.605314 187 187 187 0
-0.596768 -3.506013 19.502230 187 187 187 0
-0.519339 -3.486989 19.396406 187 187 187 0
-0.443618 -3.475009 19.329769 187 187 187 0
-0.368712 -3.465889 19.279038 189 189 189 0
-0.294415 -3.459379 19.242827 194 194 194 0
-0.220184 -3.449544 19.188118 194 194 194 0
-0.146125 -3.433937 19.101305 194 194 194 0
-0.072781 -3.420724 19.027808 194 194 194 0
0.000000 -3.407962 18.956819 194 194 194 0
0.072117 -3.389485 18.854038 195 195 195 0
0.144054 -3.385264 18.830560 196 196 196 0
0.215629 -3.378193 18.791225 200 200 200 0
0.286813 -3.370054 18.745953 201 201 201 0
0.357839 -3.363685 18.710525 201 201 201 0
0.428013 -3.352772 18.649824 201 201 201 0
0.498237 -3.345307 18.608299 202 202 202 0
0.567054 -3.331444 18.531189 201 201 201 0
0.636367 -3.323250 18.485609 201 201 201 0
0.705494 -3.315820 18.444280 203 203 203 0
0.775117 -3.311862 18.422262 205 205 205 0
0.845214 -3.310420 18.414241 206 206 206 0
0.913380 -3.302220 18.368626 206 206 206 0
0.980695 -3.292333 18.313629 206 206 206 0
1.048326 -3.284755 18.271481 206 206 206 0
1.115823 -3.277731 18.232407 206 206 206 0
1.183886 -3.273096 18.206627 206 206 206 0
1.251703 -3.268335 18.180143 207 207 207 0
1.319770 -3.264694 18.159889 207 207 207 0
1.387664 -3.261011 18.139401 209 209 209 0
1.454475 -3.255254 18.107381 209 209 209 0
1.520262 -3.247833 18.066099 209 209 209 0
1.586583 -3.242147 18.034474 210 210 210 0
1.654269 -3.239611 18.020364 210 210 210 0
1.722175 -3.237689 18.009671 211 211 211 0
1.790835 -3.237279 18.007395 210 210 210 0
1.856422 -3.231550 17.975526 210 210 210 0
1.920961 -3.224470 17.936142 210 210 210 0
1.985833 -3.218418 17.902481 210 210 210 0
2.053160 -3.216618 17.892465 211 211 211 0
2.120786 -3.215385 17.885608 213 213 213 0
2.188319 -3.214094 17.878425 212 212 212 0
2.254305 -3.210677 17.859420 213 213 213 0
2.321762 -3.209494 17.852838 213 213 213 0
2.386698 -3.204995 17.827812 214 214 214 0
2.452984 -3.202507 17.813974 213 213 213 0
2.520452 -3.201656 17.809237 213 213 213 0
2.588220 -3.201219 17.806809 214 214 214 0
2.654699 -3.199253 17.795871 214 214 214 0
2.720596 -3.196700 17.781671 214 214 214 0
2.787419 -3.195334 17.774075 213 213 213 0
2.852332 -3.191895 17.754946 214 214 214 0
2.919469 -3.191047 17.750228 214 214 214 0
2.988055 -3.191786 17.754337 214 214 214 0
3.056092 -3.191918 17.755074 214 214 214 0
3.125453 -3.193398 17.763302 215 215 215 0
3.191651 -3.191651 17.753589 215 215 215 0
3.257121 -3.189264 17.740308 215 215 215 0
3.323935 -3.188264 17.734745 215 215 215 0
3.394692 -3.191010 17.750021 215 215 215 0
3.462144 -3.190604 17.747760 216 216 216 0
3.532961 -3.193253 17.762498 216 216 216 0
3.601351 -3.193651 17.764710 216 216 216 0
3.669094 -3.193471 17.763708 216 216 216 0
3.737093 -3.193516 17.763958 216 216 216 0
3.808946 -3.196794 17.782194 216 216 216 0
3.877471 -3.197213 17.784524 216 216 216 0
3.950266 -3.201078 17.806024 216 216 216 0
4.016166 -3.199319 17.796238 216 216 216 0
4.088278 -3.202484 17.813846 216 216 216 0
4.160764 -3.205834 17.832482 216 216 216 0
4.232204 -3.208284 17.846107 216 216 216 0
4.305976 -3.212395 17.868975 216 216 216 0
4.374883 -3.212805 17.871253 216 216 216 0
4.445747 -3.214617 17.881334 217 217 217 0
4.518904 -3.218008 17.900195 216 216 216 0
4.594546 -3.223040 17.928186 217 217 217 0
4.671359 -3.228733 17.959857 217 217 217 0
4.745338 -3.232331 17.979872 217 217 217 0
4.818226 -3.235094 17.995240 217 217 217 0
4.892662 -3.238805 18.015878 217 217 217 0
4.973841 -3.246813 18.060423 217 217 217 0
5.050123 -3.251449 18.086213 217 217 217 0
5.128317 -3.257174 18.118059 216 216 216 0
5.201326 -3.259498 18.130985 216 216 216 0
5.280599 -3.265634 18.165117 216 216 216 0
5.365077 -3.274787 18.216031 216 216 216 0
5.444300 -3.280540 18.248032 216 216 216 0
5.525021 -3.287038 18.284176 216 216 216 0
-2.117822 -3.896793 22.147158 87 87 87 0
-2.004166 -3.841318 21.831871 113 113 113 0
-1.899954 -3.799908 21.596523 125 125 125 0
-1.797030 -3.757426 21.355081 143 143 143 0
-1.699204 -3.722067 21.154116 145 145 145 0
-1.605117 -3.691769 20.981924 151 151 151 0
-1.509851 -3.655428 20.775378 162 162 162 0
-1.417200 -3.621734 20.583883 163 163 163 0
-1.328985 -3.596078 20.438069 164 164 164 0
-1.241317 -3.568786 20.282958 168 168 168 0
-1.155092 -3.542283 20.132328 176 176 176 0
-1.073780 -3.528136 20.051922 177 177 177 0
-0.992324 -3.511301 19.956241 177 177 177 0
-0.912034 -3.496130 19.870018 177 177 177 0
-0.832634 -3.481924 19.789280 181 181 181 0
-0.754039 -3.468579 19.713435 186 186 186 0
-0.674179 -3.445803 19.583989 187 187 187 0
-0.595824 -3.425986 19.471359 186 186 186 0
-0.518541 -3.407553 19.366599 186 186 186 0
-0.442557 -3.392937 19.283530 188 188 188 0
-0.368041 -3.385982 19.243999 191 191 191 0
-0.293833 -3.379079 19.204769 194 194 194 0
-0.219937 -3.372362 19.166595 194 194 194 0
-0.146019 -3.358444 19.087491 194 194 194 0
-0.072632 -3.341053 18.988651 195 195 195 0
0.000000 -3.328358 18.916499 195 195 195 0
0.072034 -3.313573 18.832471 196 196 196 0
0.143751 -3.306276 18.790998 198 198 198 0
0.215239 -3.300332 18.757213 201 201 201 0
0.286582 -3.295696 18.730868 201 201 201 0
0.357357 -3.287681 18.685317 200 200 200 0
0.427679 -3.278871 18.635241 200 200 200 0
0.497536 -3.269522 18.582111 201 201 201 0
0.566060 -3.254842 18.498677 201 201 201 0
0.635259 -3.246880 18.453423 201 201 201 0
0.704205 -3.239341 18.410576 204 204 204 0
0.774448 -3.238602 18.406375 205 205 205 0
0.844436 -3.237005 18.397298 205 205 205 0
0.912556 -3.229043 18.352050 205 205 205 0
0.979851 -3.219510 18.297869 205 205 205 0
1.046444 -3.209096 18.238679 205 205 205 0
1.114714 -3.204802 18.214274 206 206 206 0
1.182134 -3.198715 18.179683 206 206 206 0
1.250607 -3.195995 18.164223 207 207 207 0
1.317415 -3.189530 18.127480 209 209 209 0
1.385777 -3.187286 18.114727 209 209 209 0
1.452661 -3.182019 18.084792 209 209 209 0
1.517823 -3.173631 18.037118 209 209 209 0
1.584880 -3.169759 18.015113 210 210 210 0
1.652757 -3.167784 18.003886 210 210 210 0
1.719021 -3.162998 17.976686 210 210 210 0
1.788815 -3.164827 17.987081 210 210 210 0
1.854904 -3.160207 17.960824 211 211 211 0
1.919474 -3.153422 17.922263 210 210 210 0
1.984809 -3.148317 17.893248 211 211 211 0
2.050234 -3.143692 17.866965 212 212 212 0
2.119189 -3.144603 17.872140 213 213 213 0
2.185937 -3.142285 17.858965 213 213 213 0
2.254046 -3.142004 17.857368 213 213 213 0
2.318972 -3.137432 17.831386 212 212 212 0
2.384273 -3.133616 17.809697 213 213 213 0
2.450589 -3.131308 17.796577 213 213 213 0
2.517434 -3.129783 17.787909 213 213 213 0
2.586230 -3.130699 17.793119 213 213 213 0
2.651003 -3.126824 17.771093 213 213 213 0
2.719098 -3.126962 17.771880 213 213 213 0
2.783319 -3.122748 17.747929 214 214 214 0
2.851033 -3.122560 17.746857 214 214 214 0
2.916837 -3.120338 17.734228 214 214 214 0
2.983884 -3.119515 17.729552 215 215 215 0
3.052535 -3.120369 17.734409 214 214 214 0
3.118739 -3.118739 17.725145 214 214 214 0
3.187833 -3.120006 17.732346 215 215 215 0
3.255142 -3.119511 17.729531 216 216 216 0
3.322006 -3.118617 17.724452 215 215 215 0
3.390153 -3.118940 17.726288 216 216 216 0
3.459694 -3.120508 17.735199 216 216 216 0
3.527605 -3.120574 17.735573 216 216 216 0
3.597341 -3.122221 17.744931 216 216 216 0
3.664564 -3.121665 17.741775 215 215 215 0
3.734060 -3.123032 17.749542 216 216 216 0
3.803769 -3.124524 17.758024 215 215 215 0
3.875064 -3.127244 17.773483 216 216 216 0
3.944716 -3.128568 17.781005 216 216 216 0
4.014395 -3.129867 17.788388 217 217 217 0
4.086130 -3.132700 17.804489 217 217 217 0
4.155673 -3.133786 17.810665 217 217 217 0
4.227998 -3.136902 17.828372 216 216 216 0
4.299169 -3.139076 17.840728 217 217 217 0
4.371543 -3.142046 17.857609 217 217 217 0
4.443984 -3.144973 17.874243 218 218 218 0
4.514712 -3.146618 17.883590 216 216 216 0
4.589655 -3.151107 17.909103 217 217 217 0
4.665517 -3.156085 17.937399 217 217 217 0
4.740784 -3.160522 17.962617 216 216 216 0
4.812175 -3.162286 17.972641 216 216 216 0
4.885332 -3.165145 17.988888 217 217 217 0
4.965914 -3.172667 18.031642 217 217 217 0
5.041819 -3.177037 18.056474 216 216 216 0
5.121176 -3.183434 18.092831 217 217 217 0
5.196909 -3.187437 18.115586 216 216 216 0
5.274709 -3.192587 18.144854 216 216 216 0
5.355631 -3.199468 18.183960 216 216 216 0
5.437167 -3.206534 18.224122 216 216 216 0
5.519462 -3.213864 18.265780 215 215 215 0
-2.114695 -3.806451 22.114455 103 103 103 0
-1.994626 -3.739924 21.727951 115 115 115 0
-1.893134 -3.703958 21.518999 133 133 133 0
-1.791152 -3.663720 21.285231 144 144 144 0
-1.691796 -3.625277 21.061883 145 145 145 0
-1.599449 -3.598761 20.907834 156 156 156 0
-1.506937 -3.569061 20.735283 163 163 163 0
-1.415582 -3.538956 20.560382 163 163 163 0
-1.326015 -3.510041 20.392395 164 164 164 0
-1.237542 -3.480587 20.221276 171 171 171 0
-1.153016 -3.459049 20.096143 176 176 176 0
-1.070765 -3.441744 19.995605 177 177 177 0
-0.990137 -3.427399 19.912266 178 178 178 0
-0.911333 -3.417500 19.854755 178 178 178 0
-0.831464 -3.401443 19.761472 183 183 183 0
-0.752305 -3.385373 19.668105 187 187 187 0
-0.672772 -3.363858 19.543110 187 187 187 0
-0.595478 -3.349565 19.460071 186 186 186 0
-0.518041 -3.330261 19.347920 187 187 187 0
-0.442292 -3.317192 19.271992 188 188 188 0
-0.367239 -3.305147 19.202018 193 193 193 0
-0.293148 -3.297914 19.159994 194 194 194 0
-0.219513 -3.292700 19.129701 194 194 194 0
-0.145836 -3.281310 19.063530 195 195 195 0
-0.072468 -3.261043 18.945785 195 195 195 0
0.000000 -3.250688 18.885626 195 195 195 0
0.071924 -3.236584 18.803682 195 195 195 0
0.143601 -3.231015 18.771330 200 200 200 0
0.215107 -3.226606 18.745715 200 200 200 0
0.286005 -3.217559 18.693153 201 201 201 0
0.357212 -3.214906 18.677739 201 201 201 0
0.427269 -3.204518 18.617390 201 201 201 0
0.496849 -3.194030 18.556455 201 201 201 0
0.565493 -3.180896 18.480152 201 201 201 0
0.634885 -3.174424 18.442553 203 203 203 0
0.704025 -3.168112 18.405881 205 205 205 0
0.773597 -3.164717 18.386154 205 205 205 0
0.843384 -3.162688 18.374370 205 205 205 0
0.911207 -3.154178 18.324928 205 205 205 0
0.978601 -3.145502 18.274524 206 206 206 0
1.046045 -3.138134 18.231714 206 206 206 0
1.112924 -3.130099 18.185034 206 206 206 0
1.179964 -3.123433 18.146306 206 206 206 0
1.248538 -3.121346 18.134182 208 208 208 0
1.317279 -3.119872 18.125620 209 209 209 0
1.384524 -3.115178 18.098348 210 210 210 0
1.452168 -3.111788 18.078652 210 210 210 0
1.517846 -3.104685 18.037385 210 210 210 0
1.583126 -3.097420 17.995178 210 210 210 0
1.650704 -3.095070 17.981523 210 210 210 0
1.718337 -3.093007 17.969537 210 210 210 0
1.786214 -3.091524 17.960921 210 210 210 0
1.852272 -3.087119 17.935333 210 210 210 0
1.917115 -3.081078 17.900236 210 210 210 0
1.982839 -3.076819 17.875492 212 212 212 0
2.048855 -3.073282 17.854944 213 213 213 0
2.116668 -3.072583 17.850882 213 213 213 0
2.184138 -3.071445 17.844268 213 213 213 0
2.250367 -3.068682 17.828221 212 212 212 0
2.318734 -3.068913 17.829561 213 213 213 0
2.383579 -3.064601 17.804509 213 213 213 0
2.448921 -3.061152 17.784469 213 213 213 0
2.514429 -3.058089 17.766677 213 213 213 0
2.581361 -3.056875 17.759622 213 213 213 0
2.647039 -3.054275 17.744520 213 213 213 0
2.715563 -3.055009 17.748781 213 213 213 0
2.783952 -3.055557 17.751963 213 213 213 0
2.847545 -3.050941 17.725146 214 214 214 0
2.913992 -3.049526 17.716928 215 215 215 0
2.981742 -3.049508 17.716825 215 215 215 0
3.051355 -3.051355 17.727552 215 215 215 0
3.118273 -3.050485 17.722495 216 216 216 0
3.185252 -3.049710 17.717993 215 215 215 0
3.255769 -3.052283 17.732947 215 215 215 0
3.318398 -3.047508 17.705203 216 216 216 0
3.389221 -3.050299 17.721417 216 216 216 0
3.457592 -3.050817 17.724425 217 217 217 0
3.525766 -3.051144 17.726324 217 217 217 0
3.593488 -3.051074 17.725922 216 216 216 0
3.661679 -3.051399 17.727810 216 216 216 0
3.727550 -3.049814 17.718600 216 216 216 0
3.800159 -3.053699 17.741173 216 216 216 0
3.870328 -3.055522 17.751763 216 216 216 0
3.941611 -3.058147 17.767010 216 216 216 0
4.010010 -3.058482 17.768958 217 217 217 0
4.081132 -3.060849 17.782712 216 216 216 0
4.152820 -3.063556 17.798437 217 217 217 0
4.222682 -3.064850 17.805955 217 217 217 0
4.296449 -3.068892 17.829438 217 217 217 0
4.366929 -3.070497 17.838762 217 217 217 0
4.437727 -3.072273 17.849078 216 216 216 0
4.510348 -3.075237 17.866302 217 217 217 0
4.583120 -3.078215 17.883603 217 217 217 0
4.660314 -3.084031 17.917393 217 217 217 0
4.733612 -3.087138 17.935442 217 217 217 0
4.805545 -3.089279 17.947881 217 217 217 0
4.881962 -3.094201 17.976478 217 217 217 0
4.961513 -3.100946 18.015662 217 217 217 0
5.040277 -3.107020 18.050953 217 217 217 0
5.114975 -3.110457 18.070922 217 217 217 0
5.191242 -3.114745 18.095833 217 217 217 0
5.267621 -3.118986 18.120473 216 216 216 0
5.347932 -3.125415 18.157822 216 216 216 0
5.429970 -3.132675 18.200000 216 216 216 0
5.510370 -3.138818 18.235690 216 216 216 0
-2.213036 -3.745139 22.252754 76 76 76 0
-2.097326 -3.691293 21.932817 111 111 111 0
-1.985559 -3.640191 21.629183 119 119 119 0
-1.882665 -3.601620 21.400000 140 140 140 0
-1.784227 -3.568454 21.202938 144 144 144 0
-1.688636 -3.538095 21.022552 147 147 147 0
-1.595254 -3.509558 20.852988 161 161 161 0
-1.500741 -3.475399 20.650024 163 163 163 0
-1.413952 -3.456328 20.536708 164 164 164 0
-1.323367 -3.425184 20.351660 165 165 165 0
-1.235712 -3.398208 20.191372 174 174 174 0
-1.149669 -3.372362 20.037800 176 176 176 0
-1.069469 -3.361188 19.971409 177 177 177 0
-0.988144 -3.344486 19.872172 177 177 177 0
-0.908014 -3.329383 19.782433 179 179 179 0
-0.831008 -3.324033 19.750644 186 186 186 0
-0.751159 -3.305100 19.638148 187 187 187 0
-0.672252 -3.286567 19.528030 187 187 187 0
-0.594661 -3.270634 19.433357 187 187 187 0
-0.517701 -3.254123 19.335250 187 187 187 0
-0.441125 -3.234919 19.221145 189 189 189 0
-0.366790 -3.227750 19.178551 194 194 194 0
-0.293086 -3.223949 19.155968 195 195 195 0
-0.219211 -3.215097 19.103371 194 194 194 0
-0.145544 -3.201972 19.025382 194 194 194 0
-0.072483 -3.189237 18.949713 195 195 195 0
0.000000 -3.180717 18.899093 195 195 195 0
0.071838 -3.160856 18.781083 198 198 198 0
0.143475 -3.156450 18.754903 201 201 201 0
0.214996 -3.153267 18.735992 200 200 200 0
0.285889 -3.144776 18.685535 200 200 200 0
0.356557 -3.137699 18.643486 200 200 200 0
0.426818 -3.129996 18.597717 200 200 200 0
0.496030 -3.117901 18.525851 201 201 201 0
0.565007 -3.107538 18.464277 201 201 201 0
0.633827 -3.098709 18.411819 204 204 204 0
0.703215 -3.094148 18.384716 205 205 205 0
0.772902 -3.091607 18.369621 206 206 206 0
0.842499 -3.089161 18.355089 206 206 206 0
0.910154 -3.080521 18.303751 206 206 206 0
0.978046 -3.073859 18.264165 206 206 206 0
1.044413 -3.063613 18.203285 206 206 206 0
1.111692 -3.057153 18.164902 206 206 206 0
1.179066 -3.051701 18.132509 207 207 207 0
1.247876 -3.050364 18.124565 208 208 208 0
1.315882 -3.047307 18.106397 209 209 209 0
1.383480 -3.043656 18.084704 210 210 210 0
1.450733 -3.039630 18.060786 209 209 209 0
