ply
format ascii 1.0
element vertex 1127
property float x
property float y
property float z
property uchar red
property uchar green
property uchar blue
property uchar alpha
end_header
-7.422227 4.175003 30.319555 189 189 189 0
-7.293841 4.167909 30.268040 190 190 190 0
-7.166680 4.161298 30.220028 190 190 190 0
-7.041035 4.155365 30.176940 190 190 190 0
-6.899710 4.139826 30.064095 191 191 191 0
-6.772805 4.132559 30.011320 191 191 191 0
-6.675199 4.143227 30.088794 190 190 190 0
-6.553245 4.138892 30.057312 191 191 191 0
-6.422472 4.128732 29.983528 191 191 191 0
-6.289962 4.117066 29.898811 191 191 191 0
-6.153634 4.102423 29.792469 192 192 192 0
-6.027154 4.093916 29.730690 188 188 188 0
-5.862970 4.058979 29.476974 127 127 127 0
-6.434171 4.541768 32.983062 78 78 78 0
-6.557474 4.817736 34.987190 71 71 71 0
-4.530116 3.397587 24.673834 72 72 72 0
-2.947192 2.257424 16.393783 69 69 69 0
-3.134644 2.564708 18.625333 79 79 79 0
-3.617555 3.028651 21.994560 98 98 98 0
-3.471598 2.975656 21.609701 112 112 112 0
-3.356055 2.946780 21.400000 134 134 134 0
-3.233566 2.910209 21.134419 139 139 139 0
-3.126308 2.885823 20.957322 147 147 147 0
-3.013997 2.855365 20.736132 158 158 158 0
-2.913561 2.834816 20.586903 159 159 159 0
-2.815096 2.815096 20.443688 160 160 160 0
-2.716169 2.793774 20.288842 170 170 170 0
-2.616808 2.770738 20.121553 174 174 174 0
-2.520805 2.749969 19.970725 174 174 174 0
-2.428140 2.731657 19.837743 174 174 174 0
-2.337016 2.713955 19.709184 177 177 177 0
-2.256198 2.707438 19.661859 183 183 183 0
-2.172681 2.697122 19.586941 183 183 183 0
-2.089322 2.686271 19.508141 184 184 184 0
-2.006764 2.675686 19.431269 184 184 184 0
-1.921228 2.660162 19.318535 185 185 185 0
-1.834413 2.641555 19.183405 189 189 189 0
-1.753323 2.629984 19.099378 192 192 192 0
-1.675901 2.623149 19.049737 192 192 192 0
-1.599165 2.616815 19.003739 192 192 192 0
-1.522163 2.609422 18.950049 193 193 193 0
-1.447763 2.605974 18.925007 193 193 193 0
-1.368565 2.593070 18.831299 193 193 193 0
-1.291124 2.582248 18.752705 198 198 198 0
-1.214268 2.571392 18.673868 199 199 199 0
-1.138865 2.562447 18.608911 198 198 198 0
-1.066015 2.558437 18.579788 199 199 199 0
-0.992624 2.552463 18.536403 199 199 199 0
-0.921016 2.550507 18.522197 199 199 199 0
-0.848186 2.544557 18.478992 200 200 200 0
-0.775395 2.537656 18.428873 201 201 201 0
-0.701162 2.524183 18.331032 203 203 203 0
-0.629564 2.518258 18.288002 203 203 203 0
-0.559284 2.516779 18.277261 205 205 205 0
-0.488771 2.513679 18.254747 204 204 204 0
-0.418003 2.508020 18.213653 204 204 204 0
-0.347855 2.504558 18.188511 205 205 205 0
-0.277862 2.500757 18.160908 204 204 204 0
-0.207683 2.492195 18.098727 204 204 204 0
-0.138248 2.488463 18.071629 207 207 207 0
-0.068867 2.479197 18.004332 208 208 208 0
0.000000 2.479385 18.005701 208 208 208 0
0.068943 2.481951 18.024333 208 208 208 0
0.137585 2.476535 17.985001 208 208 208 0
0.205952 2.471422 17.947872 209 209 209 0
0.274160 2.467436 17.918924 209 209 209 0
0.341513 2.458892 17.856879 209 209 209 0
0.409788 2.458731 17.855707 209 209 209 0
0.477906 2.457801 17.848957 209 209 209 0
0.545991 2.456959 17.842837 211 211 211 0
0.613726 2.454904 17.827912 211 211 211 0
0.680341 2.449227 17.786688 211 211 211 0
0.747645 2.446839 17.769349 211 211 211 0
0.814428 2.443283 17.743519 211 211 211 0
0.882529 2.443927 17.748201 212 212 212 0
0.949344 2.441172 17.728188 212 212 212 0
1.017542 2.442101 17.734938 213 213 213 0
1.084160 2.439360 17.715029 212 212 212 0
1.150627 2.436621 17.695142 212 212 212 0
1.216937 2.433874 17.675193 212 212 212 0
1.282911 2.430778 17.652708 213 213 213 0
1.350325 2.430584 17.651303 213 213 213 0
1.418990 2.432555 17.665613 214 214 214 0
1.485256 2.430419 17.650103 215 215 215 0
1.553220 2.431128 17.655247 214 214 214 0
1.619283 2.428924 17.639244 214 214 214 0
1.685379 2.426945 17.624877 215 215 215 0
1.753348 2.427713 17.630452 215 215 215 0
1.820449 2.427265 17.627199 216 216 216 0
1.889311 2.429114 17.640623 215 215 215 0
1.955173 2.427111 17.626078 216 216 216 0
2.023929 2.428715 17.637724 216 216 216 0
2.088801 2.425704 17.615860 216 216 216 0
2.156260 2.425793 17.616505 216 216 216 0
2.225892 2.428246 17.634322 216 216 216 0
2.294341 2.429302 17.641992 216 216 216 0
2.362313 2.429808 17.645665 215 215 215 0
2.428792 2.428792 17.638287 216 216 216 0
2.494706 2.427281 17.627314 216 216 216 0
2.566048 2.430993 17.654271 216 216 216 0
2.633009 2.430470 17.650471 216 216 216 0
2.705006 2.434505 17.679776 216 216 216 0
2.774150 2.435839 17.689461 216 216 216 0
2.842869 2.436745 17.696040 216 216 216 0
2.912319 2.438220 17.706756 217 217 217 0
2.981668 2.439547 17.716389 217 217 217 0
3.053660 2.442928 17.740947 216 216 216 0
3.126277 2.446651 17.767984 217 217 217 0
3.193282 2.445918 17.762659 217 217 217 0
3.266504 2.449878 17.791417 217 217 217 0
3.333916 2.449408 17.788001 217 217 217 0
3.406611 2.452760 17.812343 217 217 217 0
3.478599 2.455481 17.832110 217 217 217 0
3.549887 2.457614 17.847595 217 217 217 0
3.623900 2.461517 17.875938 216 216 216 0
3.698996 2.465998 17.908479 216 216 216 0
3.774890 2.470837 17.943624 216 216 216 0
3.851122 2.475721 17.979096 217 217 217 0
3.924501 2.478632 18.000233 217 217 217 0
3.998682 2.481940 18.024259 217 217 217 0
4.071288 2.484176 18.040491 217 217 217 0
4.149302 2.489581 18.079745 216 216 216 0
4.226650 2.494416 18.114859 216 216 216 0
4.305038 2.499699 18.153227 216 216 216 0
4.386832 2.506761 18.204511 216 216 216 0
4.466236 2.512258 18.244429 217 217 217 0
4.547368 2.518542 18.290066 216 216 216 0
4.627557 2.524122 18.330587 216 216 216 0
4.707632 2.529474 18.369456 216 216 216 0
4.787333 2.534470 18.405740 216 216 216 0
4.875007 2.543482 18.471181 216 216 216 0
4.961488 2.551622 18.530301 215 215 215 0
5.050067 2.560597 18.595477 215 215 215 0
5.136029 2.568014 18.649341 215 215 215 0
5.224134 2.576285 18.709405 215 215 215 0
5.317112 2.586703 18.785063 214 214 214 0
5.409272 2.596451 18.855850 214 214 214 0
5.504691 2.607485 18.935986 213 213 213 0
5.600818 2.618564 19.016445 214 214 214 0
5.701250 2.631346 19.109267 213 213 213 0
5.794912 2.640719 19.177336 214 214 214 0
-9.487267 4.387861 31.004139 186 186 186 0
-9.344775 4.376667 30.925044 186 186 186 0
-9.239532 4.382855 30.968770 186 186 186 0
-9.123124 4.383839 30.975719 187 187 187 0
-8.988126 4.375798 30.918906 187 187 187 0
-8.853259 4.367608 30.861035 187 187 187 0
-8.695835 4.347918 30.721905 188 188 188 0
-8.585364 4.351486 30.747118 188 188 188 0
-8.454296 4.344569 30.698241 188 188 188 0
-8.328106 4.339999 30.665953 188 188 188 0
-8.170348 4.318613 30.514840 189 189 189 0
-8.057172 4.320512 30.528263 189 189 189 0
-7.958457 4.330337 30.597682 190 190 190 0
-7.826276 4.321974 30.538587 189 189 189 0
-7.693893 4.313243 30.476897 188 188 188 0
-7.556595 4.301446 30.393545 189 189 189 0
-7.420445 4.289945 30.312277 190 190 190 0
-7.284824 4.278389 30.230623 190 190 190 0
-7.171827 4.279961 30.241733 190 190 190 0
-7.075517 4.291707 30.324725 190 190 190 0
-6.924638 4.270193 30.172714 191 191 191 0
-6.797669 4.262945 30.121496 190 190 190 0
-6.677775 4.259960 30.100404 190 190 190 0
-6.549527 4.251447 30.040256 191 191 191 0
-6.422943 4.243730 29.985730 191 191 191 0
-6.265436 4.214930 29.782228 191 191 191 0
-6.176636 4.232140 29.903831 192 192 192 0
-6.045186 4.220224 29.819637 192 192 192 0
-5.895336 4.194758 29.639698 170 170 170 0
-5.463936 3.964032 28.009413 71 71 71 0
-6.278948 4.943002 34.926703 70 70 70 0
-3.788333 3.114851 22.009194 69 69 69 0
-4.461350 3.751590 26.508321 73 73 73 0
-3.655416 3.145358 22.224754 86 86 86 0
-3.497557 3.081181 21.771283 107 107 107 0
-3.367270 3.038756 21.471511 128 128 128 0
-3.247317 3.003769 21.224296 140 140 140 0
-3.130389 2.969856 20.984673 142 142 142 0
-3.029396 2.949675 20.842075 157 157 157 0
-2.927110 2.927110 20.682638 159 159 159 0
-2.821513 2.899888 20.490290 160 160 160 0
-2.724968 2.880680 20.354567 166 166 166 0
-2.623135 2.854588 20.170202 173 173 173 0
-2.525264 2.831357 20.006055 174 174 174 0
-2.433607 2.813858 19.882412 173 173 173 0
-2.344294 2.798028 19.770555 175 175 175 0
-2.261564 2.789262 19.708615 182 182 182 0
-2.179934 2.781295 19.652325 183 183 183 0
-2.094525 2.767765 19.556719 184 184 184 0
-2.011575 2.756602 19.477847 185 185 185 0
-1.923510 2.737303 19.341477 185 185 185 0
-1.837361 2.719294 19.214234 187 187 187 0
-1.755898 2.707010 19.127434 192 192 192 0
-1.678286 2.699852 19.076857 193 193 193 0
-1.601436 2.693325 19.030736 192 192 192 0
-1.526186 2.688995 19.000140 192 192 192 0
-1.448569 2.679853 18.935548 193 193 193 0
-1.370894 2.669635 18.863345 192 192 192 0
-1.292343 2.656482 18.770410 197 197 197 0
-1.216398 2.647453 18.706614 198 198 198 0
-1.139805 2.635800 18.624273 199 199 199 0
-1.067296 2.632663 18.602109 199 199 199 0
-0.995515 2.631004 18.590383 199 199 199 0
-0.922187 2.624686 18.545743 200 200 200 0
-0.849471 2.619201 18.506988 200 200 200 0
-0.776015 2.610231 18.443603 200 200 200 0
-0.702509 2.599285 18.366261 202 202 202 0
-0.630743 2.593053 18.322229 204 204 204 0
-0.559704 2.588633 18.290996 204 204 204 0
-0.489052 2.584991 18.265262 205 205 205 0
-0.418588 2.581290 18.239107 204 204 204 0
-0.348455 2.578569 18.219886 205 205 205 0
-0.278027 2.571746 18.171671 205 205 205 0
-0.207814 2.563038 18.110144 204 204 204 0
-0.138196 2.556620 18.064792 206 206 206 0
-0.068985 2.552459 18.035395 208 208 208 0
0.000000 2.552082 18.032729 209 209 209 0
0.069003 2.553122 18.040079 208 208 208 0
0.137681 2.547104 17.997555 209 209 209 0
0.206240 2.543629 17.972999 208 208 208 0
0.274127 2.535671 17.916772 208 208 208 0
0.342209 2.532344 17.893262 209 209 209 0
0.410165 2.529351 17.872115 209 209 209 0
0.478837 2.530995 17.883728 209 209 209 0
0.546254 2.526423 17.851423 209 209 209 0
0.614427 2.525979 17.848287 212 212 212 0
0.681098 2.520062 17.806478 211 211 211 0
0.748430 2.517447 17.788003 211 211 211 0
0.814983 2.512864 17.755621 212 212 212 0
0.882957 2.513033 17.756812 211 211 211 0
0.950266 2.511416 17.745389 212 212 212 0
1.018838 2.513135 17.757533 212 212 212 0
1.085059 2.509200 17.729728 212 212 212 0
1.151840 2.506945 17.713795 212 212 212 0
1.218465 2.504622 17.697380 213 213 213 0
1.284103 2.500622 17.669120 212 212 212 0
1.351845 2.500913 17.671175 213 213 213 0
1.420039 2.501974 17.678669 213 213 213 0
1.486824 2.500567 17.668733 214 214 214 0
1.554606 2.500888 17.670997 214 214 214 0
1.618882 2.495776 17.634879 214 214 214 0
1.687617 2.497673 17.648282 215 215 215 0
1.753865 2.495885 17.635650 215 215 215 0
1.822054 2.496889 17.642742 215 215 215 0
1.890877 2.498659 17.655249 215 215 215 0
1.957719 2.497779 17.649033 215 215 215 0
2.023401 2.495528 17.633122 216 216 216 0
2.091075 2.495799 17.635039 216 216 216 0
2.157475 2.494581 17.626432 215 215 215 0
2.226925 2.496855 17.642504 216 216 216 0
2.295168 2.497683 17.648349 216 216 216 0
2.364278 2.499380 17.660342 215 215 215 0
2.429987 2.497487 17.646964 216 216 216 0
2.496978 2.496978 17.643369 216 216 216 0
2.566861 2.499312 17.659863 216 216 216 0
2.636144 2.500958 17.671489 216 216 216 0
2.706499 2.503511 17.689535 216 216 216 0
2.777666 2.506675 17.711885 217 217 217 0
2.845825 2.507036 17.714440 216 216 216 0
2.913671 2.507113 17.714980 216 216 216 0
2.984927 2.510052 17.735751 217 217 217 0
3.056605 2.513208 17.758051 216 216 216 0
3.126001 2.514392 17.766419 217 217 217 0
3.197000 2.516787 17.783342 217 217 217 0
3.267704 2.518856 17.797955 217 217 217 0
3.337242 2.519958 17.805744 217 217 217 0
3.408975 2.522642 17.824708 217 217 217 0
3.483592 2.527312 17.857705 217 217 217 0
3.554867 2.529424 17.872633 217 217 217 0
3.628139 2.532852 17.896851 216 216 216 0
3.703101 2.537310 17.928351 216 216 216 0
3.777362 2.541135 17.955376 216 216 216 0
3.855293 2.547247 17.998567 217 217 217 0
3.927091 2.549165 18.012115 217 217 217 0
4.002582 2.553371 18.041838 216 216 216 0
4.076592 2.556507 18.063993 217 217 217 0
4.154012 2.561640 18.100268 217 217 217 0
4.232985 2.567548 18.142011 216 216 216 0
4.312285 2.573460 18.183785 216 216 216 0
4.392181 2.579535 18.226709 216 216 216 0
4.470909 2.584744 18.263519 217 217 217 0
4.555942 2.593382 18.324553 216 216 216 0
4.633305 2.597459 18.353359 216 216 216 0
4.713582 2.603023 18.392671 216 216 216 0
4.792768 2.607830 18.426636 215 215 215 0
4.879216 2.616391 18.487131 215 215 215 0
4.972463 2.628302 18.571291 215 215 215 0
5.055252 2.634427 18.614572 215 215 215 0
5.142490 2.642669 18.672804 215 215 215 0
5.229275 2.650454 18.727818 215 215 215 0
5.325485 2.662743 18.814645 214 214 214 0
5.418141 2.672950 18.886766 213 213 213 0
5.511913 2.683431 18.960829 213 213 213 0
5.613821 2.697550 19.060592 213 213 213 0
5.710617 2.708883 19.140665 213 213 213 0
5.805335 2.718954 19.211830 212 212 212 0
-9.487716 4.506665 31.005606 186 186 186 0
-9.351590 4.498233 30.947598 186 186 186 0
-9.226784 4.495100 30.926039 186 186 186 0
-9.115159 4.498390 30.948677 187 187 187 0
-8.994655 4.497328 30.941367 187 187 187 0
-8.843751 4.480834 30.827890 188 188 188 0
-8.691641 4.463275 30.707087 187 187 187 0
-8.574284 4.463326 30.707435 188 188 188 0
-8.452665 4.461129 30.692322 189 189 189 0
-8.347408 4.467627 30.737026 188 188 188 0
-8.207729 4.455624 30.654449 188 188 188 0
-8.058779 4.438168 30.534351 189 189 189 0
-7.949796 4.442533 30.564382 188 188 188 0
-7.805767 4.427151 30.458558 189 189 189 0
-7.706432 4.437037 30.526568 189 189 189 0
-7.552405 4.415252 30.376691 189 189 189 0
-7.417214 4.403971 30.299078 189 189 189 0
-7.307555 4.407731 30.324950 190 190 190 0
-7.167080 4.392726 30.221716 190 190 190 0
-7.045319 4.388887 30.195304 190 190 190 0
-6.917168 4.380873 30.140165 191 191 191 0
-6.792484 4.374820 30.098522 191 191 191 0
-6.666502 4.367708 30.049594 190 190 190 0
-6.554022 4.369348 30.060872 191 191 191 0
-6.423737 4.358964 29.989434 190 190 190 0
-6.284931 4.342316 29.874894 191 191 191 0
-6.160602 4.335238 29.826202 191 191 191 0
-6.042824 4.332591 29.807987 192 192 192 0
-5.922751 4.328164 29.777529 186 186 186 0
-5.704137 4.250142 29.240740 126 126 126 0
-3.390261 2.629182 18.088628 72 72 72 0
-6.405041 5.070657 34.885842 70 70 70 0
-5.651253 4.569099 31.435147 75 75 75 0
-4.573739 3.862268 26.572194 69 69 69 0
-3.668669 3.242080 22.305330 81 81 81 0
-3.509595 3.175348 21.846217 105 105 105 0
-3.384100 3.136483 21.578827 120 120 120 0
-3.259263 3.096300 21.302375 138 138 138 0
-3.141876 3.061315 21.061680 141 141 141 0
-3.036373 3.036373 20.890080 152 152 152 0
-2.935216 3.014546 20.739914 160 160 160 0
-2.829873 2.987088 20.551002 159 159 159 0
-2.732575 2.966796 20.411393 163 163 163 0
-2.624593 2.933369 20.181416 172 172 172 0
-2.529816 2.913122 20.042117 173 173 173 0
-2.437077 2.894029 19.910760 173 173 173 0
-2.351797 2.882848 19.833838 174 174 174 0
-2.265249 2.869315 19.740728 179 179 179 0
-2.181682 2.858756 19.668081 184 184 184 0
-2.099301 2.849051 19.601315 184 184 184 0
-2.010362 2.829399 19.466108 184 184 184 0
-1.928390 2.818416 19.390549 185 185 185 0
-1.840790 2.798001 19.250096 186 186 186 0
-1.759620 2.786065 19.167975 191 191 191 0
-1.680780 2.776941 19.105202 192 192 192 0
-1.604721 2.771790 19.069763 192 192 192 0
-1.527523 2.764089 19.016780 193 193 193 0
-1.451409 2.757677 18.972665 192 192 192 0
-1.371926 2.743853 18.877556 193 193 193 0
-1.293561 2.730851 18.788102 195 195 195 0
-1.217039 2.720440 18.716478 199 199 199 0
-1.141924 2.712071 18.658897 198 198 198 0
-1.069433 2.709229 18.639350 199 199 199 0
-0.996051 2.703566 18.600386 200 200 200 0
-0.923011 2.698031 18.562307 200 200 200 0
-0.850446 2.693079 18.528238 200 200 200 0
-0.776310 2.681800 18.450634 200 200 200 0
-0.702424 2.669209 18.364014 201 201 201 0
-0.631382 2.665834 18.340794 203 203 203 0
-0.560537 2.662552 18.318211 204 204 204 0
-0.489419 2.656847 18.278958 204 204 204 0
-0.419172 2.654755 18.264567 204 204 204 0
-0.348643 2.649690 18.229724 204 204 204 0
-0.278508 2.645830 18.203164 204 204 204 0
-0.208072 2.635575 18.132611 204 204 204 0
-0.138398 2.629569 18.091289 205 205 205 0
-0.069097 2.625696 18.064642 207 207 207 0
0.000000 2.623934 18.052520 208 208 208 0
0.069059 2.624240 18.054624 208 208 208 0
0.137858 2.619306 18.020680 208 208 208 0
0.206422 2.614684 17.988883 208 208 208 0
0.274666 2.609331 17.952057 209 209 209 0
0.342351 2.601867 17.900702 209 209 209 0
0.410611 2.600537 17.891553 209 209 209 0
0.478667 2.598475 17.877368 209 209 209 0
0.546932 2.597928 17.873605 209 209 209 0
0.614728 2.595518 17.857022 210 210 210 0
0.681310 2.588979 17.812032 211 211 211 0
0.749268 2.588379 17.807905 211 211 211 0
0.815998 2.583995 17.777745 212 212 212 0
0.883786 2.583373 17.773466 212 212 212 0
0.951544 2.582763 17.769270 212 212 212 0
1.018358 2.579841 17.749163 213 213 213 0
1.086386 2.580167 17.751406 212 212 212 0
1.152098 2.575277 17.717764 212 212 212 0
1.218820 2.573064 17.702541 212 212 212 0
1.285033 2.570067 17.681917 212 212 212 0
1.353190 2.571061 17.688755 213 213 213 0
1.420861 2.571082 17.688904 213 213 213 0
1.488438 2.570938 17.687915 213 213 213 0
1.555480 2.569923 17.680929 213 213 213 0
1.620363 2.565575 17.651013 214 214 214 0
1.688295 2.566209 17.655376 215 215 215 0
1.755307 2.565449 17.650145 214 214 214 0
1.823267 2.566080 17.654487 215 215 215 0
1.891823 2.567474 17.664080 215 215 215 0
1.957896 2.565519 17.650631 215 215 215 0
2.024937 2.564921 17.646512 215 215 215 0
2.091194 2.563400 17.636049 215 215 215 0
2.159405 2.564293 17.642196 215 215 215 0
2.229388 2.567175 17.662019 216 216 216 0
2.297259 2.567525 17.664429 215 215 215 0
2.366030 2.568833 17.673427 215 215 215 0
2.433408 2.568597 17.671806 215 215 215 0
2.499801 2.567363 17.663319 215 215 215 0
2.571173 2.571173 17.689532 216 216 216 0
2.639134 2.571464 17.691530 216 216 216 0
2.708819 2.573378 17.704698 217 217 217 0
2.779241 2.575882 17.721928 216 216 216 0
2.848524 2.577236 17.731243 216 216 216 0
2.917191 2.577983 17.736378 216 216 216 0
2.987060 2.579734 17.748427 216 216 216 0
3.058381 2.582633 17.768373 216 216 216 0
3.129602 2.585323 17.786880 217 217 217 0
3.200005 2.587238 17.800054 217 217 217 0
3.271949 2.590293 17.821073 216 216 216 0
3.341877 2.591660 17.830477 217 217 217 0
3.413580 2.594321 17.848783 217 217 217 0
3.487016 2.598169 17.875261 217 217 217 0
3.556909 2.599280 17.882901 217 217 217 0
3.632996 2.604789 17.920808 217 217 217 0
3.705676 2.607698 17.940817 216 216 216 0
3.780596 2.612048 17.970747 216 216 216 0
3.858607 2.618340 18.014038 216 216 216 0
3.931799 2.621200 18.033709 217 217 217 0
4.006292 2.624812 18.058564 217 217 217 0
4.080144 2.627889 18.079735 217 217 217 0
4.160242 2.634820 18.127417 216 216 216 0
4.237452 2.639724 18.161156 216 216 216 0
4.316982 2.645892 18.203593 216 216 216 0
4.397944 2.652728 18.250622 216 216 216 0
4.474989 2.657024 18.280182 216 216 216 0
4.558839 2.665167 18.336205 216 216 216 0
4.640450 2.671775 18.381662 216 216 216 0
4.720532 2.677317 18.419791 215 215 215 0
4.801345 2.683105 18.459613 215 215 215 0
4.889488 2.692761 18.526050 215 215 215 0
4.975750 2.701122 18.583568 215 215 215 0
5.063425 2.710002 18.644667 215 215 215 0
5.152285 2.719261 18.708369 215 215 215 0
5.237859 2.726557 18.758560 214 214 214 0
5.333084 2.738611 18.841491 214 214 214 0
5.424942 2.748638 18.910475 213 213 213 0
5.522664 2.761332 18.997812 214 214 214 0
5.623041 2.775007 19.091898 213 213 213 0
5.721025 2.787166 19.175547 213 213 213 0
5.816654 2.797884 19.249288 213 213 213 0
-9.503533 4.632972 31.057298 187 187 187 0
-9.358755 4.620145 30.971308 186 186 186 0
-9.239284 4.619642 30.967938 187 187 187 0
-9.138642 4.628663 31.028408 187 187 187 0
-8.968404 4.602207 30.851063 187 187 187 0
-8.847208 4.600548 30.839941 187 187 187 0
-8.713100 4.592039 30.782900 188 188 188 0
-8.568209 4.577536 30.685681 188 188 188 0
-8.469677 4.587742 30.754092 188 188 188 0
-8.330802 4.576074 30.675878 188 188 188 0
-8.217664 4.578413 30.691557 188 188 188 0
-8.068460 4.560434 30.571035 189 189 189 0
-7.948660 4.558790 30.560016 189 189 189 0
-7.819393 4.551587 30.511729 189 189 189 0
-7.694333 4.546651 30.478640 189 189 189 0
-7.566314 4.539788 30.432634 189 189 189 0
-7.428059 4.526474 30.343380 189 189 189 0
-7.292404 4.514346 30.262078 189 189 189 0
-7.175106 4.513373 30.255559 190 190 190 0
-7.047786 4.505962 30.205877 190 190 190 0
-6.900075 4.485049 30.065686 190 190 190 0
-6.777792 4.480236 30.033421 191 191 191 0
-6.662973 4.480275 30.033687 191 191 191 0
-6.546035 4.478866 30.024239 191 191 191 0
-6.443222 4.487244 30.080399 191 191 191 0
-6.281125 4.453889 29.856803 192 192 192 0
-6.156728 4.446526 29.807448 192 192 192 0
-6.055597 4.456006 29.870995 192 192 192 0
-5.931909 4.448932 29.823573 191 191 191 0
-5.767109 4.410142 29.563549 166 166 166 0
-6.664414 5.198243 34.846609 75 75 75 0
-5.651253 4.689338 31.435147 70 70 70 0
-6.122222 5.190580 34.795238 73 73 73 0
-4.320435 3.744377 25.100567 72 72 72 0
-5.883508 5.214927 34.958454 73 73 73 0
-3.668669 3.327398 22.305330 79 79 79 0
-3.517436 3.266191 21.895027 96 96 96 0
-3.398863 3.233065 21.672966 110 110 110 0
-3.281252 3.199221 21.446090 135 135 135 0
-3.152212 3.152212 21.130968 139 139 139 0
-3.052974 3.133316 21.004296 145 145 145 0
-2.946927 3.106220 20.822657 159 159 159 0
-2.835718 3.072028 20.593451 158 158 158 0
-2.730327 3.042364 20.394599 161 161 161 0
-2.632559 3.019699 20.242664 169 169 169 0
-2.534323 2.995109 20.077821 173 173 173 0
-2.445206 2.980095 19.977174 173 173 173 0
-2.356380 2.964479 19.872489 174 174 174 0
-2.270835 2.952086 19.789413 176 176 176 0
-2.187327 2.941577 19.718969 183 183 183 0
-2.102034 2.927833 19.626837 184 184 184 0
-2.015504 2.911283 19.515892 184 184 184 0
-1.927449 2.891174 19.381091 185 185 185 0
-1.843892 2.876471 19.282530 185 185 185 0
-1.761909 2.863102 19.192905 188 188 188 0
-1.681402 2.851072 19.112266 192 192 192 0
-1.605849 2.846732 19.083173 193 193 193 0
-1.531396 2.844021 19.064995 193 193 193 0
-1.452269 2.831924 18.983906 193 193 193 0
-1.375148 2.822672 18.921883 193 193 193 0
-1.295564 2.807055 18.817196 193 193 193 0
-1.218781 2.796028 18.743272 197 197 197 0
-1.143005 2.786075 18.676554 199 199 199 0
-1.070680 2.783768 18.661086 199 199 199 0
-0.996836 2.776900 18.615052 199 199 199 0
-0.924441 2.773324 18.591075 199 199 199 0
-0.850863 2.765306 18.537330 200 200 200 0
-0.777029 2.754919 18.467701 200 200 200 0
-0.703878 2.745125 18.402047 200 200 200 0
-0.631786 2.737741 18.352544 203 203 203 0
-0.560790 2.733853 18.326481 204 204 204 0
-0.490397 2.732214 18.315498 204 204 204 0
-0.419694 2.728011 18.287323 204 204 204 0
-0.349087 2.722875 18.252891 205 205 205 0
-0.278420 2.714591 18.197357 204 204 204 0
-0.208266 2.707458 18.149542 205 205 205 0
-0.138507 2.700895 18.105550 205 205 205 0
-0.069092 2.694596 18.063320 205 205 205 0
0.000000 2.693679 18.057177 208 208 208 0
0.069097 2.694802 18.064701 208 208 208 0
0.137893 2.688906 18.025176 208 208 208 0
0.206721 2.687373 18.014902 208 208 208 0
0.274620 2.677549 17.949046 208 208 208 0
0.342759 2.673519 17.922032 209 209 209 0
0.411312 2.673526 17.922079 209 209 209 0
0.479360 2.670719 17.903260 209 209 209 0
0.547484 2.668984 17.891634 209 209 209 0
0.615652 2.667826 17.883870 209 209 209 0
0.681737 2.658773 17.823183 211 211 211 0
0.749282 2.656545 17.808244 212 212 212 0
0.817077 2.655501 17.801245 212 212 212 0
0.884240 2.652719 17.782595 212 212 212 0
0.951954 2.651872 17.776920 212 212 212 0
1.019713 2.651253 17.772770 212 212 212 0
1.086564 2.648499 17.754311 212 212 212 0
1.152863 2.644804 17.729540 213 213 213 0
1.219827 2.642959 17.717168 212 212 212 0
1.287363 2.642483 17.713979 212 212 212 0
1.355461 2.643149 17.718444 213 213 213 0
1.422276 2.641369 17.706515 213 213 213 0
1.489588 2.640632 17.701575 213 213 213 0
1.556594 2.639443 17.693599 214 214 214 0
1.622265 2.636180 17.671728 214 214 214 0
1.690083 2.636530 17.674075 214 214 214 0
1.756530 2.634794 17.662439 213 213 213 0
1.825311 2.636560 17.674274 214 214 214 0
1.894691 2.639035 17.690864 214 214 214 0
1.960478 2.636505 17.673905 215 215 215 0
2.027045 2.635159 17.664880 214 214 214 0
2.093520 2.633784 17.655663 215 215 215 0
2.161084 2.633821 17.655914 214 214 214 0
2.231093 2.636746 17.675523 215 215 215 0
2.299342 2.637481 17.680446 215 215 215 0
2.369368 2.640153 17.698361 216 216 216 0
2.435252 2.638190 17.685200 216 216 216 0
2.502849 2.638138 17.684852 215 215 215 0
2.573805 2.641537 17.707638 216 216 216 0
2.642426 2.642426 17.713595 216 216 216 0
2.712345 2.644537 17.727746 216 216 216 0
2.781976 2.646270 17.739368 217 217 217 0
2.850904 2.647268 17.746056 216 216 216 0
2.920374 2.648712 17.755734 216 216 216 0
2.990320 2.650511 17.767794 217 217 217 0
3.059622 2.651672 17.775580 216 216 216 0
3.130854 2.654420 17.793999 216 216 216 0
3.202997 2.657806 17.816697 216 216 216 0
3.273740 2.659914 17.830830 217 217 217 0
3.344301 2.661791 17.843409 216 216 216 0
3.417054 2.665302 17.866950 216 216 216 0
3.491989 2.670344 17.900750 216 216 216 0
3.564253 2.673190 17.919825 216 216 216 0
3.637065 2.676331 17.940880 217 217 217 0
3.710955 2.680134 17.966374 216 216 216 0
3.786933 2.685280 18.000869 216 216 216 0
3.862546 2.689988 18.032430 216 216 216 0
3.935157 2.692476 18.049110 216 216 216 0
4.008964 2.695683 18.070606 216 216 216 0
4.084093 2.699655 18.097232 217 217 217 0
4.164234 2.706752 18.144809 216 216 216 0
4.245377 2.714257 18.195123 216 216 216 0
4.323471 2.719602 18.230953 216 216 216 0
4.399810 2.723692 18.258368 216 216 216 0
4.478772 2.729252 18.295638 216 216 216 0
4.566024 2.739614 18.365104 216 216 216 0
4.644420 2.744430 18.397387 216 216 216 0
4.724241 2.749931 18.434264 215 215 215 0
4.806649 2.756754 18.480003 215 215 215 0
4.896541 2.767610 18.552775 215 215 215 0
4.985480 2.777625 18.619908 215 215 215 0
5.070697 2.785312 18.671442 215 215 215 0
5.157442 2.793614 18.727094 214 214 214 0
5.244567 2.801892 18.782586 214 214 214 0
5.345166 2.817047 18.884177 213 213 213 0
5.435474 2.826446 18.947186 213 213 213 0
5.530651 2.838097 19.025288 213 213 213 0
5.628920 2.851012 19.111859 214 214 214 0
5.728121 2.864060 19.199332 213 213 213 0
5.826951 2.876596 19.283364 211 211 211 0
-9.424800 4.712400 30.800000 187 187 187 0
-9.344775 4.731532 30.925044 187 187 187 0
-9.210537 4.723352 30.871584 187 187 187 0
-9.089554 4.721846 30.861741 187 187 187 0
-8.981865 4.727297 30.897368 187 187 187 0
-8.841989 4.715727 30.821746 187 187 187 0
-8.713100 4.709784 30.782900 187 187 187 0
-8.580848 4.701835 30.730945 188 188 188 0
-8.457831 4.698795 30.711080 187 187 187 0
-8.338924 4.697985 30.705785 188 188 188 0
-8.188832 4.679332 30.583872 188 188 188 0
-8.073681 4.680395 30.590816 189 189 189 0
-7.918920 4.658188 30.445676 190 190 190 0
-7.807915 4.661442 30.466941 189 189 189 0
-7.694926 4.663592 30.480991 188 188 188 0
-7.554621 4.648998 30.385605 190 190 190 0
-7.434552 4.646595 30.369902 189 189 189 0
-7.300124 4.634999 30.294114 189 189 189 0
-7.183824 4.634725 30.292322 190 190 190 0
-7.046309 4.620531 30.199546 190 190 190 0
-6.926988 4.617992 30.182955 190 190 190 0
-6.774048 4.592575 30.016830 190 190 190 0
-6.676573 4.604533 30.094986 190 190 190 0
-6.538588 4.588483 29.990084 190 190 190 0
-6.430479 4.593199 30.020910 190 190 190 0
-6.272868 4.562086 29.817553 191 191 191 0
-6.170837 4.570990 29.875754 191 191 191 0
-6.058466 4.572427 29.885146 191 191 191 0
-5.926287 4.558682 29.795309 191 191 191 0
-5.793640 4.544031 29.699551 187 187 187 0
-5.606393 4.485115 29.314474 117 117 117 0
-3.098667 2.694493 17.611068 69 69 69 0
-3.407054 3.097322 20.243936 72 72 72 0
-3.678354 3.503194 22.896693 87 87 87 0
-3.411590 3.328381 21.754123 107 107 107 0
-3.291769 3.291769 21.514832 127 127 127 0
-3.180277 3.261823 21.319103 139 139 139 0
-3.062774 3.223972 21.071714 142 142 142 0
-2.954357 3.193899 20.875158 156 156 156 0
-2.848091 3.164545 20.683301 159 159 159 0
-2.738958 3.130238 20.459073 159 159 159 0
-2.636951 3.102296 20.276443 165 165 165 0
-2.538422 3.076875 20.110295 173 173 173 0
-2.448317 3.060396 20.002588 174 174 174 0
-2.360574 3.045902 19.907855 173 173 173 0
-2.277019 3.036025 19.843300 174 174 174 0
-2.190959 3.022012 19.751713 181 181 181 0
-2.106249 3.008927 19.666192 183 183 183 0
-2.017802 2.989336 19.538142 184 184 184 0
-1.933416 2.974486 19.441087 185 185 185 0
-1.845674 2.953078 19.301162 185 185 185 0
-1.764143 2.940238 19.217244 187 187 187 0
-1.686200 2.932522 19.166812 192 192 192 0
-1.609713 2.926751 19.129091 192 192 192 0
-1.532289 2.918645 19.076112 193 193 193 0
-1.454949 2.909897 19.018936 193 193 193 0
-1.377356 2.899697 18.952268 193 193 193 0
-1.297617 2.883594 18.847018 193 193 193 0
-1.219806 2.870133 18.759038 196 196 196 0
-1.144581 2.861451 18.702296 198 198 198 0
-1.071301 2.856802 18.671910 199 199 199 0
-0.999434 2.855525 18.663562 199 199 199 0
-0.925809 2.848642 18.618578 199 199 199 0
-0.852125 2.840417 18.564815 199 199 199 0
-0.778136 2.829586 18.494025 200 200 200 0
-0.704393 2.817574 18.415516 200 200 200 0
-0.632840 2.812623 18.383155 202 202 202 0
-0.561982 2.809909 18.365420 205 205 205 0
-0.490893 2.805100 18.333988 204 204 204 0
-0.420196 2.801305 18.309185 204 204 204 0
-0.349574 2.796588 18.278354 205 205 205 0
-0.278655 2.786551 18.212750 205 205 205 0
-0.208752 2.783361 18.191899 204 204 204 0
-0.138698 2.773958 18.130446 205 205 205 0
-0.069167 2.766681 18.082881 205 205 205 0
0.000000 2.766520 18.081830 207 207 207 0
0.069174 2.766946 18.084614 208 208 208 0
0.138106 2.762117 18.053052 208 208 208 0
0.206863 2.758172 18.027270 209 209 209 0
0.275028 2.750276 17.975658 208 208 208 0
0.342943 2.743541 17.931643 209 209 209 0
0.411511 2.743410 17.930782 209 209 209 0
0.480185 2.743915 17.934082 209 209 209 0
0.547735 2.738677 17.899849 209 209 209 0
0.615980 2.737688 17.893385 209 209 209 0
0.682659 2.730634 17.847281 209 209 209 0
0.750336 2.728496 17.833307 210 210 210 0
0.817270 2.724235 17.805456 212 212 212 0
0.884992 2.723054 17.797736 211 211 211 0
0.953309 2.723739 17.802214 212 212 212 0
1.021051 2.722803 17.796100 212 212 212 0
1.088695 2.721738 17.789139 213 213 213 0
1.154542 2.716569 17.755352 212 212 212 0
1.221406 2.714235 17.740101 212 212 212 0
1.288150 2.711895 17.724803 213 213 213 0
1.355529 2.711059 17.719338 213 213 213 0
1.424600 2.713524 17.735453 213 213 213 0
1.491403 2.711643 17.723155 213 213 213 0
1.558663 2.710718 17.717109 213 213 213 0
1.624392 2.707319 17.694898 213 213 213 0
1.692512 2.708020 17.699475 214 214 214 0
1.759309 2.706630 17.690390 214 214 214 0
1.826703 2.706227 17.687760 213 213 213 0
1.895725 2.708178 17.700512 214 214 214 0
1.962233 2.706529 17.689730 214 214 214 0
2.030285 2.707047 17.693119 214 214 214 0
2.096069 2.704605 17.677160 215 215 215 0
2.163550 2.704437 17.676059 215 215 215 0
2.234020 2.707903 17.698713 215 215 215 0
2.302490 2.708811 17.704649 215 215 215 0
2.370883 2.709580 17.709673 215 215 215 0
2.437592 2.708435 17.702190 215 215 215 0
2.505571 2.708725 17.704084 215 215 215 0
2.576800 2.712421 17.728240 216 216 216 0
2.645135 2.712959 17.731757 216 216 216 0
2.716489 2.716489 17.754832 216 216 216 0
2.785300 2.717366 17.760564 216 216 216 0
2.853968 2.718065 17.765129 216 216 216 0
2.924208 2.720194 17.779044 216 216 216 0
2.994677 2.722433 17.793681 216 216 216 0
3.064909 2.724363 17.806296 216 216 216 0
3.135916 2.726883 17.822765 216 216 216 0
3.203762 2.726606 17.820956 217 217 217 0
3.276903 2.730752 17.848053 216 216 216 0
3.348163 2.733194 17.864013 216 216 216 0
3.421757 2.737406 17.891542 216 216 216 0
3.496764 2.742560 17.925230 216 216 216 0
3.566994 2.743841 17.933603 216 216 216 0
3.642425 2.749000 17.967320 217 217 217 0
3.714811 2.751712 17.985044 216 216 216 0
3.790523 2.756744 18.017933 216 216 216 0
3.864236 2.760169 18.040317 217 217 217 0
3.937882 2.763426 18.061608 216 216 216 0
4.014845 2.768859 18.097114 215 215 215 0
4.089314 2.772416 18.120368 216 216 216 0
4.170814 2.780543 18.173482 216 216 216 0
4.248357 2.785808 18.207894 216 216 216 0
4.328141 2.792349 18.250649 216 216 216 0
4.407212 2.798230 18.289084 215 215 215 0
4.485665 2.803541 18.323796 216 216 216 0
4.571173 2.813029 18.385812 215 215 215 0
4.650032 2.818201 18.419615 215 215 215 0
4.731266 2.824636 18.461675 215 215 215 0
4.815830 2.832841 18.515301 215 215 215 0
4.904113 2.842964 18.581463 215 215 215 0
4.991257 2.852147 18.641482 215 215 215 0
5.076258 2.859864 18.691919 214 214 214 0
5.165281 2.869600 18.755558 214 214 214 0
5.255855 2.879920 18.823008 213 213 213 0
5.354197 2.894160 18.916081 213 213 213 0
5.445761 2.904406 18.983046 213 213 213 0
5.543768 2.917772 19.070408 213 213 213 0
5.641990 2.930904 19.156233 212 212 212 0
5.741982 2.944606 19.245791 212 212 212 0
5.841379 2.957660 19.331112 211 211 211 0
-9.488179 4.862692 31.007121 186 186 186 0
-9.373113 4.864527 31.018823 187 187 187 0
-9.237671 4.855699 30.962531 187 187 187 0
-9.129724 4.861282 30.998130 187 187 187 0
-8.991167 4.850498 30.929366 188 188 188 0
-8.856584 4.841599 30.872624 187 187 187 0
-8.700561 4.820581 30.738600 188 188 188 0
-8.583679 4.820970 30.741082 188 188 188 0
-8.446539 4.809835 30.670077 188 188 188 0
-8.333343 4.812212 30.685236 188 188 188 0
-8.211511 4.809599 30.668576 189 189 189 0
-8.075293 4.798363 30.596924 189 189 189 0
-7.949660 4.793178 30.563862 189 189 189 0
-7.821017 4.785996 30.518065 189 189 189 0
-7.687334 4.775465 30.450918 189 189 189 0
-7.557164 4.766827 30.395833 189 189 189 0
-7.431268 4.760656 30.356488 190 190 190 0
-7.299490 4.750462 30.291481 190 190 190 0
-7.167053 4.739502 30.221600 190 190 190 0
-7.046309 4.736044 30.199546 190 190 190 0
-6.908641 4.720905 30.103011 189 189 189 0
-6.788514 4.717442 30.080930 190 190 190 0
-6.667146 4.712982 30.052495 191 191 191 0
-6.549338 4.710928 30.039392 190 190 190 0
-6.419333 4.699869 29.968874 191 191 191 0
-6.299416 4.695928 29.943749 192 192 192 0
-6.159144 4.676387 29.819142 192 192 192 0
-6.065119 4.691885 29.917963 192 192 192 0
-5.929504 4.675185 29.811481 192 192 192 0
-5.802841 4.665029 29.746718 191 191 191 0
-5.615819 4.604971 29.363757 169 169 169 0
-5.311412 4.444242 28.338865 77 77 77 0
-5.377372 4.792875 30.561933 73 73 73 0
-5.750934 5.483448 34.965396 76 76 76 0
-3.821210 3.730229 23.785933 80 80 80 0
-3.433860 3.433860 21.896129 104 104 104 0
-3.318145 3.401098 21.687220 120 120 120 0
-3.183008 3.346239 21.337408 138 138 138 0
-3.076770 3.319673 21.168012 140 140 140 0
-2.964257 3.284718 20.945115 151 151 151 0
-2.854129 3.250535 20.727151 159 159 159 0
-2.745353 3.215985 20.506837 160 160 160 0
-2.638625 3.181871 20.289312 161 161 161 0
-2.548548 3.166378 20.190519 171 171 171 0
-2.450526 3.139736 20.020635 173 173 173 0
-2.366489 3.129873 19.957743 173 173 173 0
-2.281345 3.117838 19.881000 175 175 175 0
-2.195885 3.104527 19.796120 178 178 178 0
-2.110467 3.090327 19.705575 184 184 184 0
-2.021990 3.070429 19.578698 185 185 185 0
-1.938148 3.056310 19.488665 184 184 184 0
-1.847874 3.030514 19.324174 185 185 185 0
-1.767738 3.019886 19.256404 185 185 185 0
-1.690135 3.012849 19.211533 190 190 190 0
-1.613323 3.006647 19.171991 192 192 192 0
-1.536062 2.998977 19.123083 192 192 192 0
-1.456466 2.985754 19.038765 192 192 192 0
-1.378247 2.974111 18.964523 193 193 193 0
-1.298470 2.957626 18.859403 193 193 193 0
-1.221258 2.945387 18.781362 194 194 194 0
-1.146358 2.937544 18.731348 198 198 198 0
-1.073894 2.935310 18.717104 199 199 199 0
-1.000990 2.931470 18.692617 199 199 199 0
-0.926131 2.920875 18.625061 199 199 199 0
-0.852798 2.913726 18.579473 200 200 200 0
-0.779438 2.905177 18.524963 200 200 200 0
-0.705577 2.892868 18.446469 200 200 200 0
-0.632961 2.883489 18.386664 200 200 200 0
-0.562224 2.881398 18.373332 203 203 203 0
-0.491367 2.878009 18.351726 203 203 203 0
-0.420734 2.875019 18.332656 204 204 204 0
-0.349962 2.869691 18.298681 204 204 204 0
-0.279181 2.861608 18.247144 205 205 205 0
-0.208857 2.854378 18.201037 204 204 204 0
-0.138901 2.847465 18.156962 205 205 205 0
-0.069324 2.842298 18.124009 205 205 205 0
0.000000 2.841139 18.116619 205 205 205 0
0.069247 2.839110 18.103685 207 207 207 0
0.138281 2.834768 18.075998 208 208 208 0
0.206790 2.826134 18.020940 209 209 209 0
0.275082 2.819589 17.979209 208 208 208 0
0.343547 2.817089 17.963264 210 210 210 0
0.412026 2.815512 17.953210 209 209 209 0
0.480664 2.815315 17.951951 209 209 209 0
0.548737 2.812275 17.932568 209 209 209 0
0.616574 2.808835 17.910633 210 210 210 0
0.683839 2.803739 17.878138 210 210 210 0
0.751211 2.799967 17.854085 210 210 210 0
0.818784 2.797510 17.838421 210 210 210 0
0.886062 2.794504 17.819253 212 212 212 0
0.953762 2.793161 17.810686 213 213 213 0
1.022341 2.794398 17.818576 212 212 212 0
1.089272 2.791260 17.798568 213 213 213 0
1.156106 2.788256 17.779412 212 212 212 0
1.223777 2.787491 17.774533 212 212 212 0
1.289959 2.783596 17.749698 213 213 213 0
1.358375 2.784669 17.756540 213 213 213 0
1.426457 2.784988 17.758573 213 213 213 0
1.492557 2.781584 17.736865 213 213 213 0
1.559972 2.780820 17.731996 213 213 213 0
1.627301 2.779973 17.726590 214 214 214 0
1.693880 2.777964 17.713783 214 214 214 0
1.760911 2.776821 17.706498 214 214 214 0
1.829320 2.777856 17.713095 214 214 214 0
1.898748 2.780310 17.728741 214 214 214 0
1.965035 2.778153 17.714987 215 215 215 0
2.031867 2.776884 17.706898 214 214 214 0
2.098582 2.775543 17.698347 214 214 214 0
2.167068 2.776556 17.704807 215 215 215 0
2.237877 2.780393 17.729273 215 215 215 0
2.305143 2.779732 17.725054 215 215 215 0
2.374242 2.781255 17.734768 215 215 215 0
2.440569 2.779537 17.723811 215 215 215 0
2.507563 2.778651 17.718164 216 216 216 0
2.579463 2.783105 17.746565 215 215 215 0
2.649620 2.785498 17.761821 216 216 216 0
2.718537 2.786501 17.768218 216 216 216 0
2.785995 2.785995 17.764994 216 216 216 0
2.858661 2.790597 17.794340 216 216 216 0
2.926906 2.790771 17.795447 216 216 216 0
2.995751 2.791495 17.800065 216 216 216 0
3.067051 2.794425 17.818745 216 216 216 0
3.138648 2.797490 17.838294 216 216 216 0
3.207694 2.798201 17.842823 216 216 216 0
3.280752 2.802309 17.869018 217 217 217 0
3.352293 2.804980 17.886050 216 216 216 0
3.426823 2.809995 17.918030 216 216 216 0
3.501889 2.815244 17.951500 216 216 216 0
3.573361 2.817457 17.965614 217 217 217 0
3.646304 2.820725 17.986452 216 216 216 0
3.718297 2.823152 18.001923 216 216 216 0
3.796720 2.830282 18.047392 216 216 216 0
3.871868 2.834760 18.075946 216 216 216 0
3.945329 2.837868 18.095763 216 216 216 0
4.018748 2.840839 18.114710 215 215 215 0
4.096316 2.846592 18.151393 215 215 215 0
4.175873 2.853514 18.195527 216 216 216 0
4.254568 2.859628 18.234515 215 215 215 0
4.332169 2.864821 18.267631 216 216 216 0
4.413915 2.872548 18.316901 215 215 215 0
4.491459 2.877341 18.347462 216 216 216 0
4.578426 2.887930 18.414986 215 215 215 0
4.657959 2.893580 18.451015 215 215 215 0
4.739090 2.900040 18.492206 215 215 215 0
4.824058 2.908623 18.546936 214 214 214 0
4.911108 2.918195 18.607970 215 215 215 0
4.998615 2.927760 18.668965 215 215 215 0
5.085340 2.936605 18.725362 215 215 215 0
5.173816 2.946201 18.786550 214 214 214 0
5.266629 2.957970 18.861595 214 214 214 0
5.363998 2.971945 18.950709 213 213 213 0
5.457239 2.983291 19.023055 213 213 213 0
5.553348 2.995885 19.103366 213 213 213 0
5.653288 3.010192 19.194595 213 213 213 0
5.754986 3.025056 19.289377 212 212 212 0
5.855686 3.039027 19.378458 210 210 210 0
-9.507183 4.991271 31.069225 186 186 186 0
-9.394300 4.994438 31.088939 186 186 186 0
-9.251880 4.981782 31.010157 187 187 187 0
-9.122738 4.976039 30.974410 187 187 187 0
-8.963212 4.953354 30.833204 186 186 186 0
-8.846473 4.954025 30.837380 188 188 188 0
-8.675386 4.923868 30.649660 187 187 187 0
-8.559454 4.924617 30.654326 188 188 188 0
-8.475347 4.943952 30.774679 188 188 188 0
-8.318684 4.920911 30.631257 188 188 188 0
-8.171131 4.902678 30.517762 188 188 188 0
-8.051630 4.900992 30.507265 188 188 188 0
-7.939089 4.903555 30.523218 189 189 189 0
-7.808501 4.894881 30.469225 189 189 189 0
-7.680087 4.887328 30.422212 189 189 189 0
-7.556555 4.882697 30.393383 189 189 189 0
-7.415120 4.866173 30.290524 190 190 190 0
-7.300753 4.867169 30.296725 189 189 189 0
-7.187906 4.869226 30.309532 190 190 190 0
-7.062664 4.862818 30.269642 190 190 190 0
-6.935956 4.855169 30.222029 189 189 189 0
-6.787949 4.832099 30.078428 190 190 190 0
-6.670373 4.830270 30.067040 191 191 191 0
-6.552703 4.828307 30.054822 191 191 191 0
-6.421585 4.816188 29.979387 191 191 191 0
-6.277490 4.793719 29.839524 192 192 192 0
-6.179262 4.806093 29.916544 192 192 192 0
-6.049439 4.793895 29.840618 191 191 191 0
-5.939608 4.797376 29.862282 192 192 192 0
-5.802875 4.778838 29.746893 192 192 192 0
-5.673807 4.765998 29.666963 188 188 188 0
-5.499784 4.714100 29.343916 131 131 131 0
-5.760997 5.040872 31.377977 71 71 71 0
-4.328370 3.951990 24.600000 70 70 70 0
-5.883552 5.616117 34.958714 70 70 70 0
-3.512171 3.597834 22.395482 95 95 95 0
-3.355698 3.523483 21.932666 113 113 113 0
-3.209765 3.456669 21.516772 133 133 133 0
-3.090804 3.416152 21.264562 139 139 139 0
-2.975652 3.377767 21.025629 147 147 147 0
-2.853975 3.329637 20.726032 158 158 158 0
-2.754003 3.304804 20.571454 160 160 160 0
-2.649808 3.273292 20.375302 161 161 161 0
-2.555786 3.252819 20.247861 169 169 169 0
-2.460951 3.229998 20.105809 174 174 174 0
-2.374209 3.216671 20.022850 175 175 175 0
-2.287371 3.202320 19.933517 175 175 175 0
-2.200334 3.186691 19.836231 176 176 176 0
-2.114350 3.171525 19.741830 182 182 182 0
-2.026971 3.153067 19.626933 184 184 184 0
-1.936749 3.128595 19.474603 185 185 185 0
-1.853322 3.113581 19.381142 184 184 184 0
-1.772064 3.101113 19.303534 185 185 185 0
-1.692939 3.091454 19.243412 187 187 187 0
-1.613924 3.081128 19.179134 191 191 191 0
-1.538219 3.076439 19.149944 193 193 193 0
-1.460326 3.066685 19.089234 192 192 192 0
-1.380263 3.051108 18.992270 193 193 193 0
-1.299785 3.032831 18.878502 193 193 193 0
-1.223319 3.022317 18.813056 193 193 193 0
-1.147901 3.013241 18.756555 196 196 196 0
-1.075950 3.012659 18.752933 199 199 199 0
-1.002452 3.007356 18.719924 200 200 200 0
-0.928092 2.998451 18.664492 199 199 199 0
-0.855134 2.992968 18.630367 200 200 200 0
-0.780525 2.980186 18.550798 200 200 200 0
-0.706361 2.966718 18.466966 199 199 199 0
-0.633776 2.957623 18.410349 200 200 200 0
-0.563115 2.956352 18.402440 202 202 202 0
-0.491920 2.951519 18.372353 203 203 203 0
-0.421853 2.952969 18.381380 205 205 205 0
-0.350321 2.942696 18.317438 204 204 204 0
-0.279297 2.932619 18.254708 205 205 205 0
-0.208961 2.925451 18.210090 205 205 205 0
-0.139088 2.920839 18.181382 205 205 205 0
-0.069434 2.916247 18.152799 205 205 205 0
0.000000 2.915558 18.148506 205 205 205 0
0.069304 2.910761 18.118650 206 206 206 0
0.138325 2.904826 18.081707 208 208 208 0
0.207241 2.901377 18.060234 209 209 209 0
0.275420 2.891914 18.001331 208 208 208 0
0.343939 2.889086 17.983727 209 209 209 0
0.412644 2.888505 17.980112 209 209 209 0
0.480896 2.885378 17.960645 209 209 209 0
0.549408 2.884392 17.954512 210 210 210 0
0.617373 2.881074 17.933859 210 210 210 0
0.684707 2.875771 17.900846 210 210 210 0
0.751701 2.870132 17.865742 209 209 209 0
0.818957 2.866348 17.842192 210 210 210 0
0.887309 2.866690 17.844322 210 210 210 0
0.955100 2.865300 17.835666 211 211 211 0
1.022903 2.864127 17.828368 212 212 212 0
1.089673 2.860392 17.805120 213 213 213 0
1.157118 2.858761 17.794966 213 213 213 0
1.224070 2.856163 17.778790 213 213 213 0
1.291665 2.855260 17.773174 212 212 212 0
1.359559 2.855074 17.772016 213 213 213 0
1.427060 2.854120 17.766073 213 213 213 0
1.494676 2.853473 17.762047 213 213 213 0
1.561873 2.852116 17.753599 213 213 213 0
1.627455 2.848046 17.728267 213 213 213 0
1.696571 2.850239 17.741917 213 213 213 0
1.763020 2.847956 17.727706 214 214 214 0
1.832068 2.849883 17.739701 214 214 214 0
1.900377 2.850565 17.743948 214 214 214 0
1.966745 2.848390 17.730406 214 214 214 0
2.033901 2.847462 17.724629 215 215 215 0
2.101495 2.847187 17.722919 215 215 215 0
2.170402 2.848653 17.732045 215 215 215 0
2.239471 2.850236 17.741898 215 215 215 0
2.307535 2.850484 17.743442 215 215 215 0
2.375548 2.850658 17.744525 215 215 215 0
2.443240 2.850447 17.743209 215 215 215 0
2.512501 2.852028 17.753051 215 215 215 0
2.582382 2.854212 17.766649 216 216 216 0
2.651582 2.855550 17.774978 215 215 215 0
2.720596 2.856625 17.781671 215 215 215 0
2.789417 2.857451 17.786811 216 216 216 0
2.858658 2.858658 17.794324 216 216 216 0
2.930575 2.862422 17.817753 216 216 216 0
3.001207 2.864789 17.832486 216 216 216 0
3.070976 2.866244 17.841543 216 216 216 0
3.142475 2.869216 17.860044 215 215 215 0
3.212130 2.870414 17.867499 216 216 216 0
3.283706 2.873243 17.885109 216 216 216 0
3.358821 2.878989 17.920879 217 217 217 0
3.431191 2.882201 17.940869 216 216 216 0
3.505867 2.887184 17.971891 216 216 216 0
3.578653 2.890450 17.992221 216 216 216 0
3.651079 2.893308 18.010008 216 216 216 0
3.723088 2.895735 18.025118 216 216 216 0
3.800274 2.902027 18.064283 217 217 217 0
3.875913 2.906935 18.094832 216 216 216 0
3.949480 2.910143 18.114805 215 215 215 0
4.028129 2.916921 18.156995 216 216 216 0
4.105807 2.922778 18.193452 216 216 216 0
4.183957 2.928770 18.230748 216 216 216 0
4.263146 2.935281 18.271276 216 216 216 0
4.338797 2.939185 18.295580 215 215 215 0
4.417876 2.945251 18.333338 215 215 215 0
4.499399 2.952731 18.379899 216 216 216 0
4.582731 2.961149 18.432301 215 215 215 0
4.665090 2.968694 18.479265 215 215 215 0
4.749603 2.977363 18.533228 215 215 215 0
4.833111 2.985157 18.581743 214 214 214 0
4.922462 2.996281 18.650986 215 215 215 0
5.007281 3.004369 18.701330 215 215 215 0
5.093630 3.013133 18.755887 214 214 214 0
5.181229 3.022383 18.813467 214 214 214 0
5.279086 3.037283 18.906210 213 213 213 0
5.373497 3.049823 18.984267 213 213 213 0
5.466146 3.061042 19.054103 212 212 212 0
5.566796 3.076387 19.149623 213 213 213 0
5.667070 3.091129 19.241389 212 212 212 0
5.769490 3.106648 19.337992 210 210 210 0
5.876646 3.124293 19.447822 210 210 210 0
-9.507183 5.110111 31.069225 186 186 186 0
-9.358140 5.093671 30.969273 186 186 186 0
-9.247968 5.098239 30.997044 188 188 188 0
-9.139509 5.103881 31.031351 187 187 187 0
-9.010440 5.098012 30.995667 187 187 187 0
-8.856584 5.077775 30.872624 188 188 188 0
-8.721503 5.067901 30.812589 188 188 188 0
-8.588350 5.058891 30.757811 187 187 187 0
-8.462918 5.054243 30.729549 188 188 188 0
-8.347007 5.055230 30.735551 187 187 187 0
-8.215536 5.046686 30.683608 188 188 188 0
-8.051030 5.017309 30.504992 188 188 188 0
-7.948817 5.026458 30.560618 189 189 189 0
-7.824084 5.021427 30.530033 189 189 189 0
-7.682235 5.005092 30.430718 189 189 189 0
-7.531424 4.982326 30.292302 189 189 189 0
-7.427278 4.990203 30.340190 189 189 189 0
-7.292866 4.977671 30.263995 190 190 190 0
-7.191933 4.987953 30.326515 189 189 189 0
-7.047786 4.968112 30.205877 190 190 190 0
-6.907146 4.950121 30.096497 191 191 191 0
-6.777876 4.939808 30.033792 190 190 190 0
-6.665676 4.941794 30.045868 190 190 190 0
-6.556722 4.946299 30.073257 190 190 190 0
-6.427865 4.935682 30.008709 191 191 191 0
-6.317117 4.938837 30.027887 191 191 191 0
-6.170469 4.913521 29.873972 191 191 191 0
-6.049607 4.908172 29.841447 192 192 192 0
-5.928752 4.902622 29.807704 191 191 191 0
-5.807055 4.896144 29.768318 192 192 192 0
-5.669960 4.876166 29.646849 191 191 191 0
-5.527612 4.850762 29.492394 179 179 179 0
-5.415746 4.851606 29.497527 96 96 96 0
-3.971425 3.633432 22.091087 69 69 69 0
-4.278928 4.181679 25.424406 69 69 69 0
-3.525850 3.697842 22.482702 82 82 82 0
-3.349865 3.601105 21.894542 109 109 109 0
-3.229567 3.560805 21.649518 126 126 126 0
-3.095189 3.502451 21.294730 140 140 140 0
-2.979521 3.462687 21.052967 143 143 143 0
-2.869123 3.427008 20.836040 156 156 156 0
-2.765188 3.397230 20.654996 160 160 160 0
-2.663989 3.369163 20.484345 161 161 161 0
-2.563892 3.340829 20.312079 164 164 164 0
-2.473264 3.323448 20.206404 173 173 173 0
-2.378239 3.298848 20.056836 174 174 174 0
-2.296155 3.291155 20.010063 174 174 174 0
-2.205590 3.270357 19.883612 174 174 174 0
