ply
format ascii 1.0
element vertex 1105
property float x
property float y
property float z
property uchar red
property uchar green
property uchar blue
property uchar alpha
end_header
5.025937 -0.494354 21.540497 207 207 207 0
5.124935 -0.495961 21.610521 207 207 207 0
5.227123 -0.497821 21.691559 206 206 206 0
5.319865 -0.498737 21.731475 207 207 207 0
5.416394 -0.499975 21.785395 206 206 206 0
5.514149 -0.501286 21.842541 205 205 205 0
5.631851 -0.504345 21.975811 203 203 203 0
5.724448 -0.505098 22.008641 203 203 203 0
5.831127 -0.507054 22.093877 204 204 204 0
5.948583 -0.509879 22.216929 202 202 202 0
6.067442 -0.512742 22.341681 200 200 200 0
6.183984 -0.515332 22.454554 200 200 200 0
6.320489 -0.519492 22.635828 198 198 198 0
6.467946 -0.524428 22.850897 195 195 195 0
6.634035 -0.530723 23.125177 192 192 192 0
6.808770 -0.537534 23.421980 178 178 178 0
6.932268 -0.540177 23.537111 103 103 103 0
-6.062275 -0.378892 19.811355 194 194 194 0
-5.991932 -0.379236 19.829344 195 195 195 0
-5.920983 -0.379550 19.845762 196 196 196 0
-5.822150 -0.378062 19.767932 197 197 197 0
-5.743379 -0.377854 19.757066 200 200 200 0
-5.656484 -0.377099 19.717592 200 200 200 0
-5.544983 -0.374661 19.590118 200 200 200 0
-5.467937 -0.374516 19.582548 200 200 200 0
-5.396046 -0.374725 19.593486 201 201 201 0
-5.319638 -0.374622 19.588099 203 203 203 0
-5.239877 -0.374277 19.570034 203 203 203 0
-5.165009 -0.374276 19.569986 203 203 203 0
-5.065298 -0.372448 19.474426 204 204 204 0
-4.999305 -0.373082 19.507579 204 204 204 0
-4.912927 -0.372191 19.460990 204 204 204 0
-4.841974 -0.372460 19.475008 206 206 206 0
-4.755517 -0.371525 19.426132 207 207 207 0
-4.683263 -0.371688 19.434642 207 207 207 0
-4.605015 -0.371372 19.418155 207 207 207 0
-4.526505 -0.371025 19.400000 207 207 207 0
-4.449967 -0.370831 19.389835 208 208 208 0
-4.374440 -0.370715 19.383804 208 208 208 0
-4.305816 -0.371191 19.408683 209 209 209 0
-4.226922 -0.370783 19.387327 209 209 209 0
-4.154912 -0.370974 19.397347 209 209 209 0
-4.075391 -0.370490 19.372032 209 209 209 0
-3.999264 -0.370302 19.362207 210 210 210 0
-3.925835 -0.370362 19.365321 210 210 210 0
-3.854104 -0.370587 19.377093 210 210 210 0
-3.787536 -0.371327 19.415795 211 211 211 0
-3.709954 -0.370995 19.398453 210 210 210 0
-3.636045 -0.371025 19.400000 211 211 211 0
-3.567887 -0.371655 19.432933 212 212 212 0
-3.490100 -0.371287 19.413709 211 211 211 0
-3.418343 -0.371559 19.427921 212 212 212 0
-3.343452 -0.371495 19.424560 212 212 212 0
-3.271032 -0.371708 19.435725 212 212 212 0
-3.198660 -0.371937 19.447695 213 213 213 0
-3.132651 -0.372935 19.499850 212 212 212 0
-3.057094 -0.372816 19.493665 212 212 212 0
-2.991066 -0.373883 19.549451 213 213 213 0
-2.915220 -0.373746 19.542283 213 213 213 0
-2.843903 -0.374198 19.565898 212 212 212 0
-2.770973 -0.374456 19.579390 213 213 213 0
-2.698153 -0.374743 19.594428 212 212 212 0
-2.630848 -0.375835 19.651529 213 213 213 0
-2.556730 -0.375990 19.659596 213 213 213 0
-2.484930 -0.376504 19.686509 214 214 214 0
-2.415459 -0.377415 19.734142 213 213 213 0
-2.344449 -0.378137 19.771863 214 214 214 0
-2.267764 -0.377961 19.762649 213 213 213 0
-2.197706 -0.378915 19.812544 213 213 213 0
-2.125168 -0.379494 19.842836 213 213 213 0
-2.051147 -0.379842 19.861018 213 213 213 0
-1.982093 -0.381172 19.930550 213 213 213 0
-1.909220 -0.381844 19.965695 213 213 213 0
-1.836956 -0.382699 20.010418 214 214 214 0
-1.768132 -0.384377 20.098121 214 214 214 0
-1.693300 -0.384841 20.122403 214 214 214 0
-1.618354 -0.385322 20.147579 213 213 213 0
-1.547489 -0.386872 20.228615 213 213 213 0
-1.472034 -0.387377 20.255031 212 212 212 0
-1.400601 -0.389056 20.342795 214 214 214 0
-1.322585 -0.388996 20.339640 213 213 213 0
-1.246982 -0.389682 20.375516 213 213 213 0
-1.174428 -0.391476 20.469335 213 213 213 0
-1.102500 -0.393750 20.588232 213 213 213 0
-1.027618 -0.395238 20.666024 213 213 213 0
-0.950455 -0.396023 20.707074 213 213 213 0
-0.873894 -0.397225 20.769914 213 213 213 0
-0.797735 -0.398867 20.855809 213 213 213 0
-0.721141 -0.400634 20.948172 213 213 213 0
-0.644168 -0.402605 21.051237 213 213 213 0
-0.564327 -0.403091 21.076628 213 213 213 0
-0.486889 -0.405740 21.215190 213 213 213 0
-0.407562 -0.407562 21.310428 212 212 212 0
-0.327984 -0.409980 21.436874 212 212 212 0
-0.246735 -0.411226 21.501990 213 213 213 0
-0.165911 -0.414777 21.687686 212 212 212 0
-0.083616 -0.418079 21.860319 214 214 214 0
0.000000 -0.419785 21.949540 213 213 213 0
0.083397 -0.416983 21.803019 213 213 213 0
0.167000 -0.417501 21.830093 212 212 212 0
0.251242 -0.418737 21.894742 211 211 211 0
0.336063 -0.420078 21.964882 212 212 212 0
0.419836 -0.419836 21.952201 212 212 212 0
0.502994 -0.419162 21.916955 212 212 212 0
0.588575 -0.420410 21.982241 213 213 213 0
0.673433 -0.420896 22.007625 211 211 211 0
0.762093 -0.423385 22.137774 212 212 212 0
0.846737 -0.423369 22.136928 211 211 211 0
0.931648 -0.423477 22.142564 212 212 212 0
1.013580 -0.422325 22.082354 213 213 213 0
1.099885 -0.423033 22.119348 214 214 214 0
1.184332 -0.422976 22.116373 214 214 214 0
1.272182 -0.424061 22.173110 214 214 214 0
1.356882 -0.424026 22.171276 217 217 217 0
1.435617 -0.422240 22.077929 210 210 210 0
1.516687 -0.421302 22.028859 210 210 210 0
1.592835 -0.419167 21.917238 207 207 207 0
1.670082 -0.417520 21.831132 205 205 205 0
1.745355 -0.415561 21.728665 206 206 206 0
1.830347 -0.415988 21.751007 205 205 205 0
1.903095 -0.413716 21.632227 204 204 204 0
1.979281 -0.412350 21.560791 205 205 205 0
2.061725 -0.412345 21.560525 205 205 205 0
2.148176 -0.413111 21.600565 204 204 204 0
2.227506 -0.412501 21.568685 203 203 203 0
2.301294 -0.410945 21.487342 204 204 204 0
2.378140 -0.410024 21.439173 205 205 205 0
2.457024 -0.409504 21.411971 206 206 206 0
2.538316 -0.409406 21.406840 207 207 207 0
2.621771 -0.409652 21.419698 206 206 206 0
2.702531 -0.409474 21.410429 207 207 207 0
2.778583 -0.408615 21.365497 207 207 207 0
2.848632 -0.406947 21.278294 207 207 207 0
2.921148 -0.405715 21.213854 206 206 206 0
3.009630 -0.406707 21.265714 206 206 206 0
3.090582 -0.406656 21.263035 207 207 207 0
3.171093 -0.406550 21.257535 206 206 206 0
3.249100 -0.406137 21.235947 207 207 207 0
3.319303 -0.404793 21.165648 208 208 208 0
3.405342 -0.405398 21.197277 208 208 208 0
3.489916 -0.405804 21.218520 207 207 207 0
3.566900 -0.405330 21.193700 208 208 208 0
3.655987 -0.406221 21.240304 207 207 207 0
3.732030 -0.405655 21.210744 208 208 208 0
3.805366 -0.404826 21.167381 207 207 207 0
3.885420 -0.404731 21.162416 208 208 208 0
3.976860 -0.405802 21.218405 208 208 208 0
4.062640 -0.406264 21.242563 208 208 208 0
4.142982 -0.406175 21.237895 208 208 208 0
4.217925 -0.405570 21.206259 208 208 208 0
4.309191 -0.406527 21.256337 208 208 208 0
4.400022 -0.407409 21.302454 208 208 208 0
4.484272 -0.407661 21.315613 208 208 208 0
4.567613 -0.407823 21.324059 208 208 208 0
4.651337 -0.408012 21.333961 209 209 209 0
4.742680 -0.408852 21.377867 209 209 209 0
4.834515 -0.409705 21.422466 209 209 209 0
4.924574 -0.410381 21.457838 208 208 208 0
5.011576 -0.410785 21.478951 208 208 208 0
5.100424 -0.411324 21.507163 207 207 207 0
5.207285 -0.413277 21.609233 207 207 207 0
5.297758 -0.413887 21.641168 207 207 207 0
5.390063 -0.414620 21.679491 207 207 207 0
5.489485 -0.415870 21.744842 207 207 207 0
5.592588 -0.417357 21.822605 206 206 206 0
5.699152 -0.419055 21.911388 205 205 205 0
5.804658 -0.420627 21.993591 205 205 205 0
5.914686 -0.422478 22.090331 204 204 204 0
6.035648 -0.425046 22.224607 203 203 203 0
6.147382 -0.426902 22.321648 201 201 201 0
6.275956 -0.429860 22.476341 200 200 200 0
6.413307 -0.433332 22.657860 197 197 197 0
6.560255 -0.437350 22.867991 196 196 196 0
6.734530 -0.443061 23.166600 191 191 191 0
6.916721 -0.449138 23.484324 167 167 167 0
7.047978 -0.451793 23.623189 87 87 87 0
-6.056000 -0.302800 19.790849 195 195 195 0
-5.992811 -0.303433 19.832254 196 196 196 0
-5.928379 -0.304019 19.870551 195 195 195 0
-5.847944 -0.303789 19.855511 197 197 197 0
-5.749101 -0.302584 19.776750 199 199 199 0
-5.656484 -0.301679 19.717592 199 199 199 0
-5.549313 -0.299963 19.605415 199 199 199 0
-5.471462 -0.299806 19.595174 200 200 200 0
-5.396404 -0.299800 19.594785 201 201 201 0
-5.322860 -0.299879 19.599965 203 203 203 0
-5.237923 -0.299310 19.562738 203 203 203 0
-5.153466 -0.298752 19.526251 204 204 204 0
-5.072661 -0.298392 19.502734 204 204 204 0
-4.988286 -0.297808 19.464582 203 203 203 0
-4.912927 -0.297753 19.460990 204 204 204 0
-4.847236 -0.298291 19.496172 206 206 206 0
-4.757054 -0.297316 19.432411 207 207 207 0
-4.681701 -0.297251 19.428160 207 207 207 0
-4.609328 -0.297376 19.436340 207 207 207 0
-4.524071 -0.296660 19.389567 208 208 208 0
-4.459247 -0.297283 19.430269 207 207 207 0
-4.383412 -0.297180 19.423561 208 208 208 0
-4.301395 -0.296648 19.388754 209 209 209 0
-4.229685 -0.296820 19.400000 209 209 209 0
-4.152607 -0.296615 19.386587 209 209 209 0
-4.084627 -0.297064 19.415932 210 210 210 0
-4.006349 -0.296767 19.396509 210 210 210 0
-3.932865 -0.296820 19.400000 210 210 210 0
-3.851147 -0.296242 19.362227 210 210 210 0
-3.787643 -0.297070 19.416341 210 210 210 0
-3.715160 -0.297213 19.425672 211 211 211 0
-3.632827 -0.296557 19.382829 211 211 211 0
-3.568126 -0.297344 19.434236 212 212 212 0
-3.493459 -0.297316 19.432394 212 212 212 0
-3.419769 -0.297371 19.436030 212 212 212 0
-3.348685 -0.297661 19.454961 212 212 212 0
-3.275091 -0.297736 19.459842 212 212 212 0
-3.202926 -0.297947 19.473635 212 212 212 0
-3.131806 -0.298267 19.494591 212 212 212 0
-3.059014 -0.298440 19.505906 213 213 213 0
-2.989880 -0.298988 19.541698 213 213 213 0
-2.917957 -0.299278 19.560629 213 213 213 0
-2.842111 -0.299170 19.553565 213 213 213 0
-2.773450 -0.299832 19.596888 212 212 212 0
-2.701725 -0.300192 19.620368 212 212 212 0
-2.628959 -0.300453 19.637419 213 213 213 0
-2.558477 -0.300997 19.673026 213 213 213 0
-2.483150 -0.300988 19.672411 213 213 213 0
-2.413483 -0.301685 19.718001 213 213 213 0
-2.342070 -0.302203 19.751802 214 214 214 0
-2.270382 -0.302718 19.785465 213 213 213 0
-2.200229 -0.303480 19.835281 213 213 213 0
-2.128920 -0.304131 19.877868 213 213 213 0
-2.059046 -0.305044 19.937504 213 213 213 0
-1.981801 -0.304892 19.927611 213 213 213 0
-1.909657 -0.305545 19.970265 213 213 213 0
-1.836679 -0.306113 20.007402 213 213 213 0
-1.765739 -0.307085 20.070912 213 213 213 0
-1.688776 -0.307050 20.068642 213 213 213 0
-1.617079 -0.308015 20.131701 212 212 212 0
-1.546983 -0.309397 20.222001 213 213 213 0
-1.472918 -0.310088 20.267192 213 213 213 0
-1.399057 -0.310902 20.320370 213 213 213 0
-1.324771 -0.311711 20.373261 213 213 213 0
-1.250531 -0.312633 20.433518 213 213 213 0
-1.174924 -0.313313 20.477985 213 213 213 0
-1.100800 -0.314514 20.556487 213 213 213 0
-1.027862 -0.316265 20.670931 213 213 213 0
-0.950104 -0.316701 20.699444 212 212 212 0
-0.873476 -0.317628 20.759982 213 213 213 0
-0.797485 -0.318994 20.849289 213 213 213 0
-0.722348 -0.321044 20.983244 214 214 214 0
-0.642761 -0.321381 21.005272 212 212 212 0
-0.563501 -0.322001 21.045805 213 213 213 0
-0.486670 -0.324446 21.205644 213 213 213 0
-0.407776 -0.326221 21.321609 212 212 212 0
-0.327214 -0.327214 21.386547 211 211 211 0
-0.246832 -0.329109 21.510406 213 213 213 0
-0.165684 -0.331368 21.658028 212 212 212 0
-0.083704 -0.334817 21.883470 212 212 212 0
0.000000 -0.335310 21.915682 215 215 215 0
0.083778 -0.335110 21.902632 213 213 213 0
0.167575 -0.335149 21.905165 212 212 212 0
0.251965 -0.335954 21.957777 213 213 213 0
0.336279 -0.336279 21.979010 212 212 212 0
0.422079 -0.337663 22.069503 211 211 211 0
0.503705 -0.335804 21.947949 211 211 211 0
0.588987 -0.336564 21.997642 212 212 212 0
0.676433 -0.338216 22.105645 212 212 212 0
0.763289 -0.339240 22.172524 211 211 211 0
0.847820 -0.339128 22.165229 213 213 213 0
0.932467 -0.339079 22.162012 212 212 212 0
1.018282 -0.339427 22.184783 213 213 213 0
1.104000 -0.339692 22.202110 214 214 214 0
1.187036 -0.339153 22.166866 214 214 214 0
1.268759 -0.338336 22.113450 213 213 213 0
1.351815 -0.337954 22.088477 214 214 214 0
1.426309 -0.335602 21.934785 207 207 207 0
1.504831 -0.334407 21.856656 205 205 205 0
1.579750 -0.332579 21.737188 205 205 205 0
1.665906 -0.333181 21.776544 203 203 203 0
1.739276 -0.331291 21.652979 204 204 204 0
1.824656 -0.331756 21.683380 205 205 205 0
1.895264 -0.329611 21.543209 205 205 205 0
1.978465 -0.329744 21.551903 206 206 206 0
2.060045 -0.329607 21.542954 204 204 204 0
2.147314 -0.330356 21.591895 205 205 205 0
2.223576 -0.329419 21.530635 203 203 203 0
2.300279 -0.328611 21.477861 204 204 204 0
2.371051 -0.327042 21.375263 205 205 205 0
2.445857 -0.326114 21.314662 207 207 207 0
2.528227 -0.326223 21.321757 206 206 206 0
2.608781 -0.326098 21.313567 206 206 206 0
2.694439 -0.326599 21.346319 206 206 206 0
2.772964 -0.326231 21.322291 206 206 206 0
2.847042 -0.325376 21.266423 206 206 206 0
2.921568 -0.324619 21.216907 206 206 206 0
2.997207 -0.324022 21.177930 205 205 205 0
3.079547 -0.324163 21.187114 206 206 206 0
3.161392 -0.324245 21.192504 208 208 208 0
3.245754 -0.324575 21.214076 208 208 208 0
3.322361 -0.324133 21.185148 208 208 208 0
3.390797 -0.322933 21.106734 209 209 209 0
3.471650 -0.322944 21.107462 209 209 209 0
3.559535 -0.323594 21.149938 209 209 209 0
3.633553 -0.322982 21.109964 209 209 209 0
3.717707 -0.323279 21.129337 209 209 209 0
3.792434 -0.322760 21.095448 209 209 209 0
3.880596 -0.323383 21.136145 209 209 209 0
3.964955 -0.323670 21.154887 210 210 210 0
4.046615 -0.323729 21.158772 210 210 210 0
4.129154 -0.323855 21.167005 210 210 210 0
4.207954 -0.323689 21.156130 209 209 209 0
4.293253 -0.324019 21.177720 209 209 209 0
4.378676 -0.324346 21.199110 209 209 209 0
4.471072 -0.325169 21.252870 209 209 209 0
4.549383 -0.324956 21.238948 208 208 208 0
4.636796 -0.325389 21.267268 208 208 208 0
4.722822 -0.325712 21.288358 209 209 209 0
4.816141 -0.326518 21.341046 209 209 209 0
4.907132 -0.327142 21.381838 208 208 208 0
4.998253 -0.327754 21.421850 209 209 209 0
5.083306 -0.327955 21.434984 209 209 209 0
5.181787 -0.329002 21.503422 208 208 208 0
5.279927 -0.329995 21.568328 207 207 207 0
5.372541 -0.330618 21.609015 207 207 207 0
5.466407 -0.331297 21.653423 207 207 207 0
5.570312 -0.332556 21.735683 207 207 207 0
5.681068 -0.334180 21.841862 207 207 207 0
5.777025 -0.334900 21.888887 205 205 205 0
5.883910 -0.336223 21.975387 204 204 204 0
6.001651 -0.338121 22.099422 204 204 204 0
6.113258 -0.339625 22.197742 203 203 203 0
6.236461 -0.341724 22.334895 201 201 201 0
6.373214 -0.344498 22.516213 200 200 200 0
6.502427 -0.346796 22.666413 198 198 198 0
6.660117 -0.350532 22.910618 195 195 195 0
6.853285 -0.356015 23.268943 190 190 190 0
7.011408 -0.359559 23.500614 150 150 150 0
7.113156 -0.360160 23.539855 79 79 79 0
-6.079254 -0.227972 19.866843 195 195 195 0
-6.012129 -0.228309 19.896182 195 195 195 0
-5.922302 -0.227781 19.850181 195 195 195 0
-5.849196 -0.227891 19.859760 196 196 196 0
-5.749404 -0.226950 19.777791 200 200 200 0
-5.652670 -0.226107 19.704298 200 200 200 0
-5.551345 -0.225055 19.612596 200 200 200 0
-5.476479 -0.225061 19.613139 200 200 200 0
-5.411126 -0.225464 19.648241 200 200 200 0
-5.327806 -0.225119 19.618177 202 202 202 0
-5.249195 -0.224965 19.604835 204 204 204 0
-5.155273 -0.224142 19.533100 204 204 204 0
-5.078437 -0.224049 19.524939 204 204 204 0
-4.994278 -0.223624 19.487965 204 204 204 0
-4.920027 -0.223638 19.489115 205 205 205 0
-4.842548 -0.223502 19.477319 206 206 206 0
-4.762785 -0.223256 19.455821 206 206 206 0
-4.682180 -0.222961 19.430147 207 207 207 0
-4.605250 -0.222835 19.419143 206 206 206 0
-4.531548 -0.222863 19.421612 207 207 207 0
-4.451602 -0.222580 19.396961 208 208 208 0
-4.380313 -0.222728 19.409827 207 207 207 0
-4.310335 -0.222948 19.429050 207 207 207 0
-4.229685 -0.222615 19.400000 208 208 208 0
-4.152486 -0.222455 19.386021 209 209 209 0
-4.077449 -0.222406 19.381815 209 209 209 0
-4.007070 -0.222615 19.400000 210 210 210 0
-3.936182 -0.222803 19.416362 209 209 209 0
-3.859437 -0.222660 19.403907 210 210 210 0
-3.784455 -0.222615 19.400000 211 211 211 0
-3.709892 -0.222594 19.398129 211 211 211 0
-3.637571 -0.222708 19.408143 212 212 212 0
-3.568715 -0.223045 19.437446 211 211 211 0
-3.493041 -0.222960 19.430073 212 212 212 0
-3.421075 -0.223114 19.443452 211 211 211 0
-3.346132 -0.223075 19.440127 212 212 212 0
-3.277069 -0.223437 19.471594 212 212 212 0
-3.204614 -0.223578 19.483894 212 212 212 0
-3.131940 -0.223710 19.495425 212 212 212 0
-3.058639 -0.223803 19.503519 212 212 212 0
-2.994161 -0.224562 19.569681 213 213 213 0
-2.918684 -0.224514 19.565506 213 213 213 0
-2.847485 -0.224801 19.590542 213 213 213 0
-2.775048 -0.225004 19.608185 213 213 213 0
-2.701050 -0.225088 19.615472 213 213 213 0
-2.630019 -0.225430 19.645337 213 213 213 0
-2.561079 -0.225978 19.693031 213 213 213 0
-2.483036 -0.225731 19.671509 213 213 213 0
-2.416447 -0.226542 19.742216 213 213 213 0
-2.341722 -0.226618 19.748865 213 213 213 0
-2.274238 -0.227424 19.819067 213 213 213 0
-2.197207 -0.227297 19.808039 213 213 213 0
-2.130138 -0.228229 19.889241 214 214 214 0
-2.052693 -0.228077 19.875995 213 213 213 0
-1.983726 -0.228891 19.946966 213 213 213 0
-1.911031 -0.229324 19.984642 213 213 213 0
-1.836968 -0.229621 20.010548 213 213 213 0
-1.764839 -0.230196 20.060689 213 213 213 0
-1.695364 -0.231186 20.146929 213 213 213 0
-1.617000 -0.231000 20.130721 213 213 213 0
-1.546083 -0.231912 20.210234 213 213 213 0
-1.475236 -0.232932 20.299081 214 214 214 0
-1.399288 -0.233215 20.323715 213 213 213 0
-1.323048 -0.233479 20.346764 213 213 213 0
-1.248363 -0.234068 20.398091 213 213 213 0
-1.175566 -0.235113 20.489168 213 213 213 0
-1.102019 -0.236147 20.579258 213 213 213 0
-1.027219 -0.237051 20.658008 213 213 213 0
-0.947237 -0.236809 20.636971 213 213 213 0
-0.875313 -0.238722 20.803644 212 212 212 0
-0.798663 -0.239599 20.880089 212 212 212 0
-0.723128 -0.241043 21.005908 213 213 213 0
-0.644769 -0.241788 21.070891 212 212 212 0
-0.564434 -0.241900 21.080625 212 212 212 0
-0.487194 -0.243597 21.228512 213 213 213 0
-0.408131 -0.244879 21.340189 212 212 212 0
-0.327019 -0.245264 21.373810 213 213 213 0
-0.246328 -0.246328 21.466498 213 213 213 0
-0.165616 -0.248423 21.649099 211 211 211 0
-0.083706 -0.251118 21.883929 212 212 212 0
0.000000 -0.252529 22.006886 213 213 213 0
0.084268 -0.252803 22.030729 211 211 211 0
0.168345 -0.252518 22.005922 212 212 212 0
0.252547 -0.252547 22.008452 211 211 211 0
0.336938 -0.252703 22.022073 211 211 211 0
0.422251 -0.253350 22.078475 211 211 211 0
0.507827 -0.253913 22.127529 211 211 211 0
0.591645 -0.253562 22.096929 210 210 210 0
0.677828 -0.254186 22.151250 211 211 211 0
0.768632 -0.256211 22.327715 211 211 211 0
0.850389 -0.255117 22.232393 212 212 212 0
0.935738 -0.255201 22.239765 213 213 213 0
1.020925 -0.255231 22.242374 213 213 213 0
1.106802 -0.255416 22.258458 215 215 215 0
1.190668 -0.255143 22.234691 214 214 214 0
1.268273 -0.253655 22.104975 208 208 208 0
1.344232 -0.252043 21.964571 207 207 207 0
1.419531 -0.250505 21.830535 206 206 206 0
1.499482 -0.249914 21.778967 205 205 205 0
1.579275 -0.249359 21.730649 202 202 202 0
1.659423 -0.248913 21.691800 204 204 204 0
1.741916 -0.248845 21.685851 204 204 204 0
1.816925 -0.247762 21.591501 204 204 204 0
1.891688 -0.246742 21.502561 204 204 204 0
1.970833 -0.246354 21.468774 204 204 204 0
2.048507 -0.245821 21.422300 205 205 205 0
2.138026 -0.246695 21.498498 205 205 205 0
2.218243 -0.246471 21.478994 205 205 205 0
2.298052 -0.246220 21.457065 206 206 206 0
2.357340 -0.243863 21.251655 206 206 206 0
2.444563 -0.244456 21.303379 205 205 205 0
2.528089 -0.244654 21.320591 206 206 206 0
2.602129 -0.243950 21.259227 206 206 206 0
2.680297 -0.243663 21.234277 206 206 206 0
2.760020 -0.243531 21.222764 207 207 207 0
2.838356 -0.243288 21.201540 206 206 206 0
2.909048 -0.242421 21.125985 208 208 208 0
2.987169 -0.242203 21.107004 208 208 208 0
3.070504 -0.242408 21.124901 208 208 208 0
3.149406 -0.242262 21.112158 209 209 209 0
3.234347 -0.242576 21.139524 208 208 208 0
3.306852 -0.241965 21.086254 209 209 209 0
3.381462 -0.241533 21.048629 209 209 209 0
3.463758 -0.241658 21.059483 209 209 209 0
3.543613 -0.241610 21.055335 209 209 209 0
3.633139 -0.242209 21.107563 210 210 210 0
3.707002 -0.241761 21.068499 209 209 209 0
3.785876 -0.241652 21.058967 210 210 210 0
3.870207 -0.241888 21.079558 210 210 210 0
3.952409 -0.241984 21.087948 210 210 210 0
4.038180 -0.242291 21.114667 210 210 210 0
4.117875 -0.242228 21.109186 210 210 210 0
4.200258 -0.242323 21.117435 210 210 210 0
4.274237 -0.241938 21.083918 209 209 209 0
4.367135 -0.242619 21.143233 210 210 210 0
4.453836 -0.242936 21.170936 210 210 210 0
4.543254 -0.243389 21.210337 210 210 210 0
4.618042 -0.243055 21.181251 209 209 209 0
4.708378 -0.243537 21.223251 209 209 209 0
4.799829 -0.244059 21.268766 209 209 209 0
4.892090 -0.244604 21.316295 209 209 209 0
4.979129 -0.244875 21.339887 208 208 208 0
5.070534 -0.245348 21.381124 209 209 209 0
5.162967 -0.245856 21.425321 209 209 209 0
5.257865 -0.246462 21.478208 209 209 209 0
5.348553 -0.246856 21.512533 208 208 208 0
5.442071 -0.247367 21.557025 207 207 207 0
5.550024 -0.248509 21.656517 207 207 207 0
5.649173 -0.249228 21.719237 207 207 207 0
5.752773 -0.250121 21.797000 207 207 207 0
5.852693 -0.250830 21.858796 205 205 205 0
5.971434 -0.252314 21.988158 204 204 204 0
6.083062 -0.253461 22.088098 204 204 204 0
6.198318 -0.254725 22.198291 203 203 203 0
6.328892 -0.256577 22.359627 201 201 201 0
6.458503 -0.258340 22.513299 201 201 201 0
6.597957 -0.260446 22.696789 198 198 198 0
6.770904 -0.263801 22.989233 195 195 195 0
6.963260 -0.267818 23.339234 186 186 186 0
7.116676 -0.270254 23.551504 126 126 126 0
-6.069871 -0.151747 19.836179 195 195 195 0
-6.002017 -0.151950 19.862717 195 195 195 0
-5.916425 -0.151703 19.830485 195 195 195 0
-5.851697 -0.151992 19.868254 196 196 196 0
-5.764699 -0.151703 19.830405 198 198 198 0
-5.649214 -0.150646 19.692249 200 200 200 0
-5.547516 -0.149933 19.599069 200 200 200 0
-5.472597 -0.149934 19.599237 200 200 200 0
-5.406366 -0.150177 19.630958 200 200 200 0
-5.321570 -0.149903 19.595215 201 201 201 0
-5.256595 -0.150188 19.632473 203 203 203 0
-5.167607 -0.149786 19.579831 204 204 204 0
-5.072661 -0.149196 19.502734 203 203 203 0
-4.999285 -0.149232 19.507503 204 204 204 0
-4.917841 -0.149025 19.480455 204 204 204 0
-4.849220 -0.149207 19.504151 205 205 205 0
-4.772949 -0.149155 19.497339 206 206 206 0
-4.674915 -0.148410 19.400000 207 207 207 0
-4.614916 -0.148868 19.459905 208 208 208 0
-4.524189 -0.148334 19.390075 207 207 207 0
-4.451590 -0.148386 19.396908 208 208 208 0
-4.382717 -0.148567 19.420483 208 208 208 0
-4.305760 -0.148474 19.408430 208 208 208 0
-4.236105 -0.148635 19.429448 209 209 209 0
-4.152486 -0.148303 19.386021 208 208 208 0
-4.081275 -0.148410 19.400000 210 210 210 0
-4.010743 -0.148546 19.417783 209 209 209 0
-3.929027 -0.148265 19.381069 209 209 209 0
-3.860052 -0.148464 19.407000 210 210 210 0
-3.787515 -0.148530 19.415685 210 210 210 0
-3.715359 -0.148614 19.426713 211 211 211 0
-3.640481 -0.148591 19.423670 210 210 210 0
-3.565283 -0.148553 19.418754 211 211 211 0
-3.493041 -0.148640 19.430073 212 212 212 0
-3.425483 -0.148934 19.468500 211 211 211 0
-3.353471 -0.149043 19.482767 212 212 212 0
-3.275403 -0.148882 19.461695 211 211 211 0
-3.205262 -0.149082 19.487838 212 212 212 0
-3.130042 -0.149050 19.483609 212 212 212 0
-3.063163 -0.149423 19.532364 213 213 213 0
-2.988936 -0.149447 19.535531 213 213 213 0
-2.919894 -0.149738 19.573616 212 212 212 0
-2.842851 -0.149624 19.558656 213 213 213 0
-2.775393 -0.150021 19.610622 213 213 213 0
-2.699304 -0.149961 19.602785 213 213 213 0
-2.633172 -0.150467 19.668888 212 212 212 0
-2.559563 -0.150563 19.681374 213 213 213 0
-2.492323 -0.151050 19.745080 213 213 213 0
-2.415298 -0.150956 19.732825 212 212 212 0
-2.343694 -0.151206 19.765495 213 213 213 0
-2.271962 -0.151464 19.799234 212 212 212 0
-2.200938 -0.151789 19.841674 213 213 213 0
-2.128293 -0.152021 19.872015 214 214 214 0
-2.056796 -0.152355 19.915720 213 213 213 0
-1.983001 -0.152539 19.939675 213 213 213 0
-1.911345 -0.152908 19.987918 214 214 214 0
-1.840921 -0.153410 20.053611 213 213 213 0
-1.767793 -0.153721 20.094260 213 213 213 0
-1.689790 -0.153617 20.080688 214 214 214 0
-1.617111 -0.154011 20.132098 213 213 213 0
-1.546738 -0.154674 20.218799 214 214 214 0
-1.474710 -0.155233 20.291846 213 213 213 0
-1.401597 -0.155733 20.357252 213 213 213 0
-1.324904 -0.155871 20.375296 213 213 213 0
-1.248921 -0.156115 20.407208 213 213 213 0
-1.177736 -0.157031 20.526992 213 213 213 0
-1.103722 -0.157675 20.611060 213 213 213 0
-1.028261 -0.158194 20.678945 213 213 213 0
-0.948443 -0.158074 20.663256 213 213 213 0
-0.871672 -0.158486 20.717089 213 213 213 0
-0.799201 -0.159840 20.894135 213 213 213 0
-0.723130 -0.160696 21.005960 213 213 213 0
-0.645591 -0.161398 21.097737 213 213 213 0
-0.564816 -0.161376 21.094894 213 213 213 0
-0.487126 -0.162375 21.225548 211 211 211 0
-0.408453 -0.163381 21.357011 212 212 212 0
-0.327109 -0.163555 21.379703 212 212 212 0
-0.246513 -0.164342 21.482643 212 212 212 0
-0.165576 -0.165576 21.643927 211 211 211 0
-0.083770 -0.167540 21.900681 212 212 212 0
0.000000 -0.168362 22.008089 213 213 213 0
0.084492 -0.168984 22.089439 211 211 211 0
0.169133 -0.169133 22.108945 211 211 211 0
0.253210 -0.168807 22.066219 212 212 212 0
0.338744 -0.169372 22.140115 211 211 211 0
0.423086 -0.169235 22.122166 211 211 211 0
0.508157 -0.169386 22.141933 211 211 211 0
0.594562 -0.169875 22.205877 210 210 210 0
0.681999 -0.170500 22.287549 210 210 210 0
0.766129 -0.170251 22.255009 212 212 212 0
0.852985 -0.170597 22.300256 213 213 213 0
0.938579 -0.170651 22.307286 212 212 212 0
1.022687 -0.170448 22.280771 214 214 214 0
1.106162 -0.170179 22.245591 214 214 214 0
1.188603 -0.169800 22.196135 205 205 205 0
1.260554 -0.168074 21.970445 205 205 205 0
1.333923 -0.166740 21.796124 205 205 205 0
1.413199 -0.166259 21.733161 203 203 203 0
1.491909 -0.165768 21.668979 203 203 203 0
1.573140 -0.165594 21.646238 205 205 205 0
1.658005 -0.165800 21.673265 205 205 205 0
1.736238 -0.165356 21.615170 205 205 205 0
1.815353 -0.165032 21.572822 204 204 204 0
1.888697 -0.164235 21.468567 204 204 204 0
1.973138 -0.164428 21.493878 205 205 205 0
2.045182 -0.163615 21.387527 204 204 204 0
2.127037 -0.163618 21.388001 206 206 206 0
2.212040 -0.163855 21.418927 206 206 206 0
2.288070 -0.163434 21.363867 206 206 206 0
2.363363 -0.162991 21.305951 205 205 205 0
2.440613 -0.162708 21.268961 205 205 205 0
2.521243 -0.162661 21.262856 206 206 206 0
2.594436 -0.162152 21.196373 205 205 205 0
2.678572 -0.162338 21.220616 207 207 207 0
2.754522 -0.162031 21.180485 207 207 207 0
2.826747 -0.161528 21.114821 208 208 208 0
2.904407 -0.161356 21.092284 208 208 208 0
2.978535 -0.161002 21.045996 208 208 208 0
3.062911 -0.161206 21.072657 208 208 208 0
3.145901 -0.161328 21.088664 209 209 209 0
3.221881 -0.161094 21.058048 208 208 208 0
3.300032 -0.160977 21.042768 208 208 208 0
3.372515 -0.160596 20.992935 209 209 209 0
3.456959 -0.160789 21.018141 209 209 209 0
3.539220 -0.160874 21.029235 210 210 210 0
3.612422 -0.160552 20.987202 209 209 209 0
3.706461 -0.161150 21.065423 210 210 210 0
3.777798 -0.160757 21.014033 210 210 210 0
3.856100 -0.160671 21.002724 210 210 210 0
3.936106 -0.160657 21.000967 209 209 209 0
4.025566 -0.161023 21.048709 210 210 210 0
4.107143 -0.161064 21.054175 209 209 209 0
4.185782 -0.160992 21.044656 211 211 211 0
4.262564 -0.160851 21.026334 211 211 211 0
4.351744 -0.161176 21.068718 210 210 210 0
4.442394 -0.161542 21.116547 210 210 210 0
4.523779 -0.161564 21.119417 211 211 211 0
4.607915 -0.161681 21.134800 211 211 211 0
4.691658 -0.161781 21.147882 210 210 210 0
4.782770 -0.162128 21.193176 210 210 210 0
4.877589 -0.162586 21.253112 209 209 209 0
4.966319 -0.162830 21.284983 209 209 209 0
5.047108 -0.162810 21.282344 209 209 209 0
5.146561 -0.163383 21.357240 210 210 210 0
5.236677 -0.163646 21.391656 210 210 210 0
5.331474 -0.164045 21.443836 209 209 209 0
5.422061 -0.164305 21.477760 208 208 208 0
5.522835 -0.164861 21.550424 208 208 208 0
5.631068 -0.165620 21.649629 208 208 208 0
5.733443 -0.166187 21.723757 207 207 207 0
5.826630 -0.166475 21.761456 207 207 207 0
5.940436 -0.167336 21.874017 205 205 205 0
6.056855 -0.168246 21.992937 204 204 204 0
6.167592 -0.168975 22.088253 205 205 205 0
6.289116 -0.169976 22.219100 203 203 203 0
6.421282 -0.171234 22.383553 201 201 201 0
6.553868 -0.172470 22.545126 200 200 200 0
6.711046 -0.174313 22.785999 198 198 198 0
6.879275 -0.176392 23.057733 193 193 193 0
7.062999 -0.178810 23.373868 171 171 171 0
-6.085874 -0.076073 19.888477 195 195 195 0
-6.003399 -0.075992 19.867291 195 195 195 0
-5.937192 -0.076118 19.900090 195 195 195 0
-5.865741 -0.076178 19.915936 196 196 196 0
-5.734521 -0.075454 19.726593 199 199 199 0
-5.647929 -0.075306 19.687771 200 200 200 0
-5.557186 -0.075097 19.633232 200 200 200 0
-5.476479 -0.075020 19.613139 201 201 201 0
-5.413688 -0.075190 19.657544 200 200 200 0
-5.336629 -0.075164 19.650666 201 201 201 0
-5.238382 -0.074834 19.564450 203 203 203 0
-5.175998 -0.075014 19.611626 203 203 203 0
-5.072984 -0.074603 19.503975 204 204 204 0
-4.997143 -0.074584 19.499143 204 204 204 0
-4.914028 -0.074455 19.465352 204 204 204 0
-4.854936 -0.074691 19.527145 204 204 204 0
-4.765669 -0.074464 19.467602 205 205 205 0
-4.686925 -0.074396 19.449839 207 207 207 0
-4.609882 -0.074353 19.438677 207 207 207 0
-4.529194 -0.074249 19.411525 207 207 207 0
-4.455388 -0.074256 19.413456 208 208 208 0
-4.380275 -0.074242 19.409658 207 207 207 0
-4.305881 -0.074239 19.408977 208 208 208 0
-4.235744 -0.074311 19.427789 208 208 208 0
-4.155480 -0.074205 19.400000 209 209 209 0
-4.090026 -0.074364 19.441599 209 209 209 0
-4.010079 -0.074261 19.414569 209 209 209 0
-3.933216 -0.074212 19.401733 209 209 209 0
-3.864828 -0.074324 19.431009 210 210 210 0
-3.791594 -0.074345 19.436594 210 210 210 0
-3.712192 -0.074244 19.410156 211 211 211 0
-3.645183 -0.074391 19.448753 211 211 211 0
-3.567775 -0.074329 19.432324 212 212 212 0
-3.499401 -0.074455 19.465449 211 211 211 0
-3.421969 -0.074391 19.448530 211 211 211 0
-3.355019 -0.074556 19.491758 212 212 212 0
-3.282348 -0.074599 19.502958 212 212 212 0
-3.205329 -0.074543 19.488246 212 212 212 0
-3.135633 -0.074658 19.518412 212 212 212 0
-3.063652 -0.074723 19.535480 212 212 212 0
-2.994167 -0.074854 19.569718 212 212 212 0
-2.921329 -0.074906 19.583231 213 213 213 0
-2.847758 -0.074941 19.592421 212 212 212 0
-2.775018 -0.075000 19.607972 213 213 213 0
-2.704957 -0.075138 19.643838 213 213 213 0
-2.633200 -0.075234 19.669094 213 213 213 0
-2.560778 -0.075317 19.690716 212 212 212 0
-2.484827 -0.075298 19.685693 214 214 214 0
-2.416693 -0.075522 19.744224 214 214 214 0
-2.347377 -0.075722 19.796563 213 213 213 0
-2.275091 -0.075836 19.826498 212 212 212 0
-2.202305 -0.075942 19.853997 214 214 214 0
-2.130571 -0.076092 19.893290 213 213 213 0
-2.058025 -0.076223 19.927622 213 213 213 0
-1.984400 -0.076323 19.953750 213 213 213 0
-1.909742 -0.076390 19.971157 213 213 213 0
-1.841848 -0.076744 20.063702 213 213 213 0
-1.768132 -0.076875 20.098121 213 213 213 0
-1.695768 -0.077080 20.151726 213 213 213 0
-1.622162 -0.077246 20.194983 212 212 212 0
-1.548562 -0.077428 20.242643 213 213 213 0
-1.475621 -0.077664 20.304377 213 213 213 0
-1.399032 -0.077724 20.319995 213 213 213 0
-1.330204 -0.078247 20.456814 212 212 212 0
-1.249019 -0.078064 20.408800 212 212 212 0
-1.177268 -0.078485 20.518838 213 213 213 0
-1.102553 -0.078754 20.589229 212 212 212 0
-1.025588 -0.078891 20.625199 213 213 213 0
-0.951617 -0.079301 20.732398 212 212 212 0
-0.876710 -0.079701 20.836829 212 212 212 0
-0.799969 -0.079997 20.914213 212 212 212 0
-0.722900 -0.080322 20.999260 211 211 211 0
-0.644097 -0.080512 21.048920 212 212 212 0
-0.566544 -0.080935 21.159450 213 213 213 0
-0.487839 -0.081306 21.256596 213 213 213 0
-0.408742 -0.081748 21.372156 211 211 211 0
-0.327248 -0.081812 21.388732 213 213 213 0
-0.247120 -0.082373 21.535555 212 212 212 0
-0.165581 -0.082790 21.644531 212 212 212 0
-0.083839 -0.083839 21.918604 211 211 211 0
0.000000 -0.084490 22.088998 213 213 213 0
0.085098 -0.085098 22.247928 213 213 213 0
0.170235 -0.085117 22.252883 213 213 213 0
0.255043 -0.085014 22.226000 211 211 211 0
0.338394 -0.084598 22.117242 211 211 211 0
0.423861 -0.084772 22.162691 211 211 211 0
0.509788 -0.084965 22.212986 211 211 211 0
0.595963 -0.085138 22.258172 210 210 210 0
0.683745 -0.085468 22.344603 212 212 212 0
0.772066 -0.085785 22.427488 212 212 212 0
0.855292 -0.085529 22.360584 214 214 214 0
0.936255 -0.085114 22.252047 213 213 213 0
1.022403 -0.085200 22.274577 209 209 209 0
1.098606 -0.084508 22.093636 206 206 206 0
1.174732 -0.083909 21.937112 205 205 205 0
1.258810 -0.083921 21.940048 204 204 204 0
1.332128 -0.083258 21.766804 204 204 204 0
1.413330 -0.083137 21.735179 203 203 203 0
1.492982 -0.082943 21.684557 205 205 205 0
1.569293 -0.082594 21.593292 206 206 206 0
1.655369 -0.082768 21.638808 204 204 204 0
1.733649 -0.082555 21.582932 204 204 204 0
1.815334 -0.082515 21.572600 204 204 204 0
1.891738 -0.082249 21.503132 203 203 203 0
1.963897 -0.081829 21.393208 205 205 205 0
2.038922 -0.081557 21.322060 206 206 206 0
2.122404 -0.081631 21.341423 205 205 205 0
2.203074 -0.081595 21.332114 205 205 205 0
2.284970 -0.081606 21.334920 206 206 206 0
2.365324 -0.081563 21.323634 205 205 205 0
2.430458 -0.081015 21.180462 206 206 206 0
2.504232 -0.080782 21.119389 207 207 207 0
2.586909 -0.080841 21.134881 208 208 208 0
2.670551 -0.080926 21.157072 208 208 208 0
2.748792 -0.080847 21.136423 207 207 207 0
2.830434 -0.080870 21.142366 209 209 209 0
2.896763 -0.080466 21.036769 208 208 208 0
2.979480 -0.080526 21.052677 208 208 208 0
3.056841 -0.080443 21.030900 208 208 208 0
3.135103 -0.080387 21.016279 208 208 208 0
3.212032 -0.080301 20.993675 209 209 209 0
3.298898 -0.080461 21.035539 208 208 208 0
3.370567 -0.080252 20.980809 209 209 209 0
3.450291 -0.080239 20.977600 208 208 208 0
3.524630 -0.080105 20.942544 209 209 209 0
3.615174 -0.080337 21.003188 209 209 209 0
3.694064 -0.080306 20.994963 209 209 209 0
3.769063 -0.080193 20.965448 209 209 209 0
3.850199 -0.080212 20.970583 210 210 210 0
3.927982 -0.080163 20.957622 210 210 210 0
4.012382 -0.080248 20.979773 210 210 210 0
4.093759 -0.080270 20.985566 210 210 210 0
4.173954 -0.080268 20.985189 210 210 210 0
4.252797 -0.080241 20.978156 210 210 210 0
4.339728 -0.080365 21.010545 210 210 210 0
4.424237 -0.080441 21.030239 210 210 210 0
4.516586 -0.080653 21.085838 210 210 210 0
4.601090 -0.080721 21.103499 211 211 211 0
4.685203 -0.080779 21.118789 211 211 211 0
4.770195 -0.080851 21.137452 210 210 210 0
4.857635 -0.080961 21.166164 210 210 210 0
4.949563 -0.081140 21.213170 210 210 210 0
5.034777 -0.081206 21.230348 210 210 210 0
5.125304 -0.081354 21.269027 209 209 209 0
5.222360 -0.081599 21.333171 210 210 210 0
5.316868 -0.081798 21.385089 210 210 210 0
5.409553 -0.081963 21.428215 209 209 209 0
5.504201 -0.082152 21.477715 209 209 209 0
5.607965 -0.082470 21.560803 208 208 208 0
5.709980 -0.082753 21.634859 207 207 207 0
5.808583 -0.082980 21.694055 208 208 208 0
5.915748 -0.083320 21.783111 207 207 207 0
6.028836 -0.083734 21.891198 206 206 206 0
6.139670 -0.084105 21.988254 205 205 205 0
6.258191 -0.084570 22.109842 205 205 205 0
6.382836 -0.085104 22.249537 203 203 203 0
6.513313 -0.085701 22.405617 201 201 201 0
6.654046 -0.086416 22.592464 200 200 200 0
6.816138 -0.087386 22.846115 196 196 196 0
7.002095 -0.088634 23.172317 191 191 191 0
-6.084626 0.000000 19.884399 195 195 195 0
-6.004573 0.000000 19.871176 195 195 195 0
-5.931399 0.000000 19.880675 196 196 196 0
-5.859114 0.000000 19.893435 195 195 195 0
-5.748402 0.000000 19.774345 197 197 197 0
-5.652342 0.000000 19.703153 199 199 199 0
-5.548873 0.000000 19.603860 200 200 200 0
-5.486276 0.000000 19.648225 200 200 200 0
-5.410553 0.000000 19.646160 200 200 200 0
-5.331370 0.000000 19.631298 201 201 201 0
-5.257892 0.000000 19.637317 202 202 202 0
-5.164794 0.000000 19.569171 204 204 204 0
-5.079300 0.000000 19.528259 204 204 204 0
-4.995635 0.000000 19.493261 204 204 204 0
-4.924128 0.000000 19.505359 205 205 205 0
-4.850495 0.000000 19.509280 204 204 204 0
-4.785988 0.000000 19.550605 205 205 205 0
-4.698294 0.000000 19.497018 205 205 205 0
-4.621436 0.000000 19.487394 207 207 207 0
-4.538090 0.000000 19.449650 208 208 208 0
-4.460328 0.000000 19.434982 207 207 207 0
-4.387998 0.000000 19.443882 208 208 208 0
-4.310351 0.000000 19.429125 208 208 208 0
-4.236641 0.000000 19.431904 208 208 208 0
-4.158304 0.000000 19.413183 209 209 209 0
-4.083072 0.000000 19.408542 209 209 209 0
-4.011593 0.000000 19.421900 210 210 210 0
-3.936639 0.000000 19.418615 210 210 210 0
-3.869017 0.000000 19.452072 210 210 210 0
-3.793077 0.000000 19.444199 211 211 211 0
-3.720484 0.000000 19.453513 211 211 211 0
-3.640615 0.000000 19.424381 210 210 210 0
-3.573337 0.000000 19.462622 211 211 211 0
-3.499724 0.000000 19.467244 211 211 211 0
-3.422607 0.000000 19.452159 211 211 211 0
-3.348370 0.000000 19.453132 211 211 211 0
-3.281126 0.000000 19.495695 212 212 212 0
-3.209562 0.000000 19.513979 212 212 212 0
-3.137540 0.000000 19.530281 212 212 212 0
-3.066268 0.000000 19.552165 212 212 212 0
-2.992870 0.000000 19.561243 213 213 213 0
-2.924001 0.000000 19.601146 212 212 212 0
-2.853735 0.000000 19.633539 213 213 213 0
-2.778386 0.000000 19.631771 212 212 212 0
-2.706937 0.000000 19.658224 213 213 213 0
-2.634386 0.000000 19.677950 213 213 213 0
-2.564538 0.000000 19.719634 212 212 212 0
-2.487200 0.000000 19.704495 213 213 213 0
-2.416435 0.000000 19.742114 212 212 212 0
-2.348490 0.000000 19.805945 212 212 212 0
-2.275518 0.000000 19.830226 213 213 213 0
-2.203919 0.000000 19.868552 213 213 213 0
-2.132744 0.000000 19.913573 213 213 213 0
-2.057462 0.000000 19.922169 213 213 213 0
-1.987782 0.000000 19.987755 213 213 213 0
-1.914358 0.000000 20.019428 213 213 213 0
-1.841920 0.000000 20.064492 212 212 212 0
-1.771060 0.000000 20.131397 213 213 213 0
-1.693779 0.000000 20.128097 213 213 213 0
-1.620926 0.000000 20.179591 213 213 213 0
-1.548548 0.000000 20.242460 212 212 212 0
-1.475936 0.000000 20.308723 214 214 214 0
-1.403442 0.000000 20.384048 213 213 213 0
-1.327184 0.000000 20.410366 212 212 212 0
-1.250694 0.000000 20.436184 213 213 213 0
-1.178430 0.000000 20.539091 212 212 212 0
-1.104565 0.000000 20.626793 212 212 212 0
-1.029716 0.000000 20.708219 213 213 213 0
-0.952433 0.000000 20.750172 213 213 213 0
-0.875516 0.000000 20.808470 211 211 211 0
-0.800908 0.000000 20.938779 213 213 213 0
-0.724302 0.000000 21.040001 212 212 212 0
-0.645568 0.000000 21.096982 212 212 212 0
-0.565103 0.000000 21.105616 211 211 211 0
-0.487515 0.000000 21.242471 212 212 212 0
-0.408739 0.000000 21.371980 211 211 211 0
-0.326815 0.000000 21.360469 213 213 213 0
-0.246766 0.000000 21.504685 212 212 212 0
-0.165982 0.000000 21.696992 211 211 211 0
-0.083857 0.000000 21.923439 213 213 213 0
0.000000 0.000000 22.054357 213 213 213 0
0.085324 0.000000 22.306869 212 212 212 0
0.170613 0.000000 22.302370 211 211 211 0
0.256201 0.000000 22.326898 212 212 212 0
0.341201 0.000000 22.300690 212 212 212 0
0.426642 0.000000 22.308100 212 212 212 0
0.511327 0.000000 22.280056 212 212 212 0
0.597531 0.000000 22.316769 211 211 211 0
0.683838 0.000000 22.347662 212 212 212 0
0.770260 0.000000 22.375026 214 214 214 0
0.854525 0.000000 22.340528 214 214 214 0
0.934910 0.000000 22.220088 211 211 211 0
1.013983 0.000000 22.091137 204 204 204 0
1.094412 0.000000 22.009285 204 204 204 0
1.174411 0.000000 21.931114 204 204 204 0
1.253086 0.000000 21.840278 204 204 204 0
1.332581 0.000000 21.774201 203 203 203 0
1.414908 0.000000 21.759439 203 203 203 0
1.485156 0.000000 21.570898 204 204 204 0
1.570944 0.000000 21.616014 203 203 203 0
1.648190 0.000000 21.544972 204 204 204 0
1.732616 0.000000 21.570074 206 206 206 0
1.811539 0.000000 21.527494 204 204 204 0
1.884485 0.000000 21.420682 205 205 205 0
1.961149 0.000000 21.363284 206 206 206 0
2.038072 0.000000 21.313168 205 205 205 0
2.119083 0.000000 21.308019 205 205 205 0
2.196387 0.000000 21.267367 205 205 205 0
2.279653 0.000000 21.285272 205 205 205 0
2.350752 0.000000 21.192265 207 207 207 0
2.430775 0.000000 21.183228 206 206 206 0
2.505170 0.000000 21.127300 207 207 207 0
2.585560 0.000000 21.123856 206 206 206 0
2.663275 0.000000 21.099427 207 207 207 0
2.744992 0.000000 21.107207 208 208 208 0
2.821826 0.000000 21.078069 208 208 208 0
2.893371 0.000000 21.012134 209 209 209 0
2.974723 0.000000 21.019063 208 208 208 0
3.043989 0.000000 20.942476 208 208 208 0
3.129488 0.000000 20.978634 209 209 209 0
3.206758 0.000000 20.959201 209 209 209 0
3.281609 0.000000 20.925292 209 209 209 0
3.355588 0.000000 20.887567 209 209 209 0
3.434999 0.000000 20.884625 209 209 209 0
3.516796 0.000000 20.895995 209 209 209 0
3.596658 0.000000 20.895617 211 211 211 0
3.676096 0.000000 20.892843 210 210 210 0
3.759993 0.000000 20.914991 210 210 210 0
3.836649 0.000000 20.896782 211 211 211 0
3.916627 0.000000 20.897038 211 211 211 0
4.001537 0.000000 20.923067 211 211 211 0
4.081368 0.000000 20.922045 211 211 211 0
4.169019 0.000000 20.960377 211 211 211 0
4.237295 0.000000 20.901688 210 210 210 0
4.326807 0.000000 20.947987 211 211 211 0
4.415506 0.000000 20.988739 211 211 211 0
4.497774 0.000000 20.998013 211 211 211 0
4.589159 0.000000 21.048776 210 210 210 0
4.665410 0.000000 21.029568 211 211 211 0
4.756458 0.000000 21.076584 210 210 210 0
4.846451 0.000000 21.117434 212 212 212 0
4.932711 0.000000 21.140944 211 211 211 0
5.015180 0.000000 21.147713 211 211 211 0
5.109708 0.000000 21.204307 210 210 210 0
5.205228 0.000000 21.263185 210 210 210 0
5.300517 0.000000 21.319324 210 210 210 0
5.392764 0.000000 21.361709 209 209 209 0
5.484025 0.000000 21.398984 210 210 210 0
5.586566 0.000000 21.478532 209 209 209 0
5.691883 0.000000 21.566288 208 208 208 0
5.787743 0.000000 21.616222 208 208 208 0
5.892455 0.000000 21.697339 208 208 208 0
6.003777 0.000000 21.800207 207 207 207 0
6.112203 0.000000 21.889884 206 206 206 0
6.225234 0.000000 21.993407 206 206 206 0
6.351449 0.000000 22.140126 205 205 205 0
6.476430 0.000000 22.278741 203 203 203 0
6.611255 0.000000 22.447179 201 201 201 0
6.762440 0.000000 22.666131 199 199 199 0
6.937085 0.000000 22.957178 195 195 195 0
-6.086516 0.076081 19.890575 194 194 194 0
-6.019541 0.076197 19.920711 195 195 195 0
-5.939455 0.076147 19.907674 195 195 195 0
-5.841728 0.075867 19.834405 195 195 195 0
-5.755752 0.075734 19.799628 196 196 196 0
-5.666413 0.075552 19.752203 199 199 199 0
-5.551829 0.075025 19.614306 200 200 200 0
-5.484855 0.075135 19.643136 200 200 200 0
-5.421362 0.075297 19.685409 200 200 200 0
-5.338227 0.075186 19.656546 201 201 201 0
-5.262305 0.075176 19.653798 201 201 201 0
-5.175837 0.075012 19.611014 203 203 203 0
-5.082579 0.074744 19.540866 204 204 204 0
-5.005827 0.074714 19.533029 205 205 205 0
-4.929718 0.074693 19.527504 204 204 204 0
-4.853246 0.074665 19.520347 205 205 205 0
-4.780846 0.074701 19.529600 205 205 205 0
-4.707774 0.074727 19.536360 205 205 205 0
-4.625211 0.074600 19.503314 206 206 206 0
-4.538958 0.074409 19.453373 207 207 207 0
-4.468973 0.074483 19.472651 208 208 208 0
-4.393772 0.074471 19.469468 208 208 208 0
-4.312539 0.074354 19.438987 209 209 209 0
-4.245985 0.074491 19.474763 208 208 208 0
-4.165424 0.074383 19.446422 209 209 209 0
-4.081390 0.074207 19.400545 208 208 208 0
-4.017542 0.074399 19.450702 209 209 209 0
-3.940960 0.074358 19.439929 209 209 209 0
-3.870475 0.074432 19.459400 210 210 210 0
-3.793406 0.074381 19.445883 211 211 211 0
-3.717532 0.074351 19.438074 211 211 211 0
-3.646504 0.074418 19.455805 210 210 210 0
-3.570411 0.074384 19.446681 211 211 211 0
-3.505248 0.074580 19.497974 211 211 211 0
-3.431401 0.074596 19.502136 211 211 211 0
-3.355391 0.074564 19.493920 212 212 212 0
-3.283354 0.074622 19.508934 212 212 212 0
-3.212879 0.074718 19.534151 212 212 212 0
-3.138993 0.074738 19.539329 211 211 211 0
-3.068324 0.074837 19.565271 212 212 212 0
-2.996873 0.074922 19.587406 212 212 212 0
-2.919809 0.074867 19.573046 212 212 212 0
-2.847934 0.074946 19.593631 213 213 213 0
-2.777800 0.075076 19.627631 213 213 213 0
-2.705511 0.075153 19.647867 213 213 213 0
-2.636696 0.075334 19.695204 213 213 213 0
-2.566235 0.075478 19.732681 212 212 212 0
-2.491101 0.075488 19.735405 213 213 213 0
-2.422808 0.075713 19.794179 213 213 213 0
-2.345795 0.075671 19.783213 213 213 213 0
-2.276586 0.075886 19.839527 213 213 213 0
-2.209161 0.076178 19.915803 213 213 213 0
-2.133222 0.076186 19.918039 213 213 213 0
-2.061230 0.076342 19.958652 213 213 213 0
-1.986316 0.076397 19.973007 213 213 213 0
-1.914563 0.076583 20.021578 213 213 213 0
-1.843345 0.076806 20.080006 213 213 213 0
-1.768007 0.076870 20.096701 213 213 213 0
-1.697885 0.077177 20.176882 213 213 213 0
-1.622836 0.077278 20.203370 213 213 213 0
-1.550871 0.077544 20.272825 213 213 213 0
-1.477173 0.077746 20.325736 212 212 212 0
-1.404106 0.078006 20.393696 213 213 213 0
-1.328005 0.078118 20.422986 213 213 213 0
-1.251848 0.078241 20.455041 213 213 213 0
-1.180617 0.078708 20.577195 213 213 213 0
-1.106403 0.079029 20.661115 212 212 212 0
-1.028440 0.079111 20.682557 213 213 213 0
-0.951740 0.079312 20.735074 212 212 212 0
-0.876816 0.079711 20.839350 212 212 212 0
-0.801352 0.080135 20.950370 212 212 212 0
-0.725599 0.080622 21.077690 212 212 212 0
-0.645131 0.080641 21.082709 212 212 212 0
-0.565769 0.080824 21.130481 212 212 212 0
-0.488470 0.081412 21.284095 212 212 212 0
-0.409652 0.081930 21.419692 212 212 212 0
-0.328278 0.082070 21.456085 212 212 212 0
-0.246653 0.082218 21.494827 212 212 212 0
-0.165885 0.082943 21.684358 213 213 213 0
-0.083903 0.083903 21.935326 211 211 211 0
0.000000 0.084642 22.128626 212 212 212 0
0.085583 0.085583 22.374651 212 212 212 0
0.171499 0.085749 22.418124 216 216 216 0
0.257033 0.085678 22.399356 211 211 211 0
0.341978 0.085494 22.351487 212 212 212 0
0.426681 0.085336 22.310139 211 211 211 0
0.513528 0.085588 22.375941 213 213 213 0
0.599348 0.085621 22.384623 212 212 212 0
0.686104 0.085763 22.421686 213 213 213 0
0.771622 0.085736 22.414575 211 211 211 0
0.850165 0.085017 22.226538 208 208 208 0
0.930982 0.084635 22.126732 204 204 204 0
1.014224 0.084519 22.096386 204 204 204 0
1.092124 0.084010 21.963273 204 204 204 0
1.170572 0.083612 21.859426 202 202 202 0
1.250665 0.083378 21.798089 201 201 201 0
1.330433 0.083152 21.739096 202 202 202 0
1.409181 0.082893 21.671380 203 203 203 0
1.486919 0.082607 21.596494 203 203 203 0
1.564695 0.082352 21.530025 203 203 203 0
1.642710 0.082136 21.473336 204 204 204 0
1.726487 0.082214 21.493765 203 203 203 0
1.809749 0.082261 21.506228 205 205 205 0
1.880440 0.081758 21.374704 205 205 205 0
1.957362 0.081557 21.322023 205 205 205 0
2.031118 0.081245 21.240449 206 206 206 0
2.113450 0.081287 21.251387 204 204 204 0
2.191030 0.081149 21.215494 205 205 205 0
2.274547 0.081234 21.237598 206 206 206 0
2.350635 0.081056 21.191213 207 207 207 0
2.420086 0.080670 21.090077 207 207 207 0
2.499958 0.080644 21.083346 207 207 207 0
2.578873 0.080590 21.069220 207 207 207 0
2.653499 0.080409 21.021978 207 207 207 0
2.734917 0.080439 21.029738 208 208 208 0
2.808456 0.080242 20.978198 208 208 208 0
2.886200 0.080172 20.960062 208 208 208 0
2.960308 0.080008 20.917211 209 209 209 0
3.040124 0.080003 20.915886 209 209 209 0
3.118636 0.079965 20.905887 209 209 209 0
3.199444 0.079986 20.911398 210 210 210 0
3.274929 0.079876 20.882698 210 210 210 0
3.351694 0.079802 20.863328 210 210 210 0
3.426851 0.079694 20.835086 211 211 211 0
3.510758 0.079790 20.860119 211 211 211 0
3.588902 0.079753 20.850555 210 210 210 0
3.674389 0.079878 20.883142 211 211 211 0
3.756289 0.079921 20.894392 211 211 211 0
3.825471 0.079697 20.835900 211 211 211 0
