ply
format ascii 1.0
element vertex 1138
property float x
property float y
property float z
property uchar red
property uchar green
property uchar blue
property uchar alpha
end_header
4.171563 1.564336 27.265115 208 208 208 0
4.278499 1.565304 27.281994 206 206 206 0
4.376098 1.562892 27.239948 207 207 207 0
4.481765 1.563406 27.248914 207 207 207 0
4.596291 1.566917 27.310108 207 207 207 0
4.708983 1.569661 27.357923 207 207 207 0
4.810076 1.568503 27.337745 208 208 208 0
4.918413 1.569706 27.358716 207 207 207 0
5.029063 1.571582 27.391411 206 206 206 0
5.146723 1.575527 27.460173 207 207 207 0
5.258500 1.577550 27.495424 205 205 205 0
5.363276 1.577434 27.493403 205 205 205 0
5.479138 1.580521 27.547201 207 207 207 0
5.597081 1.584079 27.609228 205 205 205 0
5.709116 1.585866 27.640359 205 205 205 0
5.826974 1.589175 27.698036 205 205 205 0
5.953935 1.594804 27.796146 203 203 203 0
6.074910 1.598660 27.863363 204 204 204 0
6.191901 1.601354 27.910305 204 204 204 0
6.318147 1.606309 27.996663 203 203 203 0
6.451379 1.612845 28.110585 201 201 201 0
6.580459 1.618146 28.202974 201 201 201 0
6.712648 1.624028 28.305495 200 200 200 0
6.859802 1.633286 28.466860 199 199 199 0
7.005546 1.641925 28.617426 198 198 198 0
7.151774 1.650409 28.765305 197 197 197 0
7.317153 1.662989 28.984561 194 194 194 0
7.480626 1.674767 29.189838 192 192 192 0
7.671864 1.692323 29.495825 188 188 188 0
7.885723 1.714288 29.878650 183 183 183 0
8.098196 1.735328 30.245362 150 150 150 0
8.245377 1.741981 30.361326 78 78 78 0
-0.667625 2.136399 34.908476 79 79 79 0
-0.516292 2.065167 33.744556 92 92 92 0
-0.387965 2.069145 33.809564 105 105 105 0
-0.191267 1.530139 25.002266 115 115 115 0
-0.094115 1.505843 24.605280 129 129 129 0
0.000000 1.509102 24.658537 133 133 133 0
0.094207 1.507305 24.629172 137 137 137 0
0.188695 1.509563 24.666070 146 146 146 0
0.282531 1.506834 24.621472 147 147 147 0
0.374710 1.498840 24.490853 151 151 151 0
0.470270 1.504863 24.589267 151 151 151 0
0.564767 1.506046 24.608600 152 152 152 0
0.659664 1.507803 24.637300 157 157 157 0
0.754281 1.508562 24.649710 159 159 159 0
0.850587 1.512155 24.708412 158 158 158 0
0.941822 1.506915 24.622789 159 159 159 0
1.039104 1.511424 24.696476 161 161 161 0
1.135681 1.514241 24.742500 163 163 163 0
1.237781 1.523423 24.892535 165 165 165 0
1.468169 1.677907 27.416780 172 172 172 0
1.600494 1.707193 27.895316 178 178 178 0
1.706560 1.706560 27.884963 183 183 183 0
1.810970 1.704443 27.850369 191 191 191 0
1.911598 1.699198 27.764675 198 198 198 0
2.012766 1.694961 27.695435 201 201 201 0
2.124097 1.699277 27.765968 201 201 201 0
2.228823 1.698151 27.747565 204 204 204 0
2.322507 1.689096 27.599613 204 204 204 0
2.428136 1.689138 27.600299 204 204 204 0
2.521927 1.681284 27.471966 205 205 205 0
2.630668 1.683627 27.510249 207 207 207 0
2.735688 1.683500 27.508176 204 204 204 0
2.828716 1.676276 27.390129 206 206 206 0
2.920734 1.668991 27.271094 206 206 206 0
3.035860 1.674957 27.368582 207 207 207 0
3.132370 1.670598 27.297345 205 205 205 0
3.241227 1.672891 27.334827 208 208 208 0
3.342047 1.671024 27.304308 206 206 206 0
3.431779 1.663893 27.187791 206 206 206 0
3.535725 1.663870 27.187425 207 207 207 0
3.641190 1.664544 27.198435 207 207 207 0
3.751835 1.667482 27.246444 207 207 207 0
3.860408 1.669366 27.277215 206 206 206 0
3.945333 1.661193 27.143673 207 207 207 0
4.047993 1.660715 27.135867 207 207 207 0
4.164627 1.665851 27.219784 207 207 207 0
4.274461 1.668082 27.256249 207 207 207 0
4.368275 1.664105 27.191253 206 206 206 0
4.472520 1.664193 27.192702 207 207 207 0
4.585281 1.667375 27.244686 206 206 206 0
4.696265 1.669783 27.284035 207 207 207 0
4.805030 1.671315 27.309063 208 208 208 0
4.906857 1.670419 27.294436 208 208 208 0
5.019540 1.673180 27.339545 207 207 207 0
5.134754 1.676654 27.396312 208 208 208 0
5.239637 1.676684 27.396795 207 207 207 0
5.347504 1.677648 27.412556 207 207 207 0
5.465598 1.681723 27.479126 206 206 206 0
5.584024 1.685743 27.544820 205 205 205 0
5.690494 1.686072 27.550203 207 207 207 0
5.814424 1.691469 27.638380 205 205 205 0
5.933255 1.695216 27.699603 205 205 205 0
6.059458 1.700900 27.792490 204 204 204 0
6.177887 1.704245 27.847134 204 204 204 0
6.300100 1.708502 27.916694 203 203 203 0
6.428575 1.714287 28.011222 202 202 202 0
6.560113 1.720685 28.115773 201 201 201 0
6.695851 1.727961 28.234664 201 201 201 0
6.834130 1.735652 28.360327 201 201 201 0
6.970158 1.742539 28.472867 199 199 199 0
7.125182 1.753891 28.658347 197 197 197 0
7.279687 1.764773 28.836155 195 195 195 0
7.447004 1.778389 29.058645 194 194 194 0
7.625228 1.794171 29.316526 191 191 191 0
7.825928 1.814708 29.652091 186 186 186 0
8.055356 1.841224 30.085363 172 172 172 0
8.211098 1.850388 30.235101 98 98 98 0
-0.238350 2.025976 31.156875 92 92 92 0
-0.117045 1.989765 30.600000 116 116 116 0
0.000000 1.961600 30.166862 134 134 134 0
0.114748 1.950710 29.999388 138 138 138 0
0.228936 1.945953 29.926231 151 151 151 0
0.341456 1.934917 29.756503 153 153 153 0
0.451235 1.917747 29.492455 154 154 154 0
0.560215 1.904732 29.292309 163 163 163 0
0.669499 1.896913 29.172061 161 161 161 0
0.771597 1.873878 28.817816 167 167 167 0
0.875610 1.860672 28.614713 171 171 171 0
0.982518 1.855867 28.540828 177 177 177 0
1.090460 1.853781 28.508749 177 177 177 0
1.197181 1.850188 28.453490 186 186 186 0
1.299054 1.840327 28.301832 187 187 187 0
1.396350 1.825996 28.081441 189 189 189 0
1.502189 1.824087 28.052088 191 191 191 0
1.608538 1.823009 28.035512 196 196 196 0
1.710187 1.817073 27.944229 197 197 197 0
1.811180 1.811180 27.853602 200 200 200 0
1.914776 1.808400 27.810837 200 200 200 0
2.014946 1.802846 27.725429 200 200 200 0
2.116545 1.799063 27.667250 202 202 202 0
2.219911 1.797071 27.636611 202 202 202 0
2.320283 1.792946 27.573182 204 204 204 0
2.418584 1.787649 27.491724 204 204 204 0
2.512956 1.780010 27.374247 205 205 205 0
2.621444 1.782582 27.413796 203 203 203 0
2.721318 1.779324 27.363684 206 206 206 0
2.821026 1.776202 27.315671 206 206 206 0
2.924333 1.775488 27.304695 207 207 207 0
3.024165 1.772786 27.263148 205 205 205 0
3.129870 1.773593 27.275556 208 208 208 0
3.228938 1.770708 27.231187 206 206 206 0
3.336026 1.772264 27.255113 206 206 206 0
3.432760 1.768392 27.195565 207 207 207 0
3.530071 1.765036 27.143955 207 207 207 0
3.636830 1.766460 27.165863 207 207 207 0
3.748080 1.769927 27.219172 208 208 208 0
3.843059 1.765730 27.154632 208 208 208 0
3.940576 1.762889 27.110944 208 208 208 0
4.050457 1.765584 27.152385 209 209 209 0
4.155976 1.766290 27.163242 208 208 208 0
4.260825 1.766684 27.169297 208 208 208 0
4.366804 1.767516 27.182097 207 207 207 0
4.462260 1.764149 27.130326 209 209 209 0
4.575809 1.767926 27.188405 207 207 207 0
4.689243 1.771492 27.243244 208 208 208 0
4.788427 1.769636 27.214701 207 207 207 0
4.895604 1.770750 27.231839 208 208 208 0
5.006153 1.773013 27.266630 208 208 208 0
5.121843 1.776966 27.327428 206 206 206 0
5.233058 1.779240 27.362395 207 207 207 0
5.344937 1.781646 27.399396 208 208 208 0
5.449763 1.781653 27.399515 207 207 207 0
5.568817 1.786224 27.469808 206 206 206 0
5.690163 1.791348 27.548599 205 205 205 0
5.797818 1.792053 27.559442 205 205 205 0
5.920100 1.797173 27.638187 205 205 205 0
6.040938 1.801683 27.707545 205 205 205 0
6.164852 1.806939 27.788379 205 205 205 0
6.288041 1.811809 27.863261 204 204 204 0
6.419323 1.818808 27.970905 204 204 204 0
6.547781 1.824792 28.062923 202 202 202 0
6.676821 1.830741 28.154422 202 202 202 0
6.814790 1.838912 28.280072 201 201 201 0
6.952285 1.846701 28.399855 200 200 200 0
7.098516 1.856535 28.551096 197 197 197 0
7.255151 1.868751 28.738961 198 198 198 0
7.416826 1.881881 28.940889 194 194 194 0
7.590871 1.897718 29.184432 192 192 192 0
7.779635 1.916722 29.476689 188 188 188 0
8.003942 1.943815 29.893341 181 181 181 0
8.211132 1.966046 30.235229 132 132 132 0
-0.234836 2.113527 30.697563 99 99 99 0
-0.116028 2.088511 30.334216 119 119 119 0
0.000000 2.064697 29.988335 135 135 135 0
0.113894 2.050090 29.776184 141 141 141 0
0.226296 2.036662 29.581141 155 155 155 0
0.336748 2.020489 29.346243 157 157 157 0
0.447719 2.014737 29.262699 166 166 166 0
0.554860 1.997495 29.012277 168 168 168 0
0.663394 1.990182 28.906059 173 173 173 0
0.771746 1.984490 28.823391 179 179 179 0
0.877071 1.973410 28.662459 181 181 181 0
0.980601 1.961202 28.485146 183 183 183 0
1.088231 1.958815 28.450472 185 185 185 0
1.191247 1.949314 28.312469 190 190 190 0
1.296115 1.944172 28.237793 191 191 191 0
1.395160 1.931759 28.057507 192 192 192 0
1.499011 1.927300 27.992735 193 193 193 0
1.606789 1.928147 28.005044 197 197 197 0
1.708257 1.921789 27.912700 197 197 197 0
1.806073 1.912312 27.775051 197 197 197 0
1.907492 1.907492 27.705038 198 198 198 0
2.006934 1.901306 27.615189 201 201 201 0
2.109780 1.898802 27.578826 201 201 201 0
2.218199 1.901313 27.615301 204 204 204 0
2.316213 1.895083 27.524810 202 202 202 0
2.414454 1.889573 27.444776 202 202 202 0
2.514710 1.886033 27.393360 203 203 203 0
2.614849 1.882691 27.344821 206 206 206 0
2.717478 1.881331 27.325064 204 204 204 0
2.827762 1.885174 27.380891 208 208 208 0
2.926600 1.881385 27.325860 206 206 206 0
3.011905 1.869459 27.152630 206 206 206 0
3.117833 1.870700 27.170655 206 206 206 0
3.226489 1.873445 27.210535 207 207 207 0
3.325634 1.870669 27.170215 207 207 207 0
3.423687 1.867466 27.123682 208 208 208 0
3.521902 1.864537 27.081140 208 208 208 0
3.630483 1.867105 27.118450 208 208 208 0
3.737973 1.868987 27.145776 208 208 208 0
3.839749 1.867986 27.131241 208 208 208 0
3.937782 1.865265 27.091726 208 208 208 0
4.039416 1.864346 27.078370 208 208 208 0
4.147246 1.866261 27.106180 207 207 207 0
4.254019 1.867618 27.125897 209 209 209 0
4.358526 1.867940 27.130571 209 209 209 0
4.463429 1.868412 27.137429 209 209 209 0
4.572773 1.870680 27.170368 208 208 208 0
4.677009 1.870804 27.172164 207 207 207 0
4.780288 1.870547 27.168445 208 208 208 0
4.894761 1.874589 27.227152 208 208 208 0
4.996953 1.873857 27.216521 207 207 207 0
5.119827 1.880753 27.316671 207 207 207 0
5.227785 1.882002 27.334822 207 207 207 0
5.334784 1.882865 27.347350 208 208 208 0
5.442638 1.883990 27.363688 207 207 207 0
5.559635 1.888178 27.424517 207 207 207 0
5.667411 1.889137 27.438447 205 205 205 0
5.786399 1.893730 27.505163 206 206 206 0
5.909942 1.899624 27.590767 207 207 207 0
6.029112 1.903930 27.653304 205 205 205 0
6.150550 1.908791 27.723914 204 204 204 0
6.274368 1.914214 27.802670 204 204 204 0
6.403548 1.921064 27.902169 204 204 204 0
6.532453 1.927609 27.997229 203 203 203 0
6.658473 1.933105 28.077053 202 202 202 0
6.797876 1.942250 28.209881 202 202 202 0
6.935434 1.950591 28.331023 201 201 201 0
7.075310 1.959317 28.457758 198 198 198 0
7.234484 1.973041 28.657096 197 197 197 0
7.389769 1.985311 28.835310 196 196 196 0
7.560908 2.001417 29.069235 193 193 193 0
7.747537 2.021097 29.355069 190 190 190 0
7.962393 2.047473 29.738164 185 185 185 0
8.182975 2.074557 30.131549 158 158 158 0
8.337904 2.084476 30.275612 77 77 77 0
-0.357471 2.263980 31.152121 71 71 71 0
-0.234171 2.224621 30.610539 108 108 108 0
-0.115935 2.202773 30.309911 129 129 129 0
0.000000 2.173090 29.901486 138 138 138 0
0.113578 2.157975 29.693492 148 148 148 0
0.225871 2.145770 29.525565 155 155 155 0
0.336957 2.134060 29.364435 159 159 159 0
0.446748 2.122055 29.199242 168 168 168 0
0.555294 2.110117 29.034975 172 172 172 0
0.664009 2.102694 28.932839 174 174 174 0
0.768305 2.085399 28.694857 180 180 180 0
0.875383 2.079035 28.607292 180 180 180 0
0.982233 2.073602 28.532538 181 181 181 0
1.085731 2.062888 28.385113 188 188 188 0
1.190568 2.056435 28.296323 190 190 190 0
1.296624 2.052988 28.248892 192 192 192 0
1.398571 2.044066 28.126120 190 190 190 0
1.496617 2.031123 27.948031 194 194 194 0
1.606547 2.034959 28.000811 196 196 196 0
1.705188 2.024911 27.862551 197 197 197 0
1.811390 2.024494 27.856817 198 198 198 0
1.907055 2.013002 27.698688 200 200 200 0
2.006105 2.006105 27.603785 202 202 202 0
2.111369 2.005801 27.599597 202 202 202 0
2.211854 2.001201 27.536312 202 202 202 0
2.306640 1.992098 27.411055 202 202 202 0
2.410839 1.991563 27.403681 204 204 204 0
2.512669 1.989196 27.371120 205 205 205 0
2.615407 1.987709 27.350660 206 206 206 0
2.719617 1.987413 27.346579 205 205 205 0
2.811371 1.978372 27.222181 205 205 205 0
2.917527 1.979751 27.241150 205 205 205 0
3.016619 1.976405 27.195122 206 206 206 0
3.112822 1.971454 27.126991 207 207 207 0
3.219544 1.973269 27.151959 207 207 207 0
3.322518 1.972745 27.144754 207 207 207 0
3.418843 1.968425 27.085310 208 208 208 0
3.517063 1.965417 27.043928 208 208 208 0
3.623102 1.966827 27.063319 207 207 207 0
3.731006 1.969142 27.095175 208 208 208 0
3.834085 1.968855 27.091221 208 208 208 0
3.930915 1.965457 27.044477 208 208 208 0
4.037576 1.967024 27.066038 208 208 208 0
4.142874 1.967865 27.077609 207 207 207 0
4.251298 1.970114 27.108547 210 210 210 0
4.347321 1.966645 27.060819 208 208 208 0
4.451400 1.966898 27.064294 208 208 208 0
4.560880 1.969471 27.099700 209 209 209 0
4.669708 1.971654 27.129747 208 208 208 0
4.770570 1.970453 27.113215 209 209 209 0
4.870430 1.968897 27.091808 208 208 208 0
4.985825 1.973556 27.155908 207 207 207 0
5.099388 1.977314 27.207621 208 208 208 0
5.217494 1.982648 27.281012 207 207 207 0
5.324166 1.983513 27.292920 207 207 207 0
5.435935 1.986207 27.329987 208 208 208 0
5.548279 1.989006 27.368500 207 207 207 0
5.663181 1.992601 27.417964 206 206 206 0
5.773202 1.994379 27.442436 206 206 206 0
5.896855 2.000719 27.529667 206 206 206 0
6.018287 2.006096 27.603654 206 206 206 0
6.135451 2.009889 27.655855 205 205 205 0
6.255898 2.014611 27.720827 205 205 205 0
6.387061 2.022569 27.830333 203 203 203 0
6.518095 2.030226 27.935690 204 204 204 0
6.642398 2.035574 28.009267 204 204 204 0
6.778548 2.044324 28.129675 202 202 202 0
6.918592 2.053957 28.262223 201 201 201 0
7.057021 2.062822 28.384198 200 200 200 0
7.209930 2.075586 28.559833 197 197 197 0
7.372186 2.090620 28.766699 197 197 197 0
7.530846 2.104207 28.953658 194 194 194 0
7.719840 2.125753 29.250127 192 192 192 0
7.916060 2.148645 29.565115 188 188 188 0
8.153445 2.181908 30.022811 174 174 174 0
8.334094 2.199275 30.261778 99 99 99 0
-0.354109 2.360728 30.859191 86 86 86 0
-0.233272 2.332718 30.493043 109 109 109 0
-0.115503 2.310060 30.196866 130 130 130 0
0.000000 2.280282 29.807610 138 138 138 0
0.113380 2.267596 29.641775 152 152 152 0
0.224876 2.248759 29.395541 154 154 154 0
0.335900 2.239336 29.272369 163 163 163 0
0.445655 2.228275 29.127783 168 168 168 0
0.554115 2.216458 28.973310 169 169 169 0
0.663297 2.210989 28.901816 177 177 177 0
0.765756 2.187873 28.599647 180 180 180 0
0.873422 2.183554 28.543190 181 181 181 0
0.976971 2.171048 28.379708 183 183 183 0
1.082224 2.164448 28.293432 187 187 187 0
1.190283 2.164150 28.289548 188 188 188 0
1.290464 2.150773 28.114683 189 189 189 0
1.395211 2.146478 28.058542 193 193 193 0
1.492508 2.132154 27.871296 195 195 195 0
1.597581 2.130109 27.844557 195 195 195 0
1.702121 2.127651 27.812429 194 194 194 0
1.806085 2.124806 27.775239 197 197 197 0
1.899912 2.111014 27.594949 199 199 199 0
2.003681 2.109138 27.570432 199 199 199 0
2.103957 2.103957 27.502709 201 201 201 0
2.204785 2.099795 27.448302 200 200 200 0
2.314364 2.103967 27.502841 202 202 202 0
2.405577 2.091806 27.343868 203 203 203 0
2.509416 2.091180 27.335688 205 205 205 0
2.610440 2.088352 27.298716 206 206 206 0
2.714198 2.087844 27.292082 203 203 203 0
2.813418 2.084013 27.242000 205 205 205 0
2.912409 2.080292 27.193366 207 207 207 0
3.010016 2.075873 27.135600 207 207 207 0
3.107843 2.071895 27.083600 207 207 207 0
3.213039 2.072928 27.097104 206 206 206 0
3.318709 2.074193 27.113634 207 207 207 0
3.414945 2.069664 27.054430 208 208 208 0
3.514132 2.067136 27.021388 208 208 208 0
3.619543 2.068310 27.036735 208 208 208 0
3.722015 2.067786 27.029887 208 208 208 0
3.829123 2.069796 27.056163 208 208 208 0
3.925446 2.066024 27.006856 207 207 207 0
4.028867 2.066086 27.007658 210 210 210 0
4.133763 2.066881 27.018057 208 208 208 0
4.239647 2.068120 27.034253 207 207 207 0
4.337486 2.065469 26.999600 209 209 209 0
4.445033 2.067457 27.025583 209 209 209 0
4.555071 2.070487 27.065187 207 207 207 0
4.666994 2.074220 27.113981 209 209 209 0
4.765573 2.071988 27.084814 208 208 208 0
4.871066 2.072794 27.095345 209 209 209 0
4.977234 2.073847 27.109117 209 209 209 0
5.095749 2.079898 27.188206 208 208 208 0
5.202417 2.080967 27.202180 207 207 207 0
5.314087 2.083956 27.241251 208 208 208 0
5.419626 2.084471 27.247992 207 207 207 0
5.539386 2.090334 27.324632 208 208 208 0
5.655238 2.094533 27.379513 208 208 208 0
5.763738 2.095905 27.397445 206 206 206 0
5.884589 2.101639 27.472406 206 206 206 0
6.006266 2.107462 27.548520 206 206 206 0
6.125462 2.112228 27.610827 206 206 206 0
6.244585 2.116809 27.670700 205 205 205 0
6.373728 2.124576 27.772234 204 204 204 0
6.505939 2.133095 27.883592 204 204 204 0
6.627914 2.138037 27.948192 204 204 204 0
6.759549 2.145889 28.050832 201 201 201 0
6.903851 2.157453 28.202004 201 201 201 0
7.043822 2.167330 28.331107 201 201 201 0
7.185325 2.177371 28.462370 199 199 199 0
7.346225 2.192903 28.665400 198 198 198 0
7.502594 2.206645 28.845037 195 195 195 0
7.686890 2.228084 29.125282 193 193 193 0
7.881188 2.251768 29.434876 189 189 189 0
8.112981 2.285347 29.873813 182 182 182 0
8.315929 2.309980 30.195820 129 129 129 0
-0.350741 2.455184 30.565631 92 92 92 0
-0.232901 2.445460 30.444567 113 113 113 0
-0.115067 2.416409 30.082896 134 134 134 0
0.000000 2.394296 29.807610 142 142 142 0
0.113097 2.375034 29.567807 153 153 153 0
0.224569 2.357971 29.355378 156 156 156 0
0.335054 2.345378 29.198607 167 167 167 0
0.444824 2.335327 29.073481 169 169 169 0
0.552044 2.318587 28.865071 170 170 170 0
0.661199 2.314195 28.810396 177 177 177 0
0.767397 2.302191 28.660951 180 180 180 0
0.870678 2.285530 28.453528 181 181 181 0
0.978822 2.283917 28.433452 186 186 186 0
1.084275 2.276978 28.347068 187 187 187 0
1.187158 2.266393 28.215286 189 189 189 0
1.286612 2.251572 28.030771 189 189 189 0
1.390396 2.246025 27.961719 193 193 193 0
1.491898 2.237847 27.859910 194 194 194 0
1.593861 2.231405 27.779712 195 195 195 0
1.700685 2.232149 27.788975 195 195 195 0
1.802103 2.226127 27.714001 198 198 198 0
1.903328 2.220549 27.644553 198 198 198 0
1.995947 2.206047 27.464015 202 202 202 0
2.104394 2.209614 27.508421 202 202 202 0
2.203423 2.203423 27.431345 203 203 203 0
2.304678 2.199919 27.387731 204 204 204 0
2.408714 2.199261 27.379528 204 204 204 0
2.502611 2.189784 27.261553 203 203 203 0
2.607356 2.190179 27.266464 204 204 204 0
2.705591 2.185285 27.205536 203 203 203 0
2.807146 2.183336 27.181275 206 206 206 0
2.908030 2.181022 27.152471 204 204 204 0
3.007373 2.177753 27.111766 206 206 206 0
3.108503 2.175952 27.089348 206 206 206 0
3.210834 2.175081 27.078505 206 206 206 0
3.316743 2.176613 27.097577 206 206 206 0
3.416968 2.174434 27.070455 208 208 208 0
3.502754 2.163466 26.933906 207 207 207 0
3.608834 2.165300 26.956742 207 207 207 0
3.719244 2.169559 27.009763 208 208 208 0
3.819855 2.168026 26.990674 208 208 208 0
3.926423 2.169865 27.013574 209 209 209 0
4.020800 2.165046 26.953578 209 209 209 0
4.125632 2.165957 26.964913 208 208 208 0
4.235651 2.169480 27.008776 209 209 209 0
4.342213 2.171107 27.029027 208 208 208 0
4.442448 2.169568 27.009868 208 208 208 0
4.544810 2.169114 27.004217 209 209 209 0
4.653231 2.171508 27.034025 209 209 209 0
4.761113 2.173552 27.059465 209 209 209 0
4.871234 2.176509 27.096282 209 209 209 0
4.973805 2.176040 27.090442 209 209 209 0
5.082262 2.178112 27.116243 209 209 209 0
5.193212 2.181149 27.154048 208 208 208 0
5.296938 2.181092 27.153339 208 208 208 0
5.412596 2.185856 27.212650 208 208 208 0
5.529708 2.191016 27.276893 208 208 208 0
5.649303 2.196951 27.350778 208 208 208 0
5.758229 2.198596 27.371259 206 206 206 0
5.873397 2.202524 27.420153 206 206 206 0
5.997425 2.209578 27.507968 206 206 206 0
6.119138 2.215550 27.582321 206 206 206 0
6.231762 2.218085 27.613877 206 206 206 0
6.359525 2.225834 27.710349 204 204 204 0
6.490266 2.234354 27.816421 204 204 204 0
6.617796 2.241511 27.905527 203 203 203 0
6.748755 2.249585 28.006038 203 203 203 0
6.885770 2.259393 28.128144 201 201 201 0
7.024225 2.269365 28.252286 201 201 201 0
7.170953 2.281667 28.405439 199 199 199 0
7.328265 2.296919 28.595317 198 198 198 0
7.481856 2.310573 28.765307 197 197 197 0
7.662370 2.332026 29.032375 194 194 194 0
7.849783 2.354935 29.317585 190 190 190 0
8.072247 2.387566 29.723824 185 185 185 0
8.295597 2.419549 30.121994 151 151 151 0
-0.351074 2.574545 30.594715 98 98 98 0
-0.232115 2.553261 30.341785 119 119 119 0
-0.114882 2.527397 30.034422 135 135 135 0
0.000000 2.503202 29.746908 145 145 145 0
0.112825 2.482148 29.496708 154 154 154 0
0.223636 2.459991 29.233400 156 156 156 0
0.334309 2.451599 29.133683 166 166 166 0
0.444804 2.446422 29.072161 169 169 169 0
0.552587 2.431381 28.893418 172 172 172 0
0.659900 2.419633 28.753807 178 178 178 0
0.766278 2.408304 28.619177 179 179 179 0
0.869120 2.390081 28.402628 181 181 181 0
0.973491 2.379645 28.278608 186 186 186 0
1.078681 2.373097 28.200798 187 187 187 0
1.184476 2.368953 28.151549 186 186 186 0
1.289199 2.363531 28.087121 191 191 191 0
1.390611 2.353341 27.966024 194 194 194 0
1.491200 2.343315 27.846876 193 193 193 0
1.596243 2.341157 27.821231 194 194 194 0
1.695097 2.330758 27.697663 195 195 195 0
1.798780 2.327833 27.662904 198 198 198 0
1.894949 2.316049 27.522861 200 200 200 0
1.993058 2.307751 27.424254 198 198 198 0
2.099497 2.309447 27.444407 199 199 199 0
2.201808 2.306656 27.411237 202 202 202 0
2.300517 2.300517 27.338290 204 204 204 0
2.404907 2.300346 27.336256 202 202 202 0
2.501050 2.292629 27.244550 204 204 204 0
2.600415 2.288365 27.193879 204 204 204 0
2.703058 2.287203 27.180073 205 205 205 0
2.805323 2.285819 27.163625 205 205 205 0
2.909064 2.285694 27.162133 206 206 206 0
3.000748 2.276429 27.052042 206 206 206 0
3.099514 2.272977 27.011019 207 207 207 0
3.209518 2.277723 27.067410 206 206 206 0
3.311655 2.276763 27.056003 206 206 206 0
3.400604 2.267070 26.940815 207 207 207 0
3.506464 2.268889 26.962430 207 207 207 0
3.606954 2.267228 26.942703 208 208 208 0
3.713126 2.269132 26.965328 208 208 208 0
3.822345 2.272745 27.008264 208 208 208 0
3.913279 2.265583 26.923145 209 209 209 0
4.017503 2.266284 26.931474 209 209 209 0
4.121841 2.267013 26.940140 209 209 209 0
4.232151 2.270910 26.986458 209 209 209 0
4.332182 2.269238 26.966583 210 210 210 0
4.436875 2.270029 26.975985 209 209 209 0
4.537677 2.268839 26.961838 210 210 210 0
4.645272 2.271022 26.987781 208 208 208 0
4.760752 2.276881 27.057414 209 209 209 0
4.856158 2.273095 27.012421 209 209 209 0
4.958178 2.272498 27.005326 209 209 209 0
5.077202 2.279560 27.089245 207 207 207 0
5.189819 2.283520 27.136308 208 208 208 0
5.291398 2.282564 27.124943 208 208 208 0
5.403650 2.286159 27.167670 207 207 207 0
5.522208 2.292237 27.239898 207 207 207 0
5.640212 2.297864 27.306763 207 207 207 0
5.748967 2.299587 27.327237 208 208 208 0
5.865824 2.304431 27.384797 207 207 207 0
5.985801 2.310309 27.454657 207 207 207 0
6.108593 2.317053 27.534790 206 206 206 0
6.220500 2.319508 27.563974 206 206 206 0
6.348334 2.327722 27.661585 205 205 205 0
6.476399 2.335751 27.756989 204 204 204 0
6.604447 2.343513 27.849239 203 203 203 0
6.736532 2.352440 27.955313 203 203 203 0
6.874901 2.363247 28.083744 202 202 202 0
7.017744 2.375237 28.226222 201 201 201 0
7.154995 2.384998 28.342228 201 201 201 0
7.313602 2.401481 28.538102 198 198 198 0
7.464288 2.414917 28.697764 197 197 197 0
7.638394 2.435430 28.941534 193 193 193 0
7.819737 2.457631 29.205365 192 192 192 0
8.042168 2.491939 29.613065 187 187 187 0
8.276235 2.528850 30.051689 167 167 167 0
8.454923 2.548059 30.279965 84 84 84 0
-0.348673 2.673161 30.385466 104 104 104 0
-0.232672 2.675724 30.414594 128 128 128 0
-0.114540 2.634420 29.945094 135 135 135 0
0.000000 2.613737 29.710001 148 148 148 0
0.112879 2.596224 29.510931 154 154 154 0
0.223873 2.574545 29.264503 159 159 159 0
0.333762 2.558845 29.086053 168 168 168 0
0.442978 2.547125 28.952826 168 168 168 0
0.550468 2.532152 28.782629 174 174 174 0
0.658038 2.522478 28.672673 177 177 177 0
0.764073 2.510527 28.536822 179 179 179 0
0.868271 2.496279 28.374868 182 182 182 0
0.974090 2.489342 28.296014 185 185 185 0
1.078321 2.480138 28.191398 187 187 187 0
1.182271 2.472022 28.099137 187 187 187 0
1.291072 2.474554 28.127922 191 191 191 0
1.386065 2.452268 27.874604 194 194 194 0
1.487382 2.443557 27.775583 194 194 194 0
1.590890 2.439365 27.727933 195 195 195 0
1.694484 2.435821 27.687647 196 196 196 0
1.794821 2.428287 27.602009 198 198 198 0
1.896454 2.423246 27.544714 198 198 198 0
1.991488 2.410748 27.402652 198 198 198 0
2.095586 2.409924 27.393280 201 201 201 0
2.198604 2.407995 27.371355 201 201 201 0
2.297852 2.402300 27.306622 201 201 201 0
2.397812 2.397812 27.255607 203 203 203 0
2.496995 2.392954 27.200384 202 202 202 0
2.594520 2.386959 27.132238 204 204 204 0
2.700474 2.388881 27.154090 205 205 205 0
2.805492 2.389864 27.165260 205 205 205 0
2.906290 2.387309 27.136225 205 205 205 0
2.997348 2.377207 27.021390 206 206 206 0
3.101555 2.377859 27.028803 207 207 207 0
3.200445 2.374524 26.990890 206 206 206 0
3.305105 2.375544 27.002493 206 206 206 0
3.405286 2.373381 26.977905 207 207 207 0
3.504301 2.370557 26.945801 207 207 207 0
3.600582 2.366097 26.895105 208 208 208 0
3.707454 2.368651 26.924141 208 208 208 0
3.812804 2.370122 26.940853 207 207 207 0
3.913450 2.368667 26.924320 208 208 208 0
4.015842 2.368317 26.920343 209 209 209 0
4.116012 2.366707 26.902037 209 209 209 0
4.224677 2.369941 26.938798 209 209 209 0
4.325035 2.368472 26.922100 208 208 208 0
4.430554 2.369831 26.937553 209 209 209 0
4.531699 2.368843 26.926317 209 209 209 0
4.640057 2.371584 26.957482 209 209 209 0
4.743351 2.371676 26.958519 209 209 209 0
4.849794 2.373304 26.977023 209 209 209 0
4.959109 2.376240 27.010396 208 208 208 0
5.070237 2.379907 27.052085 208 208 208 0
5.179356 2.382504 27.081601 208 208 208 0
5.293567 2.387295 27.136059 209 209 209 0
5.395580 2.386507 27.127099 209 209 209 0
5.511972 2.391988 27.189404 207 207 207 0
5.630061 2.397989 27.257619 207 207 207 0
5.744605 2.402289 27.306499 208 208 208 0
5.856384 2.405301 27.340728 207 207 207 0
5.970636 2.409204 27.385097 207 207 207 0
6.100474 2.419154 27.498194 206 206 206 0
6.216739 2.423475 27.547310 207 207 207 0
6.338209 2.429647 27.617468 206 206 206 0
6.468735 2.439031 27.724139 205 205 205 0
6.594406 2.446312 27.806898 204 204 204 0
6.725799 2.455450 27.910775 204 204 204 0
6.861070 2.465697 28.027245 203 203 203 0
6.999530 2.476757 28.152962 201 201 201 0
7.142322 2.488991 28.292028 201 201 201 0
7.296268 2.504689 28.470463 199 199 199 0
7.448788 2.519443 28.638170 198 198 198 0
7.614862 2.538287 28.852372 195 195 195 0
7.802235 2.563592 29.140002 192 192 192 0
8.007524 2.593987 29.485496 189 189 189 0
8.245637 2.634023 29.940584 175 175 175 0
8.379795 2.640209 30.010906 92 92 92 0
-0.475371 2.852228 31.070017 74 74 74 0
-0.350065 2.800521 30.506764 102 102 102 0
-0.230670 2.768036 30.152902 127 127 127 0
-0.114192 2.740600 29.854027 134 134 134 0
0.000000 2.720238 29.632227 150 150 150 0
0.112283 2.694793 29.355046 153 153 153 0
0.223178 2.678132 29.173556 163 163 163 0
0.333613 2.668906 29.073051 167 167 167 0
0.442069 2.652413 28.893388 168 168 168 0
0.549261 2.636455 28.719551 175 175 175 0
0.657957 2.631827 28.669141 176 176 176 0
0.761401 2.610519 28.437021 176 176 176 0
0.865773 2.597319 28.293237 183 183 183 0
0.969931 2.586483 28.175191 186 186 186 0
1.076346 2.583229 28.139754 186 186 186 0
1.180336 2.575279 28.053151 187 187 187 0
1.283524 2.567049 27.963494 191 191 191 0
1.387305 2.561179 27.899557 193 193 193 0
1.486731 2.548682 27.763416 192 192 192 0
1.587880 2.540607 27.675461 195 195 195 0
1.692774 2.539161 27.659703 197 197 197 0
1.797159 2.537166 27.637968 199 199 199 0
1.895785 2.527714 27.535007 198 198 198 0
1.992715 2.517114 27.419542 200 200 200 0
2.091038 2.509245 27.333825 200 200 200 0
2.194068 2.507507 27.314887 201 201 201 0
2.297186 2.506021 27.298705 203 203 203 0
2.403253 2.507742 27.317450 203 203 203 0
2.502175 2.502175 27.256809 202 202 202 0
2.593391 2.489655 27.120429 203 203 203 0
2.696320 2.488911 27.112321 204 204 204 0
2.802084 2.490741 27.132260 205 205 205 0
2.897819 2.483845 27.057135 205 205 205 0
2.998230 2.481294 27.029345 206 206 206 0
3.094890 2.475912 26.970720 205 205 205 0
3.195209 2.473710 26.946735 206 206 206 0
3.302491 2.476868 26.981134 207 207 207 0
3.407256 2.478005 26.993513 209 209 209 0
3.496132 2.467858 26.882985 207 207 207 0
3.595420 2.465431 26.856547 208 208 208 0
3.707408 2.471606 26.923809 208 208 208 0
3.812764 2.473144 26.940567 209 209 209 0
3.909761 2.469323 26.898943 208 208 208 0
4.013976 2.470139 26.907836 208 208 208 0
4.109922 2.465953 26.862238 209 209 209 0
4.218553 2.469397 26.899748 210 210 210 0
4.324064 2.470894 26.916056 209 209 209 0
4.426817 2.470782 26.914833 208 208 208 0
4.523416 2.467318 26.877100 208 208 208 0
4.635349 2.472186 26.930131 209 209 209 0
4.745290 2.475804 26.969539 209 209 209 0
4.849931 2.476560 26.977782 209 209 209 0
4.955273 2.477636 26.989503 208 208 208 0
5.061704 2.479202 27.006559 209 209 209 0
5.177579 2.485238 27.072307 209 209 209 0
5.288948 2.488917 27.112381 209 209 209 0
5.389380 2.487406 27.095929 208 208 208 0
5.508836 2.494567 27.173937 208 208 208 0
5.625103 2.500046 27.233614 208 208 208 0
5.738925 2.504258 27.279503 207 207 207 0
5.850061 2.507169 27.311210 208 208 208 0
5.968772 2.513167 27.376549 207 207 207 0
6.090295 2.520122 27.452309 206 206 206 0
6.207298 2.525003 27.505475 206 206 206 0
6.330407 2.532163 27.583473 205 205 205 0
6.458845 2.541185 27.681755 205 205 205 0
6.589839 2.550906 27.787642 204 204 204 0
6.714189 2.557786 27.862595 203 203 203 0
6.855729 2.570898 28.005428 203 203 203 0
6.987166 2.579877 28.103233 201 201 201 0
7.131710 2.593349 28.249988 201 201 201 0
7.280090 2.607793 28.407334 200 200 200 0
7.434415 2.623911 28.582912 197 197 197 0
7.599370 2.643259 28.793672 196 196 196 0
7.785354 2.669264 29.076952 193 193 193 0
7.982807 2.698414 29.394485 189 189 189 0
8.221444 2.740481 29.852737 180 180 180 0
8.388446 2.757845 30.041888 111 111 111 0
-0.472987 2.956167 30.914160 81 81 81 0
-0.348973 2.908106 30.411567 104 104 104 0
-0.230558 2.881975 30.138301 128 128 128 0
-0.114038 2.850947 29.813820 136 136 136 0
0.000000 2.829635 29.590957 150 150 150 0
0.112236 2.805903 29.342773 153 153 153 0
0.222850 2.785629 29.130756 162 162 162 0
0.332805 2.773378 29.002645 166 166 166 0
0.441994 2.762465 28.888528 169 169 169 0
0.550212 2.751059 28.769247 176 176 176 0
0.656490 2.735377 28.605248 177 177 177 0
0.760006 2.714308 28.384924 179 179 179 0
0.866092 2.706537 28.303657 184 184 184 0
0.968886 2.691349 28.144823 185 185 185 0
1.074338 2.685844 28.087258 187 187 187 0
1.182260 2.686954 28.098866 190 190 190 0
1.284642 2.676337 27.987835 192 192 192 0
1.381201 2.656156 27.776799 193 193 193 0
1.486251 2.654020 27.754458 191 191 191 0
1.585251 2.642084 27.629639 195 195 195 0
1.691978 2.643716 27.646704 198 198 198 0
1.794117 2.638407 27.591188 197 197 197 0
1.891380 2.626917 27.471024 199 199 199 0
1.990823 2.619504 27.393508 199 199 199 0
2.089048 2.611310 27.307816 201 201 201 0
2.195741 2.613977 27.335710 202 202 202 0
2.299282 2.612821 27.323618 201 201 201 0
2.389323 2.597091 27.159117 202 202 202 0
2.494757 2.598705 27.176002 203 203 203 0
2.590925 2.590925 27.094636 204 204 204 0
2.691778 2.588248 27.066643 204 204 204 0
2.792790 2.585917 27.042269 205 205 205 0
2.896363 2.586039 27.043541 205 205 205 0
2.990660 2.578155 26.961101 206 206 206 0
3.100241 2.583534 27.017349 206 206 206 0
3.196365 2.577714 26.956483 207 207 207 0
3.296641 2.575501 26.933343 208 208 208 0
3.398665 2.574746 26.925450 207 207 207 0
3.495766 2.570416 26.880169 207 207 207 0
3.599639 2.571171 26.888063 207 207 207 0
3.698085 2.568114 26.856099 209 209 209 0
3.803496 2.569929 26.875079 208 208 208 0
3.902874 2.567681 26.851562 208 208 208 0
4.003732 2.566495 26.839164 209 209 209 0
4.106775 2.566734 26.841666 209 209 209 0
4.216341 2.570940 26.885643 209 209 209 0
4.316654 2.569437 26.869931 208 208 208 0
4.419547 2.569504 26.870630 209 209 209 0
4.523716 2.570293 26.878885 208 208 208 0
4.629289 2.571827 26.894926 209 209 209 0
4.737054 2.574486 26.922730 209 209 209 0
4.849053 2.579284 26.972902 209 209 209 0
4.947890 2.577026 26.949289 209 209 209 0
5.057230 2.580219 26.982686 209 209 209 0
5.167177 2.583588 27.017917 209 209 209 0
5.278778 2.587636 27.060248 208 208 208 0
5.386176 2.589508 27.079818 208 208 208 0
5.498932 2.593836 27.125079 209 209 209 0
5.616579 2.600268 27.192346 208 208 208 0
5.726633 2.603015 27.221070 208 208 208 0
5.845436 2.609570 27.289617 207 207 207 0
5.959438 2.613789 27.333738 208 208 208 0
6.081332 2.621264 27.411911 207 207 207 0
6.197520 2.626068 27.462146 206 206 206 0
6.322049 2.634187 27.547056 206 206 206 0
6.450187 2.643519 27.644647 206 206 206 0
6.576039 2.651628 27.729448 204 204 204 0
6.707038 2.661523 27.832922 204 204 204 0
6.847682 2.674876 27.972559 204 204 204 0
6.979277 2.684337 28.071502 202 202 202 0
7.114432 2.694861 28.181548 201 201 201 0
7.272177 2.713499 28.376461 199 199 199 0
7.429283 2.731354 28.563180 197 197 197 0
7.584713 2.748084 28.738137 197 197 197 0
7.762138 2.772192 28.990246 193 193 193 0
7.957867 2.802066 29.302651 190 190 190 0
8.201095 2.847602 29.778848 183 183 183 0
8.406744 2.879022 30.107418 129 129 129 0
-0.471275 3.063285 30.802264 84 84 84 0
-0.349486 3.028882 30.456327 109 109 109 0
-0.229942 2.989247 30.057787 130 130 130 0
-0.114075 2.965951 29.823536 139 139 139 0
0.000000 2.934230 29.504572 150 150 150 0
0.111998 2.911947 29.280513 155 155 155 0
0.222825 2.896725 29.127451 164 164 164 0
0.331756 2.875217 28.911183 166 166 166 0
0.441371 2.868913 28.847792 170 170 170 0
0.548792 2.853720 28.695024 175 175 175 0
0.657930 2.851032 28.667990 177 177 177 0
0.760234 2.823728 28.393445 179 179 179 0
0.864907 2.810947 28.264930 184 184 184 0
0.969172 2.799830 28.153141 184 184 184 0
1.072844 2.789395 28.048218 186 186 186 0
1.177975 2.784304 27.997028 188 188 188 0
1.282447 2.778635 27.940024 192 192 192 0
1.379393 2.758786 27.740434 191 191 191 0
1.482426 2.753077 27.683023 191 191 191 0
1.586327 2.749633 27.648395 195 195 195 0
1.688802 2.744304 27.594811 197 197 197 0
1.791805 2.740408 27.555633 197 197 197 0
1.891674 2.732418 27.475295 198 198 198 0
1.991959 2.725839 27.409143 198 198 198 0
2.089106 2.715838 27.308579 201 201 201 0
2.190961 2.712619 27.276205 201 201 201 0
2.294732 2.711956 27.269540 203 203 203 0
2.393873 2.706117 27.210828 200 200 200 0
2.490793 2.698359 27.132825 202 202 202 0
2.586902 2.690378 27.052567 204 204 204 0
2.691548 2.691548 27.064334 204 204 204 0
2.790135 2.686797 27.016561 205 205 205 0
2.893643 2.686955 27.018146 205 205 205 0
2.993318 2.683664 26.985060 205 205 205 0
3.088518 2.676716 26.915193 207 207 207 0
3.192125 2.677266 26.920722 207 207 207 0
3.295798 2.677836 26.926456 207 207 207 0
3.395955 2.675601 26.903984 207 207 207 0
3.495517 2.673043 26.878258 207 207 207 0
3.591504 2.667974 26.827291 208 208 208 0
3.697234 2.670224 26.849918 208 208 208 0
3.804754 2.673611 26.883973 208 208 208 0
3.903580 2.670871 26.856416 208 208 208 0
4.002780 2.668520 26.832781 209 209 209 0
4.101972 2.666282 26.810276 208 208 208 0
4.210530 2.670092 26.848588 209 209 209 0
4.319214 2.673799 26.885866 209 209 209 0
4.423180 2.674481 26.892718 209 209 209 0
4.517807 2.669613 26.843774 209 209 209 0
4.629990 2.675105 26.898998 209 209 209 0
4.736970 2.677418 26.922250 209 209 209 0
4.839840 2.677359 26.921655 209 209 209 0
4.946173 2.679177 26.939938 209 209 209 0
5.052288 2.680806 26.956317 209 209 209 0
5.162814 2.684663 26.995105 209 209 209 0
5.271840 2.687605 27.024682 209 209 209 0
5.383842 2.691921 27.068084 208 208 208 0
5.496472 2.696382 27.112945 209 209 209 0
5.610456 2.701331 27.162703 208 208 208 0
5.723539 2.705673 27.206364 208 208 208 0
5.837004 2.710038 27.250253 207 207 207 0
5.952541 2.715194 27.302102 207 207 207 0
6.072444 2.722130 27.371847 206 206 206 0
6.189097 2.727399 27.424823 206 206 206 0
6.311231 2.734867 27.499916 206 206 206 0
6.442650 2.746047 27.612342 206 206 206 0
6.570354 2.755310 27.705476 205 205 205 0
6.702502 2.766112 27.814096 203 203 203 0
6.832556 2.775726 27.910770 203 203 203 0
6.972239 2.788896 28.043193 202 202 202 0
7.117587 2.803898 28.194045 201 201 201 0
7.261319 2.817825 28.334090 201 201 201 0
7.411082 2.833649 28.493203 198 198 198 0
7.575803 2.854650 28.704377 196 196 196 0
7.753182 2.879753 28.956796 193 193 193 0
7.940490 2.907785 29.238663 191 191 191 0
8.175280 2.952185 29.685113 185 185 185 0
8.396182 2.990421 30.069594 142 142 142 0
-0.469838 3.171403 30.708334 85 85 85 0
-0.348423 3.135811 30.363695 110 110 110 0
-0.229524 3.098573 30.003124 132 132 132 0
-0.114130 3.081508 29.837893 142 142 142 0
0.000000 3.047085 29.504572 151 151 151 0
0.111869 3.020461 29.246777 155 155 155 0
0.222486 3.003561 29.083136 164 164 164 0
0.331928 2.987356 28.926223 167 167 167 0
0.441005 2.976783 28.823852 171 171 171 0
0.548959 2.964378 28.703737 175 175 175 0
0.655417 2.949374 28.558455 176 176 176 0
0.759516 2.929562 28.366617 181 181 181 0
0.863227 2.913390 28.210021 184 184 184 0
0.969406 2.908218 28.159941 185 185 185 0
1.072131 2.894753 28.029565 186 186 186 0
1.177452 2.890110 27.984606 190 190 190 0
1.281949 2.884386 27.929181 192 192 192 0
1.381968 2.870241 27.792215 190 190 190 0
1.482263 2.858650 27.679983 192 192 192 0
1.583802 2.850844 27.604396 196 196 196 0
1.686999 2.846810 27.565336 196 196 196 0
1.788345 2.840313 27.502422 198 198 198 0
1.886650 2.829975 27.402328 197 197 197 0
1.989423 2.827075 27.374244 200 200 200 0
2.088063 2.818885 27.294939 200 200 200 0
2.189867 2.815543 27.262584 201 201 201 0
2.289736 2.810131 27.210175 200 200 200 0
2.394616 2.811070 27.219273 201 201 201 0
2.482892 2.793253 27.046751 204 204 204 0
2.587380 2.794371 27.057574 203 203 203 0
2.687810 2.791188 27.026752 204 204 204 0
2.790044 2.790044 27.015681 204 204 204 0
2.891514 2.788245 26.998259 205 205 205 0
2.995317 2.788743 27.003082 205 205 205 0
3.085011 2.776510 26.884626 207 207 207 0
3.187359 2.776087 26.880528 207 207 207 0
3.289795 2.775765 26.877411 207 207 207 0
3.393376 2.776399 26.883551 208 208 208 0
3.493198 2.774010 26.860426 208 208 208 0
3.594054 2.772556 26.846342 208 208 208 0
3.693737 2.770303 26.824527 208 208 208 0
3.798200 2.771660 26.837662 208 208 208 0
3.901237 2.771931 26.840295 209 209 209 0
4.000483 2.769565 26.817381 209 209 209 0
4.100527 2.767856 26.800829 209 209 209 0
4.207117 2.770541 26.826827 209 209 209 0
4.312355 2.772228 26.843167 209 209 209 0
4.413584 2.771320 26.834373 209 209 209 0
4.505444 2.764704 26.770317 209 209 209 0
4.622523 2.773514 26.855619 209 209 209 0
4.726697 2.774366 26.863865 209 209 209 0
4.834762 2.777416 26.893406 209 209 209 0
4.947159 2.782777 26.945312 209 209 209 0
5.051728 2.783605 26.953329 209 209 209 0
5.156535 2.784529 26.962277 208 208 208 0
5.272053 2.791087 27.025773 209 209 209 0
5.380497 2.793720 27.051269 209 209 209 0
5.492478 2.798055 27.093243 209 209 209 0
5.606326 2.803163 27.142706 208 208 208 0
5.722735 2.809343 27.202544 208 208 208 0
5.828944 2.810384 27.212623 207 207 207 0
5.950155 2.818495 27.291160 207 207 207 0
6.067677 2.824608 27.350359 207 207 207 0
6.189098 2.832299 27.424827 206 206 206 0
6.311311 2.840090 27.500266 205 205 205 0
6.438740 2.849934 27.595583 206 206 206 0
6.565435 2.859141 27.684735 205 205 205 0
6.691416 2.867750 27.768091 204 204 204 0
6.826485 2.879924 27.885970 204 204 204 0
6.962457 2.892098 28.003850 203 203 203 0
7.100265 2.904654 28.125431 201 201 201 0
7.246863 2.920378 28.277683 201 201 201 0
7.406078 2.940649 28.473964 198 198 198 0
7.562266 2.959148 28.653089 198 198 198 0
7.743927 2.986943 28.922228 194 194 194 0
7.928623 3.015110 29.194967 192 192 192 0
8.154743 3.058029 29.610542 185 185 185 0
8.381012 3.099826 30.015264 151 151 151 0
-0.469782 3.288477 30.704733 87 87 87 0
-0.348845 3.255884 30.400408 111 111 111 0
-0.230497 3.226952 30.130268 133 133 133 0
-0.113710 3.183883 29.728129 141 141 141 0
0.000000 3.157150 29.478526 151 151 151 0
0.111953 3.134674 29.268662 156 156 156 0
0.222369 3.113170 29.067877 164 164 164 0
0.331316 3.092278 28.872815 165 165 165 0
0.440643 3.084499 28.800173 174 174 174 0
0.548040 3.069026 28.655708 175 175 175 0
0.654706 3.055295 28.527500 175 175 175 0
0.759932 3.039730 28.382163 181 181 181 0
0.864335 3.025174 28.246256 184 184 184 0
0.968018 3.011613 28.119632 185 185 185 0
1.071811 3.001071 28.021208 185 185 185 0
1.177827 2.998104 27.993501 191 191 191 0
1.278764 2.983784 27.859792 190 190 190 0
1.381334 2.975180 27.779458 193 193 193 0
1.479587 2.959174 27.630013 194 194 194 0
1.581369 2.951890 27.561994 195 195 195 0
1.686336 2.951088 27.554505 196 196 196 0
1.788138 2.945168 27.499232 196 196 196 0
1.886332 2.934294 27.397706 199 199 199 0
1.989122 2.931337 27.370096 199 199 199 0
2.084766 2.918672 27.251841 201 201 201 0
2.188402 2.917869 27.244339 200 200 200 0
2.292256 2.917416 27.240116 201 201 201 0
2.392693 2.912843 27.197418 203 203 203 0
2.488886 2.903701 27.112051 203 203 203 0
2.586948 2.897382 27.053049 204 204 204 0
2.685111 2.891658 26.999606 204 204 204 0
2.790348 2.893694 27.018617 204 204 204 0
2.888367 2.888367 26.968876 205 205 205 0
2.989887 2.886788 26.954135 207 207 207 0
3.083935 2.878339 26.875248 206 206 206 0
3.183673 2.875575 26.849442 206 206 206 0
3.289077 2.877943 26.871547 206 206 206 0
3.389825 2.876215 26.855419 208 208 208 0
3.493673 2.877142 26.864074 208 208 208 0
3.586291 2.869033 26.788353 208 208 208 0
3.693114 2.872422 26.820002 207 207 207 0
3.795939 2.872602 26.821684 208 208 208 0
3.899209 2.873102 26.826346 208 208 208 0
3.997778 2.870200 26.799250 208 208 208 0
4.097780 2.868446 26.782876 209 209 209 0
4.205423 2.871997 26.816027 209 209 209 0
4.310755 2.873837 26.833211 209 209 209 0
4.410462 2.871929 26.815396 208 208 208 0
4.513692 2.872349 26.819322 209 209 209 0
4.617122 2.872876 26.824237 210 210 210 0
4.725931 2.876654 26.859512 209 209 209 0
4.832519 2.878948 26.880931 209 209 209 0
4.930061 2.875869 26.852182 210 210 210 0
5.051068 2.886325 26.949810 208 208 208 0
5.158154 2.888566 26.970738 209 209 209 0
5.262931 2.889452 26.979012 209 209 209 0
5.374780 2.894112 27.022522 208 208 208 0
5.486069 2.898301 27.061632 208 208 208 0
5.600236 2.903826 27.113220 208 208 208 0
5.712020 2.907938 27.151612 208 208 208 0
5.826962 2.913481 27.203369 208 208 208 0
5.947113 2.921389 27.277207 208 208 208 0
6.063773 2.927339 27.332763 208 208 208 0
6.180690 2.933209 27.387570 207 207 207 0
6.308543 2.943987 27.488205 206 206 206 0
6.433305 2.952993 27.572293 205 205 205 0
6.562260 2.963601 27.671348 205 205 205 0
6.683242 2.970330 27.734170 203 203 203 0
6.818760 2.983207 27.854412 204 204 204 0
6.960527 2.998381 27.996085 203 203 203 0
7.093736 3.009464 28.099567 201 201 201 0
7.247713 3.028895 28.280999 201 201 201 0
7.396309 3.045539 28.436405 199 199 199 0
7.556995 3.066607 28.633117 197 197 197 0
7.730388 3.092155 28.871663 195 195 195 0
7.917021 3.122206 29.152246 192 192 192 0
8.140911 3.165910 29.560316 187 187 187 0
8.365876 3.208829 29.961055 154 154 154 0
-0.469992 3.407445 30.718457 87 87 87 0
-0.347815 3.362213 30.310683 111 111 111 0
-0.229707 3.330755 30.027092 130 130 130 0
-0.113660 3.296148 29.715109 144 144 144 0
0.000000 3.271680 29.494527 150 150 150 0
0.111800 3.242190 29.228668 156 156 156 0
0.221845 3.216758 28.999399 163 163 163 0
0.331317 3.202728 28.872912 166 166 166 0
0.439867 3.189039 28.749507 173 173 173 0
0.547169 3.173581 28.610152 174 174 174 0
0.654194 3.161940 28.505204 176 176 176 0
0.759869 3.148027 28.379777 182 182 182 0
0.862383 3.126138 28.182444 183 183 183 0
0.968613 3.121086 28.136905 185 185 185 0
1.072515 3.110293 28.039599 186 186 186 0
1.176386 3.101380 27.959253 189 189 189 0
1.279777 3.092794 27.881845 190 190 190 0
1.380045 3.078562 27.753544 191 191 191 0
1.481679 3.069193 27.669083 193 193 193 0
1.580724 3.056067 27.550749 196 196 196 0
1.684723 3.053560 27.528149 196 196 196 0
1.784160 3.043567 27.438064 197 197 197 0
1.887179 3.040455 27.410006 198 198 198 0
1.991661 3.039903 27.405033 200 200 200 0
2.082426 3.019517 27.221251 199 199 199 0
2.182782 3.014318 27.174381 201 201 201 0
2.288828 3.017091 27.199376 200 200 200 0
2.391219 3.015015 27.180662 202 202 202 0
2.485530 3.003348 27.075485 203 203 203 0
2.585031 2.998636 27.033007 203 203 203 0
2.686894 2.996920 27.017533 204 204 204 0
2.787468 2.993948 26.990738 205 205 205 0
2.890091 2.993308 26.984973 205 205 205 0
2.987903 2.987903 26.936248 206 206 206 0
3.081060 2.978358 26.850198 206 206 206 0
3.182914 2.977564 26.843042 206 206 206 0
3.290260 2.981798 26.881211 206 206 206 0
3.392053 2.980895 26.873072 207 207 207 0
3.484914 2.972427 26.796723 208 208 208 0
3.587874 2.972809 26.800176 208 208 208 0
3.689523 2.972116 26.793925 207 207 207 0
3.793005 2.972896 26.800954 207 207 207 0
3.899003 2.975555 26.824929 208 208 208 0
3.994779 2.970477 26.779145 208 208 208 0
4.093355 2.967683 26.753958 209 209 209 0
4.202658 2.972612 26.798396 209 209 209 0
4.306006 2.973195 26.803648 208 208 208 0
4.410459 2.974495 26.815374 209 209 209 0
4.506300 2.970061 26.775400 209 209 209 0
4.616043 2.974783 26.817967 209 209 209 0
4.724025 2.978190 26.848678 209 209 209 0
4.828943 2.979560 26.861035 209 209 209 0
4.938870 2.983901 26.900166 209 209 209 0
5.041185 2.983558 26.897077 209 209 209 0
5.153797 2.989202 26.947959 209 209 209 0
5.263144 2.992768 26.980104 208 208 208 0
5.373137 2.996557 27.014263 209 209 209 0
5.486531 3.002064 27.063908 208 208 208 0
5.597236 3.005923 27.098700 208 208 208 0
5.707705 3.009517 27.131099 208 208 208 0
5.826609 3.017351 27.201723 208 208 208 0
5.939780 3.021994 27.243575 208 208 208 0
6.065654 3.032827 27.341238 207 207 207 0
6.178123 3.036704 27.376194 207 207 207 0
6.303992 3.046929 27.468373 206 206 206 0
6.427234 3.055570 27.546274 205 205 205 0
6.555588 3.066323 27.643211 206 206 206 0
6.683739 3.076642 27.736236 204 204 204 0
6.814479 3.087811 27.836925 203 203 203 0
6.953197 3.102195 27.966603 204 204 204 0
7.089184 3.114944 28.081537 201 201 201 0
7.235687 3.131864 28.234071 201 201 201 0
7.392100 3.152513 28.420222 200 200 200 0
7.550336 3.173330 28.607886 198 198 198 0
7.723564 3.199762 28.846179 195 195 195 0
7.906854 3.229560 29.114809 192 192 192 0
8.132079 3.275421 29.528246 187 187 187 0
8.361760 3.321795 29.946315 158 158 158 0
8.486143 3.325651 29.981075 76 76 76 0
-0.470464 3.528482 30.749298 90 90 90 0
-0.347818 3.478183 30.310960 114 114 114 0
-0.229408 3.441116 29.987935 130 130 130 0
-0.113837 3.415103 29.761248 144 144 144 0
0.000000 3.379594 29.451802 150 150 150 0
0.112062 3.361872 29.297357 157 157 157 0
0.222084 3.331258 29.030572 164 164 164 0
0.331644 3.316440 28.901439 167 167 167 0
0.439403 3.295525 28.719168 172 172 172 0
0.546941 3.281643 28.598199 174 174 174 0
0.654254 3.271268 28.507779 177 177 177 0
0.760132 3.257707 28.389604 182 182 182 0
0.863864 3.239491 28.230862 183 183 183 0
0.966445 3.221484 28.073931 184 184 184 0
1.071756 3.215269 28.019774 188 188 188 0
1.174039 3.201924 27.903473 190 190 190 0
1.278462 3.196156 27.853210 190 190 190 0
1.381838 3.188856 27.789593 190 190 190 0
1.481136 3.173864 27.658942 194 194 194 0
1.580358 3.160716 27.544369 195 195 195 0
1.683259 3.156110 27.504228 194 194 194 0
1.786375 3.152426 27.472121 196 196 196 0
1.886571 3.144285 27.401173 199 199 199 0
1.987233 3.137736 27.344101 200 200 200 0
2.083040 3.124561 27.229286 199 199 199 0
2.184214 3.120306 27.192211 199 199 199 0
2.287993 3.119990 27.189458 201 201 201 0
2.392355 3.120463 27.193576 202 202 202 0
2.488921 3.111151 27.112429 203 203 203 0
