ply
format ascii 1.0
element vertex 1101
property float x
property float y
property float z
property uchar red
property uchar green
property uchar blue
property uchar alpha
end_header
5.408617 -4.720247 25.709408 204 204 204 0
5.515540 -4.727606 25.749486 204 204 204 0
5.625178 -4.736992 25.800610 204 204 204 0
5.740753 -4.750968 25.876731 205 205 205 0
5.857731 -4.765612 25.956492 203 203 203 0
5.967945 -4.774356 26.004119 203 203 203 0
6.088725 -4.791128 26.095467 202 202 202 0
6.213782 -4.810670 26.201907 202 202 202 0
6.334372 -4.826188 26.286427 202 202 202 0
6.452083 -4.839062 26.356548 200 200 200 0
6.591365 -4.867470 26.511273 200 200 200 0
6.720598 -4.887707 26.621500 200 200 200 0
6.856795 -4.912331 26.755613 199 199 199 0
7.000787 -4.941732 26.915751 196 196 196 0
7.151349 -4.974852 27.096142 196 196 196 0
7.302960 -5.007744 27.275295 195 195 195 0
7.474214 -5.052989 27.521729 192 192 192 0
7.660106 -5.106737 27.814472 190 190 190 0
7.865676 -5.171951 28.169669 187 187 187 0
8.104943 -5.257260 28.634316 171 171 171 0
8.280559 -5.299558 28.864695 96 96 96 0
-5.462713 -4.426681 24.623453 76 76 76 0
-5.257518 -4.335146 24.114290 91 91 91 0
-5.111723 -4.290196 23.864254 115 115 115 0
-4.982149 -4.257473 23.682228 129 129 129 0
-4.879511 -4.246982 23.623872 140 140 140 0
-4.765350 -4.225876 23.506474 147 147 147 0
-4.647429 -4.200561 23.365656 154 154 154 0
-4.537816 -4.181909 23.261905 157 157 157 0
-4.432657 -4.166698 23.177292 160 160 160 0
-4.338571 -4.161486 23.148303 161 161 161 0
-4.260235 -4.171480 23.203892 165 165 165 0
-4.164478 -4.164478 23.164947 168 168 168 0
-4.050934 -4.138998 23.023212 169 169 169 0
-3.962869 -4.138996 23.023203 169 169 169 0
-3.874436 -4.138602 23.021010 170 170 170 0
-3.795756 -4.148849 23.078011 172 172 172 0
-3.717033 -4.159537 23.137463 173 173 173 0
-3.623306 -4.153546 23.104133 173 173 173 0
-3.523606 -4.140236 23.030101 173 173 173 0
-3.439036 -4.144479 23.053700 173 173 173 0
-3.366449 -4.163766 23.160986 174 174 174 0
-3.286239 -4.174412 23.220205 174 174 174 0
-3.206667 -4.186482 23.287344 172 172 172 0
-3.110755 -4.177299 23.236262 172 172 172 0
-3.028986 -4.187128 23.290935 172 172 172 0
-2.952836 -4.205554 23.393430 172 172 172 0
-2.883017 -4.234432 23.554063 173 173 173 0
-2.795710 -4.238657 23.577565 172 172 172 0
-2.710944 -4.247146 23.624788 170 170 170 0
-2.636159 -4.272396 23.765237 167 167 167 0
-2.563715 -4.303379 23.937582 164 164 164 0
-2.488130 -4.331189 24.092277 160 160 160 0
-2.409314 -4.355299 24.226389 155 155 155 0
-2.313964 -4.350252 24.198314 138 138 138 0
-2.242368 -4.391304 24.426665 113 113 113 0
-2.144414 -4.382063 24.375261 86 86 86 0
-1.937240 -5.355900 29.792240 78 78 78 0
-1.794577 -5.271571 29.323159 105 105 105 0
-1.659485 -5.199721 28.923491 122 122 122 0
-1.533481 -5.148114 28.636428 138 138 138 0
-1.411421 -5.102829 28.384528 145 145 145 0
-1.289939 -5.052262 28.103250 150 150 150 0
-1.174848 -5.019806 27.922712 159 159 159 0
-1.060903 -4.986244 27.736026 162 162 162 0
-0.946783 -4.944312 27.502777 163 163 163 0
-0.836424 -4.913991 27.334118 171 171 171 0
-0.727687 -4.885898 27.177850 174 174 174 0
-0.622534 -4.876517 27.125667 174 174 174 0
-0.516011 -4.850500 26.980951 175 175 175 0
-0.411119 -4.830647 26.870518 179 179 179 0
-0.306958 -4.809016 26.750194 183 183 183 0
-0.203498 -4.782194 26.600996 183 183 183 0
-0.101363 -4.764079 26.500233 184 184 184 0
0.000000 -4.758837 26.471073 183 183 183 0
0.100753 -4.735397 26.340688 188 188 188 0
0.201335 -4.731381 26.318349 189 189 189 0
0.300955 -4.714968 26.227048 191 191 191 0
0.399004 -4.688295 26.078684 192 192 192 0
0.497253 -4.674176 26.000145 192 192 192 0
0.595841 -4.667421 25.962570 192 192 192 0
0.694677 -4.664259 25.944980 194 194 194 0
0.792283 -4.654665 25.891616 196 196 196 0
0.888008 -4.637376 25.795445 196 196 196 0
0.984012 -4.624856 25.725800 196 196 196 0
1.080160 -4.615230 25.672257 196 196 196 0
1.176733 -4.608871 25.636883 197 197 197 0
1.272817 -4.601725 25.597134 197 197 197 0
1.367287 -4.590179 25.532912 198 198 198 0
1.461027 -4.577885 25.464524 199 199 199 0
1.555247 -4.568537 25.412528 200 200 200 0
1.652238 -4.567951 25.409270 200 200 200 0
1.750329 -4.570304 25.422358 202 202 202 0
1.842734 -4.558342 25.355814 201 201 201 0
1.938012 -4.554328 25.333487 201 201 201 0
2.030780 -4.545078 25.282038 201 201 201 0
2.127874 -4.545912 25.286673 201 201 201 0
2.223550 -4.543777 25.274798 202 202 202 0
2.318512 -4.540420 25.256127 202 202 202 0
2.411050 -4.532775 25.213600 204 204 204 0
2.501550 -4.522032 25.153844 203 203 203 0
2.599113 -4.524382 25.166914 204 204 204 0
2.696334 -4.525989 25.175852 204 204 204 0
2.795492 -4.530625 25.201644 204 204 204 0
2.887716 -4.524089 25.165284 205 205 205 0
2.980700 -4.519127 25.137681 206 206 206 0
3.074749 -4.516037 25.120497 205 205 205 0
3.176432 -4.524009 25.164837 205 205 205 0
3.269443 -4.519524 25.139894 206 206 206 0
3.360703 -4.512944 25.103289 206 206 206 0
3.460727 -4.518172 25.132371 206 206 206 0
3.560725 -4.523083 25.159686 206 206 206 0
3.654353 -4.519857 25.141746 206 206 206 0
3.758119 -4.529015 25.192688 207 207 207 0
3.849741 -4.523446 25.161707 207 207 207 0
3.943574 -4.520682 25.146333 206 206 206 0
4.045908 -4.527564 25.184613 206 206 206 0
4.148456 -4.534359 25.222413 205 205 205 0
4.245215 -4.534661 25.224094 205 205 205 0
4.345156 -4.538274 25.244186 205 205 205 0
4.446485 -4.543148 25.271298 206 206 206 0
4.550125 -4.550125 25.310112 206 206 206 0
4.654216 -4.557253 25.349762 205 205 205 0
4.755754 -4.561642 25.374171 205 205 205 0
4.856865 -4.565453 25.395372 206 206 206 0
4.963772 -4.574456 25.445452 206 206 206 0
5.070227 -4.582705 25.491339 206 206 206 0
5.173327 -4.587667 25.518938 205 205 205 0
5.280973 -4.596403 25.567529 205 205 205 0
5.395124 -4.610379 25.645274 205 205 205 0
5.503133 -4.618701 25.691563 205 205 205 0
5.609817 -4.625639 25.730155 205 205 205 0
5.725003 -4.639227 25.805740 204 204 204 0
5.837624 -4.650311 25.867393 204 204 204 0
5.948914 -4.659982 25.921193 203 203 203 0
6.069706 -4.676659 26.013955 202 202 202 0
6.191691 -4.693701 26.108753 202 202 202 0
6.316627 -4.712404 26.212789 202 202 202 0
6.433014 -4.724244 26.278650 201 201 201 0
6.568621 -4.749618 26.419793 201 201 201 0
6.703349 -4.773597 26.553176 199 199 199 0
6.832337 -4.792833 26.660176 200 200 200 0
6.972502 -4.819229 26.807006 199 199 199 0
7.122447 -4.851522 26.986633 197 197 197 0
7.264779 -4.877780 27.132694 196 196 196 0
7.428504 -4.917460 27.353415 196 196 196 0
7.603083 -4.963124 27.607418 192 192 192 0
7.798339 -5.020849 27.928514 190 190 190 0
8.028077 -5.098914 28.362751 183 183 183 0
8.247740 -5.168584 28.750293 148 148 148 0
8.328833 -5.150726 28.650957 76 76 76 0
-5.473232 -4.196145 23.848507 86 86 86 0
-5.394558 -4.205926 23.904100 106 106 106 0
-5.243638 -4.158747 23.635962 126 126 126 0
-5.111774 -4.125292 23.445818 142 142 142 0
-4.990352 -4.099218 23.297628 151 151 151 0
-4.882867 -4.083852 23.210300 155 155 155 0
-4.782312 -4.073821 23.153290 158 158 158 0
-4.687819 -4.068673 23.124031 163 163 163 0
-4.580198 -4.051713 23.027640 166 166 166 0
-4.469680 -4.031476 22.912624 167 167 167 0
-4.364461 -4.015304 22.820712 168 168 168 0
-4.274798 -4.013076 22.808047 168 168 168 0
-4.199241 -4.024273 22.871684 172 172 172 0
-4.110849 -4.023384 22.866633 173 173 173 0
-4.019935 -4.019935 22.847033 173 173 173 0
-3.916194 -4.003221 22.752037 173 173 173 0
-3.822919 -3.996688 22.714908 174 174 174 0
-3.746995 -4.008413 22.781546 176 176 176 0
-3.671745 -4.021435 22.855553 176 176 176 0
-3.585598 -4.022867 22.863692 176 176 176 0
-3.491140 -4.014811 22.817907 176 176 176 0
-3.398196 -4.008128 22.779929 177 177 177 0
-3.326939 -4.027348 22.889159 180 180 180 0
-3.247683 -4.037660 22.947769 180 180 180 0
-3.164954 -4.044108 22.984414 179 179 179 0
-3.073913 -4.040000 22.961068 179 179 179 0
-2.991057 -4.046724 22.999286 179 179 179 0
-2.903393 -4.047154 23.001729 180 180 180 0
-2.836378 -4.077294 23.173027 178 178 178 0
-2.762257 -4.098833 23.295440 177 177 177 0
-2.667643 -4.090386 23.247434 175 175 175 0
-2.588714 -4.106237 23.337519 175 175 175 0
-2.511434 -4.125928 23.449432 175 175 175 0
-2.436486 -4.151051 23.592220 175 175 175 0
-2.359895 -4.175200 23.729467 173 173 173 0
-2.276771 -4.189258 23.809367 170 170 170 0
-2.207983 -4.231967 24.052100 165 165 165 0
-2.130366 -4.260732 24.215585 154 154 154 0
-2.041909 -4.269446 24.265108 132 132 132 0
-1.956661 -4.286019 24.359304 105 105 105 0
-1.855825 -4.268398 24.259155 79 79 79 0
-2.078030 -5.310521 30.181991 72 72 72 0
-1.922910 -5.203168 29.571857 93 93 93 0
-1.775464 -5.104459 29.010852 119 119 119 0
-1.650566 -5.061736 28.768035 131 131 131 0
-1.523253 -5.004973 28.445430 145 145 145 0
-1.403180 -4.965098 28.218799 146 146 146 0
-1.284692 -4.924651 27.988924 155 155 155 0
-1.171967 -4.900954 27.854241 160 160 160 0
-1.057598 -4.864952 27.649628 160 160 160 0
-0.942910 -4.819319 27.390276 167 167 167 0
-0.834143 -4.796321 27.259567 172 172 172 0
-0.725538 -4.767823 27.097601 173 173 173 0
-0.618930 -4.745128 26.968615 175 175 175 0
-0.514595 -4.734269 26.906902 177 177 177 0
-0.410579 -4.721659 26.835230 183 183 183 0
-0.306091 -4.693402 26.674637 183 183 183 0
-0.203073 -4.670670 26.545442 183 183 183 0
-0.101012 -4.646562 26.408424 184 184 184 0
0.000000 -4.640015 26.371215 187 187 187 0
0.100670 -4.630840 26.319069 190 190 190 0
0.200852 -4.619594 26.255154 190 190 190 0
0.300091 -4.601388 26.151681 191 191 191 0
0.398755 -4.585687 26.062443 192 192 192 0
0.495939 -4.562643 25.931476 191 191 191 0
0.594786 -4.560030 25.916621 192 192 192 0
0.693030 -4.554196 25.883467 195 195 195 0
0.790394 -4.544767 25.829878 196 196 196 0
0.885207 -4.524389 25.714063 198 198 198 0
0.980873 -4.512017 25.643744 197 197 197 0
1.077532 -4.506045 25.609801 197 197 197 0
1.175058 -4.504388 25.600389 196 196 196 0
1.270002 -4.493851 25.540503 197 197 197 0
1.367218 -4.492286 25.531608 200 200 200 0
1.459968 -4.477236 25.446073 200 200 200 0
1.553927 -4.467541 25.390969 200 200 200 0
1.649097 -4.462263 25.360973 201 201 201 0
1.746237 -4.462606 25.362924 202 202 202 0
1.840997 -4.457149 25.331909 201 201 201 0
1.936158 -4.453164 25.309258 201 201 201 0
2.027524 -4.441242 25.241501 201 201 201 0
2.120712 -4.434217 25.201573 201 201 201 0
2.218949 -4.437898 25.222496 202 202 202 0
2.315858 -4.438728 25.227210 203 203 203 0
2.408098 -4.430901 25.182726 204 204 204 0
2.496554 -4.416980 25.103610 204 204 204 0
2.596006 -4.422825 25.136830 206 206 206 0
2.691548 -4.421830 25.131171 205 205 205 0
2.787550 -4.421631 25.130045 205 205 205 0
2.881692 -4.418594 25.112783 204 204 204 0
2.974481 -4.413747 25.085232 205 205 205 0
3.072137 -4.416197 25.099157 205 205 205 0
3.167486 -4.415283 25.093967 205 205 205 0
3.265131 -4.417531 25.106739 205 205 205 0
3.357879 -4.413213 25.082199 205 205 205 0
3.449395 -4.407560 25.050072 206 206 206 0
3.550457 -4.414081 25.087134 206 206 206 0
3.648626 -4.416758 25.102346 206 206 206 0
3.750314 -4.423447 25.140363 206 206 206 0
3.842882 -4.419314 25.116876 206 206 206 0
3.939404 -4.419819 25.119747 206 206 206 0
4.039143 -4.423823 25.142503 206 206 206 0
4.140013 -4.428851 25.171078 207 207 207 0
4.237698 -4.430321 25.179430 207 207 207 0
4.335264 -4.431604 25.186721 206 206 206 0
4.435570 -4.435570 25.209264 205 205 205 0
4.543334 -4.446667 25.272335 205 205 205 0
4.645552 -4.451987 25.302570 206 206 206 0
4.743786 -4.453350 25.310314 206 206 206 0
4.846838 -4.459091 25.342946 207 207 207 0
4.953703 -4.468046 25.393838 206 206 206 0
5.056229 -4.472818 25.420959 206 206 206 0
5.160322 -4.478770 25.454791 206 206 206 0
5.266814 -4.486545 25.498978 205 205 205 0
5.378981 -4.498784 25.568538 205 205 205 0
5.491566 -4.510929 25.637562 204 204 204 0
5.598249 -4.517885 25.677096 204 204 204 0
5.707213 -4.526411 25.725550 205 205 205 0
5.822292 -4.539414 25.799456 205 205 205 0
5.937213 -4.551863 25.870209 204 204 204 0
6.051448 -4.563387 25.935702 203 203 203 0
6.173110 -4.580050 26.030404 202 202 202 0
6.297882 -4.598454 26.135003 203 203 203 0
6.420367 -4.614638 26.226987 203 203 203 0
6.543622 -4.630871 26.319244 203 203 203 0
6.677673 -4.654136 26.451468 199 199 199 0
6.808678 -4.674615 26.567859 200 200 200 0
6.944625 -4.697834 26.699825 200 200 200 0
7.091102 -4.727402 26.867869 198 198 198 0
7.231331 -4.752017 27.007772 196 196 196 0
7.396756 -4.792264 27.236513 196 196 196 0
7.559409 -4.829622 27.448834 194 194 194 0
7.745811 -4.880922 27.740391 191 191 191 0
7.955198 -4.945123 28.105273 188 188 188 0
8.189111 -5.022655 28.545921 177 177 177 0
8.380800 -5.072589 28.829721 112 112 112 0
-5.799415 -4.142439 24.066458 76 76 76 0
-5.642400 -4.095290 23.792536 91 91 91 0
-5.516383 -4.069463 23.642484 120 120 120 0
-5.389522 -4.042142 23.483757 137 137 137 0
-5.278182 -4.025732 23.388421 145 145 145 0
-5.154835 -3.999441 23.235676 152 152 152 0
-5.037939 -3.977321 23.107164 160 160 160 0
-4.904316 -3.940968 22.895967 162 162 162 0
-4.802617 -3.929414 22.828838 164 164 164 0
-4.715581 -3.929651 22.830215 166 166 166 0
-4.615036 -3.918427 22.765009 169 169 169 0
-4.519296 -3.910929 22.721448 172 172 172 0
-4.426573 -3.905800 22.691647 172 172 172 0
-4.321892 -3.889703 22.598128 174 174 174 0
-4.232588 -3.887071 22.582838 176 176 176 0
-4.140544 -3.881760 22.551984 178 178 178 0
-4.062127 -3.889270 22.595615 179 179 179 0
-3.974172 -3.887777 22.586938 180 180 180 0
-3.880017 -3.880017 22.541858 179 179 179 0
-3.791295 -3.877461 22.527006 182 182 182 0
-3.702378 -3.874582 22.510280 183 183 183 0
-3.628073 -3.887221 22.583711 183 183 183 0
-3.555361 -3.902226 22.670885 182 182 182 0
-3.454672 -3.886506 22.579553 182 182 182 0
-3.372291 -3.891105 22.606272 184 184 184 0
-3.279186 -3.883247 22.560619 184 184 184 0
-3.205764 -3.898902 22.651574 183 183 183 0
-3.131400 -3.914250 22.740741 181 181 181 0
-3.042709 -3.912055 22.727987 181 181 181 0
-2.960969 -3.918929 22.767925 183 183 183 0
-2.878358 -3.925034 22.803393 183 183 183 0
-2.801329 -3.939368 22.886672 183 183 183 0
-2.727407 -3.959140 23.001537 182 182 182 0
-2.644540 -3.966810 23.046103 182 182 182 0
-2.562608 -3.976460 23.102165 182 182 182 0
-2.482166 -3.989195 23.176149 181 181 181 0
-2.408128 -4.013547 23.317632 180 180 180 0
-2.328583 -4.030239 23.414609 179 179 179 0
-2.248148 -4.046666 23.510045 177 177 177 0
-2.166309 -4.061829 23.598133 175 175 175 0
-2.089652 -4.088449 23.752792 173 173 173 0
-2.017560 -4.126826 23.975752 171 171 171 0
-1.940146 -4.157456 24.153700 168 168 168 0
-1.853068 -4.169402 24.223106 152 152 152 0
-1.770640 -4.193620 24.363807 117 117 117 0
-2.117693 -5.294233 30.758070 89 89 89 0
-1.904611 -5.041618 29.290446 111 111 111 0
-1.766064 -4.967055 28.857256 123 123 123 0
-1.636291 -4.908873 28.519235 140 140 140 0
-1.516048 -4.873011 28.310883 146 146 146 0
-1.396598 -4.834377 28.086429 152 152 152 0
-1.278926 -4.795971 27.863301 159 159 159 0
-1.166477 -4.771951 27.723754 162 162 162 0
-1.052906 -4.738076 27.526947 163 163 163 0
-0.939578 -4.697888 27.293468 171 171 171 0
-0.831948 -4.679709 27.187850 174 174 174 0
-0.722925 -4.647375 27.000000 173 173 173 0
-0.616517 -4.623876 26.863475 175 175 175 0
-0.512678 -4.614104 26.806702 180 180 180 0
-0.409163 -4.603085 26.742688 183 183 183 0
-0.305425 -4.581378 26.616573 185 185 185 0
-0.202614 -4.558814 26.485487 184 184 184 0
-0.100685 -4.530816 26.322826 187 187 187 0
0.000000 -4.523186 26.278496 189 189 189 0
0.100311 -4.514009 26.225178 190 190 190 0
0.200444 -4.509985 26.201801 192 192 192 0
0.299976 -4.499638 26.141686 191 191 191 0
0.397607 -4.473084 25.987416 192 192 192 0
0.495186 -4.456675 25.892083 193 193 193 0
0.592945 -4.447089 25.836393 196 196 196 0
0.691794 -4.447245 25.837296 197 197 197 0
0.790266 -4.445248 25.825699 197 197 197 0
0.884903 -4.424516 25.705248 197 197 197 0
0.980822 -4.413698 25.642398 197 197 197 0
1.074295 -4.394842 25.532851 197 197 197 0
1.170779 -4.390420 25.507161 197 197 197 0
1.267809 -4.388570 25.496414 200 200 200 0
1.363270 -4.381938 25.457885 201 201 201 0
1.457986 -4.373957 25.411517 200 200 200 0
1.551752 -4.364303 25.355426 201 201 201 0
1.646374 -4.358048 25.319087 201 201 201 0
1.742659 -4.356646 25.310945 201 201 201 0
1.840947 -4.360138 25.331232 201 201 201 0
1.932192 -4.347431 25.257407 202 202 202 0
2.022525 -4.333983 25.179278 202 202 202 0
2.116020 -4.328223 25.145813 203 203 203 0
2.213364 -4.330494 25.159008 204 204 204 0
2.310741 -4.332639 25.171469 204 204 204 0
2.403398 -4.326116 25.133574 205 205 205 0
2.497019 -4.321764 25.108287 205 205 205 0
2.588076 -4.313461 25.060047 205 205 205 0
2.688178 -4.320287 25.099705 204 204 204 0
2.782646 -4.317899 25.085831 205 205 205 0
2.877127 -4.315690 25.073000 205 205 205 0
2.970715 -4.312328 25.053468 206 206 206 0
3.066492 -4.312254 25.053036 205 205 205 0
3.161492 -4.311125 25.046479 205 205 205 0
3.257437 -4.311314 25.047576 206 206 206 0
3.352071 -4.309806 25.038815 206 206 206 0
3.448074 -4.310092 25.040478 206 206 206 0
3.545080 -4.311584 25.049143 206 206 206 0
3.641792 -4.312649 25.055329 206 206 206 0
3.742745 -4.318552 25.089624 206 206 206 0
3.838138 -4.317905 25.085869 206 206 206 0
3.934903 -4.318796 25.091046 206 206 206 0
4.032616 -4.320660 25.101875 207 207 207 0
4.135005 -4.327331 25.140632 207 207 207 0
4.231247 -4.327411 25.141097 207 207 207 0
4.325646 -4.325646 25.130842 207 207 207 0
4.427367 -4.331120 25.162643 207 207 207 0
4.532538 -4.339664 25.212284 206 206 206 0
4.635022 -4.345333 25.245219 206 206 206 0
4.733848 -4.347412 25.257295 206 206 206 0
4.836320 -4.352688 25.287948 206 206 206 0
4.944657 -4.362932 25.347465 207 207 207 0
5.048527 -4.368917 25.382236 207 207 207 0
5.150625 -4.373172 25.406954 206 206 206 0
5.254873 -4.379061 25.441168 206 206 206 0
5.365052 -4.389588 25.502327 206 206 206 0
5.476790 -4.400992 25.568580 204 204 204 0
5.584076 -4.408481 25.612088 205 205 205 0
5.696330 -4.419566 25.676492 205 205 205 0
5.812335 -4.433137 25.755335 205 205 205 0
5.927164 -4.445373 25.826422 205 205 205 0
6.033347 -4.450829 25.858123 204 204 204 0
6.153299 -4.466104 25.946866 204 204 204 0
6.282854 -4.487753 26.072638 203 203 203 0
6.400923 -4.500649 26.147561 203 203 203 0
6.523678 -4.516392 26.239027 202 202 202 0
6.653004 -4.536139 26.353750 202 202 202 0
6.786441 -4.558058 26.481089 200 200 200 0
6.919590 -4.579140 26.603575 200 200 200 0
7.065579 -4.607986 26.771163 200 200 200 0
7.203180 -4.630616 26.902634 198 198 198 0
7.362372 -4.666292 27.109905 196 196 196 0
7.520702 -4.700439 27.308286 196 196 196 0
7.690249 -4.740565 27.541406 193 193 193 0
7.883007 -4.793721 27.850229 190 190 190 0
8.108780 -4.865268 28.265901 185 185 185 0
8.342487 -4.939631 28.697927 161 161 161 0
8.503169 -4.969384 28.870787 82 82 82 0
-5.835265 -3.950026 23.470147 75 75 75 0
-5.834445 -4.011181 23.833516 95 95 95 0
-5.688117 -3.972653 23.604592 119 119 119 0
-5.533969 -3.927333 23.335310 138 138 138 0
-5.392915 -3.889972 23.113319 150 150 150 0
-5.281005 -3.872737 23.010917 156 156 156 0
-5.178644 -3.862039 22.947352 159 159 159 0
-5.079988 -3.853784 22.898303 161 161 161 0
-4.974773 -3.840175 22.817442 166 166 166 0
-4.855989 -3.815420 22.670350 169 169 169 0
-4.742887 -3.794310 22.544917 171 171 171 0
-4.646765 -3.786253 22.497045 173 173 173 0
-4.571420 -3.795142 22.549860 176 176 176 0
-4.480808 -3.791453 22.527946 177 177 177 0
-4.384103 -3.782364 22.473937 178 178 178 0
-4.284618 -3.770464 22.403232 179 179 179 0
-4.184350 -3.757375 22.325463 180 180 180 0
-4.106776 -3.764544 22.368060 181 181 181 0
-4.028803 -3.771645 22.410250 181 181 181 0
-3.941616 -3.770242 22.401912 181 181 181 0
-3.846994 -3.761506 22.350004 181 181 181 0
-3.757127 -3.757127 22.323987 184 184 184 0
-3.670590 -3.755953 22.317011 184 184 184 0
-3.597290 -3.768590 22.392097 184 184 184 0
-3.519693 -3.777231 22.443443 184 184 184 0
-3.438728 -3.782600 22.475344 186 186 186 0
-3.344033 -3.772755 22.416848 186 186 186 0
-3.256247 -3.770391 22.402798 187 187 187 0
-3.178495 -3.779832 22.458895 187 187 187 0
-3.104321 -3.794170 22.544090 186 186 186 0
-3.019690 -3.796181 22.556037 187 187 187 0
-2.935176 -3.798463 22.569596 188 188 188 0
-2.851065 -3.801420 22.587167 186 186 186 0
-2.771441 -3.810731 22.642492 186 186 186 0
-2.700139 -3.832455 22.771567 184 184 184 0
-2.614799 -3.835038 22.786917 185 185 185 0
-2.535153 -3.846439 22.854656 185 185 185 0
-2.451626 -3.852555 22.890996 185 185 185 0
-2.380234 -3.878900 23.047536 185 185 185 0
-2.299851 -3.892055 23.125698 184 184 184 0
-2.216706 -3.901402 23.181237 182 182 182 0
-2.135912 -3.915839 23.267018 180 180 180 0
-2.061046 -3.942871 23.427638 180 180 180 0
-1.984432 -3.968865 23.582085 180 180 180 0
-1.908700 -3.999181 23.762215 177 177 177 0
-1.824587 -4.014091 23.850809 174 174 174 0
-1.753793 -4.061415 24.131996 169 169 169 0
-1.668044 -4.077440 24.227215 155 155 155 0
-1.561198 -4.040748 24.009197 141 141 141 0
-1.749700 -4.811674 28.589862 136 136 136 0
-1.626060 -4.769776 28.340915 145 145 145 0
-1.508218 -4.740113 28.164665 147 147 147 0
-1.389704 -4.703612 27.947786 158 158 158 0
-1.273472 -4.669398 27.744494 163 163 163 0
-1.162743 -4.650973 27.635013 163 163 163 0
-1.047658 -4.609694 27.389743 168 168 168 0
-0.935897 -4.575498 27.186557 175 175 175 0
-0.829720 -4.563461 27.115040 175 175 175 0
-0.720387 -4.528148 26.905217 175 175 175 0
-0.615870 -4.516381 26.835302 178 178 178 0
-0.511183 -4.498409 26.728515 184 184 184 0
-0.408208 -4.490285 26.680244 185 185 185 0
-0.304390 -4.464390 26.526383 184 184 184 0
-0.201813 -4.439895 26.380840 186 186 186 0
-0.100426 -4.418724 26.255044 188 188 188 0
0.000000 -4.412932 26.220632 191 191 191 0
0.100195 -4.408597 26.194870 192 192 192 0
0.199949 -4.398882 26.137146 192 192 192 0
0.298933 -4.384357 26.050845 191 191 191 0
0.397025 -4.367272 25.949329 192 192 192 0
0.495235 -4.358072 25.894665 195 195 195 0
0.591677 -4.338966 25.781140 196 196 196 0
0.689503 -4.334020 25.751755 198 198 198 0
0.787170 -4.329435 25.724509 197 197 197 0
0.882557 -4.314722 25.637087 196 196 196 0
0.977496 -4.300984 25.555458 196 196 196 0
1.072994 -4.291975 25.501930 198 198 198 0
1.169412 -4.287845 25.477391 200 200 200 0
1.266857 -4.287824 25.477266 201 201 201 0
1.359684 -4.273294 25.390932 201 201 201 0
1.454071 -4.265276 25.343290 201 201 201 0
1.547468 -4.255537 25.285424 201 201 201 0
1.642995 -4.252458 25.267128 202 202 202 0
1.739473 -4.252045 25.264678 201 201 201 0
1.834195 -4.247609 25.238318 201 201 201 0
1.927679 -4.240894 25.198420 202 202 202 0
2.020902 -4.234272 25.159070 203 203 203 0
2.112155 -4.224309 25.099876 204 204 204 0
2.210623 -4.229019 25.127859 204 204 204 0
2.308436 -4.232132 25.146357 205 205 205 0
2.399424 -4.222987 25.092018 205 205 205 0
2.491880 -4.217029 25.056616 205 205 205 0
2.586002 -4.214226 25.039965 205 205 205 0
2.684292 -4.218174 25.063421 204 204 204 0
2.777737 -4.214498 25.041582 205 205 205 0
2.872320 -4.212735 25.031107 205 205 205 0
2.964545 -4.207741 25.001430 204 204 204 0
3.060251 -4.207845 25.002048 206 206 206 0
3.158923 -4.211897 25.026127 206 206 206 0
3.252315 -4.208878 25.008188 206 206 206 0
3.346032 -4.206440 24.993704 206 206 206 0
3.440258 -4.204759 24.983715 206 206 206 0
3.538916 -4.208440 25.005588 206 206 206 0
3.635330 -4.209330 25.010871 207 207 207 0
3.732542 -4.211073 25.021233 206 206 206 0
3.831645 -4.214810 25.043433 207 207 207 0
3.927238 -4.214597 25.042168 206 206 206 0
4.024913 -4.216575 25.053923 206 206 206 0
4.123942 -4.219847 25.073364 207 207 207 0
4.223469 -4.223469 25.094887 207 207 207 0
4.319943 -4.223945 25.097710 207 207 207 0
4.421197 -4.228971 25.127574 207 207 207 0
4.524911 -4.236087 25.169856 207 207 207 0
4.628449 -4.242745 25.209415 206 206 206 0
4.723318 -4.241346 25.201108 206 206 206 0
4.826146 -4.247009 25.234751 206 206 206 0
4.933998 -4.256782 25.292824 206 206 206 0
5.038527 -4.263369 25.331961 207 207 207 0
5.144675 -4.271051 25.377606 207 207 207 0
5.249276 -4.277188 25.414070 207 207 207 0
5.356829 -4.285463 25.463239 207 207 207 0
5.463425 -4.292691 25.506188 206 206 206 0
5.571261 -4.300622 25.553312 205 205 205 0
5.680482 -4.309331 25.605059 205 205 205 0
5.797310 -4.323418 25.688757 205 205 205 0
5.911653 -4.335213 25.758839 206 206 206 0
6.024564 -4.345587 25.820483 205 205 205 0
6.137556 -4.355685 25.880480 204 204 204 0
6.265954 -4.376222 26.002506 203 203 203 0
6.382947 -4.388276 26.074129 203 203 203 0
6.507660 -4.405185 26.174600 203 203 203 0
6.633844 -4.422562 26.277852 203 203 203 0
6.763417 -4.441647 26.391249 201 201 201 0
6.894575 -4.461195 26.507399 200 200 200 0
7.039545 -4.488985 26.672519 200 200 200 0
7.180474 -4.513441 26.817831 199 199 199 0
7.325755 -4.539904 26.975070 197 197 197 0
7.488133 -4.576081 27.190026 196 196 196 0
7.648452 -4.610026 27.391717 194 194 194 0
7.835358 -4.658861 27.681885 191 191 191 0
8.036524 -4.714761 28.014027 189 189 189 0
8.281654 -4.794642 28.488663 182 182 182 0
8.492888 -4.853079 28.835881 127 127 127 0
-6.018603 -3.921211 23.840771 92 92 92 0
-5.880767 -3.890353 23.653159 121 121 121 0
-5.717657 -3.841551 23.356443 138 138 138 0
-5.581851 -3.809835 23.163609 147 147 147 0
-5.442237 -3.774455 22.948502 156 156 156 0
-5.311510 -3.744179 22.764425 160 160 160 0
-5.209638 -3.733574 22.699947 162 162 162 0
-5.102111 -3.718488 22.608226 165 165 165 0
-5.022739 -3.723755 22.640249 170 170 170 0
-4.923741 -3.714401 22.583378 174 174 174 0
-4.802710 -3.687795 22.421616 174 174 174 0
-4.702730 -3.676679 22.354032 175 175 175 0
-4.609339 -3.670400 22.315852 176 176 176 0
-4.520639 -3.667688 22.299366 177 177 177 0
-4.446267 -3.676721 22.354284 179 179 179 0
-4.350792 -3.668315 22.303174 180 180 180 0
-4.249660 -3.654708 22.220444 180 180 180 0
-4.154909 -3.646145 22.168384 183 183 183 0
-4.064761 -3.641348 22.139220 183 183 183 0
-3.990885 -3.651235 22.199333 184 184 184 0
-3.907160 -3.652345 22.206082 184 184 184 0
-3.821808 -3.651950 22.203675 185 185 185 0
-3.724931 -3.640273 22.132683 187 187 187 0
-3.637609 -3.637609 22.116485 187 187 187 0
-3.564126 -3.648986 22.185657 186 186 186 0
-3.483149 -3.653059 22.210419 187 187 187 0
-3.404852 -3.660215 22.253932 188 188 188 0
-3.316372 -3.656512 22.231417 187 187 187 0
-3.227901 -3.652625 22.207782 187 187 187 0
-3.150017 -3.660830 22.257671 187 187 187 0
-3.073736 -3.671406 22.321972 187 187 187 0
-3.004341 -3.691047 22.441389 189 189 189 0
-2.913597 -3.684843 22.403669 190 190 190 0
-2.828709 -3.685893 22.410050 189 189 189 0
-2.749613 -3.694793 22.464160 189 189 189 0
-2.673647 -3.708607 22.548147 189 189 189 0
-2.592958 -3.716573 22.596583 189 189 189 0
-2.513769 -3.727312 22.661877 189 189 189 0
-2.427045 -3.727248 22.661485 187 187 187 0
-2.354428 -3.749644 22.797655 186 186 186 0
-2.278145 -3.767701 22.907438 185 185 185 0
-2.196499 -3.777979 22.969928 186 186 186 0
-2.113299 -3.786327 23.020686 187 187 187 0
-2.029303 -3.793914 23.066815 185 185 185 0
-1.959954 -3.830819 23.291191 183 183 183 0
-1.885084 -3.859934 23.468213 182 182 182 0
-1.803930 -3.878450 23.580786 180 180 180 0
-1.718429 -3.889075 23.645389 178 178 178 0
-1.650470 -3.942790 23.971969 175 175 175 0
-1.565571 -3.959974 24.076448 174 174 174 0
-1.488993 -4.001670 24.329959 166 166 166 0
-1.548784 -4.439846 26.994049 155 155 155 0
-1.496211 -4.595505 27.940450 154 154 154 0
-1.383542 -4.576332 27.823877 160 160 160 0
-1.269109 -4.547641 27.649434 161 161 161 0
-1.156588 -4.521206 27.488714 165 165 165 0
-1.046305 -4.499113 27.354389 172 172 172 0
-0.935244 -4.468389 27.167590 174 174 174 0
-0.827537 -4.448010 27.043687 176 176 176 0
-0.719540 -4.420034 26.873594 177 177 177 0
-0.613523 -4.396914 26.733026 181 181 181 0
-0.510268 -4.388302 26.680666 183 183 183 0
-0.407672 -4.382470 26.645201 186 186 186 0
-0.304013 -4.357519 26.493501 185 185 185 0
-0.201379 -4.329642 26.324011 186 186 186 0
-0.100280 -4.312038 26.216978 191 191 191 0
0.000000 -4.304745 26.172638 192 192 192 0
0.099838 -4.293014 26.101314 190 190 190 0
0.199227 -4.283385 26.042770 192 192 192 0
0.298508 -4.278618 26.013789 192 192 192 0
0.395517 -4.251811 25.850805 195 195 195 0
0.493467 -4.243818 25.802209 197 197 197 0
0.590986 -4.235397 25.751006 197 197 197 0
0.688953 -4.232140 25.731205 196 196 196 0
0.786058 -4.225062 25.688170 197 197 197 0
0.881219 -4.210271 25.598240 198 198 198 0
0.975252 -4.193583 25.496781 198 198 198 0
1.071232 -4.187543 25.460058 200 200 200 0
1.168423 -4.186847 25.455829 201 201 201 0
1.262557 -4.176148 25.390780 201 201 201 0
1.359235 -4.174793 25.382540 200 200 200 0
1.452938 -4.165089 25.323538 202 202 202 0
1.545254 -4.152869 25.249243 201 201 201 0
1.639861 -4.147883 25.218925 202 202 202 0
1.735635 -4.146239 25.208934 201 201 201 0
1.830316 -4.142295 25.184951 202 202 202 0
1.925988 -4.140874 25.176312 204 204 204 0
2.015694 -4.127372 25.094224 204 204 204 0
2.109593 -4.123295 25.069431 203 203 203 0
2.206374 -4.124960 25.079558 205 205 205 0
2.302611 -4.125511 25.082909 205 205 205 0
2.396705 -4.122333 25.063582 204 204 204 0
2.489488 -4.117231 25.032564 205 205 205 0
2.583445 -4.114375 25.015202 205 205 205 0
2.679070 -4.114287 25.014664 204 204 204 0
2.775653 -4.115624 25.022793 205 205 205 0
2.866808 -4.109092 24.983081 206 206 206 0
2.964866 -4.112557 25.004144 205 205 205 0
3.053541 -4.103195 24.947226 205 205 205 0
3.149561 -4.103973 24.951956 205 205 205 0
3.245025 -4.104002 24.952131 206 206 206 0
3.342854 -4.106934 24.969961 207 207 207 0
3.434792 -4.102668 24.944020 206 206 206 0
3.529792 -4.102191 24.941121 206 206 206 0
3.630317 -4.107991 24.976383 206 206 206 0
3.725449 -4.107547 24.973685 206 206 206 0
3.825606 -4.112527 25.003963 207 207 207 0
3.920764 -4.112020 25.000883 207 207 207 0
4.020599 -4.116328 25.027071 208 208 208 0
4.116766 -4.116766 25.029734 207 207 207 0
4.217237 -4.121390 25.057852 207 207 207 0
4.314583 -4.122824 25.066568 208 208 208 0
4.413108 -4.125297 25.081604 207 207 207 0
4.517864 -4.133365 25.130660 207 207 207 0
4.617356 -4.136381 25.148998 207 207 207 0
4.712924 -4.135831 25.145650 208 208 208 0
4.816482 -4.142174 25.184218 207 207 207 0
4.922861 -4.150647 25.235734 206 206 206 0
5.028298 -4.158015 25.280531 207 207 207 0
5.135025 -4.166152 25.330003 207 207 207 0
5.239298 -4.172034 25.365761 207 207 207 0
5.345098 -4.178895 25.407476 206 206 206 0
5.453953 -4.187857 25.461967 207 207 207 0
5.558618 -4.193343 25.495324 206 206 206 0
5.670005 -4.203624 25.557831 205 205 205 0
5.784948 -4.216148 25.633977 205 205 205 0
5.904882 -4.231832 25.729335 206 206 206 0
6.010510 -4.236917 25.760250 206 206 206 0
6.128209 -4.250209 25.841067 205 205 205 0
6.248390 -4.264774 25.929621 204 204 204 0
6.368286 -4.278692 26.014239 203 203 203 0
6.491692 -4.294504 26.110376 203 203 203 0
6.617324 -4.311287 26.212415 203 203 203 0
6.743448 -4.327885 26.313329 202 202 202 0
6.870140 -4.344353 26.413455 201 201 201 0
7.014132 -4.371126 26.576231 200 200 200 0
7.156777 -4.396306 26.729325 200 200 200 0
7.291512 -4.415986 26.848982 198 198 198 0
7.453909 -4.451640 27.065757 196 196 196 0
7.615595 -4.485899 27.274045 196 196 196 0
7.788294 -4.525630 27.515613 193 193 193 0
7.986663 -4.579020 27.840218 192 192 192 0
8.211195 -4.645808 28.246286 187 187 187 0
8.451949 -4.719920 28.696882 163 163 163 0
8.590775 -4.735940 28.794285 81 81 81 0
-6.277404 -3.877220 24.134581 81 81 81 0
-6.052928 -3.794373 23.618878 108 108 108 0
-5.887750 -3.746750 23.322440 135 135 135 0
-5.755217 -3.718755 23.148181 148 148 148 0
-5.629287 -3.694219 22.995452 154 154 154 0
-5.498912 -3.665941 22.819430 156 156 156 0
-5.387752 -3.649767 22.718751 164 164 164 0
-5.258507 -3.620611 22.537264 168 168 168 0
-5.144146 -3.600902 22.414580 171 171 171 0
-5.054676 -3.598244 22.398033 172 172 172 0
-4.972933 -3.601089 22.415744 173 173 173 0
-4.863767 -3.583828 22.308300 175 175 175 0
-4.764872 -3.573654 22.244969 176 176 176 0
-4.659048 -3.557818 22.146395 178 178 178 0
-4.566471 -3.551699 22.108306 180 180 180 0
-4.484765 -3.553965 22.122406 184 184 184 0
-4.401288 -3.554887 22.128147 185 185 185 0
-4.320142 -3.557764 22.146057 185 185 185 0
-4.220875 -3.545535 22.069933 185 185 185 0
-4.130526 -3.540451 22.038288 187 187 187 0
-4.038625 -3.533796 21.996866 187 187 187 0
-3.961587 -3.540142 22.036363 188 188 188 0
-3.878817 -3.541529 22.044996 188 188 188 0
-3.797409 -3.544248 22.061925 189 189 189 0
-3.709224 -3.540623 22.039358 190 190 190 0
-3.617655 -3.533524 21.995168 190 190 190 0
-3.533613 -3.533613 21.995723 190 190 190 0
-3.462260 -3.546705 22.077219 191 191 191 0
-3.385347 -3.554614 22.126449 192 192 192 0
-3.297600 -3.551262 22.105583 192 192 192 0
-3.212273 -3.550407 22.100264 191 191 191 0
-3.125469 -3.547830 22.084219 190 190 190 0
-3.053105 -3.561956 22.172150 191 191 191 0
-2.978586 -3.574303 22.249006 191 191 191 0
-2.895869 -3.577251 22.267354 190 190 190 0
-2.809502 -3.575729 22.257885 190 190 190 0
-2.727188 -3.579435 22.280951 190 190 190 0
-2.654159 -3.595958 22.383801 191 191 191 0
-2.576431 -3.607003 22.452555 192 192 192 0
-2.498449 -3.618443 22.523769 192 192 192 0
-2.410728 -3.616091 22.509128 191 191 191 0
-2.330681 -3.625503 22.567716 190 190 190 0
-2.254820 -3.642401 22.672897 188 188 188 0
-2.177448 -3.658113 22.770698 189 189 189 0
-2.093148 -3.663008 22.801173 188 188 188 0
-2.014014 -3.677766 22.893032 188 188 188 0
-1.937296 -3.698474 23.021934 187 187 187 0
-1.862000 -3.724000 23.180826 185 185 185 0
-1.784798 -3.748075 23.330687 184 184 184 0
-1.698994 -3.755671 23.377970 184 184 184 0
-1.619123 -3.777953 23.516672 183 183 183 0
-1.545472 -3.818224 23.767344 181 181 181 0
-1.467068 -3.851054 23.971701 178 178 178 0
-1.388983 -3.889153 24.208859 172 172 172 0
-1.348440 -4.045321 25.180959 166 166 166 0
-1.358070 -4.387611 27.311617 161 161 161 0
-1.266275 -4.431961 27.587684 163 163 163 0
-1.152986 -4.402309 27.403106 170 170 170 0
-1.042569 -4.378791 27.256711 174 174 174 0
-0.932553 -4.351914 27.089410 175 175 175 0
-0.824962 -4.331048 26.959529 176 176 176 0
-0.716995 -4.301972 26.778538 180 180 180 0
-0.611389 -4.279723 26.640045 183 183 183 0
-0.508366 -4.270272 26.581212 184 184 184 0
-0.405293 -4.255574 26.489722 185 185 185 0
-0.303071 -4.242994 26.411417 187 187 187 0
-0.201187 -4.224918 26.298895 191 191 191 0
-0.100059 -4.202466 26.159139 191 191 191 0
0.000000 -4.194853 26.111750 191 191 191 0
0.099722 -4.188318 26.071073 191 191 191 0
0.199107 -4.181251 26.027086 192 192 192 0
0.297512 -4.165169 25.926980 195 195 195 0
0.395301 -4.150662 25.836676 196 196 196 0
0.493110 -4.142125 25.783534 197 197 197 0
0.589992 -4.129946 25.707723 196 196 196 0
0.687099 -4.122595 25.661970 198 198 198 0
0.783528 -4.113521 25.605485 197 197 197 0
0.880512 -4.109055 25.577686 198 198 198 0
0.974823 -4.094256 25.485567 199 199 199 0
1.069593 -4.083901 25.421110 201 201 201 0
1.164787 -4.076754 25.376618 200 200 200 0
1.261537 -4.075734 25.370268 200 200 200 0
1.356957 -4.070872 25.340009 201 201 201 0
1.451891 -4.065296 25.305296 201 201 201 0
1.542333 -4.048624 25.201518 201 201 201 0
1.636985 -4.044317 25.174709 202 202 202 0
1.732601 -4.042736 25.164865 203 203 203 0
1.830099 -4.045483 25.181964 204 204 204 0
1.923438 -4.039220 25.142980 204 204 204 0
2.012191 -4.024383 25.050625 204 204 204 0
2.107091 -4.022629 25.039706 204 204 204 0
2.202057 -4.021148 25.030490 204 204 204 0
2.298475 -4.022331 25.037851 205 205 205 0
2.393333 -4.020800 25.028322 205 205 205 0
2.485900 -4.015685 24.996482 205 205 205 0
2.580088 -4.013470 24.982693 204 204 204 0
2.675035 -4.012553 24.976988 205 205 205 0
2.768277 -4.009228 24.956292 206 206 206 0
2.864047 -4.009666 24.959014 206 206 206 0
2.958543 -4.008348 24.950815 206 206 206 0
3.050879 -4.004278 24.925479 207 207 207 0
3.145010 -4.002740 24.915903 207 207 207 0
3.242635 -4.005608 24.933758 207 207 207 0
3.337025 -4.004429 24.926421 207 207 207 0
3.428631 -4.000070 24.899282 207 207 207 0
3.524823 -4.001151 24.906012 207 207 207 0
3.623174 -4.004560 24.927235 207 207 207 0
3.719466 -4.005579 24.933573 208 208 208 0
3.815959 -4.006757 24.940907 207 207 207 0
3.912716 -4.008148 24.949569 207 207 207 0
4.012561 -4.012561 24.977035 207 207 207 0
4.111177 -4.015568 24.995755 207 207 207 0
4.211550 -4.020116 25.024063 207 207 207 0
4.306328 -4.019240 25.018611 207 207 207 0
4.407137 -4.023908 25.047666 207 207 207 0
4.509067 -4.029379 25.081723 208 208 208 0
4.610299 -4.034012 25.110561 208 208 208 0
4.711521 -4.038447 25.138167 207 207 207 0
4.807716 -4.038481 25.138384 208 208 208 0
4.912502 -4.045590 25.182632 207 207 207 0
5.018849 -4.053685 25.233024 206 206 206 0
5.123917 -4.060462 25.275208 207 207 207 0
5.229658 -4.067512 25.319091 207 207 207 0
5.333485 -4.072843 25.352275 207 207 207 0
5.446293 -4.084720 25.426204 207 207 207 0
5.550859 -4.090106 25.459735 207 207 207 0
5.657793 -4.097023 25.502787 206 206 206 0
5.770922 -4.108114 25.571826 206 206 206 0
5.888817 -4.122172 25.659334 206 206 206 0
6.001471 -4.132161 25.721510 205 205 205 0
6.116694 -4.143567 25.792509 206 206 206 0
6.229231 -4.152820 25.850111 204 204 204 0
6.351239 -4.168000 25.944603 204 204 204 0
6.473686 -4.182997 26.037951 203 203 203 0
6.600052 -4.200033 26.143999 203 203 203 0
6.731426 -4.219700 26.266418 203 203 203 0
6.851551 -4.231841 26.341990 202 202 202 0
6.989377 -4.254403 26.482436 200 200 200 0
7.131348 -4.278809 26.634352 200 200 200 0
7.269166 -4.300070 26.766699 200 200 200 0
7.422657 -4.329883 26.952276 197 197 197 0
7.584893 -4.363911 27.164090 197 197 197 0
7.747867 -4.397438 27.372786 195 195 195 0
7.938725 -4.445686 27.673115 192 192 192 0
8.140552 -4.498726 28.003276 189 189 189 0
8.405147 -4.584626 28.537975 180 180 180 0
8.603641 -4.632730 28.837411 121 121 121 0
-6.335179 -3.710605 23.660799 76 76 76 0
-6.242863 -3.709527 23.653928 99 99 99 0
-6.095410 -3.675174 23.434871 126 126 126 0
-5.902679 -3.612087 23.032599 142 142 142 0
-5.778265 -3.589528 22.888750 153 153 153 0
-5.654396 -3.566619 22.742667 157 157 157 0
-5.556683 -3.559750 22.698868 162 162 162 0
-5.442183 -3.541738 22.584014 166 166 166 0
-5.327429 -3.522978 22.464387 171 171 171 0
-5.206336 -3.499341 22.313667 172 172 172 0
-5.098326 -3.483856 22.214930 172 172 172 0
-5.006486 -3.479084 22.184497 174 174 174 0
-4.919598 -3.477647 22.175335 177 177 177 0
-4.833785 -3.476933 22.170783 181 181 181 0
-4.731370 -3.464038 22.088560 183 183 183 0
-4.628370 -3.450239 22.000569 182 182 182 0
-4.532992 -3.441716 21.946223 184 184 184 0
-4.446943 -3.440088 21.935837 185 185 185 0
-4.373328 -3.448201 21.987574 186 186 186 0
-4.295036 -3.452872 22.017359 186 186 186 0
-4.195527 -3.440332 21.937397 186 186 186 0
-4.102110 -3.432378 21.886674 188 188 188 0
-4.014980 -3.429462 21.868085 188 188 188 0
-3.937379 -3.434735 21.901703 188 188 188 0
-3.853189 -3.434364 21.899342 189 189 189 0
-3.781646 -3.445500 21.970346 189 189 189 0
-3.686556 -3.435200 21.904673 190 190 190 0
-3.594437 -3.427254 21.854002 191 191 191 0
-3.514265 -3.430592 21.875286 191 191 191 0
-3.440938 -3.440938 21.941256 191 191 191 0
-3.362481 -3.446543 21.977002 192 192 192 0
-3.282225 -3.450544 22.002512 192 192 192 0
-3.195672 -3.447962 21.986051 192 192 192 0
-3.107240 -3.443157 21.955412 193 193 193 0
-3.033749 -3.455103 22.031581 194 194 194 0
-2.954799 -3.461336 22.071325 194 194 194 0
-2.878465 -3.471091 22.133529 193 193 193 0
-2.796947 -3.474994 22.158421 194 194 194 0
-2.711342 -3.473907 22.151485 192 192 192 0
-2.631564 -3.480456 22.193247 193 193 193 0
-2.557960 -3.495879 22.291594 192 192 192 0
-2.481956 -3.508972 22.375084 192 192 192 0
-2.395245 -3.507323 22.364568 192 192 192 0
-2.312553 -3.511654 22.392184 191 191 191 0
-2.236428 -3.526674 22.487960 194 194 194 0
-2.162667 -3.546774 22.616126 193 193 193 0
-2.078746 -3.551191 22.644294 191 191 191 0
-1.994527 -3.555461 22.671520 189 189 189 0
-1.917716 -3.573924 22.789252 188 188 188 0
-1.843215 -3.598657 22.946962 188 188 188 0
-1.766622 -3.621574 23.093092 189 189 189 0
-1.680712 -3.626801 23.126418 188 188 188 0
-1.601176 -3.647122 23.256000 186 186 186 0
-1.523469 -3.674249 23.428973 184 184 184 0
-1.447186 -3.708414 23.646829 183 183 183 0
-1.365192 -3.731525 23.794200 180 180 180 0
-1.285239 -3.763915 24.000733 178 178 178 0
-1.217322 -3.839248 24.481095 174 174 174 0
-1.188372 -4.060271 25.890459 169 169 169 0
-1.143521 -4.262214 27.178154 172 172 172 0
-1.041740 -4.271132 27.235021 175 175 175 0
-0.931210 -4.242178 27.050391 175 175 175 0
-0.821781 -4.211627 26.855584 178 178 178 0
-0.715661 -4.191731 26.728716 183 183 183 0
-0.610804 -4.173830 26.614569 184 184 184 0
-0.506826 -4.155974 26.500708 185 185 185 0
-0.405013 -4.151379 26.471411 185 185 185 0
-0.302055 -4.128083 26.322865 189 189 189 0
-0.200645 -4.113224 26.228112 192 192 192 0
-0.099773 -4.090707 26.084531 191 191 191 0
0.000000 -4.075155 25.985364 192 192 192 0
0.099420 -4.076228 25.992210 193 193 193 0
0.198677 -4.072885 25.970889 192 192 192 0
0.297253 -4.062452 25.904365 196 196 196 0
0.395301 -4.051837 25.836676 196 196 196 0
0.491624 -4.031315 25.705822 197 197 197 0
0.588339 -4.020313 25.635665 198 198 198 0
0.686412 -4.020414 25.636305 197 197 197 0
0.783721 -4.016573 25.611813 198 198 198 0
0.878411 -4.001648 25.516645 200 200 200 0
0.972867 -3.988755 25.434431 202 202 202 0
1.067843 -3.980143 25.379520 201 201 201 0
1.165477 -3.982046 25.391652 201 201 201 0
1.259753 -3.973068 25.334403 201 201 201 0
1.352786 -3.961730 25.262105 202 202 202 0
1.449565 -3.962145 25.264753 202 202 202 0
1.541658 -3.950498 25.190489 202 202 202 0
1.636592 -3.947075 25.168659 203 203 203 0
1.729747 -3.939980 25.123419 205 205 205 0
1.824373 -3.936805 25.103174 203 203 203 0
1.921722 -3.939530 25.120549 204 204 204 0
2.011384 -3.926988 25.040576 204 204 204 0
2.104554 -3.922124 25.009559 205 205 205 0
2.200028 -3.921790 25.007426 204 204 204 0
2.293248 -3.917632 24.980917 205 205 205 0
2.389582 -3.918914 24.989093 205 205 205 0
2.480854 -3.912116 24.945740 205 205 205 0
2.570383 -3.903174 24.888726 206 206 206 0
2.668859 -3.907972 24.919317 206 206 206 0
2.762701 -3.905888 24.906030 207 207 207 0
2.861196 -3.910301 24.934167 206 206 206 0
2.952532 -3.904962 24.900124 207 207 207 0
3.043372 -3.899320 24.864148 207 207 207 0
3.142362 -3.904146 24.894922 208 208 208 0
3.238814 -3.905629 24.904374 208 208 208 0
3.331715 -3.902866 24.886757 207 207 207 0
3.425847 -3.901659 24.879060 208 208 208 0
3.521285 -3.901965 24.881012 207 207 207 0
3.616920 -3.902466 24.884208 209 209 209 0
3.717000 -3.907616 24.917046 208 208 208 0
3.811569 -3.906858 24.912217 208 208 208 0
3.907663 -3.907663 24.917347 208 208 208 0
4.005681 -3.910308 24.934212 208 208 208 0
4.102741 -3.911916 24.944469 207 207 207 0
4.202515 -3.915980 24.970382 207 207 207 0
4.301125 -3.918803 24.988379 208 208 208 0
4.404287 -3.925561 25.031472 208 208 208 0
4.502821 -3.927993 25.046980 208 208 208 0
4.602569 -3.931361 25.068459 208 208 208 0
4.702124 -3.934430 25.088029 208 208 208 0
4.803188 -3.938614 25.114709 208 208 208 0
4.907541 -3.945278 25.157200 208 208 208 0
5.013613 -3.953041 25.206703 208 208 208 0
5.117803 -3.959055 25.245053 208 208 208 0
5.216048 -3.960333 25.253197 207 207 207 0
5.323178 -3.968187 25.303280 207 207 207 0
5.436669 -3.980418 25.381273 207 207 207 0
5.540115 -3.984995 25.410459 206 206 206 0
5.649038 -3.993286 25.463324 207 207 207 0
5.762736 -4.004613 25.535555 207 207 207 0
5.876835 -4.015837 25.607125 206 206 206 0
5.989661 -4.025837 25.670891 205 205 205 0
6.102630 -4.035610 25.733208 206 206 206 0
6.221455 -4.048883 25.817843 206 206 206 0
6.338555 -4.060637 25.892792 205 205 205 0
6.459573 -4.074500 25.981187 204 204 204 0
6.582830 -4.089334 26.075779 203 203 203 0
6.711938 -4.107305 26.190373 203 203 203 0
6.836333 -4.121907 26.283481 203 203 203 0
6.967590 -4.140162 26.399888 201 201 201 0
7.114925 -4.167313 26.573017 201 201 201 0
7.249462 -4.186309 26.694142 200 200 200 0
7.393165 -4.209997 26.845190 199 199 199 0
7.555062 -4.243254 27.057256 197 197 197 0
7.715825 -4.274984 27.259584 197 197 197 0
7.898422 -4.317804 27.532626 193 193 193 0
8.097378 -4.368323 27.854759 191 191 191 0
8.328387 -4.434595 28.277350 186 186 186 0
8.567256 -4.503301 28.715454 160 160 160 0
8.753733 -4.543077 28.969086 78 78 78 0
-9.449360 -5.323583 34.794661 81 81 81 0
-6.313329 -3.607617 23.579194 115 115 115 0
-6.136369 -3.557315 23.250427 137 137 137 0
-5.971586 -3.512698 22.958808 147 147 147 0
-5.836260 -3.484334 22.773426 153 153 153 0
-5.699335 -3.454142 22.576095 162 162 162 0
-5.584163 -3.436408 22.460181 167 167 167 0
-5.496493 -3.435308 22.452993 168 168 168 0
-5.397331 -3.426877 22.397888 169 169 169 0
-5.275285 -3.403409 22.244506 173 173 173 0
-5.180478 -3.397035 22.202840 176 176 176 0
-5.056719 -3.371146 22.033634 179 179 179 0
-4.963882 -3.365344 21.995712 180 180 180 0
-4.873701 -3.361173 21.968452 182 182 182 0
-4.798319 -3.367242 22.008116 183 183 183 0
-4.707375 -3.362411 21.976540 183 183 183 0
-4.605463 -3.349428 21.891686 183 183 183 0
-4.501401 -3.334371 21.793276 184 184 184 0
-4.418887 -3.335009 21.797447 186 186 186 0
-4.341735 -3.339796 21.828731 186 186 186 0
-4.265583 -3.345555 21.866374 187 187 187 0
-4.166590 -3.333272 21.786091 188 188 188 0
-4.073902 -3.325634 21.736171 190 190 190 0
-3.985356 -3.321130 21.706733 190 190 190 0
-3.905083 -3.323475 21.722059 190 190 190 0
-3.826919 -3.327755 21.750034 191 191 191 0
-3.749354 -3.332759 21.782740 192 192 192 0
-3.669918 -3.336289 21.805811 192 192 192 0
-3.577357 -3.327774 21.750155 192 192 192 0
-3.493548 -3.327188 21.746329 192 192 192 0
-3.419478 -3.336076 21.804418 193 193 193 0
-3.343608 -3.343608 21.853646 193 193 193 0
-3.260311 -3.343908 21.855611 193 193 193 0
-3.174370 -3.341442 21.839491 193 193 193 0
-3.094830 -3.345763 21.867729 193 193 193 0
-3.015319 -3.350355 21.897742 194 194 194 0
-2.941210 -3.361382 21.969819 195 195 195 0
-2.860085 -3.364806 21.992194 194 194 194 0
-2.779669 -3.369296 22.021541 195 195 195 0
-2.691928 -3.364910 21.992877 196 196 196 0
-2.616895 -3.376638 22.069530 195 195 195 0
-2.545397 -3.393862 22.182105 195 195 195 0
-2.462146 -3.396064 22.196495 194 194 194 0
-2.383143 -3.404490 22.251566 193 193 193 0
-2.301831 -3.410120 22.288367 193 193 193 0
-2.221578 -3.417812 22.338640 193 193 193 0
-2.149325 -3.438919 22.476597 193 193 193 0
-2.068107 -3.446845 22.528400 193 193 193 0
-1.985502 -3.453046 22.568931 192 192 192 0
-1.901457 -3.457194 22.596042 192 192 192 0
-1.827194 -3.480370 22.747519 191 191 191 0
-1.750710 -3.501420 22.885099 191 191 191 0
-1.669658 -3.515069 22.974305 191 191 191 0
-1.583901 -3.519780 23.005097 190 190 190 0
-1.507148 -3.546231 23.177980 188 188 188 0
-1.432351 -3.580878 23.404431 186 186 186 0
-1.347662 -3.593764 23.488654 184 184 184 0
-1.268069 -3.623054 23.680089 184 184 184 0
-1.191341 -3.665664 23.958590 183 183 183 0
-1.111761 -3.705871 24.221377 179 179 179 0
-1.049463 -3.816229 24.942671 176 176 176 0
-1.022764 -4.091056 26.738930 174 174 174 0
-0.926853 -4.119345 26.923821 176 176 176 0
-0.820344 -4.101718 26.808613 182 182 182 0
-0.713303 -4.076019 26.640650 184 184 184 0
-0.608415 -4.056101 26.510463 182 182 182 0
-0.505637 -4.045096 26.438537 186 186 186 0
-0.403544 -4.035444 26.375451 188 188 188 0
-0.301987 -4.026490 26.316926 191 191 191 0
-0.199882 -3.997644 26.128395 192 192 192 0
-0.099597 -3.983889 26.038493 193 193 193 0
0.000000 -3.972263 25.962501 192 192 192 0
0.099080 -3.963214 25.903361 192 192 192 0
0.198449 -3.968974 25.941005 195 195 195 0
0.296250 -3.949996 25.816969 197 197 197 0
0.394556 -3.945560 25.787974 196 196 196 0
0.490085 -3.920683 25.625381 198 198 198 0
0.587147 -3.914310 25.583727 197 197 197 0
0.684240 -3.909940 25.555164 198 198 198 0
0.783237 -3.916184 25.595971 199 199 199 0
0.880798 -3.914656 25.585985 201 201 201 0
0.971890 -3.887558 25.408879 201 201 201 0
1.067599 -3.882177 25.373705 202 202 202 0
1.161463 -3.871542 25.304196 201 201 201 0
1.257486 -3.869188 25.288812 201 201 201 0
1.353128 -3.866081 25.268505 201 201 201 0
1.446812 -3.858164 25.216759 202 202 202 0
1.540829 -3.852073 25.176948 204 204 204 0
