ply
format ascii 1.0
element vertex 1103
property float x
property float y
property float z
property uchar red
property uchar green
property uchar blue
property uchar alpha
end_header
5.878593 -1.469648 27.444410 208 208 208 0
5.994783 -1.472403 27.495849 207 207 207 0
6.117837 -1.476719 27.576455 206 206 206 0
6.234193 -1.479300 27.624650 206 206 206 0
6.358695 -1.483696 27.706733 205 205 205 0
6.484817 -1.488319 27.793067 205 205 205 0
6.611759 -1.492978 27.880073 204 204 204 0
6.743999 -1.498667 27.986303 203 203 203 0
6.880143 -1.505031 28.105159 202 202 202 0
7.010375 -1.509927 28.196580 201 201 201 0
7.154995 -1.517726 28.342228 200 200 200 0
7.310827 -1.527636 28.527274 199 199 199 0
7.450706 -1.533969 28.645543 198 198 198 0
7.608872 -1.543829 28.829676 197 197 197 0
7.772057 -1.554411 29.027290 194 194 194 0
7.948460 -1.567302 29.268009 193 193 193 0
8.139203 -1.582623 29.554115 190 190 190 0
8.356618 -1.602639 29.927900 186 186 186 0
8.614729 -1.629814 30.435362 178 178 178 0
8.809317 -1.644406 30.707858 120 120 120 0
-4.829585 -1.460107 29.363641 93 93 93 0
-4.640792 -1.436436 28.887593 121 121 121 0
-4.497877 -1.426156 28.680865 139 139 139 0
-4.342940 -1.411456 28.385230 146 146 146 0
-4.195369 -1.398456 28.123806 155 155 155 0
-4.055189 -1.387301 27.899477 160 160 160 0
-3.926321 -1.379518 27.742951 164 164 164 0
-3.809624 -1.375697 27.666111 171 171 171 0
-3.690065 -1.370596 27.563511 172 172 172 0
-3.567406 -1.364008 27.431031 174 174 174 0
-3.447114 -1.357954 27.309277 178 178 178 0
-3.321158 -1.349220 27.133640 181 181 181 0
-3.209688 -1.345998 27.068839 181 181 181 0
-3.098584 -1.342720 27.002907 183 183 183 0
-2.993608 -1.341962 26.987680 186 186 186 0
-2.880404 -1.337331 26.894533 188 188 188 0
-2.766586 -1.332060 26.788531 189 189 189 0
-2.657935 -1.328968 26.726350 189 189 189 0
-2.551608 -1.326836 26.683485 191 191 191 0
-2.448819 -1.326443 26.675585 193 193 193 0
-2.338507 -1.321765 26.581492 194 194 194 0
-2.235077 -1.320727 26.560626 194 194 194 0
-2.130399 -1.318819 26.522244 195 195 195 0
-2.025081 -1.316303 26.471652 196 196 196 0
-1.921717 -1.314859 26.442620 196 196 196 0
-1.821617 -1.315612 26.457756 197 197 197 0
-1.718207 -1.313923 26.423793 197 197 197 0
-1.612412 -1.310085 26.346603 198 198 198 0
-1.510667 -1.309245 26.329704 199 199 199 0
-1.410388 -1.309646 26.337779 201 201 201 0
-1.310211 -1.310211 26.349147 201 201 201 0
-1.207838 -1.308492 26.314561 201 201 201 0
-1.106492 -1.307672 26.298079 201 201 201 0
-1.005131 -1.306670 26.277928 202 202 202 0
-0.905702 -1.308236 26.309432 203 203 203 0
-0.805898 -1.309584 26.336528 203 203 203 0
-0.704784 -1.308884 26.322451 203 203 203 0
-0.603925 -1.308504 26.314820 204 204 204 0
-0.503331 -1.308662 26.317981 203 203 203 0
-0.403101 -1.310079 26.346482 204 204 204 0
-0.302715 -1.311765 26.380387 204 204 204 0
-0.201684 -1.310949 26.363974 204 204 204 0
-0.100846 -1.310993 26.364861 204 204 204 0
0.000000 -1.313264 26.410539 205 205 205 0
0.101043 -1.313556 26.416412 204 204 204 0
0.202426 -1.315768 26.460892 205 205 205 0
0.303573 -1.315484 26.455174 204 204 204 0
0.405576 -1.318121 26.508210 205 205 205 0
0.508006 -1.320815 26.562387 205 205 205 0
0.609577 -1.320750 26.561080 207 207 207 0
0.714611 -1.327135 26.689493 206 206 206 0
0.815462 -1.325126 26.649097 205 205 205 0
0.921118 -1.330503 26.757229 207 207 207 0
1.028094 -1.336523 26.878287 206 206 206 0
1.132322 -1.338199 26.911999 207 207 207 0
1.238980 -1.342229 26.993034 207 207 207 0
1.349098 -1.349098 27.131191 207 207 207 0
1.463677 -1.359129 27.332903 209 209 209 0
1.571660 -1.362106 27.392772 208 208 208 0
1.676461 -1.362124 27.393146 209 209 209 0
1.774765 -1.357173 27.293580 209 209 209 0
1.871190 -1.351415 27.177775 205 205 205 0
1.966996 -1.345840 27.065654 205 205 205 0
2.067943 -1.344163 27.031939 204 204 204 0
2.171056 -1.343987 27.028392 204 204 204 0
2.277856 -1.346006 27.068990 202 202 202 0
2.376859 -1.343442 27.017441 204 204 204 0
2.480664 -1.343693 27.022481 203 203 203 0
2.576378 -1.339717 26.942515 201 201 201 0
2.674006 -1.337003 26.887939 204 204 204 0
2.775697 -1.336447 26.876753 204 204 204 0
2.875488 -1.335048 26.848631 205 205 205 0
2.970948 -1.331804 26.783399 203 203 203 0
3.068742 -1.329788 26.742846 204 204 204 0
3.168180 -1.328591 26.718782 203 203 203 0
3.273933 -1.330035 26.747815 204 204 204 0
3.370840 -1.327907 26.705008 204 204 204 0
3.473175 -1.327979 26.706462 205 205 205 0
3.574949 -1.327838 26.703634 204 204 204 0
3.674517 -1.326909 26.684944 204 204 204 0
3.776589 -1.326910 26.684963 206 206 206 0
3.878398 -1.326820 26.683162 206 206 206 0
3.987556 -1.329185 26.730727 206 206 206 0
4.086027 -1.327959 26.706059 206 206 206 0
4.189540 -1.328391 26.714748 206 206 206 0
4.298831 -1.330590 26.758983 205 205 205 0
4.409081 -1.332978 26.807000 206 206 206 0
4.508951 -1.332190 26.791150 206 206 206 0
4.613127 -1.332681 26.801026 206 206 206 0
4.725478 -1.335461 26.856936 206 206 206 0
4.837525 -1.338039 26.908776 206 206 206 0
4.935848 -1.336792 26.883703 206 206 206 0
5.054932 -1.341104 26.970427 205 205 205 0
5.165715 -1.343086 27.010272 207 207 207 0
5.280302 -1.345959 27.068063 206 206 206 0
5.396521 -1.349130 27.131829 206 206 206 0
5.517920 -1.353452 27.218743 206 206 206 0
5.639115 -1.357565 27.301454 206 206 206 0
5.763795 -1.362352 27.397719 206 206 206 0
5.886307 -1.366464 27.480425 207 207 207 0
6.009327 -1.370548 27.562561 207 207 207 0
6.131012 -1.374192 27.635845 207 207 207 0
6.252701 -1.377714 27.706661 206 206 206 0
6.378614 -1.382033 27.793527 206 206 206 0
6.502901 -1.385864 27.870569 205 205 205 0
6.630904 -1.390351 27.960801 203 203 203 0
6.763634 -1.395671 28.067783 202 202 202 0
6.898608 -1.401280 28.180588 202 202 202 0
7.032538 -1.406508 28.285725 202 202 202 0
7.175527 -1.413361 28.423556 199 199 199 0
7.326913 -1.421640 28.590043 198 198 198 0
7.479041 -1.429817 28.754481 197 197 197 0
7.638123 -1.439067 28.940504 195 195 195 0
7.804409 -1.449390 29.148118 194 194 194 0
7.980296 -1.461181 29.385237 191 191 191 0
8.191243 -1.478974 29.743077 188 188 188 0
8.416670 -1.498859 30.142966 183 183 183 0
8.673935 -1.523799 30.644531 163 163 163 0
8.834387 -1.531294 30.795248 85 85 85 0
-4.865909 -1.357928 29.584490 78 78 78 0
-4.684480 -1.338423 29.159537 113 113 113 0
-4.512405 -1.320704 28.773504 130 130 130 0
-4.362157 -1.308647 28.510833 143 143 143 0
-4.219974 -1.298454 28.288750 149 149 149 0
-4.067268 -1.284400 27.982577 159 159 159 0
-3.946782 -1.280037 27.887525 161 161 161 0
-3.819475 -1.273158 27.737651 167 167 167 0
-3.704196 -1.270010 27.669062 171 171 171 0
-3.581473 -1.264049 27.539203 173 173 173 0
-3.456302 -1.256837 27.382073 176 176 176 0
-3.334394 -1.250398 27.241785 180 180 180 0
-3.219499 -1.246258 27.151587 182 182 182 0
-3.112774 -1.245110 27.126574 182 182 182 0
-3.003189 -1.242699 27.074049 184 184 184 0
-2.889596 -1.238398 26.980355 187 187 187 0
-2.773544 -1.232686 26.855910 188 188 188 0
-2.665826 -1.230381 26.805696 189 189 189 0
-2.558965 -1.228303 26.760421 189 189 189 0
-2.455654 -1.227827 26.750047 191 191 191 0
-2.349111 -1.225623 26.702025 192 192 192 0
-2.240622 -1.222157 26.626520 194 194 194 0
-2.133472 -1.219127 26.560499 195 195 195 0
-2.029649 -1.217790 26.531362 195 195 195 0
-1.927800 -1.217558 26.526317 196 196 196 0
-1.824334 -1.216223 26.497224 196 196 196 0
-1.722302 -1.215742 26.486764 197 197 197 0
-1.616234 -1.212176 26.409058 198 198 198 0
-1.514577 -1.211661 26.397853 198 198 198 0
-1.413339 -1.211433 26.392886 198 198 198 0
-1.311885 -1.210970 26.382798 199 199 199 0
-1.210288 -1.210288 26.367926 200 200 200 0
-1.109170 -1.210004 26.361746 201 201 201 0
-1.007867 -1.209440 26.349458 201 201 201 0
-0.907631 -1.210174 26.365455 202 202 202 0
-0.807248 -1.210873 26.380666 202 202 202 0
-0.706048 -1.210367 26.369657 202 202 202 0
-0.605140 -1.210280 26.367762 203 203 203 0
-0.504313 -1.210351 26.369302 203 203 203 0
-0.403964 -1.211892 26.402873 202 202 202 0
-0.303142 -1.212569 26.417632 203 203 203 0
-0.201983 -1.211899 26.403027 203 203 203 0
-0.101039 -1.212468 26.415423 204 204 204 0
0.000000 -1.214628 26.462481 204 204 204 0
0.101257 -1.215081 26.472347 204 204 204 0
0.202647 -1.215882 26.489807 205 205 205 0
0.304547 -1.218190 26.540084 205 205 205 0
0.406817 -1.220452 26.589375 205 205 205 0
0.508879 -1.221310 26.608062 205 205 205 0
0.611342 -1.222684 26.638005 205 205 205 0
0.714257 -1.224440 26.676257 205 205 205 0
0.818703 -1.228055 26.755012 205 205 205 0
0.925057 -1.233409 26.871663 206 206 206 0
1.031796 -1.238155 26.975049 206 206 206 0
1.136243 -1.239538 27.005180 207 207 207 0
1.243136 -1.243136 27.083565 205 205 205 0
1.354258 -1.250085 27.234962 208 208 208 0
1.464992 -1.255707 27.357455 207 207 207 0
1.574122 -1.259298 27.435684 209 209 209 0
1.676452 -1.257339 27.393007 210 210 210 0
1.772358 -1.251076 27.256567 207 207 207 0
1.865179 -1.243452 27.090467 204 204 204 0
1.959912 -1.237839 26.968176 202 202 202 0
2.055009 -1.233006 26.862869 203 203 203 0
2.163720 -1.236411 26.937064 202 202 202 0
2.270412 -1.238406 26.980532 201 201 201 0
2.374533 -1.238887 26.990994 201 201 201 0
2.476253 -1.238127 26.974435 202 202 202 0
2.569234 -1.233232 26.867803 201 201 201 0
2.666115 -1.230514 26.808592 202 202 202 0
2.766995 -1.229775 26.792492 203 203 203 0
2.871211 -1.230519 26.808691 202 202 202 0
2.974235 -1.230718 26.813028 203 203 203 0
3.064361 -1.225745 26.704675 203 203 203 0
3.165496 -1.225353 26.696148 203 203 203 0
3.265450 -1.224544 26.678513 203 203 203 0
3.361894 -1.222507 26.634136 204 204 204 0
3.458831 -1.220764 26.596165 205 205 205 0
3.563653 -1.221824 26.619260 204 204 204 0
3.665720 -1.221907 26.621057 205 205 205 0
3.768653 -1.222266 26.628887 206 206 206 0
3.878339 -1.224739 26.682757 206 206 206 0
3.970496 -1.221691 26.616361 205 205 205 0
4.069128 -1.220738 26.595605 207 207 207 0
4.179179 -1.223174 26.648676 206 206 206 0
4.285891 -1.224540 26.678437 206 206 206 0
4.391941 -1.225658 26.702786 206 206 206 0
4.488168 -1.224046 26.667665 206 206 206 0
4.599128 -1.226434 26.719695 206 206 206 0
4.712466 -1.229339 26.782982 206 206 206 0
4.819971 -1.230631 26.811132 206 206 206 0
4.928370 -1.232093 26.842975 207 207 207 0
5.040386 -1.234380 26.892816 206 206 206 0
5.150882 -1.236212 26.932715 206 206 206 0
5.271038 -1.240244 27.020574 205 205 205 0
5.380562 -1.241668 27.051595 206 206 206 0
5.496707 -1.244537 27.114105 205 205 205 0
5.620063 -1.248903 27.209216 205 205 205 0
5.751337 -1.254837 27.338502 204 204 204 0
5.867812 -1.257388 27.394080 204 204 204 0
5.995485 -1.262207 27.499070 204 204 204 0
6.129064 -1.268082 27.627065 202 202 202 0
6.264633 -1.274163 27.759536 204 204 204 0
6.394613 -1.278923 27.863238 204 204 204 0
6.524861 -1.283579 27.964687 205 205 205 0
6.649184 -1.286939 28.037882 203 203 203 0
6.790038 -1.293341 28.177357 203 203 203 0
6.923975 -1.298245 28.284210 202 202 202 0
7.059505 -1.303293 28.394186 201 201 201 0
7.205886 -1.310161 28.543813 199 199 199 0
7.353219 -1.316994 28.692690 198 198 198 0
7.505959 -1.324581 28.857973 197 197 197 0
7.676247 -1.334999 29.084954 194 194 194 0
7.843026 -1.344519 29.292346 193 193 193 0
8.028819 -1.356983 29.563910 189 189 189 0
8.234633 -1.372439 29.900628 186 186 186 0
8.485201 -1.394828 30.388401 179 179 179 0
8.703107 -1.411315 30.747595 131 131 131 0
-4.705513 -1.232396 29.290462 97 97 97 0
-4.540515 -1.218187 28.952749 122 122 122 0
-4.387516 -1.206567 28.676578 137 137 137 0
-4.226461 -1.192079 28.332233 146 146 146 0
-4.095748 -1.185611 28.178523 155 155 155 0
-3.957532 -1.176564 27.963487 161 161 161 0
-3.840117 -1.173369 27.887563 163 163 163 0
-3.716389 -1.168008 27.760143 170 170 170 0
-3.589887 -1.161434 27.603899 173 173 173 0
-3.467595 -1.155865 27.471537 174 174 174 0
-3.348230 -1.150954 27.354822 177 177 177 0
-3.229563 -1.145974 27.236460 181 181 181 0
-3.121829 -1.144671 27.205485 182 182 182 0
-3.012778 -1.142778 27.160493 182 182 182 0
-2.897258 -1.138209 27.051899 184 184 184 0
-2.780151 -1.132654 26.919879 187 187 187 0
-2.671212 -1.130128 26.859850 189 189 189 0
-2.565418 -1.128784 26.827896 189 189 189 0
-2.462868 -1.128814 26.828624 191 191 191 0
-2.355426 -1.126508 26.773811 191 191 191 0
-2.245327 -1.122664 26.682439 192 192 192 0
-2.137971 -1.119890 26.616507 193 193 193 0
-2.034967 -1.119232 26.600882 195 195 195 0
-1.932107 -1.118588 26.585581 196 196 196 0
-1.829462 -1.118005 26.571711 197 197 197 0
-1.725081 -1.116229 26.529509 197 197 197 0
-1.619395 -1.113334 26.460709 197 197 197 0
-1.517065 -1.112515 26.441224 197 197 197 0
-1.417223 -1.113532 26.465414 198 198 198 0
-1.316591 -1.114038 26.477443 199 199 199 0
-1.214000 -1.112833 26.448792 199 199 199 0
-1.109819 -1.109819 26.377166 200 200 200 0
-1.010528 -1.111580 26.419023 200 200 200 0
-0.909576 -1.111704 26.421967 200 200 200 0
-0.809524 -1.113096 26.455038 201 201 201 0
-0.708174 -1.112845 26.449080 201 201 201 0
-0.607123 -1.113060 26.454178 201 201 201 0
-0.505873 -1.112920 26.450851 202 202 202 0
-0.405166 -1.114205 26.481411 203 203 203 0
-0.304274 -1.115671 26.516255 203 203 203 0
-0.202622 -1.114422 26.486570 203 203 203 0
-0.101290 -1.114192 26.481099 204 204 204 0
0.000000 -1.117336 26.555824 203 203 203 0
0.101531 -1.116839 26.543997 204 204 204 0
0.203264 -1.117950 26.570418 205 205 205 0
0.304885 -1.117913 26.569526 205 205 205 0
0.408013 -1.122034 26.667486 204 204 204 0
0.510896 -1.123972 26.713527 205 205 205 0
0.613385 -1.124540 26.727034 204 204 204 0
0.716205 -1.125464 26.749005 205 205 205 0
0.821076 -1.128980 26.832553 205 205 205 0
0.928763 -1.135155 26.979329 207 207 207 0
1.036253 -1.139879 27.091593 206 206 206 0
1.141644 -1.141644 27.133556 206 206 206 0
1.248147 -1.144135 27.192754 206 206 206 0
1.358590 -1.149577 27.322081 207 207 207 0
1.470232 -1.155182 27.455307 207 207 207 0
1.574102 -1.154342 27.435332 211 211 211 0
1.670997 -1.148811 27.303879 204 204 204 0
1.764299 -1.141605 27.132626 203 203 203 0
1.863012 -1.138507 27.058995 202 202 202 0
1.960460 -1.135003 26.975716 201 201 201 0
2.058445 -1.132145 26.907782 201 201 201 0
2.158855 -1.130829 26.876496 200 200 200 0
2.262045 -1.131022 26.881105 200 200 200 0
2.370047 -1.133501 26.940006 202 202 202 0
2.470484 -1.132305 26.911593 201 201 201 0
2.566226 -1.129140 26.836355 203 203 203 0
2.661453 -1.125999 26.761715 203 203 203 0
2.763716 -1.125958 26.760742 202 202 202 0
2.862275 -1.124465 26.725257 203 203 203 0
2.966150 -1.125091 26.740137 203 203 203 0
3.065769 -1.124115 26.716937 204 204 204 0
3.151919 -1.118423 26.581652 204 204 204 0
3.255722 -1.119154 26.599036 204 204 204 0
3.359571 -1.119857 26.615733 205 205 205 0
3.460084 -1.119439 26.605795 205 205 205 0
3.559989 -1.118854 26.591891 205 205 205 0
3.657851 -1.117677 26.563914 206 206 206 0
3.757081 -1.116970 26.547121 206 206 206 0
3.858478 -1.116928 26.546115 206 206 206 0
3.965681 -1.118526 26.584088 205 205 205 0
4.064461 -1.117727 26.565107 206 206 206 0
4.171169 -1.119094 26.597600 206 206 206 0
4.273151 -1.119159 26.599136 206 206 206 0
4.379335 -1.120295 26.626141 206 206 206 0
4.477166 -1.119291 26.602291 205 205 205 0
4.590793 -1.122194 26.671274 206 206 206 0
4.697405 -1.123292 26.697384 206 206 206 0
4.808650 -1.125429 26.748157 206 206 206 0
4.917820 -1.127000 26.785509 206 206 206 0
5.021947 -1.127376 26.794435 205 205 205 0
5.135845 -1.129886 26.854090 206 206 206 0
5.255131 -1.133460 26.939027 205 205 205 0
5.359646 -1.133771 26.946434 205 205 205 0
5.485490 -1.138498 27.058774 205 205 205 0
5.605461 -1.141853 27.138518 205 205 205 0
5.719367 -1.143873 27.186536 204 204 204 0
5.850670 -1.149239 27.314054 203 203 203 0
5.973277 -1.152738 27.397211 203 203 203 0
6.108477 -1.158504 27.534265 202 202 202 0
6.234037 -1.162278 27.623958 201 201 201 0
6.379339 -1.169545 27.796683 201 201 201 0
6.528495 -1.177270 27.980262 200 200 200 0
6.668319 -1.183089 28.118571 201 201 201 0
6.810578 -1.189148 28.262591 201 201 201 0
6.943500 -1.193414 28.363970 202 202 202 0
7.086945 -1.199329 28.504557 200 200 200 0
7.231121 -1.205187 28.643775 199 199 199 0
7.375385 -1.210884 28.779182 198 198 198 0
7.535632 -1.218999 28.972055 195 195 195 0
7.708745 -1.228930 29.208088 193 193 193 0
7.881721 -1.238556 29.436866 192 192 192 0
8.082460 -1.252212 29.761429 188 188 188 0
8.303028 -1.268518 30.148977 183 183 183 0
8.544801 -1.287573 30.601850 166 166 166 0
8.727167 -1.297282 30.832600 87 87 87 0
-4.747046 -1.130249 29.548993 81 81 81 0
-4.575423 -1.115957 29.175340 110 110 110 0
-4.406447 -1.101612 28.800308 128 128 128 0
-4.262254 -1.092886 28.572171 144 144 144 0
-4.113958 -1.082621 28.303806 149 149 149 0
-3.975322 -1.074411 28.089185 159 159 159 0
-3.853281 -1.070356 27.983157 162 162 162 0
-3.734483 -1.066995 27.895300 165 165 165 0
-3.603061 -1.059724 27.705195 172 172 172 0
-3.476842 -1.053588 27.544793 174 174 174 0
-3.357344 -1.049170 27.429284 174 174 174 0
-3.242716 -1.046037 27.347381 177 177 177 0
-3.129632 -1.043211 27.273479 181 181 181 0
-3.020668 -1.041610 27.231625 182 182 182 0
-2.902071 -1.036454 27.096832 183 183 183 0
-2.789628 -1.033196 27.011650 185 185 185 0
-2.681536 -1.031360 26.963656 188 188 188 0
-2.574912 -1.029965 26.927181 189 189 189 0
-2.470417 -1.029341 26.910863 189 189 189 0
-2.359965 -1.026072 26.825409 190 190 190 0
-2.248877 -1.022217 26.724626 191 191 191 0
-2.143952 -1.020930 26.690969 192 192 192 0
-2.040884 -1.020442 26.678221 194 194 194 0
-1.937300 -1.019631 26.657029 195 195 195 0
-1.834479 -1.019155 26.644572 196 196 196 0
-1.728287 -1.016639 26.578802 196 196 196 0
-1.625229 -1.015768 26.556031 197 197 197 0
-1.521888 -1.014592 26.525283 198 198 198 0
-1.420755 -1.014825 26.531367 198 198 198 0
-1.319829 -1.015253 26.542558 198 198 198 0
-1.216871 -1.014059 26.511353 199 199 199 0
-1.113739 -1.012490 26.470334 199 199 199 0
-1.014063 -1.014063 26.511440 200 200 200 0
-0.912684 -1.014093 26.512244 200 200 200 0
-0.810785 -1.013481 26.496244 201 201 201 0
-0.708711 -1.012444 26.469120 201 201 201 0
-0.608070 -1.013451 26.495443 202 202 202 0
-0.507183 -1.014367 26.519391 202 202 202 0
-0.406042 -1.015104 26.538664 202 202 202 0
-0.304613 -1.015376 26.545786 203 203 203 0
-0.203076 -1.015378 26.545832 203 203 203 0
-0.101620 -1.016196 26.567216 204 204 204 0
0.000000 -1.018091 26.616756 203 203 203 0
0.101796 -1.017963 26.613425 204 204 204 0
0.203736 -1.018678 26.632109 204 204 204 0
0.306123 -1.020409 26.677364 204 204 204 0
0.408909 -1.022272 26.726061 203 203 203 0
0.513490 -1.026981 26.849172 204 204 204 0
0.616642 -1.027737 26.868948 204 204 204 0
0.718152 -1.025932 26.821744 205 205 205 0
0.824453 -1.030567 26.942924 206 206 206 0
0.932273 -1.035859 27.081282 206 206 206 0
1.041948 -1.041948 27.240462 205 205 205 0
1.145664 -1.041513 27.229103 207 207 207 0
1.253020 -1.044184 27.298918 208 208 208 0
1.362894 -1.048380 27.408628 208 208 208 0
1.470151 -1.050108 27.453801 207 207 207 0
1.571142 -1.047428 27.383741 207 207 207 0
1.659917 -1.037448 27.122819 203 203 203 0
1.758435 -1.034374 27.042445 202 202 202 0
1.855724 -1.030958 26.953146 201 201 201 0
1.957713 -1.030375 26.937911 202 202 202 0
2.064793 -1.032397 26.990760 202 202 202 0
2.153891 -1.025662 26.814700 201 201 201 0
2.258225 -1.026466 26.835715 202 202 202 0
2.365119 -1.028312 26.883985 202 202 202 0
2.468193 -1.028414 26.886636 203 203 203 0
2.558439 -1.023376 26.754921 202 202 202 0
2.660746 -1.023364 26.754614 202 202 202 0
2.758464 -1.021653 26.709893 202 202 202 0
2.853859 -1.019235 26.646674 203 203 203 0
2.964855 -1.022364 26.728462 204 204 204 0
3.058997 -1.019666 26.657927 204 204 204 0
3.148168 -1.015538 26.550019 204 204 204 0
3.246039 -1.014387 26.519928 204 204 204 0
3.349838 -1.015103 26.538628 204 204 204 0
3.445991 -1.013527 26.497429 204 204 204 0
3.556629 -1.016180 26.566789 204 204 204 0
3.647550 -1.013208 26.489109 205 205 205 0
3.749954 -1.013501 26.496759 206 206 206 0
3.851618 -1.013584 26.498921 206 206 206 0
3.951162 -1.013118 26.486757 205 205 205 0
4.057593 -1.014398 26.520218 205 205 205 0
4.157726 -1.014079 26.511880 206 206 206 0
4.266923 -1.015934 26.560365 207 207 207 0
4.368399 -1.015907 26.559652 207 207 207 0
4.470387 -1.015997 26.562012 207 207 207 0
4.581746 -1.018166 26.618715 207 207 207 0
4.682117 -1.017852 26.610499 207 207 207 0
4.797320 -1.020706 26.685133 205 205 205 0
4.897630 -1.020339 26.675542 206 206 206 0
5.008340 -1.022110 26.721837 206 206 206 0
5.124073 -1.024815 26.792540 206 206 206 0
5.234219 -1.026317 26.831829 206 206 206 0
5.349610 -1.028771 26.895979 205 205 205 0
5.463469 -1.030843 26.950149 204 204 204 0
5.584042 -1.034082 27.034820 205 205 205 0
5.706850 -1.037609 27.127033 204 204 204 0
5.822019 -1.039646 27.180295 204 204 204 0
5.953338 -1.044445 27.305760 203 203 203 0
6.082882 -1.048773 27.418894 203 203 203 0
6.216267 -1.053605 27.545219 202 202 202 0
6.357865 -1.059644 27.703114 200 200 200 0
6.498648 -1.065352 27.852343 200 200 200 0
6.652923 -1.073052 28.053651 199 199 199 0
6.813661 -1.081533 28.275385 198 198 198 0
6.965917 -1.088425 28.455545 201 201 201 0
7.116803 -1.094893 28.624647 201 201 201 0
7.264558 -1.100691 28.776227 199 199 199 0
7.409059 -1.105830 28.910579 197 197 197 0
7.576258 -1.114156 29.128251 194 194 194 0
7.741309 -1.121929 29.331472 193 193 193 0
7.929412 -1.132773 29.614985 189 189 189 0
8.140537 -1.146555 29.975282 187 187 187 0
8.380244 -1.163923 30.429355 179 179 179 0
8.585776 -1.176134 30.748594 135 135 135 0
-4.616244 -1.013322 29.435639 90 90 90 0
-4.435929 -0.998084 28.993003 121 121 121 0
-4.284369 -0.988701 28.720423 136 136 136 0
-4.134611 -0.979250 28.445897 147 147 147 0
-4.009954 -0.975394 28.333889 151 151 151 0
-3.873911 -0.968478 28.132979 160 160 160 0
-3.747892 -0.963744 27.995459 163 163 163 0
-3.625970 -0.959816 27.881357 167 167 167 0
-3.487639 -0.951174 27.630334 173 173 173 0
-3.368711 -0.947450 27.522149 174 174 174 0
-3.254938 -0.944982 27.450458 176 176 176 0
-3.143838 -0.943151 27.397277 178 178 178 0
-3.031081 -0.940680 27.325502 183 183 183 0
-2.911777 -0.935928 27.187456 183 183 183 0
-2.799442 -0.933147 27.106678 184 184 184 0
-2.688881 -0.930766 27.037516 184 184 184 0
-2.581839 -0.929462 26.999624 187 187 187 0
-2.475344 -0.928254 26.964530 190 190 190 0
-2.366274 -0.925933 26.897116 191 191 191 0
-2.256337 -0.923047 26.813272 191 191 191 0
-2.151425 -0.922039 26.784006 192 192 192 0
-2.047005 -0.921152 26.758237 192 192 192 0
-1.943829 -0.920761 26.746868 192 192 192 0
-1.840867 -0.920434 26.737357 194 194 194 0
-1.733060 -0.917503 26.652217 195 195 195 0
-1.629390 -0.916532 26.624020 197 197 197 0
-1.526523 -0.915914 26.606066 197 197 197 0
-1.425802 -0.916587 26.625620 198 198 198 0
-1.323585 -0.916328 26.618106 199 199 199 0
-1.218720 -0.914040 26.551641 199 199 199 0
-1.116306 -0.913341 26.531337 200 200 200 0
-1.015643 -0.914079 26.552755 200 200 200 0
-0.914862 -0.914862 26.575516 199 199 199 0
-0.813892 -0.915629 26.597790 201 201 201 0
-0.712043 -0.915483 26.593562 201 201 201 0
-0.609844 -0.914767 26.572743 202 202 202 0
-0.508266 -0.914879 26.576000 202 202 202 0
-0.406685 -0.915042 26.580727 202 202 202 0
-0.305437 -0.916312 26.617634 202 202 202 0
-0.203496 -0.915733 26.600804 203 203 203 0
-0.101902 -0.917115 26.640966 202 202 202 0
0.000000 -0.918244 26.673747 202 202 202 0
0.102316 -0.920847 26.749367 203 203 203 0
0.204055 -0.918247 26.673842 203 203 203 0
0.306809 -0.920428 26.737191 203 203 203 0
0.409994 -0.922485 26.796962 204 204 204 0
0.514707 -0.926473 26.912792 205 205 205 0
0.617246 -0.925869 26.895244 205 205 205 0
0.721085 -0.927110 26.931297 204 204 204 0
0.827581 -0.931029 27.045136 204 204 204 0
0.936251 -0.936251 27.196837 204 204 204 0
1.045692 -0.941123 27.338365 204 204 204 0
1.149903 -0.940830 27.329840 206 206 206 0
1.257842 -0.943382 27.403971 208 208 208 0
1.361993 -0.942918 27.390514 210 210 210 0
1.465327 -0.941996 27.363725 205 205 205 0
1.555572 -0.933343 27.112367 204 204 204 0
1.649052 -0.927592 26.945297 201 201 201 0
1.757477 -0.930429 27.027719 201 201 201 0
1.854265 -0.927133 26.931954 201 201 201 0
1.956582 -0.926802 26.922347 200 200 200 0
2.048726 -0.921927 26.780726 199 199 199 0
2.149727 -0.921311 26.762857 201 201 201 0
2.253532 -0.921900 26.779943 202 202 202 0
2.360487 -0.923669 26.831341 201 201 201 0
2.460117 -0.922544 26.798658 202 202 202 0
2.555234 -0.919884 26.721398 201 201 201 0
2.650937 -0.917632 26.655974 202 202 202 0
2.749186 -0.916395 26.620054 202 202 202 0
2.847375 -0.915228 26.586131 203 203 203 0
2.945697 -0.914182 26.555756 204 204 204 0
3.048709 -0.914613 26.568274 205 205 205 0
3.143196 -0.912541 26.508082 204 204 204 0
3.240019 -0.911255 26.470743 204 204 204 0
3.341960 -0.911444 26.476213 205 205 205 0
3.444792 -0.911857 26.488216 204 204 204 0
3.546792 -0.912032 26.493314 206 206 206 0
3.640684 -0.910171 26.439245 205 205 205 0
3.744809 -0.910900 26.460408 205 205 205 0
3.844735 -0.910595 26.451562 205 205 205 0
3.953459 -0.912337 26.502155 207 207 207 0
4.047941 -0.910787 26.457132 206 206 206 0
4.149984 -0.910972 26.462513 206 206 206 0
4.254352 -0.911647 26.482113 206 206 206 0
4.364409 -0.913481 26.535395 206 206 206 0
4.460559 -0.912387 26.503616 207 207 207 0
4.569657 -0.913931 26.548479 206 206 206 0
4.671497 -0.913989 26.550140 207 207 207 0
4.785263 -0.916327 26.618068 207 207 207 0
4.888994 -0.916686 26.628506 206 206 206 0
4.998710 -0.918130 26.670454 206 206 206 0
5.111092 -0.919997 26.724663 205 205 205 0
5.230637 -0.923054 26.813468 206 206 206 0
5.330106 -0.922518 26.797918 206 206 206 0
5.446452 -0.924869 26.866207 206 206 206 0
5.571063 -0.928510 26.971982 205 205 205 0
5.687592 -0.930697 27.035492 204 204 204 0
5.806614 -0.933206 27.108374 205 205 205 0
5.929824 -0.936288 27.197909 204 204 204 0
6.067564 -0.941519 27.349849 203 203 203 0
6.190923 -0.944378 27.432912 202 202 202 0
6.320793 -0.948119 27.541584 201 201 201 0
6.471883 -0.954868 27.737632 200 200 200 0
6.618120 -0.960695 27.906895 199 199 199 0
6.778038 -0.968291 28.127557 197 197 197 0
6.947685 -0.977018 28.381068 195 195 195 0
7.134198 -0.987812 28.694614 195 195 195 0
7.293570 -0.994578 28.891148 198 198 198 0
7.450260 -1.000781 29.071350 196 196 196 0
7.614957 -1.007862 29.277034 195 195 195 0
7.787087 -1.015707 29.504923 191 191 191 0
7.986283 -1.026808 29.827388 187 187 187 0
8.210958 -1.040826 30.234585 182 182 182 0
8.451806 -1.056476 30.689201 166 166 166 0
8.610501 -1.061569 30.837140 92 92 92 0
-4.718348 -0.920653 30.086708 76 76 76 0
-4.484448 -0.896890 29.310115 106 106 106 0
-4.311061 -0.884320 28.899354 127 127 127 0
-4.165179 -0.876880 28.656199 139 139 139 0
-4.026572 -0.870610 28.451316 148 148 148 0
-3.895810 -0.865736 28.292011 155 155 155 0
-3.768404 -0.861350 28.148678 163 163 163 0
-3.631943 -0.854575 27.927283 165 165 165 0
-3.506630 -0.850092 27.780785 168 168 168 0
-3.381048 -0.845262 27.622939 173 173 173 0
-3.267809 -0.843306 27.559004 176 176 176 0
-3.156514 -0.841737 27.507743 176 176 176 0
-3.039322 -0.838434 27.399789 178 178 178 0
-2.920062 -0.834304 27.264822 183 183 183 0
-2.807166 -0.831753 27.181465 184 184 184 0
-2.696840 -0.829797 27.117545 185 185 185 0
-2.592867 -0.829718 27.114951 185 185 185 0
-2.487367 -0.829122 27.095501 187 187 187 0
-2.374140 -0.825788 26.986533 189 189 189 0
-2.265190 -0.823705 26.918474 191 191 191 0
-2.157803 -0.822020 26.863405 192 192 192 0
-2.053731 -0.821492 26.846157 192 192 192 0
-1.950997 -0.821473 26.845507 192 192 192 0
-1.845250 -0.820111 26.801010 194 194 194 0
-1.736925 -0.817377 26.711654 194 194 194 0
-1.633660 -0.816830 26.693790 194 194 194 0
-1.531543 -0.816823 26.693568 195 195 195 0
-1.430111 -0.817206 26.706089 196 196 196 0
-1.327328 -0.816817 26.693369 197 197 197 0
-1.222843 -0.815229 26.641461 198 198 198 0
-1.120273 -0.814744 26.625612 199 199 199 0
-1.018928 -0.815142 26.638635 200 200 200 0
-0.917960 -0.815964 26.665495 200 200 200 0
-0.815645 -0.815645 26.655057 201 201 201 0
-0.712940 -0.814789 26.627078 200 200 200 0
-0.611578 -0.815438 26.648298 201 201 201 0
-0.509753 -0.815604 26.653732 201 201 201 0
-0.408394 -0.816787 26.692396 200 200 200 0
-0.306063 -0.816167 26.672122 200 200 200 0
-0.203668 -0.814673 26.623296 201 201 201 0
-0.102192 -0.817535 26.716815 201 201 201 0
0.000000 -0.818605 26.751813 202 202 202 0
0.102372 -0.818975 26.763893 202 202 202 0
0.204622 -0.818487 26.747953 203 203 203 0
0.307934 -0.821156 26.835177 203 203 203 0
0.411614 -0.823228 26.902868 203 203 203 0
0.516129 -0.825807 26.987157 204 204 204 0
0.620723 -0.827631 27.046771 204 204 204 0
0.723889 -0.827302 27.036013 204 204 204 0
0.831424 -0.831424 27.170722 204 204 204 0
0.940004 -0.835559 27.305844 205 205 205 0
1.050076 -0.840061 27.452971 207 207 207 0
1.152656 -0.838295 27.395273 206 206 206 0
1.259761 -0.839841 27.445778 207 207 207 0
1.360776 -0.837401 27.366041 206 206 206 0
1.453149 -0.830371 27.136295 202 202 202 0
1.550794 -0.827090 27.029093 200 200 200 0
1.649701 -0.824851 26.955900 199 199 199 0
1.751126 -0.824060 26.930049 199 199 199 0
1.853738 -0.823884 26.924302 199 199 199 0
1.955675 -0.823442 26.909877 200 200 200 0
2.056088 -0.822435 26.876971 199 199 199 0
2.151570 -0.819646 26.785809 201 201 201 0
2.248077 -0.817483 26.715117 202 202 202 0
2.355268 -0.819224 26.772020 202 202 202 0
2.453847 -0.817949 26.730355 201 201 201 0
2.545430 -0.814538 26.618874 202 202 202 0
2.647386 -0.814580 26.620273 202 202 202 0
2.744030 -0.813046 26.570131 203 203 203 0
2.843995 -0.812570 26.554575 202 202 202 0
2.943975 -0.812131 26.540229 203 203 203 0
3.044153 -0.811774 26.528567 204 204 204 0
3.142211 -0.810893 26.499779 204 204 204 0
3.233274 -0.808318 26.415637 204 204 204 0
3.339874 -0.809667 26.459690 205 205 205 0
3.439305 -0.809248 26.446021 205 205 205 0
3.534478 -0.807881 26.401327 205 205 205 0
3.631298 -0.806955 26.371083 206 206 206 0
3.737366 -0.808079 26.407812 207 207 207 0
3.838302 -0.808064 26.407308 206 206 206 0
3.941588 -0.808531 26.422574 206 206 206 0
4.039611 -0.807922 26.402683 207 207 207 0
4.139091 -0.807628 26.393057 206 206 206 0
4.241452 -0.807896 26.401821 207 207 207 0
4.351514 -0.809584 26.456996 207 207 207 0
4.457047 -0.810372 26.482749 207 207 207 0
4.556254 -0.810001 26.470610 207 207 207 0
4.662713 -0.810907 26.500218 207 207 207 0
4.773645 -0.812535 26.553441 207 207 207 0
4.880510 -0.813418 26.582301 207 207 207 0
4.986533 -0.814128 26.605484 207 207 207 0
5.101022 -0.816164 26.672011 206 206 206 0
5.217221 -0.818388 26.744694 206 206 206 0
5.326603 -0.819477 26.780306 206 206 206 0
5.431132 -0.819794 26.790638 206 206 206 0
5.555965 -0.823106 26.898888 206 206 206 0
5.674343 -0.825359 26.972515 205 205 205 0
5.794025 -0.827718 27.049603 205 205 205 0
5.910658 -0.829566 27.110002 203 203 203 0
6.045213 -0.833823 27.249102 203 203 203 0
6.170460 -0.836673 27.342242 203 203 203 0
6.300698 -0.840093 27.454021 201 201 201 0
6.445185 -0.845270 27.623208 200 200 200 0
6.590068 -0.850331 27.788606 200 200 200 0
6.746175 -0.856657 27.995333 198 198 198 0
6.913209 -0.864151 28.240232 196 196 196 0
7.102822 -0.874193 28.568413 194 194 194 0
7.312284 -0.886337 28.965275 194 194 194 0
7.489993 -0.894327 29.226388 196 196 196 0
7.653768 -0.900443 29.426252 192 192 192 0
7.841300 -0.909136 29.710335 188 188 188 0
8.042555 -0.919149 30.037555 186 186 186 0
8.287531 -0.933806 30.516546 176 176 176 0
8.502724 -0.944747 30.874090 125 125 125 0
-4.545503 -0.795463 29.709171 87 87 87 0
-4.361223 -0.782784 29.235615 114 114 114 0
-4.195483 -0.772852 28.864691 130 130 130 0
-4.050945 -0.766395 28.623527 144 144 144 0
-3.920536 -0.762326 28.471575 151 151 151 0
-3.783372 -0.756674 28.260482 157 157 157 0
-3.648034 -0.751066 28.051014 163 163 163 0
-3.518579 -0.746365 27.875452 165 165 165 0
-3.396953 -0.743084 27.752887 170 170 170 0
-3.286114 -0.742026 27.713379 174 174 174 0
-3.170004 -0.739668 27.625308 176 176 176 0
-3.049149 -0.736001 27.488383 176 176 176 0
-2.931114 -0.732779 27.368014 179 179 179 0
-2.816679 -0.730250 27.273585 182 182 182 0
-2.707891 -0.729047 27.228664 184 184 184 0
-2.601136 -0.728318 27.201424 185 185 185 0
-2.493244 -0.727196 27.159525 186 186 186 0
-2.381117 -0.724688 27.065840 186 186 186 0
-2.268878 -0.721916 26.962307 188 188 188 0
-2.162838 -0.720946 26.926082 191 191 191 0
-2.059302 -0.720756 26.918983 192 192 192 0
-1.957588 -0.721217 26.936192 193 193 193 0
-1.849116 -0.719101 26.857166 193 193 193 0
-1.743412 -0.717875 26.811406 193 193 193 0
-1.637759 -0.716520 26.760772 195 195 195 0
-1.536730 -0.717140 26.783958 195 195 195 0
-1.435743 -0.717872 26.811264 196 196 196 0
-1.331071 -0.716731 26.768657 196 196 196 0
-1.226353 -0.715373 26.717930 196 196 196 0
-1.124722 -0.715732 26.731354 197 197 197 0
-1.022962 -0.716073 26.744094 197 197 197 0
-0.920878 -0.716239 26.750283 197 197 197 0
-0.819111 -0.716722 26.768340 198 198 198 0
-0.715791 -0.715791 26.733558 199 199 199 0
-0.613376 -0.715605 26.726603 199 199 199 0
-0.511242 -0.715738 26.731595 200 200 200 0
-0.409456 -0.716548 26.761841 199 199 199 0
-0.306547 -0.715276 26.714309 201 201 201 0
-0.204518 -0.715812 26.734334 200 200 200 0
-0.102527 -0.717692 26.804545 200 200 200 0
0.000000 -0.718292 26.826956 201 201 201 0
0.102573 -0.718013 26.816536 203 203 203 0
0.205150 -0.718025 26.816976 202 202 202 0
0.309101 -0.721237 26.936945 204 204 204 0
0.412209 -0.721367 26.941795 203 203 203 0
0.518242 -0.725539 27.097642 203 203 203 0
0.622931 -0.726753 27.142982 203 203 203 0
0.727343 -0.727343 27.165021 202 202 202 0
0.835805 -0.731330 27.313900 205 205 205 0
0.944132 -0.734325 27.425778 205 205 205 0
1.050745 -0.735521 27.470447 207 207 207 0
1.156982 -0.736261 27.498085 208 208 208 0
1.257842 -0.733741 27.403971 204 204 204 0
1.354680 -0.729443 27.243430 200 200 200 0
1.446224 -0.723112 27.006984 198 198 198 0
1.543484 -0.720292 26.901675 201 201 201 0
1.644364 -0.719409 26.868696 199 199 199 0
1.747621 -0.719609 26.876141 198 198 198 0
1.849005 -0.719058 26.855562 199 199 199 0
1.955062 -0.720286 26.901443 200 200 200 0
2.047305 -0.716557 26.762163 201 201 201 0
2.147395 -0.715798 26.733828 201 201 201 0
2.248680 -0.715489 26.722283 201 201 201 0
2.348635 -0.714802 26.696623 201 201 201 0
2.455121 -0.716077 26.744242 202 202 202 0
2.548270 -0.713516 26.648575 203 203 203 0
2.641477 -0.711167 26.560850 203 203 203 0
2.741134 -0.710664 26.542083 202 202 202 0
2.836906 -0.709227 26.488385 203 203 203 0
2.937034 -0.708939 26.477652 204 204 204 0
3.039391 -0.709191 26.487069 204 204 204 0
3.129445 -0.706649 26.392116 204 204 204 0
3.229521 -0.706458 26.384971 205 205 205 0
3.329650 -0.706289 26.378689 205 205 205 0
3.431133 -0.706410 26.383180 206 206 206 0
3.527781 -0.705556 26.351306 205 205 205 0
3.629194 -0.705677 26.355799 206 206 206 0
3.727333 -0.705171 26.336926 206 206 206 0
3.832178 -0.705928 26.365175 206 206 206 0
3.931646 -0.705680 26.355930 206 206 206 0
4.034449 -0.706029 26.368949 207 207 207 0
4.131331 -0.705349 26.343575 207 207 207 0
4.238164 -0.706361 26.381348 207 207 207 0
4.342477 -0.706915 26.402048 207 207 207 0
4.448013 -0.707638 26.429073 207 207 207 0
4.546098 -0.707171 26.411610 207 207 207 0
4.653029 -0.708070 26.445175 207 207 207 0
4.766054 -0.709838 26.511219 207 207 207 0
4.881377 -0.711867 26.587021 208 208 208 0
4.978130 -0.711161 26.560653 207 207 207 0
5.088912 -0.712448 26.608689 208 208 208 0
5.201020 -0.713865 26.661641 206 206 206 0
5.310438 -0.714867 26.699035 207 207 207 0
5.423448 -0.716304 26.752734 206 206 206 0
5.540982 -0.718275 26.826346 206 206 206 0
5.661054 -0.720498 26.909347 205 205 205 0
5.780570 -0.722571 26.986790 204 204 204 0
5.900331 -0.724602 27.062636 205 205 205 0
6.024934 -0.727147 27.157691 204 204 204 0
6.156942 -0.730485 27.282338 202 202 202 0
6.288696 -0.733681 27.401725 202 202 202 0
6.424490 -0.737237 27.534511 201 201 201 0
6.570383 -0.741817 27.705599 199 199 199 0
6.713170 -0.745908 27.858366 198 198 198 0
6.877653 -0.752243 28.094989 196 196 196 0
7.056922 -0.759976 28.383797 194 194 194 0
7.266497 -0.770689 28.783905 191 191 191 0
7.520512 -0.785725 29.345477 191 191 191 0
7.715317 -0.794224 29.662886 190 190 190 0
7.894913 -0.800933 29.913472 188 188 188 0
8.123482 -0.812348 30.339801 180 180 180 0
8.350435 -0.823282 30.748174 153 153 153 0
8.542518 -0.830523 31.018583 83 83 83 0
-4.400797 -0.677046 29.500900 93 93 93 0
-4.235735 -0.668800 29.141623 122 122 122 0
-4.082764 -0.662070 28.848360 135 135 135 0
-3.940047 -0.656675 28.613271 147 147 147 0
-3.807616 -0.652734 28.441579 152 152 152 0
-3.665928 -0.646929 28.188606 158 158 158 0
-3.536058 -0.642920 28.013924 166 166 166 0
-3.415794 -0.640461 27.906817 167 167 167 0
-3.299686 -0.638649 27.827841 169 169 169 0
-3.185549 -0.637110 27.760776 174 174 174 0
-3.065783 -0.634300 27.638342 177 177 177 0
-2.940729 -0.630156 27.457786 177 177 177 0
-2.830108 -0.628913 27.403616 179 179 179 0
-2.719283 -0.627527 27.343217 182 182 182 0
-2.613568 -0.627256 27.331432 185 185 185 0
-2.503566 -0.625892 27.271963 186 186 186 0
-2.390190 -0.623528 27.168969 186 186 186 0
-2.277280 -0.621076 27.062156 187 187 187 0
-2.172369 -0.620677 27.044742 188 188 188 0
-2.068844 -0.620653 27.043715 188 188 188 0
-1.963132 -0.619936 27.012474 191 191 191 0
-1.855268 -0.618423 26.946520 193 193 193 0
-1.750395 -0.617787 26.918804 193 193 193 0
-1.643734 -0.616400 26.858401 194 194 194 0
-1.542217 -0.616887 26.879599 195 195 195 0
-1.440037 -0.617159 26.891439 195 195 195 0
-1.336103 -0.616663 26.869852 196 196 196 0
-1.230536 -0.615268 26.809058 196 196 196 0
-1.127280 -0.614880 26.792168 196 196 196 0
-1.025532 -0.615319 26.811284 197 197 197 0
-0.924216 -0.616144 26.847239 198 198 198 0
-0.818275 -0.613706 26.741008 199 199 199 0
-0.717988 -0.615418 26.815606 198 198 198 0
-0.615112 -0.615112 26.802281 198 198 198 0
-0.513404 -0.616085 26.844646 199 199 199 0
-0.410820 -0.616231 26.851010 200 200 200 0
-0.307692 -0.615384 26.814125 200 200 200 0
-0.205326 -0.615979 26.840042 201 201 201 0
-0.102922 -0.617532 26.907733 200 200 200 0
0.000000 -0.618005 26.928301 201 201 201 0
0.103017 -0.618103 26.932593 202 202 202 0
0.205812 -0.617437 26.903576 201 201 201 0
0.309541 -0.619082 26.975245 201 201 201 0
0.415870 -0.623806 27.181075 202 202 202 0
0.521119 -0.625343 27.248053 202 202 202 0
0.625825 -0.625825 27.269081 203 203 203 0
0.732116 -0.627528 27.343278 204 204 204 0
0.840452 -0.630339 27.465741 205 205 205 0
0.946245 -0.630830 27.487158 205 205 205 0
1.053594 -0.632156 27.544936 208 208 208 0
1.155635 -0.630346 27.466069 202 202 202 0
1.253807 -0.626903 27.316051 201 201 201 0
1.348142 -0.622220 27.111961 200 200 200 0
1.444321 -0.618995 26.971444 196 196 196 0
1.544113 -0.617645 26.912646 199 199 199 0
1.647682 -0.617881 26.922901 199 199 199 0
1.747276 -0.616686 26.870839 199 199 199 0
1.850345 -0.616782 26.875016 199 199 199 0
1.947413 -0.614972 26.796187 201 201 201 0
2.048108 -0.614432 26.772652 202 202 202 0
2.145517 -0.613005 26.710447 200 200 200 0
2.241353 -0.611278 26.635207 201 201 201 0
2.345462 -0.611860 26.660547 201 201 201 0
2.444160 -0.611040 26.624838 202 202 202 0
2.543562 -0.610455 26.599345 202 202 202 0
2.635484 -0.608189 26.500589 202 202 202 0
2.732997 -0.607333 26.463300 203 203 203 0
2.831180 -0.606681 26.434918 203 203 203 0
2.933279 -0.606885 26.443807 204 204 204 0
3.030579 -0.606116 26.410273 204 204 204 0
3.129041 -0.605621 26.388708 205 205 205 0
3.225751 -0.604828 26.354175 205 205 205 0
3.328417 -0.605167 26.368924 205 205 205 0
3.425249 -0.604456 26.337937 205 205 205 0
3.524553 -0.604209 26.327190 205 205 205 0
3.624834 -0.604139 26.324137 206 206 206 0
3.721397 -0.603470 26.294978 207 207 207 0
3.825514 -0.604029 26.319327 206 206 206 0
3.926857 -0.604132 26.323830 207 207 207 0
4.024286 -0.603643 26.302521 207 207 207 0
4.123372 -0.603420 26.292826 207 207 207 0
4.230097 -0.604300 26.331137 207 207 207 0
4.335803 -0.604996 26.361469 208 208 208 0
4.444259 -0.606035 26.406767 207 207 207 0
4.540059 -0.605341 26.376526 208 208 208 0
4.643789 -0.605712 26.392662 208 208 208 0
4.757985 -0.607402 26.466331 207 207 207 0
4.865696 -0.608212 26.501611 207 207 207 0
4.967328 -0.608244 26.503016 207 207 207 0
5.077501 -0.609300 26.549027 208 208 208 0
5.190354 -0.610630 26.606968 208 208 208 0
5.305115 -0.612129 26.672274 206 206 206 0
5.408586 -0.612293 26.679421 205 205 205 0
5.529399 -0.614378 26.770271 206 206 206 0
5.651391 -0.616515 26.863415 206 206 206 0
5.769239 -0.618133 26.933887 205 205 205 0
5.883946 -0.619363 26.987483 204 204 204 0
6.012395 -0.621972 27.101174 204 204 204 0
6.139666 -0.624373 27.205789 203 203 203 0
6.265915 -0.626592 27.302462 202 202 202 0
6.401975 -0.629702 27.438015 202 202 202 0
6.550518 -0.633921 27.621833 201 201 201 0
6.691554 -0.637291 27.768664 199 199 199 0
6.849845 -0.642173 27.981392 196 196 196 0
7.021568 -0.648145 28.241600 195 195 195 0
7.211322 -0.655575 28.565346 191 191 191 0
7.494669 -0.671164 29.244636 188 188 188 0
7.759461 -0.684658 29.832605 188 188 188 0
7.971508 -0.693175 30.203687 183 183 183 0
8.206751 -0.703436 30.650796 170 170 170 0
8.383547 -0.708469 30.870097 108 108 108 0
-4.462830 -0.572158 29.916743 75 75 75 0
-4.283004 -0.563553 29.466829 105 105 105 0
-4.111379 -0.555592 29.050550 127 127 127 0
-3.966424 -0.550892 28.804822 136 136 136 0
-3.825725 -0.546532 28.576841 148 148 148 0
-3.688073 -0.542364 28.358883 154 154 154 0
-3.561942 -0.539688 28.218989 160 160 160 0
-3.434698 -0.536672 28.061260 165 165 165 0
-3.321959 -0.535800 28.015679 167 167 167 0
-3.197133 -0.532856 27.861729 170 170 170 0
-3.078362 -0.530752 27.751742 175 175 175 0
-2.952960 -0.527314 27.571993 176 176 176 0
-2.841682 -0.526237 27.515679 177 177 177 0
-2.731699 -0.525327 27.468064 180 180 180 0
-2.625862 -0.525172 27.459994 181 181 181 0
-2.510979 -0.523121 27.352709 184 184 184 0
-2.398865 -0.521492 27.267572 186 186 186 0
-2.287566 -0.519901 27.184391 187 187 187 0
-2.182999 -0.519762 27.177077 187 187 187 0
-2.077524 -0.519381 27.157175 188 188 188 0
-1.971102 -0.518711 27.122144 188 188 188 0
-1.861516 -0.517088 27.037272 190 190 190 0
-1.754508 -0.516032 26.982055 190 190 190 0
-1.649936 -0.515605 26.959742 193 193 193 0
-1.548871 -0.516290 26.995572 194 194 194 0
-1.445057 -0.516092 26.985184 195 195 195 0
-1.339385 -0.515148 26.935852 196 196 196 0
-1.234173 -0.514239 26.888290 196 196 196 0
-1.132699 -0.514863 26.920960 196 196 196 0
-1.029677 -0.514838 26.919650 196 196 196 0
-0.926747 -0.514859 26.920741 197 197 197 0
-0.823714 -0.514822 26.918773 198 198 198 0
-0.720751 -0.514822 26.918806 199 199 199 0
-0.617356 -0.514463 26.900041 199 199 199 0
-0.514823 -0.514823 26.918835 199 199 199 0
-0.412383 -0.515478 26.953124 199 199 199 0
-0.308461 -0.514102 26.881145 199 199 199 0
-0.205864 -0.514659 26.910269 200 200 200 0
-0.103094 -0.515468 26.952565 200 200 200 0
0.000000 -0.515823 26.971155 200 200 200 0
0.103427 -0.517134 27.039668 200 200 200 0
0.206933 -0.517333 27.050084 201 201 201 0
0.311601 -0.519335 27.154755 201 201 201 0
0.416642 -0.520802 27.231488 203 203 203 0
0.523340 -0.523340 27.364208 202 202 202 0
0.627958 -0.523298 27.362000 203 203 203 0
0.735319 -0.525228 27.462876 205 205 205 0
0.842894 -0.526809 27.545556 204 204 204 0
0.950691 -0.528161 27.616286 205 205 205 0
1.051368 -0.525684 27.486751 204 204 204 0
1.150233 -0.522833 27.337673 203 203 203 0
1.247706 -0.519877 27.183135 198 198 198 0
1.344280 -0.517031 27.034297 198 198 198 0
1.448812 -0.517433 27.055309 200 200 200 0
1.547084 -0.515695 26.964434 199 199 199 0
1.646969 -0.514678 26.911254 198 198 198 0
1.745844 -0.513484 26.848814 198 198 198 0
1.849766 -0.513824 26.866612 199 199 199 0
1.949401 -0.513000 26.823536 200 200 200 0
2.049702 -0.512425 26.793489 200 200 200 0
2.140452 -0.509632 26.647399 200 200 200 0
2.241878 -0.509518 26.641453 201 201 201 0
2.340227 -0.508745 26.601042 202 202 202 0
2.439906 -0.508314 26.578500 202 202 202 0
2.539535 -0.507907 26.557228 202 202 202 0
2.634749 -0.506682 26.493201 202 202 202 0
2.725583 -0.504738 26.391510 203 203 203 0
2.827602 -0.504929 26.401513 204 204 204 0
2.927766 -0.504787 26.394100 205 205 205 0
3.030579 -0.505096 26.410273 205 205 205 0
3.122204 -0.503581 26.331049 206 206 206 0
3.220196 -0.503156 26.308794 205 205 205 0
3.318550 -0.502811 26.290750 206 206 206 0
3.420884 -0.503071 26.304376 205 205 205 0
3.516982 -0.502426 26.270644 206 206 206 0
3.620906 -0.502904 26.295617 205 205 205 0
3.715886 -0.502147 26.256041 206 206 206 0
3.818924 -0.502490 26.273985 207 207 207 0
3.921403 -0.502744 26.287266 206 206 206 0
4.022884 -0.502860 26.293357 207 207 207 0
4.118387 -0.502242 26.261035 207 207 207 0
4.221582 -0.502569 26.278133 207 207 207 0
4.332763 -0.503810 26.342988 207 207 207 0
4.434082 -0.503873 26.346300 207 207 207 0
4.535813 -0.503979 26.351854 207 207 207 0
4.640035 -0.504352 26.371330 208 208 208 0
4.746802 -0.504979 26.404130 207 207 207 0
4.856823 -0.505919 26.453284 207 207 207 0
4.965713 -0.506705 26.494398 207 207 207 0
5.069512 -0.506951 26.507253 207 207 207 0
5.179928 -0.507836 26.553518 207 207 207 0
5.291778 -0.508825 26.605219 207 207 207 0
5.404785 -0.509885 26.660674 206 206 206 0
5.521279 -0.511230 26.730958 206 206 206 0
5.636632 -0.512421 26.793259 206 206 206 0
5.760589 -0.514338 26.893504 205 205 205 0
5.876810 -0.515510 26.954755 205 205 205 0
5.999520 -0.517200 27.043139 205 205 205 0
6.126735 -0.519215 27.148490 204 204 204 0
6.248716 -0.520726 27.227523 203 203 203 0
6.389925 -0.523764 27.386369 202 202 202 0
6.531069 -0.526699 27.539823 201 201 201 0
6.671611 -0.529493 27.685905 199 199 199 0
6.825135 -0.533214 27.880454 198 198 198 0
6.989768 -0.537674 28.113695 195 195 195 0
7.168063 -0.543035 28.393991 193 193 193 0
7.421488 -0.553842 28.959078 188 188 188 0
7.804375 -0.573851 30.005285 185 185 185 0
8.058366 -0.583940 30.532789 177 177 177 0
8.262489 -0.590178 30.858969 139 139 139 0
-4.326508 -0.455422 29.766137 82 82 82 0
-4.149457 -0.448590 29.319604 109 109 109 0
-3.997541 -0.444171 29.030802 128 128 128 0
-3.853006 -0.440344 28.780625 139 139 139 0
-3.707772 -0.436208 28.510355 151 151 151 0
-3.577599 -0.433648 28.343029 155 155 155 0
-3.459663 -0.432458 28.265217 159 159 159 0
-3.336385 -0.430501 28.137338 166 166 166 0
-3.217328 -0.428977 28.037720 168 168 168 0
-3.091018 -0.426347 27.865840 170 170 170 0
-2.970062 -0.424295 27.731667 173 173 173 0
-2.853134 -0.422686 27.626567 177 177 177 0
-2.745660 -0.422409 27.608446 179 179 179 0
-2.634867 -0.421579 27.554160 179 179 179 0
-2.519224 -0.419871 27.442527 180 180 180 0
-2.407814 -0.418750 27.369293 183 183 183 0
-2.297053 -0.417646 27.297124 186 186 186 0
-2.191028 -0.417339 27.277032 186 186 186 0
-2.086331 -0.417266 27.272305 188 188 188 0
-1.978167 -0.416456 27.219357 189 189 189 0
-1.867166 -0.414926 27.119328 189 189 189 0
-1.762382 -0.414678 27.103150 190 190 190 0
-1.658664 -0.414666 27.102348 191 191 191 0
-1.554035 -0.414409 27.085579 191 191 191 0
-1.448063 -0.413732 27.041327 192 192 192 0
-1.344191 -0.413597 27.032501 193 193 193 0
-1.238740 -0.412913 26.987807 193 193 193 0
-1.136274 -0.413191 27.005918 195 195 195 0
-1.033767 -0.413507 27.026578 196 196 196 0
-0.931101 -0.413823 27.047242 197 197 197 0
-0.826314 -0.413157 27.003727 197 197 197 0
-0.721583 -0.412333 26.949863 197 197 197 0
-0.619674 -0.413116 27.001053 197 197 197 0
-0.517170 -0.413736 27.041565 198 198 198 0
-0.413470 -0.413470 27.024196 197 197 197 0
-0.310068 -0.413423 27.021135 198 198 198 0
-0.206632 -0.413264 27.010691 198 198 198 0
-0.103573 -0.414292 27.077898 199 199 199 0
0.000000 -0.414282 27.077237 199 199 199 0
0.103870 -0.415480 27.155566 200 200 200 0
0.207962 -0.415925 27.184613 201 201 201 0
0.313626 -0.418168 27.331272 201 201 201 0
0.419118 -0.419118 27.393325 202 202 202 0
0.527471 -0.421977 27.580205 203 203 203 0
0.631513 -0.421008 27.516893 202 202 202 0
0.737358 -0.421347 27.539048 202 202 202 0
0.844640 -0.422320 27.602599 206 206 206 0
0.948185 -0.421416 27.543503 202 202 202 0
1.047427 -0.418971 27.383720 200 200 200 0
1.144744 -0.416271 27.207234 198 198 198 0
