ply
format ascii 1.0
element vertex 1094
property float x
property float y
property float z
property uchar red
property uchar green
property uchar blue
property uchar alpha
end_header
-6.955628 -6.594297 23.616427 202 202 202 0
-6.860809 -6.589988 23.600996 202 202 202 0
-6.775242 -6.594569 23.617401 203 203 203 0
-6.703363 -6.612777 23.682610 202 202 202 0
-6.620152 -6.620152 23.709024 202 202 202 0
-6.545543 -6.636453 23.767404 202 202 202 0
-6.460438 -6.642422 23.788781 202 202 202 0
-6.385384 -6.659044 23.848308 202 202 202 0
-6.294484 -6.659382 23.849519 202 202 202 0
-6.237964 -6.696637 23.982943 202 202 202 0
-6.134305 -6.683646 23.936416 203 203 203 0
-6.062929 -6.705967 24.016355 203 203 203 0
-5.967522 -6.701987 24.002101 202 202 202 0
-5.898243 -6.727683 24.094130 202 202 202 0
-5.825066 -6.749680 24.172907 202 202 202 0
-5.737459 -6.755396 24.193377 203 203 203 0
-5.646465 -6.757245 24.200000 203 203 203 0
-5.567264 -6.773504 24.258229 202 202 202 0
-5.488199 -6.790484 24.319039 202 202 202 0
-5.402331 -6.799486 24.351280 202 202 202 0
-5.313419 -6.804905 24.370687 202 202 202 0
-5.241100 -6.832149 24.468256 203 203 203 0
-5.147267 -6.831827 24.467102 203 203 203 0
-5.059092 -6.839144 24.493307 203 203 203 0
-4.978485 -6.857158 24.557822 202 202 202 0
-4.887576 -6.861405 24.573033 203 203 203 0
-4.811654 -6.887270 24.665663 202 202 202 0
-4.720932 -6.892561 24.684613 203 203 203 0
-4.641651 -6.915113 24.765378 203 203 203 0
-4.546596 -6.914615 24.763594 202 202 202 0
-4.461683 -6.929848 24.818149 202 202 202 0
-4.375834 -6.944259 24.869761 202 202 202 0
-4.290700 -6.960470 24.927817 203 203 203 0
-4.204552 -6.975733 24.982481 202 202 202 0
-4.110141 -6.977681 24.989458 203 203 203 0
-4.020144 -6.987393 25.024239 202 202 202 0
-3.936841 -7.009498 25.103405 202 202 202 0
-3.839925 -7.007863 25.097547 202 202 202 0
-3.757882 -7.033984 25.191096 202 202 202 0
-3.668101 -7.046615 25.236333 203 203 203 0
-3.577438 -7.058189 25.277781 203 203 203 0
-3.490593 -7.078147 25.349258 203 203 203 0
-3.394481 -7.079917 25.355598 202 202 202 0
-3.301784 -7.089124 25.388571 202 202 202 0
-3.212344 -7.106095 25.449352 202 202 202 0
-3.123067 -7.124497 25.515253 202 202 202 0
-3.033507 -7.143421 25.583026 202 202 202 0
-2.938559 -7.150494 25.608357 202 202 202 0
-2.843833 -7.158615 25.637441 202 202 202 0
-2.751914 -7.174632 25.694806 203 203 203 0
-2.661460 -7.195799 25.770611 202 202 202 0
-2.564127 -7.199280 25.783077 203 203 203 0
-2.472052 -7.218393 25.851529 202 202 202 0
-2.375014 -7.224002 25.871616 203 203 203 0
-2.282347 -7.243971 25.943133 202 202 202 0
-2.187949 -7.260012 26.000579 203 203 203 0
-2.092191 -7.272854 26.046571 203 203 203 0
-1.997111 -7.289457 26.106032 202 202 202 0
-1.900009 -7.300033 26.143909 203 203 203 0
-1.802179 -7.308838 26.175442 203 203 203 0
-1.705592 -7.324012 26.229787 202 202 202 0
-1.606430 -7.329337 26.248857 202 202 202 0
-1.510441 -7.350812 26.325766 202 202 202 0
-1.413084 -7.368223 26.388120 202 202 202 0
-1.314534 -7.381616 26.436085 202 202 202 0
-1.216257 -7.398898 26.497979 202 202 202 0
-1.117002 -7.412828 26.547867 203 203 203 0
-1.016918 -7.423498 26.586080 201 201 201 0
-0.917751 -7.443983 26.659443 202 202 202 0
-0.817027 -7.455375 26.700240 202 202 202 0
-0.716350 -7.470505 26.754428 202 202 202 0
-0.614943 -7.481801 26.794881 202 202 202 0
-0.513759 -7.500888 26.863240 202 202 202 0
-0.411970 -7.518459 26.926169 202 202 202 0
-0.309437 -7.529627 26.966163 202 202 202 0
-0.206680 -7.543829 27.017024 202 202 202 0
-0.103541 -7.558513 27.069613 202 202 202 0
0.000000 -7.571122 27.114771 201 201 201 0
0.103853 -7.581267 27.151103 202 202 202 0
0.208192 -7.599013 27.214658 201 201 201 0
0.312999 -7.616312 27.276613 202 202 202 0
0.418204 -7.632225 27.333603 201 201 201 0
0.524046 -7.651075 27.401110 202 202 202 0
0.629663 -7.660896 27.436284 201 201 201 0
0.736221 -7.677738 27.496600 201 201 201 0
0.843212 -7.694313 27.555961 202 202 202 0
0.950490 -7.709528 27.610449 202 202 202 0
1.057957 -7.723090 27.659019 201 201 201 0
1.165903 -7.737358 27.710118 201 201 201 0
1.275123 -7.756997 27.780454 201 201 201 0
1.383673 -7.769857 27.826508 202 202 202 0
1.491835 -7.778851 27.858721 201 201 201 0
1.601908 -7.795950 27.919958 202 202 202 0
1.714839 -7.823951 28.020239 201 201 201 0
1.825398 -7.838472 28.072243 201 201 201 0
1.934811 -7.846733 28.101827 201 201 201 0
2.047341 -7.866100 28.171188 201 201 201 0
2.160468 -7.885710 28.241418 201 201 201 0
2.271266 -7.895352 28.275950 201 201 201 0
2.384742 -7.913006 28.339175 201 201 201 0
2.499696 -7.933819 28.413711 201 201 201 0
2.613102 -7.948184 28.465160 201 201 201 0
2.725660 -7.958926 28.503629 201 201 201 0
2.840064 -7.974026 28.557709 201 201 201 0
2.960041 -8.003074 28.661739 201 201 201 0
3.073944 -8.014211 28.701623 201 201 201 0
3.187713 -8.024242 28.737549 201 201 201 0
3.305139 -8.042505 28.802956 200 200 200 0
3.424743 -8.064717 28.882504 200 200 200 0
3.539715 -8.074975 28.919240 200 200 200 0
3.654572 -8.084356 28.952836 198 198 198 0
3.750059 -8.051597 28.835517 152 152 152 0
3.847240 -8.024242 28.737550 75 75 75 0
-7.163001 -6.446701 23.408499 203 203 203 0
-7.076983 -6.449909 23.420147 203 203 203 0
-7.012903 -6.473449 23.505624 203 203 203 0
-6.920536 -6.471151 23.497280 202 202 202 0
-6.842448 -6.482320 23.537834 203 203 203 0
-6.774253 -6.503283 23.613953 203 203 203 0
-6.679338 -6.498816 23.597732 203 203 203 0
-6.602673 -6.512226 23.646425 202 202 202 0
-6.512968 -6.512968 23.649122 202 202 202 0
-6.448256 -6.539076 23.743922 203 203 203 0
-6.384480 -6.566893 23.844929 203 203 203 0
-6.288775 -6.562200 23.827886 203 203 203 0
-6.202597 -6.567456 23.846970 203 203 203 0
-6.126009 -6.583174 23.904044 202 202 202 0
-6.048647 -6.598524 23.959782 202 202 202 0
-5.975368 -6.618870 24.033659 203 203 203 0
-5.890208 -6.626484 24.061308 203 203 203 0
-5.803139 -6.632159 24.081913 203 203 203 0
-5.726520 -6.650152 24.147246 203 203 203 0
-5.641498 -6.658818 24.178713 203 203 203 0
-5.554485 -6.665382 24.202551 203 203 203 0
-5.476603 -6.683313 24.267656 203 203 203 0
-5.390712 -6.691918 24.298903 202 202 202 0
-5.310432 -6.707914 24.356988 202 202 202 0
-5.222062 -6.714080 24.379374 203 203 203 0
-5.144698 -6.734878 24.454894 203 203 203 0
-5.049473 -6.732631 24.446736 203 203 203 0
-4.979265 -6.764285 24.561674 203 203 203 0
-4.884473 -6.763116 24.557430 202 202 202 0
-4.803371 -6.781230 24.623201 203 203 203 0
-4.723822 -6.802304 24.699725 203 203 203 0
-4.634171 -6.809394 24.725468 202 202 202 0
-4.543041 -6.814562 24.744234 203 203 203 0
-4.453783 -6.822816 24.774206 203 203 203 0
-4.362419 -6.828133 24.793513 203 203 203 0
-4.284758 -6.855612 24.893291 203 203 203 0
-4.194154 -6.863161 24.920701 202 202 202 0
-4.105656 -6.874586 24.962186 203 203 203 0
-4.016250 -6.885000 25.000000 202 202 202 0
-3.933809 -6.908153 25.084071 202 202 202 0
-3.842045 -6.915681 25.111405 203 203 203 0
-3.746084 -6.915847 25.112009 203 203 203 0
-3.661006 -6.936643 25.187521 203 203 203 0
-3.569683 -6.946410 25.222983 203 203 203 0
-3.481131 -6.962262 25.280545 203 203 203 0
-3.393641 -6.981204 25.349325 203 203 203 0
-3.301091 -6.990547 25.383248 203 203 203 0
-3.208089 -6.999468 25.415642 202 202 202 0
-3.119916 -7.019810 25.489506 203 203 203 0
-3.026205 -7.028606 25.521446 202 202 202 0
-2.932204 -7.037291 25.552980 202 202 202 0
-2.841459 -7.054657 25.616038 203 203 203 0
-2.745955 -7.061028 25.639173 202 202 202 0
-2.656580 -7.084212 25.723356 202 202 202 0
-2.562670 -7.096623 25.768421 203 203 203 0
-2.466220 -7.102714 25.790537 202 202 202 0
-2.373213 -7.119640 25.851998 203 203 203 0
-2.280259 -7.138202 25.919398 202 202 202 0
-2.184154 -7.148142 25.955489 203 203 203 0
-2.089070 -7.162524 26.007714 202 202 202 0
-1.991675 -7.170031 26.034971 203 203 203 0
-1.895355 -7.182399 26.079878 202 202 202 0
-1.800804 -7.203215 26.155464 202 202 202 0
-1.702595 -7.210989 26.183693 202 202 202 0
-1.605551 -7.224980 26.234495 202 202 202 0
-1.509017 -7.243283 26.300956 202 202 202 0
-1.410974 -7.256440 26.348729 202 202 202 0
-1.313503 -7.274786 26.415346 203 203 203 0
-1.214189 -7.285133 26.452915 202 202 202 0
-1.114989 -7.298109 26.500031 202 202 202 0
-1.014889 -7.307201 26.533045 202 202 202 0
-0.915435 -7.323481 26.592160 202 202 202 0
-0.815664 -7.340972 26.655673 202 202 202 0
-0.715022 -7.354514 26.704843 203 203 203 0
-0.614133 -7.369596 26.759608 202 202 202 0
-0.512790 -7.384175 26.812546 203 203 203 0
-0.411206 -7.401704 26.876194 202 202 202 0
-0.308864 -7.412736 26.916253 202 202 202 0
-0.206317 -7.427405 26.969517 202 202 202 0
-0.103388 -7.443962 27.029636 202 202 202 0
0.000000 -7.459109 27.084637 202 202 202 0
0.103705 -7.466791 27.112530 202 202 202 0
0.207766 -7.479587 27.158994 201 201 201 0
0.312465 -7.499160 27.230065 202 202 202 0
0.417911 -7.522396 27.314439 202 202 202 0
0.522490 -7.523857 27.319744 202 202 202 0
0.629065 -7.548784 27.410254 202 202 202 0
0.734926 -7.559238 27.448214 202 202 202 0
0.841910 -7.577194 27.513414 202 202 202 0
0.948385 -7.587079 27.549306 201 201 201 0
1.055468 -7.599371 27.593941 201 201 201 0
1.164328 -7.621059 27.672690 202 202 202 0
1.273471 -7.640828 27.744473 201 201 201 0
1.381030 -7.648783 27.773360 202 202 202 0
1.490320 -7.664504 27.830441 201 201 201 0
1.600589 -7.682826 27.896972 201 201 201 0
1.711653 -7.702438 27.968183 201 201 201 0
1.821373 -7.714050 28.010347 201 201 201 0
1.931840 -7.727359 28.058675 201 201 201 0
2.043396 -7.743397 28.116908 202 202 202 0
2.156200 -7.762320 28.185622 201 201 201 0
2.269206 -7.780136 28.250311 201 201 201 0
2.379742 -7.788246 28.279759 201 201 201 0
2.494115 -7.807664 28.350267 201 201 201 0
2.610713 -7.832139 28.439140 202 202 202 0
2.723040 -7.842357 28.476240 201 201 201 0
2.835920 -7.853316 28.516035 201 201 201 0
2.953101 -7.874935 28.594536 201 201 201 0
3.067525 -7.887921 28.641688 201 201 201 0
3.184625 -7.906656 28.709717 201 201 201 0
3.300307 -7.920737 28.760846 201 201 201 0
3.419308 -7.941618 28.836668 200 200 200 0
3.538541 -7.961718 28.909652 201 201 201 0
3.651351 -7.966584 28.927320 199 199 199 0
3.741576 -7.923338 28.770290 156 156 156 0
-7.152627 -6.347956 23.374598 203 203 203 0
-7.072865 -6.356625 23.406518 202 202 202 0
-7.006052 -6.377304 23.482661 203 203 203 0
-6.910635 -6.372144 23.463662 202 202 202 0
-6.839917 -6.389922 23.529126 203 203 203 0
-6.755898 -6.395584 23.549972 202 202 202 0
-6.687438 -6.416326 23.626350 203 203 203 0
-6.600610 -6.419771 23.639036 202 202 202 0
-6.517987 -6.427459 23.667345 203 203 203 0
-6.453873 -6.453873 23.764605 203 203 203 0
-6.369149 -6.460137 23.787672 203 203 203 0
-6.295288 -6.477760 23.852562 203 203 203 0
-6.197945 -6.471384 23.829084 203 203 203 0
-6.111709 -6.476587 23.848246 203 203 203 0
-6.040381 -6.497986 23.927040 203 203 203 0
-5.951255 -6.500602 23.936673 203 203 203 0
-5.861523 -6.502627 23.944130 203 203 203 0
-5.791163 -6.526549 24.032214 203 203 203 0
-5.713025 -6.542335 24.090344 203 203 203 0
-5.634424 -6.558101 24.148396 203 203 203 0
-5.551309 -6.569049 24.188709 202 202 202 0
-5.466480 -6.578306 24.222798 203 203 203 0
-5.381640 -6.587870 24.258012 203 203 203 0
-5.296984 -6.597998 24.295305 203 203 203 0
-5.212200 -6.608325 24.333335 202 202 202 0
-5.139690 -6.634873 24.431089 203 203 203 0
-5.050165 -6.640032 24.450087 202 202 202 0
-4.966428 -6.653139 24.498350 203 203 203 0
-4.884043 -6.668597 24.555268 203 203 203 0
-4.787504 -6.664956 24.541862 203 203 203 0
-4.708857 -6.686577 24.621474 203 203 203 0
-4.616872 -6.689753 24.633169 202 202 202 0
-4.534929 -6.707916 24.700050 202 202 202 0
-4.446682 -6.717328 24.734707 203 203 203 0
-4.361987 -6.732632 24.791060 203 203 203 0
-4.271215 -6.739029 24.814613 203 203 203 0
-4.190825 -6.762467 24.900920 203 203 203 0
-4.098160 -6.766729 24.916613 203 203 203 0
-4.013270 -6.784337 24.981449 203 203 203 0
-3.920625 -6.789375 25.000000 202 202 202 0
-3.840396 -6.816703 25.100628 203 203 203 0
-3.742260 -6.812833 25.086378 203 203 203 0
-3.651523 -6.822583 25.122280 203 203 203 0
-3.568679 -6.848005 25.215890 202 202 202 0
-3.477373 -6.858153 25.253257 203 203 203 0
-3.389265 -6.875367 25.316642 203 203 203 0
-3.293819 -6.878270 25.327331 203 203 203 0
-3.206115 -6.898005 25.400000 202 202 202 0
-3.113110 -6.907212 25.433904 203 203 203 0
-3.023660 -6.925156 25.499975 203 203 203 0
-2.929503 -6.933156 25.529436 203 203 203 0
-2.837902 -6.947967 25.583970 203 203 203 0
-2.743915 -6.957785 25.620123 202 202 202 0
-2.651665 -6.972897 25.675769 203 203 203 0
-2.558994 -6.988021 25.731461 202 202 202 0
-2.462186 -6.992609 25.748354 203 203 203 0
-2.368440 -7.006635 25.800000 203 203 203 0
-2.273587 -7.018465 25.843561 203 203 203 0
-2.181588 -7.040580 25.924993 203 203 203 0
-2.083295 -7.043521 25.935821 203 203 203 0
-1.988430 -7.058925 25.992543 202 202 202 0
-1.893410 -7.075376 26.053120 202 202 202 0
-1.796988 -7.088118 26.100040 202 202 202 0
-1.700370 -7.101547 26.149489 203 203 203 0
-1.602783 -7.112352 26.189272 202 202 202 0
-1.505868 -7.127773 26.246058 203 203 203 0
-1.409319 -7.147261 26.317815 203 203 203 0
-1.311026 -7.160221 26.365537 203 203 203 0
-1.211884 -7.170316 26.402711 202 202 202 0
-1.112859 -7.182999 26.449412 202 202 202 0
-1.013254 -7.194104 26.490302 203 203 203 0
-0.914250 -7.212417 26.557737 202 202 202 0
-0.814252 -7.226487 26.609546 202 202 202 0
-0.714202 -7.244048 26.674207 202 202 202 0
-0.613340 -7.257856 26.725051 203 203 203 0
-0.511985 -7.270188 26.770462 202 202 202 0
-0.410704 -7.290000 26.843412 202 202 202 0
-0.308126 -7.292305 26.851899 202 202 202 0
-0.205973 -7.312026 26.924518 202 202 202 0
-0.103150 -7.323641 26.967286 202 202 202 0
0.000000 -7.341349 27.032492 202 202 202 0
0.103500 -7.348504 27.058837 202 202 202 0
0.207558 -7.368323 27.131817 202 202 202 0
0.312025 -7.384601 27.191755 202 202 202 0
0.417104 -7.403605 27.261732 202 202 202 0
0.521946 -7.411630 27.291283 201 201 201 0
0.627023 -7.419776 27.321278 201 201 201 0
0.732999 -7.434707 27.376256 202 202 202 0
0.840455 -7.459041 27.465860 202 202 202 0
0.947353 -7.473563 27.519334 202 202 202 0
1.054397 -7.486220 27.565938 201 201 201 0
1.162459 -7.503145 27.628260 201 201 201 0
1.270984 -7.519986 27.690273 202 202 202 0
1.379201 -7.532559 27.736570 201 201 201 0
1.488060 -7.546589 27.788233 202 202 202 0
1.598078 -7.564238 27.853218 201 201 201 0
1.709181 -7.584492 27.927798 201 201 201 0
1.817944 -7.592590 27.957619 202 202 202 0
1.927202 -7.601741 27.991315 201 201 201 0
2.040977 -7.626809 28.083619 201 201 201 0
2.152021 -7.639675 28.130996 202 202 202 0
2.263114 -7.651482 28.174471 201 201 201 0
2.376422 -7.669363 28.240311 202 202 202 0
2.489942 -7.686344 28.302840 201 201 201 0
2.604936 -7.706269 28.376208 201 201 201 0
2.718144 -7.719529 28.425034 201 201 201 0
2.830587 -7.729679 28.462410 201 201 201 0
2.947090 -7.749755 28.536336 200 200 200 0
3.063714 -7.768704 28.606107 201 201 201 0
3.176128 -7.776036 28.633108 201 201 201 0
3.295067 -7.798326 28.715183 201 201 201 0
3.410756 -7.811731 28.764544 200 200 200 0
3.532821 -7.838447 28.862920 201 201 201 0
3.646531 -7.845567 28.889137 201 201 201 0
3.737094 -7.803931 28.735823 163 163 163 0
-7.143324 -6.250408 23.344195 202 202 202 0
-7.060743 -6.256355 23.366404 203 203 203 0
-6.985427 -6.268973 23.413532 203 203 203 0
-6.901639 -6.274218 23.433119 202 202 202 0
-6.822794 -6.284152 23.470223 203 203 203 0
-6.745449 -6.295752 23.513547 203 203 203 0
-6.663714 -6.303513 23.542532 203 203 203 0
-6.591032 -6.320167 23.604733 203 203 203 0
-6.511412 -6.330539 23.643470 203 203 203 0
-6.437661 -6.346990 23.704911 203 203 203 0
-6.349481 -6.349481 23.714214 203 203 203 0
-6.262548 -6.353309 23.728513 203 203 203 0
-6.199382 -6.381717 23.834609 203 203 203 0
-6.107739 -6.381220 23.832755 203 203 203 0
-6.033353 -6.399011 23.899200 203 203 203 0
-5.960158 -6.418631 23.972480 203 203 203 0
-5.875646 -6.426488 24.001821 203 203 203 0
-5.789109 -6.432344 24.023693 203 203 203 0
-5.709116 -6.445776 24.073859 203 203 203 0
-5.623101 -6.452739 24.099866 202 202 202 0
-5.540775 -6.464238 24.142812 202 202 202 0
-5.466777 -6.486006 24.224112 203 203 203 0
-5.365298 -6.475360 24.184350 203 203 203 0
-5.297296 -6.505452 24.296739 202 202 202 0
-5.209079 -6.511349 24.318764 204 204 204 0
-5.127114 -6.525418 24.371310 203 203 203 0
-5.048937 -6.544919 24.444141 203 203 203 0
-4.947261 -6.534118 24.403803 203 203 203 0
-4.870371 -6.556269 24.486533 203 203 203 0
-4.786541 -6.569762 24.536926 203 203 203 0
-4.696025 -6.574435 24.554378 203 203 203 0
-4.613285 -6.590407 24.614032 203 203 203 0
-4.525363 -6.599488 24.647947 203 203 203 0
-4.440521 -6.613542 24.700435 202 202 202 0
-4.355332 -6.627679 24.753237 203 203 203 0
-4.265973 -6.635958 24.784157 203 203 203 0
-4.184045 -6.656436 24.860637 203 203 203 0
-4.095163 -6.666544 24.898392 203 203 203 0
-4.004402 -6.674003 24.926248 202 202 202 0
-3.918305 -6.689789 24.985205 203 203 203 0
-3.825000 -6.693750 25.000000 202 202 202 0
-3.738279 -6.709732 25.059690 203 203 203 0
-3.649534 -6.722826 25.108593 203 203 203 0
-3.561359 -6.737706 25.164170 203 203 203 0
-3.471965 -6.751042 25.213976 203 203 203 0
-3.380914 -6.761828 25.254261 203 203 203 0
-3.286024 -6.765343 25.267386 203 203 203 0
-3.196503 -6.780461 25.323850 203 203 203 0
-3.107099 -6.796780 25.384798 203 203 203 0
-3.015404 -6.808977 25.430353 203 203 203 0
-2.926292 -6.828015 25.501456 202 202 202 0
-2.830271 -6.831688 25.515174 203 203 203 0
-2.737478 -6.843695 25.560019 203 203 203 0
-2.646722 -6.861872 25.627905 203 203 203 0
-2.555499 -6.880190 25.696320 203 203 203 0
-2.462023 -6.893664 25.746644 203 203 203 0
-2.365567 -6.899569 25.768700 203 203 203 0
-2.271076 -6.911972 25.815020 203 203 203 0
-2.177166 -6.927348 25.872447 203 203 203 0
-2.081785 -6.939285 25.917030 202 202 202 0
-1.984294 -6.945029 25.938483 203 203 203 0
-1.889588 -6.961639 26.000518 203 203 203 0
-1.795069 -6.980823 26.072169 203 203 203 0
-1.698840 -6.995222 26.125945 202 202 202 0
-1.600803 -7.003512 26.156907 203 203 203 0
-1.502530 -7.011809 26.187894 202 202 202 0
-1.406492 -7.032459 26.265019 202 202 202 0
-1.308260 -7.044477 26.309903 203 203 203 0
-1.209139 -7.053310 26.342894 203 203 203 0
-1.111413 -7.072628 26.415042 202 202 202 0
-1.011367 -7.079569 26.440968 202 202 202 0
-0.912665 -7.098509 26.511705 202 202 202 0
-0.812722 -7.111317 26.559539 203 203 203 0
-0.713045 -7.130450 26.630998 202 202 202 0
-0.611335 -7.132242 26.637693 202 202 202 0
-0.510973 -7.153626 26.717556 203 203 203 0
-0.409671 -7.169239 26.775869 203 203 203 0
-0.308115 -7.189339 26.850939 202 202 202 0
-0.205582 -7.195368 26.873457 203 203 203 0
-0.102917 -7.204213 26.906491 202 202 202 0
0.000000 -7.227731 26.994326 203 203 203 0
0.103387 -7.237071 27.029212 203 203 203 0
0.207157 -7.250483 27.079300 202 202 202 0
0.311427 -7.266631 27.139611 202 202 202 0
0.416562 -7.289833 27.226267 202 202 202 0
0.521295 -7.298137 27.257280 202 202 202 0
0.626317 -7.307028 27.290486 202 202 202 0
0.732047 -7.320466 27.340677 202 202 202 0
0.838724 -7.338834 27.409276 202 202 202 0
0.945611 -7.354751 27.468723 202 202 202 0
1.051865 -7.363056 27.499742 202 202 202 0
1.159241 -7.376990 27.551784 202 202 202 0
1.268347 -7.398693 27.632842 202 202 202 0
1.377947 -7.419714 27.711351 202 202 202 0
1.484393 -7.421967 27.719765 202 202 202 0
1.594890 -7.442820 27.797647 202 202 202 0
1.704729 -7.458191 27.855054 202 202 202 0
1.815319 -7.474845 27.917255 201 201 201 0
1.924629 -7.484669 27.953945 202 202 202 0
2.035730 -7.500056 28.011414 202 202 202 0
2.148010 -7.518036 28.078568 202 202 202 0
2.259849 -7.532830 28.133820 202 202 202 0
2.372554 -7.549034 28.194339 201 201 201 0
2.485319 -7.564016 28.250292 201 201 201 0
2.600159 -7.583798 28.324174 201 201 201 0
2.712734 -7.595654 28.368455 201 201 201 0
2.826852 -7.610754 28.424852 202 202 202 0
2.941616 -7.626412 28.483330 201 201 201 0
3.058149 -7.645371 28.554141 201 201 201 0
3.173442 -7.660032 28.608897 201 201 201 0
3.289036 -7.674418 28.662627 201 201 201 0
3.407154 -7.693573 28.734166 202 202 202 0
3.524173 -7.709129 28.792264 201 201 201 0
3.640384 -7.722028 28.840439 201 201 201 0
3.732257 -7.684059 28.698634 167 167 167 0
-7.121941 -6.142674 23.274318 203 203 203 0
-7.029259 -6.139480 23.262214 203 203 203 0
-6.965475 -6.161766 23.346657 203 203 203 0
-6.901809 -6.184738 23.433695 203 203 203 0
-6.820858 -6.192621 23.463564 203 203 203 0
-6.758122 -6.217472 23.557722 203 203 203 0
-6.647331 -6.198187 23.484654 203 203 203 0
-6.578209 -6.217759 23.558811 203 203 203 0
-6.502279 -6.231351 23.610309 203 203 203 0
-6.430595 -6.249452 23.678893 203 203 203 0
-6.339031 -6.248473 23.675186 202 202 202 0
-6.274689 -6.274689 23.774515 203 203 203 0
-6.190380 -6.281415 23.800000 203 203 203 0
-6.090010 -6.271801 23.763573 203 203 203 0
-6.035241 -6.309570 23.906678 203 203 203 0
-5.947600 -6.313607 23.921973 203 203 203 0
-5.864526 -6.322693 23.956399 203 203 203 0
-5.780652 -6.331190 23.988594 203 203 203 0
-5.697551 -6.340823 24.025096 203 203 203 0
-5.614122 -6.350400 24.061383 203 203 203 0
-5.520858 -6.348987 24.056028 203 203 203 0
-5.452436 -6.376578 24.160567 203 203 203 0
-5.362732 -6.379801 24.172782 204 204 204 0
-5.288140 -6.401433 24.254743 203 203 203 0
-5.202858 -6.410664 24.289718 204 204 204 0
-5.119319 -6.422418 24.334255 203 203 203 0
-5.033064 -6.431137 24.367289 204 204 204 0
-4.947499 -6.441084 24.404977 204 204 204 0
-4.857186 -6.445112 24.420241 203 203 203 0
-4.779651 -6.466587 24.501607 203 203 203 0
-4.687908 -6.469313 24.511938 203 203 203 0
-4.604900 -6.484451 24.569294 203 203 203 0
-4.516560 -6.492555 24.600000 202 202 202 0
-4.436901 -6.513749 24.680302 203 203 203 0
-4.344784 -6.517176 24.693287 203 203 203 0
-4.262255 -6.535458 24.762558 203 203 203 0
-4.178256 -6.552265 24.826237 203 203 203 0
-4.085946 -6.556518 24.842353 203 203 203 0
-3.997096 -6.566657 24.880770 203 203 203 0
-3.909455 -6.579326 24.928772 203 203 203 0
-3.820038 -6.589565 24.967567 203 203 203 0
-3.734035 -6.606369 25.031236 203 203 203 0
-3.645106 -6.618745 25.078129 203 203 203 0
-3.552904 -6.625685 25.104425 203 203 203 0
-3.467293 -6.645646 25.180054 203 203 203 0
-3.376336 -6.656205 25.220063 203 203 203 0
-3.282004 -6.660538 25.236479 203 203 203 0
-3.196394 -6.683369 25.322984 203 203 203 0
-3.102708 -6.690213 25.348918 203 203 203 0
-3.012558 -6.705371 25.406349 203 203 203 0
-2.919388 -6.714593 25.441294 202 202 202 0
-2.825639 -6.723071 25.473416 203 203 203 0
-2.735053 -6.739953 25.537380 203 203 203 0
-2.641538 -6.750596 25.577706 202 202 202 0
-2.549443 -6.765828 25.635420 203 203 203 0
-2.456455 -6.779816 25.688420 202 202 202 0
-2.361085 -6.788120 25.719884 203 203 203 0
-2.267054 -6.801163 25.769301 203 203 203 0
-2.173387 -6.816533 25.827537 203 203 203 0
-2.078808 -6.830370 25.879967 203 203 203 0
-1.981119 -6.834859 25.896975 203 203 203 0
-1.889879 -6.863245 26.004526 203 203 203 0
-1.791720 -6.868258 26.023523 203 203 203 0
-1.695566 -6.882004 26.075604 203 203 203 0
-1.598567 -6.893821 26.120378 203 203 203 0
-1.500390 -6.901795 26.150593 203 203 203 0
-1.403721 -6.918339 26.213277 203 203 203 0
-1.306672 -6.935412 26.277964 203 203 203 0
-1.207346 -6.942242 26.303845 202 202 202 0
-1.110160 -6.963730 26.385260 203 203 203 0
-1.010254 -6.970755 26.411879 203 203 203 0
-0.911722 -6.989869 26.484299 202 202 202 0
-0.811571 -6.999797 26.521917 203 203 203 0
-0.712429 -7.022519 26.608010 202 202 202 0
-0.610845 -7.024720 26.616349 202 202 202 0
-0.509988 -7.037833 26.666033 202 202 202 0
-0.409021 -7.055613 26.733402 203 203 203 0
-0.307287 -7.067594 26.778798 203 203 203 0
-0.205116 -7.076494 26.812517 202 202 202 0
-0.102861 -7.097398 26.891723 203 203 203 0
0.000000 -7.116607 26.964505 202 202 202 0
0.103200 -7.120803 26.980405 203 203 203 0
0.206763 -7.133330 27.027868 202 202 202 0
0.310866 -7.149927 27.090752 202 202 202 0
0.415539 -7.168056 27.159444 202 202 202 0
0.520102 -7.177404 27.194863 203 203 203 0
0.625335 -7.191348 27.247694 202 202 202 0
0.731022 -7.205792 27.302423 203 203 203 0
0.837882 -7.226731 27.381760 202 202 202 0
0.943182 -7.231065 27.398183 202 202 202 0
1.050014 -7.245100 27.451359 202 202 202 0
1.157902 -7.263201 27.519944 202 202 202 0
1.266134 -7.280272 27.584625 202 202 202 0
1.373978 -7.292654 27.631538 202 202 202 0
1.482564 -7.306923 27.685602 202 202 202 0
1.591603 -7.321375 27.740363 202 202 202 0
1.701583 -7.338078 27.803651 201 201 201 0
1.812625 -7.357125 27.875819 202 202 202 0
1.920692 -7.362651 27.896755 202 202 202 0
2.031998 -7.379361 27.960068 202 202 202 0
2.144237 -7.397618 28.029241 201 201 201 0
2.257714 -7.418202 28.107236 201 201 201 0
2.368360 -7.428037 28.144499 202 202 202 0
2.480895 -7.442685 28.200000 201 201 201 0
2.593668 -7.456795 28.253461 202 202 202 0
2.707672 -7.473175 28.315525 202 202 202 0
2.820051 -7.483982 28.356473 201 201 201 0
2.935416 -7.501618 28.423293 201 201 201 0
3.052930 -7.523291 28.505414 201 201 201 0
3.168889 -7.539770 28.567852 201 201 201 0
3.283529 -7.552118 28.614635 201 201 201 0
3.399647 -7.566956 28.670856 201 201 201 0
3.517485 -7.584576 28.737620 201 201 201 0
3.630637 -7.591331 28.763213 201 201 201 0
3.728003 -7.565654 28.665923 172 172 172 0
-7.133133 -6.063163 23.310894 203 203 203 0
-7.032528 -6.053315 23.273029 203 203 203 0
-6.942803 -6.052700 23.270665 203 203 203 0
-6.883673 -6.079088 23.372118 203 203 203 0
-6.815047 -6.097674 23.443574 203 203 203 0
-6.740526 -6.111410 23.496387 202 202 202 0
-6.649325 -6.110190 23.491697 202 202 202 0
-6.563354 -6.113809 23.505610 203 203 203 0
-6.487358 -6.126950 23.556131 203 203 203 0
-6.412965 -6.141995 23.613976 203 203 203 0
-6.335319 -6.154309 23.661321 203 203 203 0
-6.252695 -6.162076 23.691180 202 202 202 0
-6.164959 -6.164959 23.702266 203 203 203 0
-6.088682 -6.179558 23.758392 203 203 203 0
-6.007980 -6.190040 23.798691 203 203 203 0
-5.937931 -6.211989 23.883081 203 203 203 0
-5.846350 -6.211747 23.882148 203 203 203 0
-5.768198 -6.225992 23.936916 203 203 203 0
-5.693885 -6.244906 24.009636 204 204 204 0
-5.605366 -6.248604 24.023854 203 203 203 0
-5.524374 -6.260957 24.071347 203 203 203 0
-5.441711 -6.271803 24.113044 203 203 203 0
-5.360029 -6.284172 24.160598 203 203 203 0
-5.272980 -6.290573 24.185208 203 203 203 0
-5.192575 -6.305270 24.241714 203 203 203 0
-5.111260 -6.319376 24.295948 202 202 202 0
-5.018539 -6.319641 24.296968 203 203 203 0
-4.941401 -6.339911 24.374898 204 204 204 0
-4.858237 -6.353080 24.425527 203 203 203 0
-4.766182 -6.354909 24.432561 203 203 203 0
-4.685098 -6.371733 24.497245 203 203 203 0
-4.597879 -6.380730 24.531833 203 203 203 0
-4.507588 -6.385750 24.551134 202 202 202 0
-4.429231 -6.408248 24.637633 203 203 203 0
-4.341864 -6.418408 24.676692 203 203 203 0
-4.256319 -6.431770 24.728068 203 203 203 0
-4.165032 -6.436867 24.747664 203 203 203 0
-4.074863 -6.443969 24.774968 203 203 203 0
-3.994887 -6.467912 24.867022 203 203 203 0
-3.906882 -6.479707 24.912370 204 204 204 0
-3.817108 -6.489083 24.948418 203 203 203 0
-3.725029 -6.494922 24.970864 203 203 203 0
-3.637409 -6.509048 25.025176 202 202 202 0
-3.547319 -6.519398 25.064966 202 202 202 0
-3.463316 -6.541819 25.151167 203 203 203 0
-3.370760 -6.548905 25.178413 202 202 202 0
-3.277834 -6.555668 25.204414 202 202 202 0
-3.186801 -6.566741 25.246988 203 203 203 0
-3.098408 -6.584116 25.313788 203 203 203 0
-3.007532 -6.597166 25.363960 203 203 203 0
-2.916083 -6.609789 25.412491 203 203 203 0
-2.823073 -6.619619 25.450283 203 203 203 0
-2.729245 -6.628165 25.483142 203 203 203 0
-2.638560 -6.645262 25.548872 203 203 203 0
-2.546218 -6.659340 25.602998 203 203 203 0
-2.452220 -6.670037 25.644127 202 202 202 0
-2.357606 -6.679884 25.681983 203 203 203 0
-2.263975 -6.693491 25.734298 203 203 203 0
-2.168877 -6.703801 25.773935 202 202 202 0
-2.073194 -6.713199 25.810069 203 203 203 0
-1.979623 -6.730718 25.877423 202 202 202 0
-1.883493 -6.740924 25.916662 203 203 203 0
-1.787631 -6.753274 25.964144 203 203 203 0
-1.691260 -6.765041 26.009383 203 203 203 0
-1.594135 -6.775075 26.047962 203 203 203 0
-1.497505 -6.788687 26.100296 203 203 203 0
-1.400646 -6.803138 26.155854 203 203 203 0
-1.304555 -6.823824 26.235388 203 203 203 0
-1.206199 -6.835126 26.278840 203 203 203 0
-1.107324 -6.845275 26.317858 203 203 203 0
-1.008670 -6.858956 26.370457 203 203 203 0
-0.910210 -6.877144 26.440385 203 203 203 0
-0.810407 -6.888462 26.483898 203 203 203 0
-0.710715 -6.904087 26.543971 203 203 203 0
-0.609744 -6.910436 26.568380 202 202 202 0
-0.509494 -6.929114 26.640193 203 203 203 0
-0.408280 -6.940758 26.684961 202 202 202 0
-0.306849 -6.955246 26.740662 202 202 202 0
-0.204868 -6.965525 26.780181 203 203 203 0
-0.102600 -6.976786 26.823474 203 203 203 0
0.000000 -6.998332 26.906313 202 202 202 0
0.103051 -7.007466 26.941431 202 202 202 0
0.206550 -7.022700 27.000000 202 202 202 0
0.310209 -7.031399 27.033446 202 202 202 0
0.414770 -7.051090 27.109149 203 203 203 0
0.519749 -7.068582 27.176401 203 203 203 0
0.624013 -7.072152 27.190128 203 203 203 0
0.729436 -7.085949 27.243173 203 203 203 0
0.836039 -7.106330 27.321530 203 203 203 0
0.941900 -7.116582 27.360944 202 202 202 0
1.048637 -7.130728 27.415334 203 203 203 0
1.156589 -7.149824 27.488750 202 202 202 0
1.264168 -7.163617 27.541781 202 202 202 0
1.372453 -7.178987 27.600873 202 202 202 0
1.480040 -7.188767 27.638475 202 202 202 0
1.587970 -7.198798 27.677038 202 202 202 0
1.699718 -7.223802 27.773171 201 201 201 0
1.809138 -7.236552 27.822192 202 202 202 0
1.918569 -7.247929 27.865931 202 202 202 0
2.029256 -7.262599 27.922332 202 202 202 0
2.142294 -7.283800 28.003847 202 202 202 0
2.254094 -7.298972 28.062177 202 202 202 0
2.362515 -7.302319 28.075042 202 202 202 0
2.476723 -7.322484 28.152572 202 202 202 0
2.589432 -7.336724 28.207319 201 201 201 0
2.704148 -7.355282 28.278670 202 202 202 0
2.815631 -7.363959 28.312030 201 201 201 0
2.930588 -7.380741 28.376553 201 201 201 0
3.046036 -7.397515 28.441042 202 202 202 0
3.163382 -7.417585 28.518204 201 201 201 0
3.277070 -7.428026 28.558346 201 201 201 0
3.392424 -7.441447 28.609946 202 202 202 0
3.511491 -7.461919 28.688655 201 201 201 0
3.624310 -7.468275 28.713090 201 201 201 0
3.723785 -7.447570 28.633485 179 179 179 0
-7.102965 -5.948733 23.212302 203 203 203 0
-7.042377 -5.972649 23.305625 203 203 203 0
-6.955615 -5.974695 23.313607 203 203 203 0
-6.871919 -5.979462 23.332208 203 203 203 0
-6.800276 -5.994980 23.392761 203 203 203 0
-6.726708 -6.009193 23.448221 203 203 203 0
-6.639381 -6.011332 23.456567 203 203 203 0
-6.557563 -6.018585 23.484870 203 203 203 0
-6.467221 -6.018109 23.483012 204 204 204 0
-6.405643 -6.044761 23.587012 203 203 203 0
-6.333505 -6.062070 23.654549 203 203 203 0
-6.237633 -6.056832 23.634112 203 203 203 0
-6.153067 -6.062580 23.656542 204 204 204 0
-6.078572 -6.078572 23.718943 203 203 203 0
-6.008310 -6.099345 23.800000 203 203 203 0
-5.924197 -6.106480 23.827843 203 203 203 0
-5.832283 -6.105672 23.824687 203 203 203 0
-5.757044 -6.122571 23.890629 203 203 203 0
-5.675817 -6.133544 23.933446 203 203 203 0
-5.600059 -6.150884 24.001110 203 203 203 0
-5.525182 -6.169787 24.074869 203 203 203 0
-5.433526 -6.170275 24.076775 204 204 204 0
-5.351277 -6.181648 24.121150 204 204 204 0
-5.260944 -6.183917 24.130005 203 203 203 0
-5.179000 -6.196304 24.178340 203 203 203 0
-5.098187 -6.210518 24.233805 203 203 203 0
-5.015912 -6.223446 24.284249 203 203 203 0
-4.937076 -6.241209 24.353562 204 204 204 0
-4.846147 -6.244074 24.364742 203 203 203 0
-4.766155 -6.261419 24.432424 203 203 203 0
-4.674996 -6.264495 24.444426 203 203 203 0
-4.590416 -6.276692 24.492018 203 203 203 0
-4.504944 -6.288151 24.536733 203 203 203 0
-4.418902 -6.299286 24.580181 203 203 203 0
-4.335119 -6.314194 24.638355 203 203 203 0
-4.253796 -6.333430 24.713411 203 203 203 0
-4.154357 -6.325952 24.684236 204 204 204 0
-4.072125 -6.344940 24.758324 203 203 203 0
-3.987737 -6.361390 24.822517 203 203 203 0
-3.897011 -6.368286 24.849422 204 204 204 0
-3.806919 -6.376589 24.881822 203 203 203 0
-3.727020 -6.402829 24.984213 203 203 203 0
-3.631122 -6.402241 24.981918 203 203 203 0
-3.545305 -6.419876 25.050733 203 203 203 0
-3.455093 -6.430313 25.091455 203 203 203 0
-3.369351 -6.449900 25.167885 203 203 203 0
-3.275089 -6.453852 25.183308 203 203 203 0
-3.183439 -6.463345 25.220351 203 203 203 0
-3.095106 -6.480377 25.286810 204 204 204 0
-3.001967 -6.488123 25.317034 204 204 204 0
-2.906596 -6.491397 25.329809 203 203 203 0
-2.817495 -6.509385 25.400000 203 203 203 0
-2.725369 -6.521418 25.446952 203 203 203 0
-2.632974 -6.533677 25.494787 203 203 203 0
-2.541311 -6.548763 25.553654 203 203 203 0
-2.447314 -6.558802 25.592827 203 203 203 0
-2.355757 -6.576489 25.661844 204 204 204 0
-2.259008 -6.580589 25.677843 204 204 204 0
-2.167829 -6.602026 25.761491 203 203 203 0
-2.070334 -6.605353 25.774471 203 203 203 0
-1.973901 -6.612567 25.802624 203 203 203 0
-1.879986 -6.629423 25.868397 203 203 203 0
-1.785953 -6.647716 25.939774 203 203 203 0
-1.690798 -6.663732 26.002270 203 203 203 0
-1.594301 -6.676135 26.050668 203 203 203 0
-1.497570 -6.689145 26.101435 203 203 203 0
-1.399011 -6.695268 26.125325 202 202 202 0
-1.301740 -6.708969 26.178788 203 203 203 0
-1.204545 -6.725375 26.242805 204 204 204 0
-1.105686 -6.734635 26.278940 203 203 203 0
-1.006835 -6.745793 26.322479 203 203 203 0
-0.908403 -6.762553 26.387877 203 203 203 0
-0.809291 -6.777810 26.447409 203 203 203 0
-0.708779 -6.784025 26.471662 203 203 203 0
-0.609118 -6.801817 26.541087 203 203 203 0
-0.508257 -6.810642 26.575522 203 203 203 0
-0.407576 -6.826891 26.638926 202 202 202 0
-0.306240 -6.839355 26.687561 203 203 203 0
-0.204459 -6.849387 26.726707 203 203 203 0
-0.102459 -6.864773 26.786745 202 202 202 0
0.000000 -6.884000 26.861769 203 203 203 0
0.102876 -6.892663 26.895574 202 202 202 0
0.205947 -6.899212 26.921128 203 203 203 0
0.309661 -6.915770 26.985737 203 203 203 0
0.413973 -6.934040 27.057028 203 203 203 0
0.518528 -6.948277 27.112580 202 202 202 0
0.622943 -6.956200 27.143497 203 203 203 0
0.728499 -6.972773 27.208165 203 203 203 0
0.835099 -6.993954 27.290815 202 202 202 0
0.940432 -7.000991 27.318274 202 202 202 0
1.047316 -7.017017 27.380808 203 203 203 0
1.154133 -7.029721 27.430381 202 202 202 0
1.261525 -7.043514 27.484202 202 202 202 0
1.370842 -7.065109 27.568468 202 202 202 0
1.477781 -7.072236 27.596277 203 203 203 0
1.585434 -7.081606 27.632840 202 202 202 0
1.694661 -7.096392 27.690536 202 202 202 0
1.804469 -7.111730 27.750387 202 202 202 0
1.915265 -7.129044 27.817945 202 202 202 0
2.025096 -7.141129 27.865103 201 201 201 0
2.136677 -7.157867 27.930416 202 202 202 0
2.249686 -7.177570 28.007298 202 202 202 0
2.356933 -7.177932 28.008711 202 202 202 0
2.471911 -7.200783 28.097877 202 202 202 0
2.586388 -7.220333 28.174160 202 202 202 0
2.695636 -7.224304 28.189656 202 202 202 0
2.809666 -7.240292 28.252043 201 201 201 0
2.925194 -7.258815 28.324320 201 201 201 0
3.041247 -7.277270 28.396331 201 201 201 0
3.156255 -7.292038 28.453957 201 201 201 0
3.268334 -7.299279 28.482213 201 201 201 0
3.387344 -7.321034 28.567100 201 201 201 0
3.501760 -7.331809 28.609148 202 202 202 0
3.618238 -7.346121 28.664991 202 202 202 0
3.720180 -7.330943 28.605766 182 182 182 0
3.801979 -7.278074 28.399471 80 80 80 0
-7.089273 -5.848651 23.167560 203 203 203 0
-7.014257 -5.860012 23.212564 203 203 203 0
-6.948141 -5.879197 23.288558 204 204 204 0
-6.872776 -5.890951 23.335119 203 203 203 0
-6.783527 -5.890958 23.335147 204 204 204 0
-6.707577 -5.902668 23.381533 203 203 203 0
-6.631490 -5.914572 23.428687 203 203 203 0
-6.559035 -5.930086 23.490143 203 203 203 0
-6.462739 -5.924178 23.466737 203 203 203 0
-6.395845 -5.945433 23.550935 203 203 203 0
-6.314035 -5.953233 23.581831 203 203 203 0
-6.222232 -5.951700 23.575757 203 203 203 0
-6.156080 -5.975019 23.668128 204 204 204 0
-6.077848 -5.987134 23.716119 204 204 204 0
-5.995157 -5.995157 23.747898 203 203 203 0
-5.917275 -6.008310 23.800000 203 203 203 0
-5.832283 -6.014542 23.824687 203 203 203 0
-5.751633 -6.025520 23.868173 203 203 203 0
-5.666170 -6.031730 23.892769 203 203 203 0
-5.587867 -6.045889 23.948857 203 203 203 0
-5.504541 -6.054995 23.984928 203 203 203 0
-5.430311 -6.074585 24.062527 203 203 203 0
-5.339052 -6.075473 24.066045 203 203 203 0
-5.265767 -6.097204 24.152125 203 203 203 0
-5.169935 -6.093138 24.136019 204 204 204 0
-5.092816 -6.111379 24.208276 203 203 203 0
-5.012601 -6.126513 24.268222 203 203 203 0
-4.925240 -6.133318 24.295178 204 204 204 0
-4.842141 -6.145795 24.344602 203 203 203 0
-4.753883 -6.152083 24.369513 203 203 203 0
-4.670835 -6.165503 24.422668 203 203 203 0
-4.589394 -6.181633 24.486565 203 203 203 0
-4.497648 -6.184266 24.496993 204 204 204 0
-4.413446 -6.197605 24.549831 203 203 203 0
-4.331746 -6.215113 24.619185 203 203 203 0
-4.241243 -6.220489 24.640480 203 203 203 0
-4.156870 -6.235304 24.699166 204 204 204 0
-4.066348 -6.241371 24.723196 204 204 204 0
-3.980524 -6.255109 24.777617 204 204 204 0
-3.892819 -6.266489 24.822695 203 203 203 0
-3.808521 -6.284059 24.892291 203 203 203 0
-3.716406 -6.289302 24.913060 204 204 204 0
-3.627140 -6.299769 24.954521 204 204 204 0
-3.534368 -6.304548 24.973452 203 203 203 0
-3.449677 -6.324407 25.052118 203 203 203 0
-3.359032 -6.334174 25.090806 203 203 203 0
-3.269735 -6.347132 25.142135 203 203 203 0
-3.177934 -6.355869 25.176742 203 203 203 0
-3.089405 -6.371898 25.240239 204 204 204 0
-2.996351 -6.379327 25.269667 203 203 203 0
-2.907473 -6.396442 25.337459 203 203 203 0
-2.814362 -6.405101 25.371760 203 203 203 0
-2.723524 -6.419736 25.429732 204 204 204 0
-2.629814 -6.428433 25.464184 203 203 203 0
-2.538916 -6.444940 25.529569 203 203 203 0
-2.446118 -6.457752 25.580322 203 203 203 0
-2.349974 -6.462428 25.598844 203 203 203 0
-2.254802 -6.470302 25.630034 204 204 204 0
-2.162171 -6.486513 25.694249 204 204 204 0
-2.066797 -6.495649 25.730437 203 203 203 0
-1.971117 -6.504686 25.766237 204 204 204 0
-1.877760 -6.522745 25.837768 203 203 203 0
-1.782778 -6.536854 25.893658 203 203 203 0
-1.687763 -6.552493 25.955606 203 203 203 0
-1.590062 -6.559006 25.981404 203 203 203 0
-1.494138 -6.574207 26.041618 203 203 203 0
-1.396789 -6.584861 26.083823 203 203 203 0
-1.299647 -6.598207 26.136688 203 203 203 0
-1.201501 -6.608255 26.176492 203 203 203 0
-1.103742 -6.622455 26.232738 203 203 203 0
-1.005533 -6.636516 26.288438 203 203 203 0
-0.906640 -6.648696 26.336686 203 203 203 0
-0.807744 -6.663891 26.396876 203 203 203 0
-0.707374 -6.669529 26.419210 203 203 203 0
-0.607727 -6.684996 26.480475 203 203 203 0
-0.507221 -6.695319 26.521367 202 202 202 0
-0.406786 -6.711967 26.587311 203 203 203 0
-0.305825 -6.728152 26.651424 203 203 203 0
-0.204156 -6.737133 26.686999 203 203 203 0
-0.102290 -6.751143 26.742495 203 203 203 0
0.000000 -6.771491 26.823099 203 203 203 0
0.102663 -6.775743 26.839942 203 203 203 0
0.205608 -6.785052 26.876816 203 203 203 0
0.309197 -6.802331 26.945262 202 202 202 0
0.413377 -6.820723 27.018113 202 202 202 0
0.517498 -6.830977 27.058733 202 202 202 0
0.622285 -6.845140 27.114836 202 202 202 0
0.727221 -6.856653 27.160438 203 203 203 0
0.833365 -6.875262 27.234154 203 203 203 0
0.939348 -6.888548 27.286783 202 202 202 0
1.044771 -6.895488 27.314272 202 202 202 0
1.151419 -6.908516 27.365877 202 202 202 0
1.259470 -6.927086 27.439439 202 202 202 0
1.367554 -6.942967 27.502347 202 202 202 0
1.474099 -6.949324 27.527527 202 202 202 0
1.584035 -6.969754 27.608451 202 202 202 0
1.693832 -6.987056 27.676988 203 203 203 0
1.802805 -6.999124 27.724791 202 202 202 0
1.912284 -7.011707 27.774637 202 202 202 0
2.022533 -7.025641 27.829832 202 202 202 0
2.133982 -7.042139 27.895183 202 202 202 0
2.245158 -7.056210 27.950920 203 203 203 0
2.354108 -7.062324 27.975139 203 203 203 0
2.466644 -7.078197 28.038015 202 202 202 0
2.581470 -7.099041 28.120583 201 201 201 0
2.694132 -7.112508 28.173928 202 202 202 0
2.807733 -7.127322 28.232608 202 202 202 0
2.920962 -7.140130 28.283342 201 201 201 0
3.036324 -7.157048 28.350360 201 201 201 0
3.152055 -7.173642 28.416091 202 202 202 0
3.261637 -7.175601 28.423850 201 201 201 0
3.379961 -7.196045 28.504834 202 202 202 0
3.498276 -7.215195 28.580690 202 202 202 0
3.614606 -7.229212 28.636214 201 201 201 0
3.716018 -7.213446 28.573761 187 187 187 0
3.796252 -7.158647 28.356691 84 84 84 0
-7.079004 -5.751691 23.134000 203 203 203 0
-7.009560 -5.767359 23.197021 204 204 204 0
-6.926267 -5.771889 23.215240 203 203 203 0
-6.860862 -5.791637 23.294667 203 203 203 0
-6.772157 -5.791976 23.296034 204 204 204 0
-6.683338 -5.792226 23.297039 203 203 203 0
-6.616119 -5.811456 23.374381 203 203 203 0
-6.537041 -5.820653 23.411375 204 204 204 0
-6.462058 -5.833802 23.464263 203 203 203 0
-6.387678 -5.847875 23.520863 203 203 203 0
-6.311487 -5.860666 23.572312 203 203 203 0
-6.229490 -5.868360 23.603260 203 203 203 0
-6.141364 -5.870421 23.611550 203 203 203 0
-6.062670 -5.881695 23.656892 203 203 203 0
-5.989191 -5.898445 23.724265 203 203 203 0
-5.905683 -5.905683 23.753377 204 204 204 0
-5.820637 -5.911584 23.777111 203 203 203 0
-5.746178 -5.928597 23.845537 203 203 203 0
-5.666141 -5.940309 23.892647 203 203 203 0
-5.584369 -5.950557 23.933866 203 203 203 0
-5.499120 -5.957380 23.961307 204 204 204 0
-5.424583 -5.976236 24.037148 204 204 204 0
-5.337598 -5.981790 24.059489 204 204 204 0
-5.251844 -5.988944 24.088263 203 203 203 0
-5.165357 -5.995504 24.114646 203 203 203 0
-5.081413 -6.005307 24.154073 203 203 203 0
-4.995708 -6.013353 24.186437 204 204 204 0
-4.919962 -6.033915 24.269141 203 203 203 0
-4.831357 -6.039196 24.290382 204 204 204 0
-4.745518 -6.048210 24.326635 204 204 204 0
-4.662890 -6.061758 24.381126 204 204 204 0
-4.577673 -6.072423 24.424024 203 203 203 0
-4.501780 -6.096160 24.519498 204 204 204 0
-4.405864 -6.093216 24.507654 203 203 203 0
-4.324920 -6.111301 24.580395 203 203 203 0
-4.236849 -6.119893 24.614954 204 204 204 0
-4.151759 -6.133280 24.668800 203 203 203 0
-4.056317 -6.131642 24.662211 203 203 203 0
-3.968403 -6.141575 24.702163 203 203 203 0
-3.886477 -6.161488 24.782255 203 203 203 0
-3.798675 -6.172846 24.827939 204 204 204 0
-3.712085 -6.186809 24.884098 204 204 204 0
-3.617573 -6.187954 24.888706 203 203 203 0
-3.530400 -6.202053 24.945414 203 203 203 0
-3.442500 -6.215625 25.000000 204 204 204 0
-3.351644 -6.224482 25.035624 203 203 203 0
-3.262216 -6.236590 25.084323 203 203 203 0
-3.172329 -6.248527 25.132335 204 204 204 0
-3.086102 -6.268645 25.213253 203 203 203 0
-2.994346 -6.278468 25.252764 203 203 203 0
-2.899671 -6.282621 25.269466 203 203 203 0
-2.810527 -6.299456 25.337180 203 203 203 0
-2.717929 -6.309479 25.377492 204 204 204 0
-2.624843 -6.319066 25.416051 203 203 203 0
-2.533385 -6.333462 25.473955 204 204 204 0
-2.441100 -6.346859 25.527840 203 203 203 0
-2.347376 -6.357476 25.570544 203 203 203 0
-2.252626 -6.366116 25.605293 203 203 203 0
-2.160456 -6.383167 25.673873 204 204 204 0
-2.065292 -6.392571 25.711698 203 203 203 0
-1.968309 -6.397003 25.729526 204 204 204 0
-1.875015 -6.414525 25.800000 203 203 203 0
-1.778356 -6.421839 25.829420 203 203 203 0
-1.683655 -6.437503 25.892420 204 204 204 0
-1.588442 -6.453047 25.954939 203 203 203 0
-1.491121 -6.461526 25.989042 203 203 203 0
-1.395019 -6.476872 26.050767 203 203 203 0
-1.297520 -6.487598 26.093910 203 203 203 0
-1.200119 -6.500645 26.146386 203 203 203 0
-1.101954 -6.511546 26.190231 203 203 203 0
-1.003062 -6.519902 26.223839 203 203 203 0
-0.905692 -6.541110 26.309141 203 203 203 0
-0.806797 -6.555224 26.365907 203 203 203 0
-0.705903 -6.554815 26.364263 203 203 203 0
-0.607055 -6.576425 26.451183 202 202 202 0
-0.506644 -6.586376 26.491206 203 203 203 0
-0.406371 -6.603536 26.560223 202 202 202 0
-0.305012 -6.608601 26.580596 203 203 203 0
-0.203841 -6.624836 26.645898 202 202 202 0
-0.102082 -6.635323 26.688075 202 202 202 0
0.000000 -6.655010 26.767258 203 203 203 0
0.102548 -6.665603 26.809866 202 202 202 0
0.205336 -6.673424 26.841322 202 202 202 0
0.308623 -6.686823 26.895214 203 203 203 0
0.412586 -6.704516 26.966381 202 202 202 0
0.516896 -6.719644 27.027225 203 203 203 0
0.621231 -6.730003 27.068893 202 202 202 0
0.725777 -6.739360 27.106527 203 203 203 0
0.831474 -6.755724 27.172345 203 203 203 0
0.937256 -6.769069 27.226017 203 203 203 0
1.043958 -6.785727 27.293019 202 202 202 0
1.149988 -6.795385 27.331865 203 203 203 0
1.256260 -6.804744 27.369508 203 203 203 0
1.365413 -6.827066 27.459288 203 203 203 0
1.472157 -6.835015 27.491261 202 202 202 0
1.580741 -6.849877 27.551040 202 202 202 0
1.689634 -6.864139 27.608403 202 202 202 0
1.800099 -6.882732 27.683184 202 202 202 0
1.908411 -6.891485 27.718391 202 202 202 0
2.018402 -6.905061 27.772994 202 202 202 0
2.128439 -6.917428 27.822736 202 202 202 0
2.241196 -6.937036 27.901602 202 202 202 0
2.350276 -6.943997 27.929600 202 202 202 0
2.462781 -6.960032 27.994097 202 202 202 0
2.574389 -6.972303 28.043449 202 202 202 0
2.689341 -6.992288 28.123832 202 202 202 0
2.801177 -7.002943 28.166688 201 201 201 0
2.914324 -7.015966 28.219067 202 202 202 0
3.030394 -7.034842 28.294992 202 202 202 0
3.143567 -7.045927 28.339575 202 202 202 0
3.256748 -7.056287 28.381245 201 201 201 0
3.373245 -7.072933 28.448197 202 202 202 0
3.491099 -7.091294 28.522049 201 201 201 0
3.608891 -7.108422 28.590938 201 201 201 0
3.710694 -7.093974 28.532826 188 188 188 0
3.789561 -7.037755 28.306709 83 83 83 0
-7.085874 -5.668699 23.156450 203 203 203 0
-7.006652 -5.676275 23.187399 203 203 203 0
-6.909207 -5.669093 23.158059 204 204 204 0
-6.839530 -5.684804 23.222238 203 203 203 0
-6.764212 -5.696178 23.268702 203 203 203 0
-6.689104 -5.708035 23.317137 203 203 203 0
-6.609359 -5.716203 23.350500 203 203 203 0
-6.533865 -5.728320 23.400000 203 203 203 0
-6.446921 -5.730596 23.409298 203 203 203 0
-6.378109 -5.749282 23.485628 203 203 203 0
-6.299393 -5.759445 23.527146 203 203 203 0
-6.213969 -5.763681 23.544450 203 203 203 0
-6.118990 -5.759050 23.525529 204 204 204 0
-6.046599 -5.775855 23.594180 203 203 203 0
-5.974580 -5.793532 23.666388 204 204 204 0
-5.892737 -5.802080 23.701307 204 204 204 0
-5.820403 -5.820403 23.776155 203 203 203 0
-5.735205 -5.826240 23.800000 204 204 204 0
-5.666873 -5.849675 23.895733 203 203 203 0
-5.575060 -5.849243 23.893967 204 204 204 0
-5.497648 -5.864158 23.954893 203 203 203 0
-5.420869 -5.880264 24.020688 204 204 204 0
-5.323727 -5.874458 23.996969 203 203 203 0
-5.242836 -5.886693 24.046950 204 204 204 0
-5.155826 -5.892372 24.070148 203 203 203 0
-5.082704 -5.914419 24.160208 203 203 203 0
-4.989108 -5.913017 24.154483 204 204 204 0
-4.905945 -5.924160 24.200000 204 204 204 0
-4.822714 -5.935648 24.246928 204 204 204 0
-4.742515 -5.951391 24.311239 204 204 204 0
-4.664055 -5.969990 24.387214 204 204 204 0
-4.568753 -5.967350 24.376431 204 204 204 0
-4.487126 -5.982835 24.439686 204 204 204 0
-4.396031 -5.986085 24.452962 204 204 204 0
-4.311310 -5.998345 24.503042 203 203 203 0
-4.227837 -6.012924 24.562598 204 204 204 0
-4.142431 -6.025354 24.613375 204 204 204 0
-4.056617 -6.037756 24.664034 204 204 204 0
-3.964790 -6.041585 24.679678 203 203 203 0
-3.883435 -6.061947 24.762857 204 204 204 0
-3.793083 -6.068933 24.791393 203 203 203 0
-3.708736 -6.086131 24.861648 203 203 203 0
-3.614874 -6.088209 24.870134 204 204 204 0
-3.526236 -6.099434 24.915990 203 203 203 0
-3.440648 -6.116708 24.986552 203 203 203 0
-3.349173 -6.124202 25.017165 203 203 203 0
-3.260894 -6.138153 25.074156 204 204 204 0
-3.166983 -6.142028 25.089983 203 203 203 0
-3.079142 -6.158284 25.156387 204 204 204 0
-2.990490 -6.173916 25.220245 203 203 203 0
-2.896691 -6.179608 25.243498 204 204 204 0
-2.802048 -6.183831 25.260746 203 203 203 0
-2.712899 -6.200913 25.330526 203 203 203 0
-2.618319 -6.206387 25.352887 203 203 203 0
-2.528563 -6.224156 25.425473 203 203 203 0
-2.436463 -6.237344 25.479348 203 203 203 0
-2.342347 -6.246258 25.515760 203 203 203 0
-2.248316 -6.256184 25.556308 204 204 204 0
