ply
format ascii 1.0
element vertex 1121
property float x
property float y
property float z
property uchar red
property uchar green
property uchar blue
property uchar alpha
end_header
-0.990303 1.815555 21.575227 209 209 209 0
-0.910831 1.821662 21.647794 209 209 209 0
-0.829800 1.825559 21.694110 209 209 209 0
-0.748728 1.830225 21.749551 208 208 208 0
-0.668771 1.839121 21.855275 207 207 207 0
-0.587407 1.846137 21.938649 208 208 208 0
-0.505565 1.853739 22.028983 207 207 207 0
-0.422752 1.860111 22.104702 207 207 207 0
-0.339554 1.867550 22.193104 205 205 205 0
-0.255878 1.876439 22.298742 206 206 206 0
-0.171332 1.884647 22.396286 205 205 205 0
-0.086167 1.895663 22.527192 205 205 205 0
0.000000 1.902933 22.613588 204 204 204 0
0.087043 1.914951 22.756401 203 203 203 0
0.175242 1.927659 22.907414 203 203 203 0
0.264273 1.938002 23.030331 202 202 202 0
0.354874 1.951810 23.194412 200 200 200 0
0.446970 1.966666 23.370961 199 199 199 0
0.540098 1.980360 23.533692 199 199 199 0
0.635343 1.996792 23.728963 196 196 196 0
0.734686 2.020385 24.009334 196 196 196 0
0.834978 2.041056 24.254975 194 194 194 0
0.945943 2.081074 24.730527 191 191 191 0
1.068705 2.137410 25.400000 189 189 189 0
1.173438 2.151303 25.565104 190 190 190 0
1.266301 2.142970 25.466074 189 189 189 0
1.359844 2.136898 25.393915 189 189 189 0
1.454493 2.133256 25.350638 188 188 188 0
1.555223 2.138431 25.412135 190 190 190 0
1.660169 2.148454 25.531239 189 189 189 0
1.761120 2.152480 25.579084 189 189 189 0
1.857486 2.150773 25.558803 188 188 188 0
1.950419 2.145461 25.495673 189 189 189 0
2.048709 2.146267 25.505247 189 189 189 0
2.149553 2.149553 25.544305 189 189 189 0
2.248841 2.151065 25.562268 189 189 189 0
2.339992 2.144992 25.490104 189 189 189 0
2.439555 2.146808 25.511681 190 190 190 0
2.539181 2.148538 25.532241 189 189 189 0
2.644533 2.154805 25.606709 189 189 189 0
2.744885 2.156695 25.629178 189 189 189 0
2.840569 2.154914 25.608012 189 189 189 0
2.942320 2.157701 25.641129 189 189 189 0
3.049060 2.163849 25.714187 190 190 190 0
3.154449 2.168684 25.771645 189 189 189 0
3.256102 2.170735 25.796016 189 189 189 0
3.359171 2.173581 25.829841 189 189 189 0
3.468585 2.180254 25.909135 190 190 190 0
3.575114 2.184792 25.963064 190 190 190 0
3.678530 2.187234 25.992084 188 188 188 0
3.791253 2.194936 26.083615 186 186 186 0
3.910660 2.206013 26.215252 186 186 186 0
4.023854 2.213120 26.299702 185 185 185 0
4.136506 2.219588 26.376570 185 185 185 0
4.259582 2.231210 26.514673 185 185 185 0
4.382467 2.242192 26.645186 183 183 183 0
4.504862 2.252431 26.766854 180 180 180 0
4.644548 2.270668 26.983576 178 178 178 0
4.787809 2.289822 27.211189 177 177 177 0
4.936019 2.310477 27.456647 172 172 172 0
5.100981 2.337950 27.783122 163 163 163 0
5.248995 2.356692 28.005841 133 133 133 0
5.378628 2.366596 28.123544 88 88 88 0
-6.665925 1.916453 21.784068 176 176 176 0
-6.552717 1.907753 21.685171 182 182 182 0
-6.435847 1.897750 21.571468 183 183 183 0
-6.293297 1.879816 21.367617 183 183 183 0
-6.201119 1.876654 21.331679 185 185 185 0
-6.109829 1.873681 21.297879 188 188 188 0
-6.016183 1.869895 21.254841 190 190 190 0
-5.927902 1.867695 21.229838 191 191 191 0
-5.837618 1.864795 21.196870 191 191 191 0
-5.705151 1.848147 21.007644 191 191 191 0
-5.605735 1.841884 20.936451 193 193 193 0
-5.533471 1.844490 20.966074 196 196 196 0
-5.455115 1.845112 20.973143 196 196 196 0
-5.365948 1.842042 20.938242 197 197 197 0
-5.282582 1.840900 20.925259 197 197 197 0
-5.178255 1.832305 20.827570 197 197 197 0
-5.075079 1.823857 20.731532 197 197 197 0
-4.992507 1.822661 20.717945 199 199 199 0
-4.919072 1.824817 20.742451 200 200 200 0
-4.840381 1.825062 20.745229 202 202 202 0
-4.750233 1.820923 20.698183 203 203 203 0
-4.672207 1.821369 20.703254 203 203 203 0
-4.583305 1.817517 20.659477 203 203 203 0
-4.494615 1.813617 20.615137 203 203 203 0
-4.415284 1.813420 20.612903 204 204 204 0
-4.336532 1.813459 20.613343 204 204 204 0
-4.261282 1.814991 20.630755 204 204 204 0
-4.178664 1.813383 20.612476 205 205 205 0
-4.092499 1.810144 20.575662 204 204 204 0
-4.011898 1.809287 20.565924 205 205 205 0
-3.935268 1.810223 20.576563 205 205 205 0
-3.858666 1.811210 20.587786 206 206 206 0
-3.782561 1.812477 20.602182 206 206 206 0
-3.703365 1.812285 20.600000 207 207 207 0
-3.622579 1.811289 20.588683 206 206 206 0
-3.542083 1.810398 20.578551 207 207 207 0
-3.466919 1.812253 20.599640 207 207 207 0
-3.385688 1.810949 20.584817 208 208 208 0
-3.310981 1.813156 20.609903 208 208 208 0
-3.236291 1.815480 20.636323 208 208 208 0
-3.155989 1.814693 20.627376 209 209 209 0
-3.080144 1.816495 20.647856 209 209 209 0
-3.000826 1.816289 20.645518 209 209 209 0
-2.927487 1.819789 20.685302 209 209 209 0
-2.849222 1.820336 20.691518 209 209 209 0
-2.770644 1.820709 20.695755 209 209 209 0
-2.695532 1.823448 20.726888 210 210 210 0
-2.618788 1.825216 20.746981 210 210 210 0
-2.542100 1.827134 20.768789 210 210 210 0
-2.466805 1.830210 20.803755 209 209 209 0
-2.392000 1.833866 20.845313 209 209 209 0
-2.312205 1.833818 20.844764 210 210 210 0
-2.235550 1.836345 20.873487 209 209 209 0
-2.159143 1.839270 20.906732 209 209 209 0
-2.081456 1.841288 20.929673 210 210 210 0
-2.007346 1.846758 20.991848 210 210 210 0
-1.927800 1.847475 21.000000 210 210 210 0
-1.850395 1.850395 21.033191 210 210 210 0
-1.773600 1.854218 21.076644 210 210 210 0
-1.698325 1.860070 21.143165 210 210 210 0
-1.622495 1.865869 21.209085 210 210 210 0
-1.542422 1.867142 21.223551 209 209 209 0
-1.464134 1.870838 21.265562 209 209 209 0
-1.386843 1.876317 21.327848 210 210 210 0
-1.308033 1.880297 21.373087 209 209 209 0
-1.229378 1.885046 21.427063 208 208 208 0
-1.150556 1.890200 21.485644 208 208 208 0
-1.071328 1.895426 21.545051 209 209 209 0
-0.992668 1.902614 21.626754 210 210 210 0
-0.912396 1.907738 21.685001 208 208 208 0
-0.831856 1.913269 21.747867 208 208 208 0
-0.750497 1.917936 21.800920 207 207 207 0
-0.670237 1.926931 21.903165 207 207 207 0
-0.588768 1.934525 21.989482 208 208 208 0
-0.506689 1.942307 22.077947 207 207 207 0
-0.423440 1.947825 22.140665 207 207 207 0
-0.340590 1.958393 22.260792 206 206 206 0
-0.256601 1.967273 22.361727 206 206 206 0
-0.172169 1.979945 22.505765 206 206 206 0
-0.086148 1.981401 22.522314 205 205 205 0
0.000000 1.996314 22.691828 203 203 203 0
0.087312 2.008173 22.826630 203 203 203 0
0.175807 2.021781 22.981316 202 202 202 0
0.265031 2.031905 23.096389 201 201 201 0
0.356166 2.047955 23.278834 200 200 200 0
0.449171 2.066185 23.486042 199 199 199 0
0.541726 2.076616 23.604616 197 197 197 0
0.638720 2.098651 23.855080 195 195 195 0
0.737185 2.119408 24.091023 194 194 194 0
0.840001 2.146670 24.400911 191 191 191 0
0.953628 2.193345 24.931454 188 188 188 0
1.081082 2.260445 25.694176 187 187 187 0
1.181896 2.265300 25.749361 188 188 188 0
1.275965 2.257477 25.660433 188 188 188 0
1.368664 2.248520 25.558623 187 187 187 0
1.466213 2.248193 25.554910 189 189 189 0
1.569942 2.256792 25.652653 188 188 188 0
1.671600 2.261577 25.707040 189 189 189 0
1.774704 2.267678 25.776388 187 187 187 0
1.871096 2.265012 25.746081 187 187 187 0
1.963953 2.258546 25.672586 188 188 188 0
2.064358 2.260964 25.700074 188 188 188 0
2.165468 2.263899 25.733430 188 188 188 0
2.263729 2.263729 25.731501 188 188 188 0
2.357703 2.259465 25.683040 188 188 188 0
2.455600 2.259152 25.679477 188 188 188 0
2.560311 2.264891 25.744710 189 189 189 0
2.662105 2.267719 25.776855 189 189 189 0
2.762445 2.269151 25.793140 189 189 189 0
2.858878 2.267386 25.773076 188 188 188 0
2.967899 2.275389 25.864041 189 189 189 0
3.074450 2.281043 25.928311 189 189 189 0
3.172968 2.280571 25.922944 188 188 188 0
3.277105 2.284043 25.962410 187 187 187 0
3.386170 2.290644 26.037447 186 186 186 0
3.496670 2.297812 26.118915 185 185 185 0
3.605109 2.303264 26.180894 185 185 185 0
3.716175 2.310055 26.258081 184 184 184 0
3.832225 2.319505 26.365500 184 184 184 0
3.950548 2.329811 26.482644 184 184 184 0
4.060085 2.334549 26.536500 183 183 183 0
4.180294 2.345043 26.655787 182 182 182 0
4.312969 2.361864 26.846989 180 180 180 0
4.441144 2.375495 27.001937 178 178 178 0
4.572491 2.390166 27.168691 177 177 177 0
4.717427 2.411129 27.406984 172 172 172 0
4.870779 2.435390 27.682747 166 166 166 0
5.027970 2.460496 27.968124 145 145 145 0
5.174714 2.479550 28.184714 103 103 103 0
5.328846 2.501295 28.431886 75 75 75 0
-6.678637 2.003591 21.825612 175 175 175 0
-6.566525 1.994894 21.730869 179 179 179 0
-6.454153 1.985893 21.632825 183 183 183 0
-6.322444 1.970632 21.466578 184 184 184 0
-6.207513 1.960267 21.353674 184 184 184 0
-6.128118 1.960998 21.361632 185 185 185 0
-6.027013 1.954707 21.293102 189 189 189 0
-5.932745 1.950491 21.247184 190 190 190 0
-5.853003 1.951001 21.252734 191 191 191 0
-5.733555 1.938103 21.112233 191 191 191 0
-5.627496 1.929427 21.017727 192 192 192 0
-5.542670 1.927885 21.000927 193 193 193 0
-5.450389 1.923667 20.954974 196 196 196 0
-5.381775 1.927800 21.000000 197 197 197 0
-5.288184 1.922976 20.947451 198 198 198 0
-5.179222 1.912328 20.831463 198 198 198 0
-5.092516 1.909693 20.802760 198 198 198 0
-5.014991 1.910473 20.811249 199 199 199 0
-4.924064 1.906089 20.763502 198 198 198 0
-4.855751 1.910459 20.811105 200 200 200 0
-4.762768 1.905107 20.752804 202 202 202 0
-4.681658 1.904403 20.745134 203 203 203 0
-4.580311 1.895301 20.645982 202 202 202 0
-4.499235 1.894415 20.636327 203 203 203 0
-4.428578 1.897962 20.674968 203 203 203 0
-4.346556 1.896679 20.660992 204 204 204 0
-4.277263 1.901006 20.708123 204 204 204 0
-4.181148 1.893350 20.624728 204 204 204 0
-4.101798 1.893138 20.622414 204 204 204 0
-4.026064 1.894618 20.638543 205 205 205 0
-3.942337 1.892322 20.613528 205 205 205 0
-3.860382 1.890799 20.596943 206 206 206 0
-3.792349 1.896174 20.655495 205 205 205 0
-3.705759 1.892302 20.613315 207 207 207 0
-3.623555 1.890550 20.594231 207 207 207 0
-3.544860 1.890592 20.594681 207 207 207 0
-3.472574 1.894131 20.633235 207 207 207 0
-3.396379 1.895654 20.649821 207 207 207 0
-3.318983 1.896562 20.659716 208 208 208 0
-3.240315 1.896770 20.661980 208 208 208 0
-3.162761 1.897656 20.671638 208 208 208 0
-3.083070 1.897274 20.667471 208 208 208 0
-3.006816 1.899041 20.686726 208 208 208 0
-2.929669 1.900326 20.700719 209 209 209 0
-2.854302 1.902868 20.728406 209 209 209 0
-2.777973 1.904896 20.750499 209 209 209 0
-2.700176 1.906007 20.762598 209 209 209 0
-2.623602 1.908074 20.785119 209 209 209 0
-2.546348 1.909761 20.803497 209 209 209 0
-2.470248 1.912450 20.832786 209 209 209 0
-2.394783 1.915826 20.869566 209 209 209 0
-2.313494 1.914616 20.856379 209 209 209 0
-2.240356 1.920305 20.918356 210 210 210 0
-2.161756 1.921561 20.932036 210 210 210 0
-2.085571 1.925143 20.971054 210 210 210 0
-2.007137 1.926852 20.989668 210 210 210 0
-1.930168 1.930168 21.025791 210 210 210 0
-1.853743 1.934341 21.071247 209 209 209 0
-1.778113 1.939759 21.130275 210 210 210 0
-1.702068 1.945221 21.189767 209 209 209 0
-1.623129 1.947754 21.217366 209 209 209 0
-1.543785 1.950044 21.242311 210 210 210 0
-1.467531 1.956708 21.314901 209 209 209 0
-1.388447 1.960160 21.352508 209 209 209 0
-1.310029 1.965044 21.405707 208 208 208 0
-1.231556 1.970490 21.465033 209 209 209 0
-1.152873 1.976354 21.528912 208 208 208 0
-1.073560 1.981957 21.589943 209 209 209 0
-0.994329 1.988659 21.662948 208 208 208 0
-0.914337 1.994916 21.731113 208 208 208 0
-0.833591 2.000619 21.793231 207 207 207 0
-0.752098 2.005595 21.847443 207 207 207 0
-0.671504 2.014511 21.944563 208 208 208 0
-0.589736 2.021950 22.025603 207 207 207 0
-0.507485 2.029939 22.112630 207 207 207 0
-0.424305 2.036664 22.185883 206 206 206 0
-0.341199 2.047197 22.300616 204 204 204 0
-0.257433 2.059467 22.434277 204 204 204 0
-0.172358 2.068297 22.530468 205 205 205 0
-0.086355 2.072511 22.576377 204 204 204 0
0.000000 2.090703 22.774544 203 203 203 0
0.087680 2.104313 22.922803 202 202 202 0
0.176141 2.113691 23.024959 202 202 202 0
0.265904 2.127229 23.172427 200 200 200 0
0.357730 2.146383 23.381075 199 199 199 0
0.449474 2.157476 23.501922 198 198 198 0
0.544817 2.179267 23.739295 195 195 195 0
0.642635 2.203320 24.001310 195 195 195 0
0.742192 2.226576 24.254640 192 192 192 0
0.846919 2.258451 24.601861 190 190 190 0
0.968010 2.323225 25.307462 184 184 184 0
1.091681 2.381849 25.946065 186 186 186 0
1.188314 2.376628 25.889190 186 186 186 0
1.282167 2.367078 25.785159 186 186 186 0
1.378088 2.362437 25.734606 187 187 187 0
1.476885 2.363017 25.740921 187 187 187 0
1.583310 2.374966 25.871085 186 186 186 0
1.686950 2.381576 25.943094 188 188 188 0
1.783885 2.378513 25.909730 187 187 187 0
1.881220 2.376278 25.885381 187 187 187 0
1.979433 2.375319 25.874935 187 187 187 0
2.080105 2.377263 25.896108 188 188 188 0
2.180022 2.378206 25.906380 188 188 188 0
2.277924 2.376964 25.892856 187 187 187 0
2.372324 2.372324 25.842308 187 187 187 0
2.474751 2.375761 25.879753 187 187 187 0
2.581559 2.382978 25.958362 187 187 187 0
2.680005 2.382227 25.950182 187 187 187 0
2.778711 2.381752 25.945013 186 186 186 0
2.880911 2.384202 25.971703 185 185 185 0
2.993199 2.394559 26.084522 184 184 184 0
3.097372 2.397965 26.121626 184 184 184 0
3.201628 2.401221 26.157091 183 183 183 0
3.309246 2.406724 26.217041 183 183 183 0
3.420478 2.414455 26.301255 182 182 182 0
3.532796 2.422489 26.388765 183 183 183 0
3.638332 2.425555 26.422164 184 184 184 0
3.753988 2.435020 26.525267 184 184 184 0
3.873561 2.446460 26.649886 182 182 182 0
3.989810 2.455268 26.745837 179 179 179 0
4.109704 2.465823 26.860813 177 177 177 0
4.240452 2.482216 27.039390 177 177 177 0
4.370861 2.497635 27.207352 176 176 176 0
4.509289 2.516813 27.416260 171 171 171 0
4.666048 2.545117 27.724587 165 165 165 0
4.808590 2.564581 27.936616 153 153 153 0
4.945428 2.580223 28.107007 118 118 118 0
5.025670 2.566299 27.955331 79 79 79 0
-6.700332 2.093854 21.896509 174 174 174 0
-6.578067 2.081667 21.769064 176 176 176 0
-6.467226 2.072829 21.676642 182 182 182 0
-6.344700 2.059967 21.542143 184 184 184 0
-6.228544 2.048863 21.426022 184 184 184 0
-6.134725 2.044908 21.384661 184 184 184 0
-6.046495 2.042735 21.361932 187 187 187 0
-5.954220 2.039116 21.324092 191 191 191 0
-5.853069 2.032316 21.252973 191 191 191 0
-5.735051 2.019384 21.117743 191 191 191 0
-5.630874 2.011027 21.030343 192 192 192 0
-5.537661 2.006399 20.981948 192 192 192 0
-5.471530 2.011592 21.036256 194 194 194 0
-5.398227 2.014264 21.064197 197 197 197 0
-5.294240 2.005394 20.971440 197 197 197 0
-5.192510 1.997119 20.884905 198 198 198 0
-5.100703 1.992462 20.836205 198 198 198 0
-5.019180 1.991738 20.828633 198 198 198 0
-4.939242 1.991630 20.827500 199 199 199 0
-4.856183 1.990239 20.812955 199 199 199 0
-4.774518 1.989383 20.804000 200 200 200 0
-4.686388 1.985758 20.766094 201 201 201 0
-4.601389 1.983357 20.740990 202 202 202 0
-4.512677 1.979244 20.697979 203 203 203 0
-4.433343 1.979171 20.697212 203 203 203 0
-4.357921 1.980873 20.715012 203 203 203 0
-4.277772 1.980450 20.710590 204 204 204 0
-4.200316 1.981281 20.719280 204 204 204 0
-4.108314 1.975151 20.655176 205 205 205 0
-4.025328 1.973200 20.634769 205 205 205 0
-3.949491 1.974746 20.650936 205 205 205 0
-3.869094 1.974027 20.643423 205 205 205 0
-3.792072 1.975037 20.653985 206 206 206 0
-3.710848 1.973855 20.641622 206 206 206 0
-3.629211 1.972397 20.626378 207 207 207 0
-3.553178 1.973988 20.643011 207 207 207 0
-3.481324 1.978025 20.685231 207 207 207 0
-3.400103 1.976804 20.672459 208 208 208 0
-3.322635 1.977759 20.682447 208 208 208 0
-3.240587 1.975967 20.663712 208 208 208 0
-3.168436 1.980273 20.708735 209 209 209 0
-3.087437 1.979127 20.696749 208 208 208 0
-3.010433 1.980548 20.711616 208 208 208 0
-2.937050 1.984493 20.752873 209 209 209 0
-2.859148 1.985519 20.763602 208 208 208 0
-2.779799 1.985571 20.764141 209 209 209 0
-2.700849 1.985918 20.767774 209 209 209 0
-2.627978 1.990892 20.819790 209 209 209 0
-2.550965 1.992941 20.841215 209 209 209 0
-2.473179 1.994500 20.857512 209 209 209 0
-2.396032 1.996693 20.880451 209 209 209 0
-2.318823 1.998985 20.904417 209 209 209 0
-2.243429 2.003062 20.947050 210 210 210 0
-2.167421 2.006871 20.986891 210 210 210 0
-2.089146 2.008794 21.006993 210 210 210 0
-2.012186 2.012186 21.042470 209 209 209 0
-1.933347 2.013903 21.060426 209 209 209 0
-1.857259 2.018760 21.111219 209 209 209 0
-1.781567 2.024508 21.171328 209 209 209 0
-1.705862 2.030788 21.237001 209 209 209 0
-1.626241 2.032801 21.258053 209 209 209 0
-1.547514 2.036203 21.293622 209 209 209 0
-1.468149 2.039096 21.323877 209 209 209 0
-1.391535 2.046375 21.400000 209 209 209 0
-1.312958 2.051496 21.453557 208 208 208 0
-1.234304 2.057173 21.512921 208 208 208 0
-1.154354 2.061347 21.556572 208 208 208 0
-1.075429 2.068134 21.627540 208 208 208 0
-0.996247 2.075514 21.704725 208 208 208 0
-0.915585 2.080875 21.760788 208 208 208 0
-0.836273 2.090683 21.863350 207 207 207 0
-0.754332 2.095367 21.912338 207 207 207 0
-0.673253 2.103915 22.001724 207 207 207 0
-0.591847 2.113739 22.104455 207 207 207 0
-0.508293 2.117889 22.147862 206 206 206 0
-0.425243 2.126217 22.234947 204 204 204 0
-0.341815 2.136343 22.340844 205 205 205 0
-0.258014 2.150120 22.484914 204 204 204 0
-0.172633 2.157909 22.566365 204 204 204 0
-0.086710 2.167749 22.669270 203 203 203 0
0.000000 2.182211 22.820505 202 202 202 0
0.087689 2.192228 22.925260 202 202 202 0
0.176618 2.207720 23.087267 201 201 201 0
0.266774 2.223113 23.248242 199 199 199 0
0.358971 2.243568 23.462147 199 199 199 0
0.452593 2.262964 23.664980 197 197 197 0
0.546548 2.277283 23.814729 195 195 195 0
0.645484 2.305299 24.107702 194 194 194 0
0.746188 2.331839 24.385240 190 190 190 0
0.854470 2.373528 24.821204 187 187 187 0
0.988314 2.470785 25.838276 183 183 183 0
1.102121 2.504820 26.194200 182 182 182 0
1.197052 2.493859 26.079571 180 180 180 0
1.292266 2.485127 25.988253 179 179 179 0
1.390159 2.482426 25.960012 181 181 181 0
1.492996 2.488326 26.021709 181 181 181 0
1.598215 2.497211 26.114625 182 182 182 0
1.701081 2.501589 26.160409 181 181 181 0
1.798369 2.497735 26.120102 182 182 182 0
1.896491 2.495383 26.095512 182 182 182 0
1.992534 2.490667 26.046190 183 183 183 0
2.097793 2.497372 26.116311 183 183 183 0
2.196450 2.495966 26.101607 182 182 182 0
2.294118 2.493606 26.076930 182 182 182 0
2.393463 2.493191 26.072582 182 182 182 0
2.497567 2.497567 26.118345 182 182 182 0
2.602968 2.502854 26.173634 182 182 182 0
2.701091 2.501010 26.154352 182 182 182 0
2.803981 2.503554 26.180958 181 181 181 0
2.914631 2.512613 26.275688 182 182 182 0
3.024794 2.520662 26.359862 182 182 182 0
3.126384 2.521277 26.366299 183 183 183 0
3.230728 2.524006 26.394833 183 183 183 0
3.344979 2.534075 26.500128 182 182 182 0
3.458724 2.543179 26.595338 181 181 181 0
3.561569 2.543978 26.603687 180 180 180 0
3.678401 2.554445 26.713149 179 179 179 0
3.799493 2.567225 26.846797 177 177 177 0
3.919557 2.578656 26.966337 176 176 176 0
4.041499 2.590704 27.092334 175 175 175 0
4.172608 2.607880 27.271947 173 173 173 0
4.309601 2.627805 27.480319 171 171 171 0
4.452123 2.650073 27.713182 164 164 164 0
4.607875 2.678997 28.015653 151 151 151 0
4.737382 2.691694 28.148436 121 121 121 0
4.862560 2.701422 28.250167 88 88 88 0
-6.716441 2.182843 21.949154 174 174 174 0
-6.623149 2.179770 21.918255 175 175 175 0
-6.486008 2.162003 21.739593 178 178 178 0
-6.354511 2.145679 21.575456 182 182 182 0
-6.243137 2.135810 21.476218 184 184 184 0
-6.154139 2.133435 21.452336 184 184 184 0
-6.049843 2.125620 21.373760 185 185 185 0
-5.985143 2.131695 21.434839 188 188 188 0
-5.876292 2.121994 21.337297 191 191 191 0
-5.736702 2.100764 21.123820 192 192 192 0
-5.649110 2.098241 21.098452 192 192 192 0
-5.563078 2.096232 21.078255 192 192 192 0
-5.476996 2.094146 21.057272 193 193 193 0
-5.396749 2.094261 21.058431 195 195 195 0
-5.307895 2.090989 21.025530 197 197 197 0
-5.211940 2.084776 20.963058 198 198 198 0
-5.108945 2.075509 20.869874 199 199 199 0
-5.024773 2.073716 20.851845 199 199 199 0
-4.945121 2.073761 20.852294 199 199 199 0
-4.870058 2.075763 20.872425 200 200 200 0
-4.782135 2.072259 20.837191 199 199 199 0
-4.690301 2.066912 20.783432 200 200 200 0
-4.604645 2.064151 20.755666 201 201 201 0
-4.525421 2.064227 20.756430 202 202 202 0
-4.438642 2.060798 20.721951 203 203 203 0
-4.368774 2.065239 20.766604 204 204 204 0
-4.286650 2.063942 20.753569 203 203 203 0
-4.199064 2.059918 20.713102 204 204 204 0
-4.115962 2.057981 20.693625 204 204 204 0
-4.036171 2.057656 20.690353 205 205 205 0
-3.958847 2.058601 20.699855 205 205 205 0
-3.873431 2.055290 20.666566 205 205 205 0
-3.796640 2.056514 20.678869 206 206 206 0
-3.716290 2.055820 20.671893 206 206 206 0
-3.633792 2.053882 20.652410 206 206 206 0
-3.559419 2.056553 20.679267 207 207 207 0
-3.486846 2.060409 20.718042 207 207 207 0
-3.407858 2.060565 20.719611 207 207 207 0
-3.332572 2.063021 20.744300 208 208 208 0
-3.250145 2.061068 20.724661 207 207 207 0
-3.168208 2.059335 20.707242 207 207 207 0
-3.092743 2.061828 20.732312 208 208 208 0
-3.016267 2.063761 20.751750 208 208 208 0
-2.940766 2.066484 20.779125 208 208 208 0
-2.862168 2.067122 20.785536 208 208 208 0
-2.782584 2.067062 20.784939 208 208 208 0
-2.706765 2.069879 20.813262 209 209 209 0
-2.630754 2.072715 20.841782 209 209 209 0
-2.554607 2.075619 20.870976 209 209 209 0
-2.478726 2.078931 20.904288 209 209 209 0
-2.402404 2.082083 20.935979 208 208 208 0
-2.320837 2.080751 20.922581 210 210 210 0
-2.247652 2.087105 20.986476 209 209 209 0
-2.170409 2.090023 21.015821 209 209 209 0
-2.093632 2.093632 21.052103 209 209 209 0
-2.014801 2.095393 21.069817 209 209 209 0
-1.937134 2.098562 21.101676 208 208 208 0
-1.861298 2.104076 21.157125 209 209 209 0
-1.784246 2.108655 21.203164 209 209 209 0
-1.706700 2.113058 21.247437 210 210 210 0
-1.629490 2.118337 21.300527 209 209 209 0
-1.549176 2.119925 21.316487 209 209 209 0
-1.470888 2.124616 21.363656 208 208 208 0
-1.393489 2.131219 21.430054 208 208 208 0
-1.315740 2.138078 21.499020 209 209 209 0
-1.236852 2.143877 21.557334 209 209 209 0
-1.158433 2.151375 21.632729 209 209 209 0
-1.077010 2.154019 21.659319 209 209 209 0
-0.997595 2.161456 21.734099 207 207 207 0
-0.917740 2.169203 21.811991 207 207 207 0
-0.837060 2.176355 21.883910 207 207 207 0
-0.756301 2.184870 21.969537 207 207 207 0
-0.674573 2.192363 22.044880 206 206 206 0
-0.592261 2.199826 22.119921 206 206 206 0
-0.510100 2.210434 22.226584 204 204 204 0
-0.426522 2.217914 22.301803 205 205 205 0
-0.342958 2.229229 22.415578 204 204 204 0
-0.258664 2.241751 22.541490 205 205 205 0
-0.173155 2.251016 22.634654 203 203 203 0
-0.087064 2.263665 22.761835 201 201 201 0
0.000000 2.276487 22.890771 201 201 201 0
0.088175 2.292554 23.052326 201 201 201 0
0.176935 2.300151 23.128719 200 200 200 0
0.267928 2.322043 23.348846 199 199 199 0
0.360603 2.343921 23.568835 198 198 198 0
0.453716 2.359321 23.723688 195 195 195 0
0.550202 2.384210 23.973955 194 194 194 0
0.649407 2.412082 24.254218 192 192 192 0
0.751785 2.443301 24.568136 189 189 189 0
0.865828 2.501282 25.151150 182 182 182 0
1.006210 2.616147 26.306155 179 179 179 0
1.110421 2.624632 26.391476 180 180 180 0
1.208149 2.617655 26.321322 179 179 179 0
1.303132 2.606265 26.206787 178 178 178 0
1.409025 2.616761 26.312332 178 178 178 0
1.514600 2.625306 26.398253 179 179 179 0
1.617951 2.629170 26.437106 179 179 179 0
1.714444 2.622090 26.365917 178 178 178 0
1.813037 2.618831 26.333138 179 179 179 0
1.912499 2.617104 26.315774 178 178 178 0
2.015367 2.619978 26.344672 180 180 180 0
2.115911 2.619700 26.341879 181 181 181 0
2.215858 2.618741 26.332235 180 180 180 0
2.316338 2.618468 26.329497 179 179 179 0
2.420130 2.621808 26.363076 179 179 179 0
2.525286 2.626297 26.408217 181 181 181 0
2.625394 2.625394 26.399138 181 181 181 0
2.728024 2.626986 26.415145 181 181 181 0
2.835161 2.632649 26.472089 181 181 181 0
2.946304 2.641514 26.561223 180 180 180 0
3.050785 2.644014 26.586361 180 180 180 0
3.153904 2.645210 26.598392 181 181 181 0
3.266334 2.653896 26.685732 178 178 178 0
3.385477 2.667345 26.820970 176 176 176 0
3.495262 2.672847 26.876290 174 174 174 0
3.608983 2.680959 26.957858 175 175 175 0
3.731247 2.694790 27.096930 175 175 175 0
3.857056 2.710364 27.253533 173 173 173 0
3.979902 2.723091 27.381509 170 170 170 0
4.118751 2.745834 27.610198 166 166 166 0
4.255002 2.765751 27.810472 161 161 161 0
4.388050 2.782666 27.980551 146 146 146 0
4.530634 2.804678 28.201895 118 118 118 0
4.663259 2.819645 28.352390 84 84 84 0
-6.757581 2.280683 22.083597 175 175 175 0
-6.647370 2.271886 21.998410 176 176 176 0
-6.496343 2.248734 21.774236 176 176 176 0
-6.355115 2.228417 21.577505 179 179 179 0
-6.255923 2.222499 21.520202 183 183 183 0
-6.156792 2.216445 21.461584 184 184 184 0
-6.070484 2.214906 21.446684 185 185 185 0
-5.979741 2.211685 21.415494 186 186 186 0
-5.887299 2.207737 21.377266 189 189 189 0
-5.766759 2.192993 21.234498 191 191 191 0
-5.659900 2.183104 21.138748 192 192 192 0
-5.563754 2.177121 21.080816 193 193 193 0
-5.487573 2.178889 21.097934 193 193 193 0
-5.414868 2.182111 21.129129 193 193 193 0
-5.322879 2.177541 21.084884 194 194 194 0
-5.222466 2.169332 21.005393 197 197 197 0
-5.123898 2.161644 20.930955 198 198 198 0
-5.036471 2.158488 20.900387 199 199 199 0
-4.965990 2.162609 20.940290 199 199 199 0
-4.882766 2.161224 20.926887 199 199 199 0
-4.784066 2.152830 20.845602 199 199 199 0
-4.705357 2.153299 20.850145 200 200 200 0
-4.610472 2.146254 20.781936 200 200 200 0
-4.529271 2.145444 20.774090 200 200 200 0
-4.453110 2.147035 20.789497 201 201 201 0
-4.375514 2.147979 20.798638 202 202 202 0
-4.296193 2.148097 20.799774 204 204 204 0
-4.203763 2.141540 20.736283 204 204 204 0
-4.122416 2.140485 20.726075 204 204 204 0
-4.038677 2.138123 20.703199 205 205 205 0
-3.962987 2.140013 20.721502 205 205 205 0
-3.887260 2.141960 20.740350 205 205 205 0
-3.807433 2.141681 20.737651 205 205 205 0
-3.729811 2.142658 20.747108 206 206 206 0
-3.641102 2.137169 20.693959 206 206 206 0
-3.562199 2.137319 20.695418 207 207 207 0
-3.491995 2.142815 20.748635 207 207 207 0
-3.416706 2.145373 20.773404 207 207 207 0
-3.333375 2.142884 20.749302 208 208 208 0
-3.256798 2.144721 20.767086 207 207 207 0
-3.176196 2.143932 20.759452 207 207 207 0
-3.097703 2.144563 20.765561 207 207 207 0
-3.026512 2.150416 20.822235 207 207 207 0
-2.948729 2.151775 20.835393 207 207 207 0
-2.869060 2.151795 20.835583 207 207 207 0
-2.790774 2.152883 20.846115 207 207 207 0
-2.712031 2.153672 20.853758 209 209 209 0
-2.642130 2.161743 20.931906 209 209 209 0
-2.560143 2.160120 20.916198 208 208 208 0
-2.483944 2.163435 20.948291 209 209 209 0
-2.402362 2.162126 20.935618 209 209 209 0
-2.325061 2.164712 20.960662 209 209 209 0
-2.251759 2.171339 21.024828 209 209 209 0
-2.174729 2.174729 21.057649 208 208 208 0
-2.099146 2.179882 21.107547 208 208 208 0
-2.019636 2.181207 21.120378 209 209 209 0
-1.943785 2.186759 21.174132 209 209 209 0
-1.865557 2.190002 21.205534 209 209 209 0
-1.788405 2.194860 21.252580 209 209 209 0
-1.709403 2.197804 21.281086 209 209 209 0
-1.630623 2.201342 21.315339 209 209 209 0
-1.553429 2.207504 21.375007 208 208 208 0
-1.475601 2.213402 21.432116 208 208 208 0
-1.396861 2.218544 21.481910 208 208 208 0
-1.319270 2.226269 21.556703 208 208 208 0
-1.239668 2.231403 21.606418 208 208 208 0
-1.158849 2.234923 21.640504 208 208 208 0
-1.079334 2.241694 21.706064 208 208 208 0
-1.000650 2.251463 21.800656 207 207 207 0
-0.919806 2.257707 21.861115 207 207 207 0
-0.839079 2.265513 21.936705 207 207 207 0
-0.757885 2.273654 22.015532 206 206 206 0
-0.676113 2.281880 22.095187 206 206 206 0
-0.593951 2.290954 22.183043 205 205 205 0
-0.512140 2.304630 22.315472 204 204 204 0
-0.427386 2.307882 22.346956 204 204 204 0
-0.343875 2.321159 22.475514 204 204 204 0
-0.259434 2.334908 22.608651 203 203 203 0
-0.173552 2.342946 22.686482 202 202 202 0
-0.087318 2.357579 22.828164 202 202 202 0
0.000000 2.372515 22.972788 201 201 201 0
0.088469 2.388676 23.129273 200 200 200 0
0.177791 2.400182 23.240688 198 198 198 0
0.268986 2.420870 23.441009 198 198 198 0
0.361923 2.442979 23.655081 197 197 197 0
0.455852 2.461601 23.835405 194 194 194 0
0.553075 2.488839 24.099143 192 192 192 0
0.653361 2.520105 24.401889 190 190 190 0
0.757513 2.556605 24.755314 185 185 185 0
0.888940 2.666821 25.822521 178 178 178 0
1.021447 2.757908 26.704505 170 170 170 0
1.121493 2.752754 26.654606 170 170 170 0
1.219263 2.743342 26.563466 172 172 172 0
1.321101 2.743826 26.568155 172 172 172 0
1.425336 2.748862 26.616917 173 173 173 0
1.529026 2.752248 26.649699 175 175 175 0
1.632955 2.755612 26.682274 175 175 175 0
1.728663 2.745524 26.584594 176 176 176 0
1.830680 2.746020 26.589393 175 175 175 0
1.933419 2.747490 26.603632 176 176 176 0
2.034089 2.746020 26.589401 178 178 178 0
2.136529 2.746966 26.598557 177 177 177 0
2.233700 2.741359 26.544267 178 178 178 0
2.338448 2.745135 26.580826 176 176 176 0
2.442836 2.748190 26.610413 177 177 177 0
2.545150 2.748761 26.615943 177 177 177 0
2.647089 2.748900 26.617285 176 176 176 0
2.758014 2.758014 26.705534 175 175 175 0
2.870283 2.767773 26.800031 174 174 174 0
2.974994 2.769822 26.819873 173 173 173 0
3.083096 2.774786 26.867936 174 174 174 0
3.200368 2.787417 26.990241 175 175 175 0
3.317796 2.799390 27.106175 173 173 173 0
3.427284 2.804142 27.152182 173 173 173 0
3.541584 2.812434 27.232477 171 171 171 0
3.666901 2.828752 27.390482 168 168 168 0
3.796888 2.847666 27.573623 166 166 166 0
3.932987 2.870017 27.790051 163 163 163 0
4.064521 2.887949 27.963678 153 153 153 0
4.198594 2.906719 28.145429 136 136 136 0
4.325194 2.919506 28.269241 110 110 110 0
4.423874 2.913283 28.208987 78 78 78 0
-6.791945 2.377181 22.195899 170 170 170 0
-6.655561 2.358933 22.025518 175 175 175 0
-6.507061 2.335868 21.810159 176 176 176 0
-6.385534 2.322012 21.680786 177 177 177 0
-6.279804 2.313612 21.602352 182 182 182 0
-6.169722 2.303363 21.506657 185 185 185 0
-6.099543 2.307935 21.549348 186 186 186 0
-6.016768 2.307801 21.548100 185 185 185 0
-5.889729 2.290450 21.386088 186 186 186 0
-5.788224 2.282680 21.313539 189 189 189 0
-5.671975 2.268790 21.183848 192 192 192 0
-5.592400 2.269380 21.189353 192 192 192 0
-5.510329 2.268959 21.185426 192 192 192 0
-5.426731 2.267888 21.175422 193 193 193 0
-5.332069 2.262090 21.121288 194 194 194 0
-5.227382 2.251795 21.025167 195 195 195 0
-5.138427 2.248062 20.990304 196 196 196 0
-5.048853 2.243935 20.951770 198 198 198 0
-4.972252 2.245533 20.966698 199 199 199 0
-4.899106 2.248770 20.996920 199 199 199 0
-4.809179 2.244284 20.955030 200 200 200 0
-4.716573 2.238374 20.899846 200 200 200 0
-4.619353 2.230032 20.821964 200 200 200 0
-4.541612 2.230967 20.830693 200 200 200 0
-4.464729 2.232365 20.843740 201 201 201 0
-4.378162 2.228882 20.811228 201 201 201 0
-4.300082 2.229672 20.818601 202 202 202 0
-4.211831 2.225118 20.776080 202 202 202 0
-4.122453 2.219782 20.726258 203 203 203 0
-4.047384 2.222093 20.747838 204 204 204 0
-3.969878 2.223132 20.757530 204 204 204 0
-3.891287 2.223592 20.761834 205 205 205 0
-3.812391 2.223895 20.764660 205 205 205 0
-3.732327 2.223514 20.761100 205 205 205 0
-3.651205 2.222473 20.751380 206 206 206 0
-3.572280 2.222752 20.753988 205 205 205 0
-3.498983 2.226626 20.790155 207 207 207 0
-3.416692 2.224823 20.773322 206 206 206 0
-3.342201 2.228134 20.804241 206 206 206 0
-3.262229 2.227864 20.801717 207 207 207 0
-3.179594 2.225716 20.781660 206 206 206 0
-3.104099 2.228584 20.808440 207 207 207 0
-3.030635 2.233099 20.850601 207 207 207 0
-2.952993 2.234698 20.865524 207 207 207 0
-2.875511 2.236509 20.882435 207 207 207 0
-2.796372 2.237098 20.887936 208 208 208 0
-2.718386 2.238671 20.902619 208 208 208 0
-2.642456 2.242084 20.934492 208 208 208 0
-2.564535 2.243968 20.952084 209 209 209 0
-2.487338 2.246628 20.976918 209 209 209 0
-2.406287 2.245868 20.969823 209 209 209 0
-2.334116 2.253629 21.042287 208 208 208 0
-2.253470 2.253470 21.040800 208 208 208 0
-2.178567 2.259254 21.094812 208 208 208 0
-2.103318 2.265111 21.149497 207 207 207 0
-2.024532 2.267476 21.171574 208 208 208 0
-1.945663 2.269940 21.194581 208 208 208 0
-1.869465 2.275870 21.249956 208 208 208 0
-1.790717 2.279094 21.280058 208 208 208 0
-1.714201 2.285601 21.340810 208 208 208 0
-1.635732 2.290024 21.382113 208 208 208 0
-1.557173 2.294781 21.426529 208 208 208 0
-1.478148 2.299342 21.469109 207 207 207 0
-1.401061 2.307630 21.546497 208 208 208 0
-1.322799 2.314899 21.614369 208 208 208 0
-1.242977 2.320223 21.664082 207 207 207 0
-1.162119 2.324238 21.701571 207 207 207 0
-1.082286 2.331079 21.765440 207 207 207 0
-1.002895 2.340087 21.849554 206 206 206 0
-0.922287 2.347639 21.920062 206 206 206 0
-0.840622 2.353743 21.977055 206 206 206 0
-0.759808 2.363848 22.071406 206 206 206 0
-0.678192 2.373673 22.163151 205 205 205 0
-0.595899 2.383597 22.255805 205 205 205 0
-0.512375 2.391085 22.325727 204 204 204 0
-0.429073 2.402811 22.435213 204 204 204 0
-0.344941 2.414587 22.545167 204 204 204 0
-0.260230 2.428810 22.677964 202 202 202 0
-0.174179 2.438505 22.768485 201 201 201 0
-0.087545 2.451270 22.887675 200 200 200 0
0.000000 2.469733 23.060061 201 201 201 0
0.088922 2.489822 23.247641 199 199 199 0
0.178606 2.500486 23.347206 197 197 197 0
0.270276 2.522573 23.553439 197 197 197 0
0.364230 2.549607 23.805857 194 194 194 0
0.458018 2.564899 23.948633 193 193 193 0
0.556689 2.597882 24.256604 190 190 190 0
0.658779 2.635116 24.604256 186 186 186 0
0.765475 2.679163 25.015524 180 180 180 0
0.920621 2.864155 26.742813 169 169 169 0
1.034025 2.895271 27.033342 165 165 165 0
1.134733 2.888411 26.969292 165 165 165 0
1.235767 2.883456 26.923021 166 166 166 0
1.341810 2.890053 26.984624 166 166 166 0
1.446278 2.892556 27.007992 167 167 167 0
1.548476 2.890488 26.988684 168 168 168 0
1.648475 2.884831 26.935864 168 168 168 0
1.750029 2.882401 26.913177 167 167 167 0
1.854379 2.884590 26.933614 169 169 169 0
1.955581 2.881908 26.908574 168 168 168 0
2.056544 2.879162 26.882929 171 171 171 0
2.159088 2.878783 26.879397 171 171 171 0
2.265397 2.883232 26.920937 170 170 170 0
2.371387 2.886906 26.955241 171 171 171 0
2.476455 2.889198 26.976638 170 170 170 0
2.575968 2.885084 26.938229 171 171 171 0
2.686588 2.893249 27.014461 171 171 171 0
2.800881 2.904618 27.120613 171 171 171 0
2.907744 2.907744 27.149804 170 170 170 0
3.014411 2.910466 27.175215 170 170 170 0
3.124889 2.916563 27.232145 169 169 169 0
3.245225 2.931171 27.368546 168 168 168 0
3.367427 2.946498 27.511656 166 166 166 0
3.488573 2.960001 27.637733 162 162 162 0
3.616630 2.978401 27.809536 159 159 159 0
3.744948 2.995958 27.973468 153 153 153 0
3.873023 3.012351 28.126527 139 139 139 0
3.999929 3.026973 28.263056 114 114 114 0
4.131635 3.044362 28.425418 90 90 90 0
-6.838782 2.479058 22.348961 166 166 166 0
-6.695610 2.457882 22.158055 173 173 173 0
-6.527622 2.426937 21.879076 176 176 176 0
-6.400192 2.410462 21.730557 176 176 176 0
-6.307865 2.406948 21.698882 179 179 179 0
-6.204221 2.398966 21.626915 183 183 183 0
-6.119797 2.398299 21.620904 185 185 185 0
-6.029787 2.395395 21.594725 185 185 185 0
-5.917150 2.383296 21.485657 186 186 186 0
-5.797641 2.368051 21.348215 187 187 187 0
-5.690893 2.357656 21.254501 189 189 189 0
-5.605719 2.356027 21.239819 192 192 192 0
-5.527183 2.357181 21.250224 193 193 193 0
-5.433392 2.351767 21.201414 194 194 194 0
-5.339899 2.346319 21.152302 194 194 194 0
-5.238288 2.337082 21.069032 194 194 194 0
-5.145000 2.331328 21.017158 194 194 194 0
-5.054965 2.326889 20.977135 196 196 196 0
-4.982411 2.330482 21.009533 198 198 198 0
-4.904699 2.331742 21.020888 199 199 199 0
-4.806053 2.322925 20.941406 200 200 200 0
-4.723951 2.321942 20.932539 200 200 200 0
-4.630515 2.315258 20.872280 199 199 199 0
-4.552394 2.316130 20.880145 201 201 201 0
-4.473543 2.316656 20.884889 201 201 201 0
-4.396478 2.318143 20.898293 201 201 201 0
-4.316566 2.318156 20.898409 202 202 202 0
-4.222985 2.310690 20.831102 202 202 202 0
-4.140533 2.309143 20.817160 203 203 203 0
-4.056752 2.306781 20.795860 203 203 203 0
-3.983473 2.310415 20.828619 203 203 203 0
-3.904574 2.310870 20.832727 204 204 204 0
-3.822182 2.309235 20.817985 204 204 204 0
-3.739533 2.307372 20.801187 204 204 204 0
-3.655049 2.304270 20.773228 205 205 205 0
-3.578064 2.305864 20.787592 205 205 205 0
-3.501439 2.307767 20.804748 205 205 205 0
-3.424115 2.309287 20.818451 206 206 206 0
-3.351981 2.314463 20.865118 205 205 205 0
-3.265288 2.309594 20.821219 205 205 205 0
-3.186897 2.310501 20.829395 206 206 206 0
-3.109873 2.312470 20.847148 207 207 207 0
-3.038402 2.318781 20.904040 207 207 207 0
-2.960578 2.320453 20.919120 207 207 207 0
-2.880810 2.320652 20.920913 207 207 207 0
-2.804022 2.323333 20.945078 208 208 208 0
-2.722581 2.322202 20.934880 208 208 208 0
-2.649243 2.328123 20.988261 207 207 207 0
-2.572462 2.331294 21.016846 207 207 207 0
-2.490438 2.329765 21.003064 208 208 208 0
-2.414905 2.334408 21.044926 208 208 208 0
-2.336398 2.336398 21.062858 208 208 208 0
-2.259268 2.339956 21.094939 208 208 208 0
-2.184696 2.346525 21.154157 207 207 207 0
-2.104623 2.347464 21.162622 208 208 208 0
-2.030324 2.355176 21.232150 207 207 207 0
-1.949229 2.355318 21.233429 209 209 209 0
-1.871231 2.359378 21.270031 208 208 208 0
-1.797685 2.369676 21.362869 208 208 208 0
-1.718054 2.372551 21.388785 208 208 208 0
-1.638757 2.376198 21.421662 207 207 207 0
-1.562018 2.384132 21.493191 207 207 207 0
-1.482322 2.388185 21.529730 207 207 207 0
-1.405606 2.397799 21.616399 207 207 207 0
-1.325880 2.403157 21.664700 208 208 208 0
-1.244839 2.406688 21.696532 207 207 207 0
-1.164163 2.411480 21.739732 206 206 206 0
-1.085234 2.420907 21.824717 205 205 205 0
-1.006074 2.431345 21.918816 206 206 206 0
-0.925015 2.438675 21.984896 206 206 206 0
-0.842843 2.444244 22.035108 206 206 206 0
-0.762076 2.455578 22.137280 206 206 206 0
-0.680418 2.466517 22.235896 204 204 204 0
-0.597866 2.476873 22.329263 204 204 204 0
-0.513696 2.482866 22.383289 204 204 204 0
-0.430077 2.494449 22.487704 203 203 203 0
-0.346159 2.509656 22.624803 202 202 202 0
-0.261165 2.524597 22.759498 200 200 200 0
-0.174978 2.537182 22.872950 201 201 201 0
-0.087951 2.550583 22.993763 201 201 201 0
0.000000 2.568013 23.150897 199 199 199 0
0.089113 2.584275 23.297496 198 198 198 0
0.179486 2.602542 23.462173 197 197 197 0
0.271502 2.624519 23.660299 195 195 195 0
0.365707 2.651375 23.902408 193 193 193 0
0.462153 2.680486 24.164850 192 192 192 0
0.562150 2.717060 24.494564 187 187 187 0
0.664622 2.753434 24.822480 182 182 182 0
0.788591 2.858644 25.770961 165 165 165 0
0.948174 3.055227 27.543175 151 151 151 0
1.051159 3.048361 27.481283 152 152 152 0
1.155104 3.045274 27.453448 153 153 153 0
1.258869 3.042267 27.426346 155 155 155 0
1.360956 3.035978 27.369643 158 158 158 0
1.465182 3.035021 27.361017 161 161 161 0
1.567856 3.031188 27.326462 162 162 162 0
1.670274 3.027373 27.292067 163 163 163 0
1.775206 3.028293 27.300365 163 163 163 0
1.876467 3.023196 27.254419 164 164 164 0
1.981040 3.023693 27.258898 165 165 165 0
2.081780 3.018581 27.212808 166 166 166 0
2.186994 3.020134 27.226813 165 165 165 0
2.295899 3.026413 27.283415 165 165 165 0
2.402752 3.029556 27.311754 164 164 164 0
2.507348 3.029712 27.313155 163 163 163 0
2.615173 3.033600 27.348212 165 165 165 0
2.731178 3.046314 27.462828 164 164 164 0
2.844265 3.054952 27.540696 162 162 162 0
2.958786 3.064457 27.626384 160 160 160 0
3.073942 3.073942 27.711900 159 159 159 0
3.195898 3.089368 27.850959 158 158 158 0
3.311509 3.097863 27.927550 153 153 153 0
3.437202 3.114964 28.081712 143 143 143 0
3.556373 3.125298 28.174871 130 130 130 0
3.684353 3.142536 28.330277 110 110 110 0
3.800577 3.149049 28.388994 90 90 90 0
3.910826 3.150388 28.401064 75 75 75 0
-6.842944 2.566104 22.362563 164 164 164 0
-6.691491 2.541073 22.144424 168 168 168 0
-6.577829 2.529934 22.047358 174 174 174 0
-6.439813 2.509018 21.865080 177 177 177 0
-6.305922 2.489180 21.692199 177 177 177 0
-6.232044 2.492817 21.723899 178 178 178 0
-6.130121 2.485184 21.657379 183 183 183 0
-6.058924 2.489969 21.699073 185 185 185 0
-5.934239 2.472600 21.547710 186 186 186 0
-5.813346 2.456343 21.406041 187 187 187 0
-5.703665 2.444428 21.302203 187 187 187 0
-5.623531 2.445014 21.307309 189 189 189 0
-5.548157 2.447716 21.330862 193 193 193 0
-5.455531 2.442775 21.287798 194 194 194 0
-5.354590 2.433904 21.210496 194 194 194 0
-5.254429 2.425121 21.133951 194 194 194 0
-5.162595 2.419967 21.089033 195 195 195 0
-5.076682 2.417468 21.067257 195 195 195 0
-4.999596 2.419159 21.081997 196 196 196 0
-4.925187 2.422223 21.108696 197 197 197 0
-4.823472 2.411736 21.017305 198 198 198 0
-4.728919 2.404535 20.954556 199 199 199 0
-4.638567 2.399259 20.908575 200 200 200 0
-4.563968 2.402088 20.933232 201 201 201 0
-4.482713 2.401453 20.927697 201 201 201 0
-4.410966 2.405982 20.967161 201 201 201 0
-4.324308 2.402394 20.935892 202 202 202 0
-4.227231 2.392772 20.852046 202 202 202 0
-4.144087 2.390820 20.835030 202 202 202 0
-4.068862 2.393448 20.857936 203 203 203 0
-3.984382 2.390629 20.833368 203 203 203 0
-3.909412 2.393518 20.858541 203 203 203 0
-3.831494 2.394684 20.868702 203 203 203 0
-3.753345 2.395752 20.878014 203 203 203 0
-3.665462 2.390519 20.832410 204 204 204 0
-3.590455 2.393636 20.859577 205 205 205 0
-3.510858 2.393767 20.860714 205 205 205 0
-3.432348 2.394662 20.868510 205 205 205 0
-3.358835 2.399168 20.907782 206 206 206 0
-3.271160 2.393532 20.858664 206 206 206 0
-3.194445 2.395833 20.878723 206 206 206 0
-3.118735 2.399027 20.906551 206 206 206 0
-3.044431 2.403498 20.945515 206 206 206 0
-2.963618 2.402934 20.940597 206 206 206 0
-2.883715 2.403096 20.942015 207 207 207 0
-2.805030 2.404312 20.952606 207 207 207 0
-2.728010 2.407068 20.976625 208 208 208 0
-2.652655 2.411505 21.015293 207 207 207 0
-2.573962 2.413090 21.029103 207 207 207 0
-2.497897 2.417320 21.065966 207 207 207 0
-2.417977 2.417977 21.071694 207 207 207 0
-2.343014 2.423808 21.122506 207 207 207 0
-2.265552 2.427378 21.153617 207 207 207 0
-2.188642 2.431824 21.192367 208 208 208 0
-2.111556 2.436411 21.232341 207 207 207 0
-2.034976 2.441972 21.280798 207 207 207 0
-1.953346 2.441682 21.278276 207 207 207 0
-1.876025 2.446989 21.324525 209 209 209 0
-1.799149 2.453386 21.380267 207 207 207 0
-1.722783 2.461119 21.447658 207 207 207 0
-1.641704 2.462556 21.460184 207 207 207 0
-1.565739 2.472219 21.544394 207 207 207 0
-1.485404 2.475673 21.574493 207 207 207 0
-1.407275 2.483427 21.642062 208 208 208 0
-1.327036 2.488192 21.683591 208 208 208 0
-1.248146 2.496292 21.754182 206 206 206 0
-1.168224 2.503338 21.815580 205 205 205 0
-1.089388 2.513972 21.908253 205 205 205 0
-1.009214 2.523035 21.987236 205 205 205 0
-0.927141 2.528565 22.035427 206 206 206 0
-0.844660 2.533980 22.082611 205 205 205 0
-0.763759 2.545865 22.186183 205 205 205 0
-0.682318 2.558691 22.297960 203 203 203 0
-0.599840 2.570742 22.402976 203 203 203 0
-0.515738 2.578691 22.472254 204 204 204 0
-0.432062 2.592373 22.591488 203 203 203 0
-0.347613 2.607094 22.719776 200 200 200 0
-0.261837 2.618368 22.818026 201 201 201 0
-0.175514 2.632716 22.943060 200 200 200 0
-0.088275 2.648252 23.078445 200 200 200 0
0.000000 2.666179 23.234674 197 197 197 0
0.089564 2.686928 23.415495 197 197 197 0
0.180528 2.707923 23.598455 196 196 196 0
0.273343 2.733428 23.820722 193 193 193 0
0.368344 2.762581 24.074776 192 192 192 0
0.464401 2.786405 24.282398 189 189 189 0
0.566213 2.831066 24.671599 184 184 184 0
0.672197 2.880843 25.105388 171 171 171 0
0.845298 3.169869 27.624129 133 133 133 0
0.970367 3.234558 28.187872 126 126 126 0
1.075706 3.227119 28.123045 131 131 131 0
1.181219 3.221505 28.074119 137 137 137 0
1.284473 3.211182 27.984159 141 141 141 0
1.388412 3.204027 27.921806 145 145 145 0
1.492447 3.198100 27.870154 149 149 149 0
1.598604 3.197209 27.862386 149 149 149 0
1.702285 3.191785 27.815120 149 149 149 0
1.808514 3.191495 27.812595 149 149 149 0
1.910063 3.183438 27.742378 151 151 151 0
2.014196 3.180310 27.715116 154 154 154 0
2.122434 3.183652 27.744240 153 153 153 0
2.231067 3.187238 27.775497 154 154 154 0
2.340984 3.192250 27.819175 153 153 153 0
2.449254 3.194679 27.840337 152 152 152 0
2.560886 3.201107 27.896359 152 152 152 0
2.676856 3.212228 27.993268 151 151 151 0
2.787109 3.215894 28.025224 146 146 146 0
2.901507 3.223897 28.094961 140 140 140 0
3.021011 3.236797 28.207382 133 133 133 0
3.136464 3.244618 28.275539 124 124 124 0
3.237874 3.237874 28.216763 110 110 110 0
3.370637 3.261906 28.426199 92 92 92 0
3.458867 3.242688 28.258715 79 79 79 0
-6.878527 2.665429 22.478846 164 164 164 0
-6.743758 2.646285 22.317392 166 166 166 0
-6.610723 2.627339 22.157611 170 170 170 0
-6.448695 2.596228 21.895240 176 176 176 0
-6.355315 2.592299 21.862107 177 177 177 0
-6.251835 2.584092 21.792888 178 178 178 0
-6.160672 2.580822 21.765315 179 179 179 0
-6.071054 2.578119 21.742514 184 184 184 0
-5.947304 2.560645 21.595151 187 187 187 0
-5.829536 2.545290 21.465657 187 187 187 0
-5.732854 2.538835 21.411219 187 187 187 0
-5.645672 2.536462 21.391200 187 187 187 0
-5.550740 2.530484 21.340791 190 190 190 0
-5.466924 2.529472 21.332256 193 193 193 0
-5.376890 2.525509 21.298832 193 193 193 0
-5.268918 2.512868 21.192228 194 194 194 0
-5.172608 2.505482 21.129933 195 195 195 0
-5.083909 2.501606 21.097246 195 195 195 0
-5.010787 2.505394 21.129190 195 195 195 0
-4.932930 2.506899 21.141884 196 196 196 0
-4.842171 2.501788 21.098783 196 196 196 0
-4.733889 2.487298 20.976578 198 198 198 0
-4.658492 2.489883 20.998384 200 200 200 0
-4.574294 2.487774 20.980595 201 201 201 0
-4.488090 2.484478 20.952801 201 201 201 0
-4.416554 2.489331 20.993722 201 201 201 0
-4.331524 2.486615 20.970823 202 202 202 0
-4.244257 2.482490 20.936032 202 202 202 0
-4.161350 2.480805 20.921820 202 202 202 0
-4.076394 2.477808 20.896548 202 202 202 0
-3.998160 2.478859 20.905411 202 202 202 0
-3.920729 2.480461 20.918922 203 203 203 0
-3.836239 2.477571 20.894548 204 204 204 0
-3.755430 2.476986 20.889610 204 204 204 0
-3.671731 2.474428 20.868038 205 205 205 0
-3.595428 2.476850 20.888470 205 205 205 0
-3.523925 2.482765 20.938354 205 205 205 0
-3.439320 2.479510 20.910898 205 205 205 0
-3.361020 2.480753 20.921380 205 205 205 0
-3.279979 2.479984 20.914902 206 206 206 0
-3.205063 2.483924 20.948122 206 206 206 0
-3.125461 2.484341 20.951640 206 206 206 0
-3.050946 2.488930 20.990341 207 207 207 0
-2.969463 2.487928 20.981897 207 207 207 0
-2.890209 2.488791 20.989171 207 207 207 0
-2.813087 2.491591 21.012788 207 207 207 0
-2.736146 2.494721 21.039185 207 207 207 0
-2.660617 2.499367 21.078365 206 206 206 0
-2.584145 2.503390 21.112292 206 206 206 0
-2.505847 2.505847 21.133009 207 207 207 0
-2.424344 2.505156 21.127182 207 207 207 0
-2.347921 2.509847 21.166745 207 207 207 0
-2.270450 2.513712 21.199343 207 207 207 0
-2.193309 2.518244 21.237562 208 208 208 0
-2.117859 2.525139 21.295712 207 207 207 0
-2.036676 2.525479 21.298578 207 207 207 0
-1.958658 2.529933 21.336141 207 207 207 0
-1.882665 2.537505 21.400000 207 207 207 0
-1.805167 2.543644 21.451773 206 206 206 0
-1.727165 2.549625 21.502211 207 207 207 0
-1.646387 2.551900 21.521403 207 207 207 0
-1.568057 2.558409 21.576292 207 207 207 0
-1.489642 2.565494 21.636047 207 207 207 0
-1.410411 2.571925 21.690283 207 207 207 0
-1.330711 2.578252 21.743639 206 206 206 0
-1.250812 2.585012 21.800649 206 206 206 0
-1.171799 2.594697 21.882328 206 206 206 0
-1.093082 2.606580 21.982545 205 205 205 0
-1.011754 2.613697 22.042565 206 206 206 0
-0.929837 2.620450 22.099513 205 205 205 0
-0.846682 2.624715 22.135481 204 204 204 0
-0.767008 2.641915 22.280541 203 203 203 0
-0.685026 2.654474 22.386459 203 203 203 0
-0.601512 2.663840 22.465447 203 203 203 0
-0.517629 2.674418 22.554650 202 202 202 0
-0.433554 2.688037 22.669513 201 201 201 0
-0.348949 2.704356 22.807134 201 201 201 0
-0.262649 2.714037 22.888783 201 201 201 0
-0.176102 2.729588 23.019927 199 199 199 0
