ply
format ascii 1.0
element vertex 1104
property float x
property float y
property float z
property uchar red
property uchar green
property uchar blue
property uchar alpha
end_header
-4.268853 -6.640438 31.001113 150 150 150 0
-4.128232 -6.605172 30.836469 155 155 155 0
-3.986156 -6.565433 30.650948 162 162 162 0
-3.849714 -6.532848 30.498825 166 166 166 0
-2.894210 -5.064867 23.645504 196 196 196 0
-2.809863 -5.075881 23.696922 204 204 204 0
-2.722242 -5.081518 23.723240 204 204 204 0
-2.632870 -5.084163 23.735590 205 205 205 0
-2.546431 -5.092863 23.776204 204 204 204 0
-2.456015 -5.093956 23.781309 204 204 204 0
-2.365828 -5.095630 23.789123 204 204 204 0
-2.275905 -5.098027 23.800314 204 204 204 0
-2.185542 -5.099597 23.807643 205 205 205 0
-2.099471 -5.111755 23.864403 204 204 204 0
-2.008291 -5.112013 23.865605 204 204 204 0
-1.911643 -5.097714 23.798852 204 204 204 0
-1.820044 -5.096123 23.791425 204 204 204 0
-1.732263 -5.105617 23.835746 204 204 204 0
-1.644803 -5.117166 23.889662 203 203 203 0
-1.550418 -5.107258 23.843410 203 203 203 0
-1.449736 -5.074075 23.688494 203 203 203 0
-1.349779 -5.039176 23.525565 203 203 203 0
-1.263934 -5.055737 23.602881 202 202 202 0
-1.173112 -5.053406 23.591999 202 202 202 0
-1.075374 -5.018410 23.428620 200 200 200 0
-0.970269 -4.939550 23.060459 200 200 200 0
-0.869116 -4.867051 22.721993 199 199 199 0
-0.768789 -4.783574 22.332279 199 199 199 0
-0.928546 -6.499824 30.344649 198 198 198 0
-0.805758 -6.446064 30.093670 197 197 197 0
-0.690865 -6.448075 30.103059 198 198 198 0
-0.574327 -6.432468 30.030196 197 197 197 0
-0.455670 -6.379374 29.782325 197 197 197 0
-0.339029 -6.328535 29.544981 197 197 197 0
-0.225442 -6.312370 29.469516 196 196 196 0
-0.112850 -6.319617 29.503345 197 197 197 0
0.000000 -6.325865 29.532518 196 196 196 0
0.112910 -6.322946 29.518888 195 195 195 0
0.225895 -6.325072 29.528814 195 195 195 0
0.339273 -6.333102 29.566303 193 193 193 0
0.452828 -6.339587 29.596580 195 195 195 0
0.566262 -6.342135 29.608475 196 196 196 0
0.682244 -6.367613 29.727418 195 195 195 0
0.797673 -6.381381 29.791695 193 193 193 0
0.912680 -6.388761 29.826149 193 193 193 0
1.026738 -6.388592 29.825360 180 180 180 0
1.100855 -6.164785 28.780510 83 83 83 0
1.110670 -5.654321 26.397389 81 81 81 0
1.275112 -5.950522 27.780215 73 73 73 0
1.411476 -6.080203 28.385634 163 163 163 0
1.515585 -6.062338 28.302232 205 205 205 0
1.623176 -6.059857 28.290650 205 205 205 0
1.732189 -6.062661 28.303738 206 206 206 0
1.842725 -6.070153 28.338716 206 206 206 0
1.951196 -6.070388 28.339812 207 207 207 0
2.062807 -6.079853 28.384000 207 207 207 0
2.174080 -6.087425 28.419351 207 207 207 0
2.283492 -6.089313 28.428165 207 207 207 0
2.392532 -6.090081 28.431752 207 207 207 0
2.504952 -6.099015 28.473458 207 207 207 0
2.612375 -6.095541 28.457241 207 207 207 0
2.720646 -6.094247 28.451199 207 207 207 0
2.834081 -6.104175 28.497547 207 207 207 0
2.947114 -6.112534 28.536571 206 206 206 0
3.059098 -6.118197 28.563010 206 206 206 0
3.168054 -6.117622 28.560327 207 207 207 0
3.276507 -6.116147 28.553442 207 207 207 0
3.389878 -6.123650 28.588469 206 206 206 0
3.503301 -6.130776 28.621738 207 207 207 0
3.614035 -6.132908 28.631691 206 206 206 0
3.719528 -6.126282 28.600757 206 206 206 0
3.837701 -6.140321 28.666299 206 206 206 0
3.957139 -6.155550 28.737395 207 207 207 0
4.058959 -6.143289 28.680152 206 206 206 0
4.172862 -6.149482 28.709064 206 206 206 0
4.286451 -6.154904 28.734377 205 205 205 0
4.406951 -6.169731 28.803600 206 206 206 0
4.512054 -6.162806 28.771268 206 206 206 0
4.627383 -6.169843 28.804124 205 205 205 0
4.736906 -6.168993 28.800156 205 205 205 0
4.856794 -6.181374 28.857958 206 206 206 0
4.975087 -6.191220 28.903920 205 205 205 0
5.078215 -6.182175 28.861696 205 205 205 0
5.198659 -6.194147 28.917587 205 205 205 0
5.307907 -6.192558 28.910169 205 205 205 0
5.421637 -6.196156 28.926967 206 206 206 0
5.537619 -6.202133 28.954870 206 206 206 0
5.650846 -6.204851 28.967557 205 205 205 0
5.763480 -6.206824 28.976770 205 205 205 0
5.875199 -6.207757 28.981126 205 205 205 0
6.003845 -6.226209 29.067270 206 206 206 0
6.110682 -6.221785 29.046616 206 206 206 0
6.228212 -6.228212 29.076620 205 205 205 0
6.339470 -6.228251 29.076801 205 205 205 0
6.455156 -6.232564 29.096938 205 205 205 0
6.569440 -6.235401 29.110181 205 205 205 0
6.689806 -6.243819 29.149482 205 205 205 0
6.806351 -6.248453 29.171117 206 206 206 0
6.924428 -6.254322 29.198517 205 205 205 0
7.034324 -6.252732 29.191093 205 205 205 0
7.156000 -6.261500 29.232027 205 205 205 0
7.267523 -6.261251 29.230862 205 205 205 0
7.380437 -6.262189 29.235242 205 205 205 0
7.500546 -6.269113 29.267569 204 204 204 0
7.616912 -6.272751 29.284553 204 204 204 0
7.744612 -6.285482 29.343987 205 205 205 0
7.851651 -6.281321 29.324560 205 205 205 0
7.963315 -6.280924 29.322708 204 204 204 0
8.090095 -6.292296 29.375800 205 205 205 0
8.211412 -6.299165 29.407867 205 205 205 0
8.314448 -6.292015 29.374485 204 204 204 0
8.437016 -6.299639 29.410078 205 205 205 0
8.561199 -6.308252 29.450288 205 205 205 0
8.678277 -6.311475 29.465334 205 205 205 0
8.790630 -6.311221 29.464151 204 204 204 0
8.915790 -6.320053 29.505385 205 205 205 0
-5.044135 -6.766523 32.164101 75 75 75 0
-4.912987 -6.755358 32.111029 104 104 104 0
-4.710390 -6.642857 31.576267 128 128 128 0
-4.546007 -6.579747 31.276278 140 140 140 0
-4.378745 -6.508945 30.939725 150 150 150 0
-4.235034 -6.470191 30.755514 153 153 153 0
-4.097377 -6.438735 30.605988 161 161 161 0
-3.964375 -6.412959 30.483464 164 164 164 0
-3.835913 -6.393188 30.389486 169 169 169 0
-2.896165 -4.977783 23.661478 197 197 197 0
-2.807193 -4.980503 23.674407 205 205 205 0
-2.714492 -4.976569 23.655707 204 204 204 0
-2.626839 -4.981936 23.681218 204 204 204 0
-2.539301 -4.987912 23.709625 205 205 205 0
-2.452508 -4.995850 23.747356 205 205 205 0
-2.361082 -4.994596 23.741397 205 205 205 0
-2.271469 -4.997233 23.753929 204 204 204 0
-2.184629 -5.006443 23.797707 204 204 204 0
-2.094064 -5.007545 23.802949 205 205 205 0
-2.001863 -5.004656 23.789217 204 204 204 0
-1.914380 -5.013853 23.832931 205 205 205 0
-1.822633 -5.012241 23.825269 205 205 205 0
-1.734242 -5.020174 23.862976 205 205 205 0
-1.644825 -5.025854 23.889979 205 205 205 0
-1.555411 -5.032211 23.920195 205 205 205 0
-1.462923 -5.028799 23.903976 205 205 205 0
-1.372459 -5.032351 23.920861 206 206 206 0
-1.282239 -5.037366 23.944700 205 205 205 0
-1.192741 -5.046213 23.986754 206 206 206 0
-1.101533 -5.048693 23.998543 205 205 205 0
-1.008833 -5.044165 23.977016 205 205 205 0
-0.918261 -5.050433 24.006813 205 205 205 0
-0.826389 -5.050153 24.005479 205 205 205 0
-0.736281 -5.061934 24.061483 205 205 205 0
-0.643235 -5.053993 24.023733 205 205 205 0
-0.549630 -5.038278 23.949035 205 205 205 0
-0.457434 -5.031771 23.918104 205 205 205 0
-0.367085 -5.047420 23.992492 205 205 205 0
-0.275763 -5.055646 24.031592 204 204 204 0
-0.182503 -5.018840 23.856636 204 204 204 0
-0.090420 -4.973127 23.639344 204 204 204 0
0.000000 -4.955290 23.554557 203 203 203 0
0.089968 -4.948229 23.520995 202 202 202 0
0.180372 -4.960237 23.578073 201 201 201 0
0.269221 -4.935715 23.461511 202 202 202 0
0.470974 -6.475899 30.782645 201 201 201 0
0.582016 -6.402175 30.432202 199 199 199 0
0.696581 -6.385329 30.352127 199 199 199 0
0.813671 -6.393126 30.389192 199 199 199 0
0.931660 -6.405161 30.446396 198 198 198 0
1.038583 -6.346898 30.169452 191 191 191 0
0.906930 -4.988114 23.710581 135 135 135 0
1.025354 -5.126770 24.369675 112 112 112 0
1.116718 -5.118290 24.329366 105 105 105 0
1.417713 -5.998016 28.511070 163 163 163 0
1.518528 -5.965647 28.357206 206 206 206 0
1.627946 -5.969135 28.373783 206 206 206 0
1.735904 -5.967169 28.364438 207 207 207 0
1.843070 -5.962873 28.344019 206 206 206 0
1.952291 -5.965334 28.355718 207 207 207 0
2.061772 -5.968287 28.369755 207 207 207 0
2.169119 -5.965078 28.354501 206 206 206 0
2.283227 -5.979880 28.424861 207 207 207 0
2.391778 -5.979446 28.422796 208 208 208 0
2.501692 -5.982308 28.436401 206 206 206 0
2.608062 -5.976809 28.410262 207 207 207 0
2.722842 -5.990253 28.474168 207 207 207 0
2.833925 -5.994842 28.495980 207 207 207 0
2.944010 -5.997057 28.506511 207 207 207 0
3.054798 -6.000496 28.522856 206 206 206 0
3.163256 -5.999278 28.517068 208 208 208 0
3.276779 -6.007428 28.555808 207 207 207 0
3.389249 -6.013183 28.583165 207 207 207 0
3.499117 -6.014107 28.587557 206 206 206 0
3.608132 -6.013554 28.584926 207 207 207 0
3.721997 -6.020878 28.619740 206 206 206 0
3.836678 -6.029065 28.658657 206 206 206 0
3.952039 -6.037837 28.700356 206 206 206 0
4.063789 -6.040767 28.714282 206 206 206 0
4.171100 -6.037118 28.696938 207 207 207 0
4.283861 -6.041343 28.717019 206 206 206 0
4.398601 -6.048076 28.749025 205 205 205 0
4.519000 -6.062073 28.815557 205 205 205 0
4.625093 -6.056669 28.789869 206 206 206 0
4.735181 -6.056627 28.789670 206 206 206 0
4.850544 -6.063180 28.820820 206 206 206 0
4.964955 -6.068279 28.845057 206 206 206 0
5.077551 -6.070985 28.857919 206 206 206 0
5.190796 -6.074335 28.873846 205 205 205 0
5.307501 -6.081511 28.907956 205 205 205 0
5.421345 -6.085183 28.925409 206 206 206 0
5.534167 -6.087584 28.936821 206 206 206 0
5.643705 -6.086349 28.930951 206 206 206 0
5.759390 -6.091663 28.956210 205 205 205 0
5.879432 -6.101298 29.002009 205 205 205 0
5.993099 -6.104083 29.015247 205 205 205 0
6.110985 -6.110985 29.048058 206 206 206 0
6.223939 -6.112797 29.056670 205 205 205 0
6.334935 -6.112657 29.056003 205 205 205 0
6.451719 -6.118010 29.081449 205 205 205 0
6.563166 -6.118205 29.082378 206 206 206 0
6.688836 -6.131433 29.145255 206 206 206 0
6.801963 -6.132918 29.152313 205 205 205 0
6.911756 -6.131396 29.145080 205 205 205 0
7.027921 -6.135486 29.164522 205 205 205 0
7.152455 -6.146641 29.217544 205 205 205 0
7.262647 -6.145316 29.211249 205 205 205 0
7.380402 -6.150335 29.235103 205 205 205 0
7.498977 -6.155877 29.261445 205 205 205 0
7.617039 -6.160840 29.285039 205 205 205 0
7.733058 -6.164032 29.300211 204 204 204 0
7.847272 -6.165714 29.308206 204 204 204 0
7.962759 -6.168335 29.320665 204 204 204 0
8.079851 -6.172108 29.338602 205 205 205 0
8.205065 -6.181899 29.385139 205 205 205 0
8.316965 -6.181528 29.383377 205 205 205 0
8.437883 -6.187781 29.413100 206 206 206 0
8.558209 -6.193441 29.440004 204 204 204 0
8.669797 -6.192712 29.436542 205 205 205 0
8.786667 -6.195727 29.450870 205 205 205 0
8.906198 -6.200518 29.473643 204 204 204 0
-5.044253 -6.643650 32.164853 99 99 99 0
-4.848649 -6.545676 31.690518 126 126 126 0
-4.667003 -6.462004 31.285421 139 139 139 0
-4.503695 -6.399987 30.985173 149 149 149 0
-4.353343 -6.353528 30.760242 152 152 152 0
-4.209322 -6.313982 30.568784 160 160 160 0
-4.073903 -6.285450 30.430646 164 164 164 0
-3.946374 -6.267770 30.345048 166 166 166 0
-3.824998 -6.259088 30.303015 174 174 174 0
-2.897603 -4.889706 23.673230 199 199 199 0
-2.799754 -4.876991 23.611673 205 205 205 0
-2.709700 -4.877461 23.613946 204 204 204 0
-2.624515 -4.887027 23.660263 204 204 204 0
-2.538214 -4.895128 23.699480 205 205 205 0
-2.448168 -4.896337 23.705335 205 205 205 0
-2.360852 -4.903307 23.739080 204 204 204 0
-2.269406 -4.901916 23.732347 205 205 205 0
-2.177919 -4.900318 23.724610 205 205 205 0
-2.090334 -4.907742 23.760550 205 205 205 0
-2.000490 -4.910294 23.772909 205 205 205 0
-1.912544 -4.917970 23.810071 205 205 205 0
-1.821089 -4.916942 23.805091 205 205 205 0
-1.730361 -4.917868 23.809576 205 205 205 0
-1.642657 -4.927972 23.858494 205 205 205 0
-1.552758 -4.932291 23.879405 205 205 205 0
-1.461166 -4.931434 23.875256 205 205 205 0
-1.370694 -4.934499 23.890097 204 204 204 0
-1.280788 -4.940182 23.917606 205 205 205 0
-1.190173 -4.943794 23.935094 206 206 206 0
-1.100077 -4.950345 23.966810 205 205 205 0
-1.007971 -4.948221 23.956531 206 206 206 0
-0.916470 -4.948938 23.959999 205 205 205 0
-0.825655 -4.953928 23.984159 206 206 206 0
-0.734965 -4.961012 24.018456 205 205 205 0
-0.643260 -4.962293 24.024655 205 205 205 0
-0.551992 -4.967930 24.051949 205 205 205 0
-0.459668 -4.964417 24.034943 205 205 205 0
-0.368284 -4.971837 24.070862 206 206 206 0
-0.276570 -4.978260 24.101961 205 205 205 0
-0.184565 -4.983249 24.126116 205 205 205 0
-0.092253 -4.981651 24.118380 206 206 206 0
0.000000 -4.986450 24.141612 205 205 205 0
0.092431 -4.991265 24.164923 205 205 205 0
0.184949 -4.993636 24.176402 206 206 206 0
0.277619 -4.997149 24.193413 205 205 205 0
0.369902 -4.993677 24.176601 206 206 206 0
0.462893 -4.999240 24.203535 205 205 205 0
0.555860 -5.002742 24.220489 205 205 205 0
0.648229 -5.000622 24.210223 206 206 206 0
0.739434 -4.991176 24.164495 205 205 205 0
0.832353 -4.994118 24.178735 204 204 204 0
0.928111 -5.011797 24.264328 201 201 201 0
1.023792 -5.025889 24.332553 199 199 199 0
1.117455 -5.028550 24.345435 198 198 198 0
1.202945 -4.996847 24.191950 199 199 199 0
1.272535 -4.908348 23.763488 205 205 205 0
1.347207 -4.849945 23.480730 205 205 205 0
1.833496 -6.188048 29.959079 206 206 206 0
1.923007 -6.108377 29.573356 206 206 206 0
2.018059 -6.054178 29.310958 207 207 207 0
2.127156 -6.045602 29.269436 207 207 207 0
2.225887 -6.009895 29.096561 207 207 207 0
2.310360 -5.940925 28.762647 207 207 207 0
2.408508 -5.911791 28.621599 207 207 207 0
2.519209 -5.914665 28.635513 208 208 208 0
2.640247 -5.940557 28.760865 207 207 207 0
2.735504 -5.908688 28.606573 207 207 207 0
2.836661 -5.891526 28.523486 207 207 207 0
2.943381 -5.886763 28.500425 207 207 207 0
3.056822 -5.895300 28.541756 207 207 207 0
3.169187 -5.901244 28.570536 209 209 209 0
3.275235 -5.895423 28.542352 208 208 208 0
3.387075 -5.900066 28.564832 207 207 207 0
3.495944 -5.899405 28.561632 206 206 206 0
3.609248 -5.906042 28.593765 207 207 207 0
3.719528 -5.907486 28.600755 207 207 207 0
3.835499 -5.917627 28.649851 206 206 206 0
3.948391 -5.922586 28.673863 207 207 207 0
4.055471 -5.918796 28.655510 206 206 206 0
4.166264 -5.920480 28.663665 206 206 206 0
4.288038 -5.937283 28.745018 207 207 207 0
4.398939 -5.938567 28.751232 207 207 207 0
4.506316 -5.935148 28.734678 206 206 206 0
4.622887 -5.943712 28.776143 206 206 206 0
4.734235 -5.945318 28.783917 206 206 206 0
4.850299 -5.952640 28.819365 206 206 206 0
4.963569 -5.956283 28.837001 206 206 206 0
5.070765 -5.952638 28.819354 206 206 206 0
5.187225 -5.959790 28.853982 205 205 205 0
5.305079 -5.968214 28.894766 205 205 205 0
5.422655 -5.975988 28.932402 205 205 205 0
5.531156 -5.973649 28.921079 205 205 205 0
5.643485 -5.975455 28.929823 205 205 205 0
5.756049 -5.977436 28.939414 205 205 205 0
5.873596 -5.984418 28.973218 206 206 206 0
5.983723 -5.983723 28.969851 205 205 205 0
6.103051 -5.992086 29.010342 206 206 206 0
6.219381 -5.997260 29.035393 205 205 205 0
6.331863 -5.998607 29.041913 205 205 205 0
6.445125 -6.000634 29.051725 205 205 205 0
6.561928 -6.005833 29.076895 204 204 204 0
6.680715 -6.012644 29.109870 206 206 206 0
6.793753 -6.014142 29.117125 205 205 205 0
6.906897 -6.015684 29.124592 205 205 205 0
7.022672 -6.019433 29.142739 205 205 205 0
7.147214 -6.030462 29.196138 205 205 205 0
7.259293 -6.030797 29.197760 205 205 205 0
7.371871 -6.031531 29.201311 205 205 205 0
7.490734 -6.037308 29.229281 205 205 205 0
7.609391 -6.042751 29.255634 206 206 206 0
7.730759 -6.050159 29.291498 205 205 205 0
7.843297 -6.050544 29.293361 205 205 205 0
7.953522 -6.049157 29.286649 206 206 206 0
8.077421 -6.058066 29.329780 205 205 205 0
8.200598 -6.066196 29.369141 204 204 204 0
8.308419 -6.062900 29.353184 205 205 205 0
8.431837 -6.070923 29.392025 204 204 204 0
8.553489 -6.077479 29.423765 205 205 205 0
8.666231 -6.077616 29.424431 204 204 204 0
8.779490 -6.078109 29.426815 205 205 205 0
8.901668 -6.084684 29.458652 204 204 204 0
-5.182226 -6.539476 32.257865 89 89 89 0
-4.978977 -6.436239 31.748620 120 120 120 0
-4.797247 -6.356353 31.354558 135 135 135 0
-4.632579 -6.295555 31.054657 147 147 147 0
-4.471888 -6.237107 30.766346 152 152 152 0
-4.328492 -6.200273 30.584647 160 160 160 0
-4.186891 -6.164034 30.405891 164 164 164 0
-4.051542 -6.135193 30.263621 165 165 165 0
-3.925584 -6.119293 30.185191 170 170 170 0
-3.815683 -6.128218 30.229218 176 176 176 0
-2.898749 -4.801053 23.682592 200 200 200 0
-2.797362 -4.782587 23.591499 204 204 204 0
-2.706661 -4.781768 23.587459 205 205 205 0
-2.620510 -4.789208 23.624160 205 205 205 0
-2.534075 -4.796643 23.660835 205 205 205 0
-2.446419 -4.802229 23.688392 205 205 205 0
-2.354014 -4.798567 23.670326 205 205 205 0
-2.263393 -4.798393 23.669469 205 205 205 0
-2.176423 -4.806268 23.708312 205 205 205 0
-2.086827 -4.808775 23.720681 204 204 204 0
-1.998355 -4.814218 23.747529 205 205 205 0
-1.908093 -4.815664 23.754665 205 205 205 0
-1.819020 -4.820402 23.778033 205 205 205 0
-1.729429 -4.824197 23.796754 205 205 205 0
-1.639884 -4.828547 23.818212 205 205 205 0
-1.549230 -4.829952 23.825143 205 205 205 0
-1.457845 -4.829110 23.820989 205 205 205 0
-1.367351 -4.831305 23.831818 205 205 205 0
-1.278337 -4.839419 23.871842 205 205 205 0
-1.188668 -4.846108 23.904836 206 206 206 0
-1.096871 -4.844513 23.896969 206 206 206 0
-1.007006 -4.851937 23.933592 205 205 205 0
-0.915064 -4.849838 23.923237 205 205 205 0
-0.824288 -4.854139 23.944453 206 206 206 0
-0.733876 -4.861931 23.982887 206 206 206 0
-0.642952 -4.868066 24.013151 206 206 206 0
-0.550797 -4.865372 23.999862 206 206 206 0
-0.458850 -4.863807 23.992140 206 206 206 0
-0.367659 -4.871480 24.029993 206 206 206 0
-0.276213 -4.879757 24.070819 206 206 206 0
-0.184163 -4.880324 24.073615 206 206 206 0
-0.092092 -4.880871 24.076314 205 205 205 0
0.000000 -4.882620 24.084942 206 206 206 0
0.092209 -4.887057 24.106827 205 205 205 0
0.184671 -4.893779 24.139986 206 206 206 0
0.277306 -4.899067 24.166074 206 206 206 0
0.369638 -4.897704 24.159349 206 206 206 0
0.462647 -4.904054 24.190674 206 206 206 0
0.555374 -4.905808 24.199323 206 206 206 0
0.648766 -4.912088 24.230302 206 206 206 0
0.741575 -4.912934 24.234476 206 206 206 0
0.834526 -4.914434 24.241873 207 207 207 0
0.927708 -4.916852 24.253802 206 206 206 0
1.021636 -4.922426 24.281297 206 206 206 0
1.116299 -4.930319 24.320232 206 206 206 0
1.209625 -4.931549 24.326299 206 206 206 0
1.302935 -4.932538 24.331177 205 205 205 0
1.396651 -4.934833 24.342499 206 206 206 0
1.492647 -4.944395 24.389664 205 205 205 0
1.584797 -4.940837 24.372117 206 206 206 0
1.678382 -4.941903 24.377375 206 206 206 0
1.771557 -4.941711 24.376427 207 207 207 0
1.866982 -4.947502 24.404991 206 206 206 0
1.963718 -4.956049 24.447154 206 206 206 0
2.051914 -4.943247 24.384004 207 207 207 0
2.133595 -4.916545 24.252288 206 206 206 0
2.223772 -4.910829 24.224091 206 206 206 0
2.324138 -4.927173 24.304711 207 207 207 0
2.411131 -4.914997 24.244654 207 207 207 0
2.485842 -4.879616 24.070124 206 206 206 0
3.211701 -6.079291 29.987870 207 207 207 0
3.298377 -6.028068 29.735197 207 207 207 0
3.405603 -6.016566 29.678459 206 206 206 0
3.507367 -5.996465 29.579309 208 208 208 0
3.610518 -5.979920 29.497695 207 207 207 0
3.695633 -5.935410 29.278135 207 207 207 0
3.774173 -5.883269 29.020936 207 207 207 0
3.872991 -5.864815 28.929905 209 209 209 0
3.992619 -5.878023 28.995057 207 207 207 0
4.089999 -5.858648 28.899483 207 207 207 0
4.192935 -5.848040 28.847160 207 207 207 0
4.292686 -5.833650 28.776173 206 206 206 0
4.404576 -5.836064 28.788081 206 206 206 0
4.520593 -5.843694 28.825717 206 206 206 0
4.627323 -5.839240 28.803751 206 206 206 0
4.737133 -5.838791 28.801536 207 207 207 0
4.857139 -5.850644 28.860003 206 206 206 0
4.966129 -5.848996 28.851874 206 206 206 0
5.072310 -5.844183 28.828133 206 206 206 0
5.185155 -5.847089 28.842467 205 205 205 0
5.303515 -5.855965 28.886249 205 205 205 0
5.419687 -5.862111 28.916566 207 207 207 0
5.528453 -5.860160 28.906943 205 205 205 0
5.642310 -5.863577 28.923798 206 206 206 0
5.754573 -5.865238 28.931992 206 206 206 0
5.868363 -5.868363 28.947409 205 205 205 0
5.986225 -5.875369 28.981964 205 205 205 0
6.098190 -5.876438 28.987239 206 206 206 0
6.217852 -5.884753 29.028254 206 206 206 0
6.331557 -5.887237 29.040509 206 206 206 0
6.444362 -5.888813 29.048283 206 206 206 0
6.557373 -5.890522 29.056710 205 205 205 0
6.675161 -5.896392 29.085670 206 206 206 0
6.794058 -5.903034 29.118432 206 206 206 0
6.907265 -5.904598 29.126144 205 205 205 0
7.021130 -5.906665 29.136341 205 205 205 0
7.147978 -5.919419 29.199256 206 206 206 0
7.258045 -5.918098 29.192738 205 205 205 0
7.370666 -5.918868 29.196538 205 205 205 0
7.485041 -5.921002 29.207066 206 206 206 0
7.608502 -5.930156 29.252219 206 206 206 0
7.730156 -5.937656 29.289215 205 205 205 0
7.839715 -5.935784 29.279980 204 204 204 0
7.953883 -5.937406 29.287979 205 205 205 0
8.077468 -5.945914 29.329950 206 206 206 0
8.194296 -5.949284 29.346571 206 206 206 0
8.314299 -5.954836 29.373958 205 205 205 0
8.427599 -5.955503 29.377252 206 206 206 0
8.548931 -5.961754 29.408087 205 205 205 0
8.666183 -5.965035 29.424268 204 204 204 0
8.780634 -5.966328 29.430647 204 204 204 0
8.896689 -5.968665 29.442175 205 205 205 0
-5.333312 -6.449586 32.426277 81 81 81 0
-5.120317 -6.339440 31.872499 112 112 112 0
-4.936130 -6.260457 31.475402 131 131 131 0
-4.768139 -6.198581 31.164308 145 145 145 0
-4.609895 -6.146527 30.902598 150 150 150 0
-4.458071 -6.100518 30.671284 157 157 157 0
-4.304037 -6.048917 30.411850 162 162 162 0
-4.167408 -6.019589 30.264398 164 164 164 0
-4.036352 -5.996865 30.150153 169 169 169 0
-3.909880 -5.979816 30.064437 172 172 172 0
-3.805512 -5.996564 30.148636 176 176 176 0
-2.900022 -4.712536 23.692992 201 201 201 0
-2.793720 -4.686240 23.560785 205 205 205 0
-2.702470 -4.684281 23.550933 205 205 205 0
-2.614631 -4.688304 23.571163 205 205 205 0
-2.531020 -4.700467 23.632311 204 204 204 0
-2.440781 -4.700763 23.633799 205 205 205 0
-2.350670 -4.701341 23.636706 205 205 205 0
-2.263070 -4.707186 23.666093 205 205 205 0
-2.172262 -4.706568 23.662984 205 205 205 0
-2.083870 -4.711358 23.687069 205 205 205 0
-1.994120 -4.713374 23.697203 205 205 205 0
-1.903290 -4.712908 23.694862 205 205 205 0
-1.815774 -4.721012 23.735604 205 205 205 0
-1.725995 -4.723775 23.749495 205 205 205 0
-1.636226 -4.726875 23.765081 206 206 206 0
-1.546062 -4.729132 23.776430 205 205 205 0
-1.457179 -4.735830 23.810107 205 205 205 0
-1.366550 -4.737372 23.817861 205 205 205 0
-1.275440 -4.737348 23.817735 205 205 205 0
-1.186254 -4.745016 23.856289 206 206 206 0
-1.095313 -4.746356 23.863029 205 205 205 0
-1.004320 -4.747694 23.869755 205 205 205 0
-0.913777 -4.751641 23.889596 205 205 205 0
-0.822492 -4.752176 23.892288 205 205 205 0
-0.732356 -4.760317 23.933216 205 205 205 0
-0.641779 -4.767497 23.969319 206 206 206 0
-0.549850 -4.765365 23.958597 205 205 205 0
-0.458121 -4.764454 23.954018 206 206 206 0
-0.367087 -4.772137 23.992646 205 205 205 0
-0.275788 -4.780322 24.033796 205 205 205 0
-0.183923 -4.782010 24.042283 206 206 206 0
-0.092020 -4.785048 24.057555 206 206 206 0
0.000000 -4.781335 24.038890 206 206 206 0
0.092070 -4.787631 24.070542 206 206 206 0
0.184434 -4.795274 24.108968 206 206 206 0
0.276921 -4.799971 24.132583 206 206 206 0
0.369218 -4.799840 24.131928 206 206 206 0
0.461670 -4.801364 24.139587 206 206 206 0
0.554393 -4.804736 24.156542 206 206 206 0
0.647773 -4.812026 24.193192 205 205 205 0
0.740741 -4.814814 24.207209 206 206 206 0
0.833881 -4.817977 24.223110 206 206 206 0
0.926721 -4.818948 24.227995 206 206 206 0
1.019463 -4.819282 24.229671 206 206 206 0
1.114030 -4.827464 24.270811 206 206 206 0
1.207230 -4.828920 24.278128 206 206 206 0
1.300758 -4.831385 24.290524 206 206 206 0
1.394325 -4.833662 24.301969 206 206 206 0
1.490120 -4.842890 24.348367 206 206 206 0
1.583967 -4.845076 24.359354 206 206 206 0
1.677325 -4.845605 24.362017 206 206 206 0
1.771130 -4.847302 24.370550 206 206 206 0
1.866971 -4.854124 24.404846 206 206 206 0
1.961272 -4.856483 24.416709 206 206 206 0
2.056593 -4.861037 24.439604 206 206 206 0
2.150248 -4.861430 24.441579 206 206 206 0
2.246574 -4.867577 24.472484 207 207 207 0
2.341079 -4.869445 24.481875 206 206 206 0
2.438655 -4.877309 24.521414 206 206 206 0
2.533266 -4.878883 24.529326 206 206 206 0
2.626890 -4.878509 24.527447 206 206 206 0
2.723061 -4.882730 24.548668 206 206 206 0
2.819552 -4.887224 24.571260 206 206 206 0
2.914704 -4.889182 24.581104 207 207 207 0
3.006203 -4.885079 24.560479 207 207 207 0
3.097470 -4.880863 24.539279 207 207 207 0
3.199127 -4.892782 24.599206 206 206 206 0
3.294168 -4.894193 24.606298 206 206 206 0
3.380248 -4.882581 24.547917 206 206 206 0
3.458897 -4.861152 24.440182 207 207 207 0
3.555525 -4.865455 24.461817 206 206 206 0
3.656002 -4.874669 24.508142 206 206 206 0
3.734954 -4.855440 24.411462 206 206 206 0
3.809334 -4.831350 24.290348 206 206 206 0
4.771795 -5.907937 29.703050 206 206 206 0
4.868419 -5.887391 29.599752 206 206 206 0
4.981579 -5.887321 29.599402 206 206 206 0
5.079883 -5.870087 29.512754 206 206 206 0
5.162046 -5.835357 29.338143 207 207 207 0
5.252335 -5.811094 29.216159 206 206 206 0
5.354059 -5.800231 29.161544 205 205 205 0
5.476328 -5.811613 29.218768 205 205 205 0
5.570260 -5.793070 29.125543 206 206 206 0
5.668867 -5.780022 29.059938 206 206 206 0
5.768940 -5.768940 29.004226 206 206 206 0
5.881617 -5.770643 29.012786 206 206 206 0
5.989578 -5.767742 28.998199 205 205 205 0
6.107446 -5.774312 29.031232 206 206 206 0
6.213077 -5.769286 29.005962 205 205 205 0
6.325899 -5.770996 29.014560 207 207 207 0
6.444462 -5.777794 29.048737 205 205 205 0
6.557846 -5.779797 29.058808 206 206 206 0
6.679797 -5.789157 29.105868 205 205 205 0
6.787362 -5.785948 29.089732 205 205 205 0
6.897333 -5.784860 29.084265 205 205 205 0
7.019763 -5.794090 29.130668 206 206 206 0
7.136066 -5.798053 29.150595 205 205 205 0
7.247857 -5.798285 29.151761 206 206 206 0
7.368551 -5.805525 29.188159 205 205 205 0
7.482969 -5.807678 29.198983 205 205 205 0
7.606151 -5.816469 29.243181 205 205 205 0
7.726283 -5.822706 29.274540 205 205 205 0
7.828052 -5.815124 29.236421 206 206 206 0
7.946803 -5.820194 29.261909 205 205 205 0
8.069049 -5.827647 29.299380 205 205 205 0
8.187942 -5.832506 29.323813 205 205 205 0
8.307585 -5.837762 29.350239 205 205 205 0
8.422657 -5.839709 29.360023 204 204 204 0
8.545438 -5.846879 29.396071 205 205 205 0
8.658598 -5.847365 29.398515 204 204 204 0
8.774611 -5.849741 29.410461 204 204 204 0
8.896568 -5.855969 29.441775 204 204 204 0
-5.605381 -6.497147 33.305891 75 75 75 0
-5.274947 -6.256332 32.071419 102 102 102 0
-5.072153 -6.159043 31.572690 129 129 129 0
-4.895378 -6.089373 31.215546 141 141 141 0
-4.734241 -6.036157 30.942749 149 149 149 0
-4.582542 -5.992554 30.719232 155 155 155 0
-4.431720 -5.947835 30.489989 161 161 161 0
-4.287835 -5.910260 30.297370 162 162 162 0
-4.152100 -5.882141 30.153229 167 167 167 0
-4.018217 -5.855117 30.014695 171 171 171 0
-3.893413 -5.840120 29.937817 171 171 171 0
-3.805577 -5.881346 30.149155 177 177 177 0
-2.893595 -4.611667 23.640481 202 202 202 0
-2.791809 -4.592976 23.544667 205 205 205 0
-2.697437 -4.585643 23.507077 205 205 205 0
-2.612320 -4.594080 23.550327 204 204 204 0
-2.526565 -4.601959 23.590714 205 205 205 0
-2.438801 -4.606624 23.614628 204 204 204 0
-2.346062 -4.601890 23.590364 205 205 205 0
-2.256609 -4.603482 23.598522 205 205 205 0
-2.168481 -4.608023 23.621801 205 205 205 0
-2.079309 -4.610642 23.635229 205 205 205 0
-1.991309 -4.616217 23.663807 204 204 204 0
-1.901662 -4.618322 23.674598 205 205 205 0
-1.812787 -4.622606 23.696559 206 206 206 0
-1.723081 -4.625113 23.709410 205 205 205 0
-1.633663 -4.628713 23.727862 205 205 205 0
-1.544490 -4.633471 23.752256 205 205 205 0
-1.454738 -4.636979 23.770236 205 205 205 0
-1.363859 -4.637121 23.770966 205 205 205 0
-1.273356 -4.638656 23.778833 206 206 206 0
-1.183498 -4.642955 23.800873 206 206 206 0
-1.093860 -4.648905 23.831374 205 205 205 0
-1.002168 -4.646414 23.818605 206 206 206 0
-0.911999 -4.651193 23.843099 205 205 205 0
-0.821282 -4.653930 23.857133 205 205 205 0
-0.731365 -4.662453 23.900822 205 205 205 0
-0.640037 -4.663127 23.904275 206 206 206 0
-0.548921 -4.665831 23.918142 206 206 206 0
-0.457452 -4.666010 23.919057 206 206 206 0
-0.366477 -4.672588 23.952777 206 206 206 0
-0.275147 -4.677495 23.977930 206 206 206 0
-0.183567 -4.680956 23.995675 206 206 206 0
-0.091825 -4.683055 24.006433 205 205 205 0
0.000000 -4.684600 24.014352 206 206 206 0
0.091902 -4.687000 24.026657 206 206 206 0
0.184050 -4.693284 24.058872 205 205 205 0
0.276257 -4.696365 24.074665 206 206 206 0
0.368504 -4.698422 24.085208 206 206 206 0
0.460860 -4.700772 24.097252 206 206 206 0
0.553373 -4.703671 24.112116 206 206 206 0
0.646185 -4.707922 24.133909 206 206 206 0
0.739693 -4.715540 24.172960 206 206 206 0
0.832833 -4.719384 24.192666 207 207 207 0
0.925317 -4.719115 24.191285 205 205 205 0
1.018603 -4.722613 24.209217 206 206 206 0
1.112541 -4.728299 24.238363 206 206 206 0
1.206222 -4.732100 24.257851 206 206 206 0
1.298433 -4.730007 24.247118 207 207 207 0
1.392008 -4.732829 24.261586 206 206 206 0
1.487022 -4.739884 24.297752 206 206 206 0
1.581274 -4.743823 24.317943 206 206 206 0
1.674962 -4.745725 24.327693 206 206 206 0
1.768326 -4.746558 24.331966 207 207 207 0
1.863198 -4.751154 24.355526 206 206 206 0
1.958264 -4.755785 24.379264 206 206 206 0
2.053911 -4.761339 24.407736 207 207 207 0
2.146610 -4.759874 24.400227 207 207 207 0
2.242411 -4.765123 24.427133 206 206 206 0
2.336781 -4.767033 24.436926 206 206 206 0
2.434251 -4.774876 24.477130 207 207 207 0
2.529029 -4.777055 24.488300 207 207 207 0
2.622831 -4.777299 24.489553 206 206 206 0
2.717325 -4.778744 24.496956 207 207 207 0
2.815511 -4.786369 24.536045 207 207 207 0
2.909672 -4.786879 24.538662 206 206 206 0
3.006299 -4.791290 24.561270 207 207 207 0
3.102411 -4.794636 24.578423 207 207 207 0
3.198847 -4.798271 24.597058 207 207 207 0
3.298908 -4.806980 24.641700 206 206 206 0
3.391699 -4.804907 24.631076 207 207 207 0
3.488777 -4.808855 24.651315 206 206 206 0
3.584004 -4.810110 24.657747 206 206 206 0
3.683485 -4.816865 24.692372 207 207 207 0
3.780018 -4.819523 24.706000 207 207 207 0
3.878173 -4.824069 24.729303 207 207 207 0
3.972705 -4.823999 24.728947 206 206 206 0
4.071133 -4.828553 24.752288 207 207 207 0
4.167925 -4.831004 24.764853 207 207 207 0
4.267598 -4.836611 24.793599 207 207 207 0
4.355884 -4.829350 24.756375 207 207 207 0
4.451191 -4.830016 24.759788 207 207 207 0
4.553695 -4.838301 24.802259 207 207 207 0
4.643922 -4.833470 24.777497 207 207 207 0
4.727036 -4.821576 24.716526 207 207 207 0
4.820203 -4.820203 24.709484 207 207 207 0
4.923495 -4.828812 24.753620 207 207 207 0
5.012110 -4.822974 24.723689 207 207 207 0
5.095519 -4.812434 24.669661 206 206 206 0
5.170715 -4.794663 24.578563 206 206 206 0
5.272533 -4.801771 24.614999 206 206 206 0
6.451268 -5.772187 29.589579 206 206 206 0
6.549385 -5.758942 29.521683 207 207 207 0
6.634600 -5.734993 29.398916 206 206 206 0
6.731028 -5.721374 29.329097 207 207 207 0
6.849778 -5.726863 29.357238 206 206 206 0
6.961306 -5.726236 29.354022 206 206 206 0
7.049386 -5.706646 29.253600 206 206 206 0
7.153999 -5.700843 29.223850 205 205 205 0
7.264623 -5.699935 29.219199 205 205 205 0
7.379373 -5.702243 29.231027 204 204 204 0
7.488802 -5.700432 29.221743 206 206 206 0
7.599794 -5.699846 29.218740 205 205 205 0
7.720075 -5.706143 29.251020 206 206 206 0
7.832136 -5.706270 29.251674 205 205 205 0
7.945225 -5.707134 29.256099 205 205 205 0
8.070300 -5.716463 29.303922 205 205 205 0
8.183275 -5.717083 29.307100 206 206 206 0
8.302900 -5.722269 29.333688 204 204 204 0
8.415747 -5.722708 29.335938 204 204 204 0
8.536629 -5.728528 29.365770 205 205 205 0
8.659973 -5.735826 29.403186 205 205 205 0
8.771490 -5.735205 29.400000 206 206 206 0
8.890279 -5.739294 29.420960 204 204 204 0
-5.429847 -6.170281 32.262905 88 88 88 0
-5.213984 -6.062772 31.700767 119 119 119 0
-5.033879 -5.992713 31.334447 130 130 130 0
-4.861712 -5.928917 31.000871 139 139 139 0
-4.710530 -5.888162 30.787775 137 137 137 0
-4.564755 -5.852250 30.600000 139 139 139 0
-4.416410 -5.811066 30.384659 135 135 135 0
-4.265325 -5.763953 30.138317 131 131 131 0
-4.139099 -5.748749 30.058820 131 131 131 0
-4.008514 -5.726449 29.942215 123 123 123 0
-3.876102 -5.700150 29.804704 122 122 122 0
-2.902394 -4.397566 22.993811 144 144 144 0
-2.883664 -4.505725 23.559344 202 202 202 0
-2.784829 -4.491659 23.485799 205 205 205 0
-2.694855 -4.491425 23.484576 204 204 204 0
-2.604287 -4.490150 23.477908 205 205 205 0
-2.520677 -4.501209 23.535731 205 205 205 0
-2.431499 -4.502776 23.543926 204 204 204 0
-2.344194 -4.508065 23.571584 205 205 205 0
-2.254637 -4.509274 23.577905 205 205 205 0
-2.163876 -4.508076 23.571639 206 206 206 0
-2.078050 -4.517500 23.620913 205 205 205 0
-1.989794 -4.522259 23.645798 205 205 205 0
-1.898758 -4.520853 23.638447 205 205 205 0
-1.808572 -4.521431 23.641467 205 205 205 0
-1.718357 -4.521991 23.644398 206 206 206 0
-1.630532 -4.529254 23.682376 205 205 205 0
-1.540703 -4.531480 23.694015 206 206 206 0
-1.452468 -4.538963 23.733142 205 205 205 0
-1.361766 -4.539222 23.734492 205 205 205 0
-1.270607 -4.537881 23.727482 206 206 206 0
-1.181661 -4.544849 23.763918 205 205 205 0
-1.092313 -4.551305 23.797673 206 206 206 0
-1.000970 -4.549863 23.790135 206 206 206 0
-0.911447 -4.557235 23.828681 206 206 206 0
-0.820120 -4.556221 23.823376 206 206 206 0
-0.730131 -4.563320 23.860497 206 206 206 0
-0.639154 -4.565387 23.871304 205 205 205 0
-0.548237 -4.568642 23.888323 206 206 206 0
-0.457006 -4.570057 23.895722 206 206 206 0
-0.365737 -4.571709 23.904360 206 206 206 0
-0.274842 -4.580697 23.951355 205 205 205 0
-0.183198 -4.579960 23.947503 206 206 206 0
-0.091723 -4.586141 23.979823 205 205 205 0
0.000000 -4.587018 23.984409 205 205 205 0
0.091763 -4.588131 23.990228 206 206 206 0
0.183735 -4.593365 24.017593 206 206 206 0
0.275746 -4.595764 24.030137 207 207 207 0
0.367524 -4.594047 24.021162 206 206 206 0
0.459651 -4.596512 24.034051 206 206 206 0
0.552745 -4.606207 24.084744 206 206 206 0
0.645444 -4.610313 24.106211 206 206 206 0
0.737991 -4.612442 24.117343 206 206 206 0
0.830763 -4.615348 24.132537 206 206 206 0
0.923086 -4.615428 24.132955 206 206 206 0
1.016467 -4.620302 24.158443 206 206 206 0
1.109630 -4.623459 24.174948 207 207 207 0
1.203671 -4.629502 24.206548 206 206 206 0
1.297471 -4.633827 24.229159 206 206 206 0
1.389589 -4.631965 24.219423 206 206 206 0
1.484057 -4.637678 24.249296 207 207 207 0
1.577982 -4.641125 24.267320 206 206 206 0
1.673093 -4.647481 24.300554 207 207 207 0
1.765722 -4.646636 24.296134 206 206 206 0
1.859761 -4.649403 24.310604 206 206 206 0
1.955238 -4.655328 24.341584 206 206 206 0
2.050250 -4.659659 24.364230 206 206 206 0
2.143255 -4.659249 24.362086 207 207 207 0
2.238444 -4.663426 24.383925 206 206 206 0
2.332360 -4.664720 24.390691 206 206 206 0
2.428999 -4.671153 24.424327 207 207 207 0
2.525480 -4.676816 24.453938 206 206 206 0
2.617153 -4.673487 24.436535 207 207 207 0
2.712281 -4.676346 24.451482 206 206 206 0
2.811130 -4.685217 24.497869 207 207 207 0
2.904528 -4.684722 24.495281 207 207 207 0
3.003017 -4.692215 24.534455 207 207 207 0
3.096252 -4.691291 24.529624 207 207 207 0
3.193845 -4.696830 24.558589 206 206 206 0
3.290293 -4.700419 24.577354 207 207 207 0
3.385131 -4.701571 24.583380 207 207 207 0
3.482458 -4.706025 24.606665 206 206 206 0
3.579720 -4.710158 24.628279 207 207 207 0
3.676988 -4.714087 24.648823 207 207 207 0
3.773151 -4.716438 24.661116 208 208 208 0
3.870290 -4.719866 24.679040 207 207 207 0
3.965387 -4.720699 24.683394 207 207 207 0
4.062975 -4.724389 24.702688 206 206 206 0
4.162985 -4.730665 24.735504 207 207 207 0
4.261133 -4.734592 24.756037 207 207 207 0
4.358404 -4.737396 24.770697 207 207 207 0
4.452183 -4.736365 24.765308 207 207 207 0
4.555147 -4.744945 24.810170 206 206 206 0
4.653304 -4.748270 24.827553 207 207 207 0
4.753329 -4.753329 24.854005 207 207 207 0
4.846867 -4.751831 24.846174 207 207 207 0
4.946081 -4.755848 24.867177 207 207 207 0
5.047266 -4.761571 24.897106 207 207 207 0
5.146507 -4.765284 24.916519 207 207 207 0
5.244365 -4.767604 24.928649 207 207 207 0
5.341256 -4.768978 24.935834 207 207 207 0
5.439500 -4.771491 24.948974 206 206 206 0
5.540685 -4.776453 24.974915 207 207 207 0
5.642967 -4.782175 25.004839 207 207 207 0
5.736258 -4.780215 24.994586 207 207 207 0
5.833666 -4.781693 25.002317 206 206 206 0
5.930016 -4.782271 25.005337 207 207 207 0
6.019386 -4.777291 24.979298 207 207 207 0
6.122414 -4.783136 25.009863 206 206 206 0
6.218719 -4.783630 25.012444 206 206 206 0
6.312844 -4.782457 25.006313 207 207 207 0
6.400848 -4.776752 24.976482 207 207 207 0
6.495364 -4.776003 24.972565 207 207 207 0
7.762130 -5.624732 29.410362 206 206 206 0
7.827805 -5.591290 29.235501 205 205 205 0
7.940338 -5.591787 29.238103 205 205 205 0
8.066756 -5.601914 29.291054 206 206 206 0
8.184157 -5.605587 29.310260 205 205 205 0
8.291552 -5.602400 29.293593 206 206 206 0
8.412389 -5.608259 29.324230 205 205 205 0
8.532861 -5.613724 29.352807 206 206 206 0
8.652768 -5.618680 29.378721 205 205 205 0
8.764381 -5.618193 29.376171 205 205 205 0
8.887711 -5.625134 29.412464 205 205 205 0
-5.394001 -6.006955 32.049915 86 86 86 0
-5.203988 -5.930126 31.639995 90 90 90 0
-5.004484 -5.838565 31.151474 84 84 84 0
-4.852887 -5.799791 30.944598 75 75 75 0
-4.647651 -5.693372 30.376802 70 70 70 0
-2.992551 -4.443485 23.708069 128 128 128 0
-2.876871 -4.405208 23.503845 201 201 201 0
-2.778797 -4.392292 23.434932 205 205 205 0
-2.691784 -4.396581 23.457815 205 205 205 0
-2.600258 -4.393540 23.441588 205 205 205 0
-2.517427 -4.405497 23.505384 205 205 205 0
-2.429327 -4.408778 23.522892 205 205 205 0
-2.339775 -4.409575 23.527147 205 205 205 0
-2.249977 -4.409956 23.529176 206 206 206 0
-2.160722 -4.411474 23.537276 206 206 206 0
-2.072659 -4.415666 23.559642 205 205 205 0
-1.987012 -4.425617 23.612735 205 205 205 0
-1.895334 -4.422445 23.595814 206 206 206 0
-1.804585 -4.421233 23.589344 205 205 205 0
-1.716010 -4.425500 23.612111 205 205 205 0
-1.627652 -4.430829 23.640546 206 206 206 0
-1.539295 -4.436793 23.672363 206 206 206 0
-1.450376 -4.441776 23.698954 206 206 206 0
-1.359237 -4.440173 23.690401 206 206 206 0
-1.268855 -4.440992 23.694767 206 206 206 0
-1.179854 -4.447143 23.727587 205 205 205 0
-1.089599 -4.449195 23.738533 205 205 205 0
-1.000080 -4.454900 23.768973 206 206 206 0
-0.908825 -4.453242 23.760128 205 205 205 0
-0.819001 -4.459004 23.790870 206 206 206 0
-0.728280 -4.460715 23.800000 206 206 206 0
-0.638265 -4.467858 23.838111 206 206 206 0
-0.547081 -4.467828 23.837950 206 206 206 0
-0.455557 -4.464463 23.819997 205 205 205 0
-0.365196 -4.473650 23.869012 206 206 206 0
-0.274043 -4.476037 23.881749 207 207 207 0
-0.183029 -4.484215 23.925386 206 206 206 0
-0.091516 -4.484277 23.925715 205 205 205 0
0.000000 -4.487622 23.943560 206 206 206 0
0.091540 -4.485459 23.932019 207 207 207 0
0.183443 -4.494345 23.979433 206 206 206 0
0.275475 -4.499429 24.006555 206 206 206 0
0.367473 -4.501543 24.017834 206 206 206 0
0.459248 -4.500634 24.012988 206 206 206 0
0.551164 -4.501169 24.015841 207 207 207 0
0.644223 -4.509560 24.060610 206 206 206 0
0.736707 -4.512331 24.075396 206 206 206 0
0.829462 -4.515962 24.094767 206 206 206 0
0.921301 -4.514373 24.086292 206 206 206 0
1.014248 -4.518016 24.105727 207 207 207 0
1.107859 -4.523757 24.136360 206 206 206 0
1.201665 -4.529352 24.166208 206 206 206 0
1.294618 -4.531162 24.175865 207 207 207 0
1.387388 -4.532136 24.181062 206 206 206 0
1.481584 -4.537352 24.208897 206 206 206 0
1.576378 -4.543678 24.242644 206 206 206 0
1.669329 -4.544285 24.245884 207 207 207 0
1.762802 -4.546173 24.255960 206 206 206 0
1.856598 -4.548665 24.269255 206 206 206 0
1.950772 -4.551802 24.285989 207 207 207 0
2.046163 -4.557363 24.315662 207 207 207 0
2.139752 -4.558602 24.322273 207 207 207 0
2.234355 -4.561808 24.339376 207 207 207 0
2.328185 -4.563243 24.347037 207 207 207 0
2.425495 -4.571126 24.389092 207 207 207 0
2.521252 -4.575606 24.412998 206 206 206 0
2.614795 -4.575891 24.414519 206 206 206 0
2.707822 -4.575286 24.411291 207 207 207 0
2.806143 -4.583366 24.454402 207 207 207 0
2.901565 -4.586344 24.470289 206 206 206 0
2.998198 -4.590990 24.495080 207 207 207 0
3.091317 -4.590138 24.490533 207 207 207 0
3.186423 -4.592198 24.501522 207 207 207 0
3.284364 -4.598110 24.533067 207 207 207 0
3.380457 -4.601178 24.549437 207 207 207 0
3.476185 -4.603596 24.562338 206 206 206 0
3.572567 -4.606731 24.579064 207 207 207 0
3.670600 -4.611779 24.606000 208 208 208 0
3.768664 -4.616614 24.631792 207 207 207 0
3.863917 -4.617851 24.638397 206 206 206 0
3.959200 -4.619066 24.644878 207 207 207 0
4.057259 -4.623388 24.667937 208 208 208 0
4.155045 -4.627209 24.688324 207 207 207 0
4.255039 -4.633264 24.720631 207 207 207 0
4.351008 -4.634770 24.728662 207 207 207 0
4.445772 -4.634954 24.729647 208 208 208 0
4.543652 -4.638311 24.747558 207 207 207 0
4.647613 -4.647613 24.797189 207 207 207 0
4.744367 -4.649480 24.807149 207 207 207 0
4.838829 -4.649071 24.804966 207 207 207 0
4.937924 -4.653044 24.826165 206 206 206 0
5.036320 -4.656220 24.843111 207 207 207 0
5.140362 -4.664402 24.886766 207 207 207 0
5.231099 -4.660434 24.865595 207 207 207 0
5.331543 -4.665100 24.890489 207 207 207 0
5.431540 -4.669218 24.912462 207 207 207 0
5.533122 -4.674535 24.940827 207 207 207 0
5.631197 -4.676757 24.952684 206 206 206 0
5.731521 -4.680742 24.973946 207 207 207 0
5.828847 -4.682189 24.981667 208 208 208 0
5.932155 -4.688316 25.014360 207 207 207 0
6.030635 -4.690494 25.025976 206 206 206 0
6.128998 -4.692514 25.036758 207 207 207 0
6.227102 -4.694277 25.046163 207 207 207 0
6.333047 -4.701807 25.086340 207 207 207 0
6.434912 -4.706130 25.109403 207 207 207 0
6.531144 -4.706265 25.110125 207 207 207 0
6.575243 -4.669375 24.913301 206 206 206 0
7.827599 -5.479319 29.234730 205 205 205 0
7.939638 -5.479468 29.235524 205 205 205 0
8.060745 -5.485784 29.269225 206 206 206 0
8.173379 -5.486241 29.271660 205 205 205 0
8.297687 -5.494414 29.315269 205 205 205 0
8.404281 -5.490797 29.295970 206 206 206 0
8.531508 -5.500578 29.348153 205 205 205 0
8.652003 -5.505820 29.376123 205 205 205 0
8.761185 -5.503821 29.365459 206 206 206 0
8.879125 -5.507305 29.384048 205 205 205 0
-2.988694 -4.347191 23.677510 135 135 135 0
-2.869228 -4.303842 23.441403 202 202 202 0
-2.771726 -4.291705 23.375302 205 205 205 0
-2.688031 -4.300849 23.425105 206 206 206 0
-2.596629 -4.297869 23.408874 205 205 205 0
-2.510993 -4.304559 23.445309 205 205 205 0
-2.423615 -4.308650 23.467590 205 205 205 0
-2.334672 -4.310163 23.475833 206 206 206 0
-2.244369 -4.309188 23.470521 205 205 205 0
-2.159358 -4.318717 23.522421 205 205 205 0
-2.070624 -4.321303 23.536509 205 205 205 0
-1.982511 -4.325480 23.559257 206 206 206 0
-1.891585 -4.323622 23.549139 206 206 206 0
-1.802003 -4.324807 23.555594 205 205 205 0
-1.714115 -4.330396 23.586035 206 206 206 0
-1.626557 -4.337484 23.624641 206 206 206 0
-1.537262 -4.340503 23.641085 206 206 206 0
-1.447603 -4.342810 23.653648 205 205 205 0
-1.357454 -4.343851 23.659321 205 205 205 0
-1.266570 -4.342526 23.652101 206 206 206 0
-1.177167 -4.346462 23.673538 206 206 206 0
-1.087436 -4.349744 23.691415 206 206 206 0
-0.997865 -4.354318 23.716329 205 205 205 0
-0.907966 -4.358236 23.737671 205 205 205 0
-0.817709 -4.361115 23.753352 206 206 206 0
-0.727164 -4.362985 23.763534 206 206 206 0
-0.637059 -4.368406 23.793061 206 206 206 0
-0.546393 -4.371145 23.807980 207 207 207 0
-0.455029 -4.368280 23.792373 207 207 207 0
-0.364709 -4.376503 23.837160 206 206 206 0
-0.273792 -4.380675 23.859885 206 206 206 0
-0.182752 -4.386043 23.889126 206 206 206 0
-0.091318 -4.383245 23.873882 207 207 207 0
0.000000 -4.386571 23.892002 206 206 206 0
0.091431 -4.388699 23.903590 206 206 206 0
0.183102 -4.394446 23.934892 207 207 207 0
0.274861 -4.397776 23.953030 206 206 206 0
0.366890 -4.402681 23.979743 206 206 206 0
0.458414 -4.400778 23.969377 206 206 206 0
0.550826 -4.406612 24.001154 207 207 207 0
0.643058 -4.409543 24.017119 206 206 206 0
0.735667 -4.414005 24.041419 206 206 206 0
0.828213 -4.417138 24.058488 207 207 207 0
0.919420 -4.413216 24.037122 207 207 207 0
1.013111 -4.420849 24.078700 206 206 206 0
1.105983 -4.423933 24.095494 206 206 206 0
1.199616 -4.429350 24.124999 206 206 206 0
1.292201 -4.430402 24.130728 206 206 206 0
1.384886 -4.431636 24.137450 206 206 206 0
1.478622 -4.435865 24.160487 207 207 207 0
1.572655 -4.440438 24.185393 206 206 206 0
1.667424 -4.446464 24.218214 207 207 207 0
1.760329 -4.447148 24.221939 207 207 207 0
1.853030 -4.447272 24.222614 207 207 207 0
1.948399 -4.453483 24.256446 206 206 206 0
2.042681 -4.456759 24.274289 207 207 207 0
2.136084 -4.457915 24.280582 207 207 207 0
2.230920 -4.461841 24.301966 206 206 206 0
2.325350 -4.464672 24.317388 206 206 206 0
2.420829 -4.469223 24.342172 206 206 206 0
2.515880 -4.472676 24.360980 206 206 206 0
2.608874 -4.472356 24.359236 207 207 207 0
2.702325 -4.472814 24.361732 207 207 207 0
2.800564 -4.480902 24.405785 207 207 207 0
2.895503 -4.483360 24.419171 207 207 207 0
2.992648 -4.488972 24.449740 207 207 207 0
3.085463 -4.487947 24.444155 207 207 207 0
3.181102 -4.490967 24.460604 208 208 208 0
3.278044 -4.495603 24.485857 207 207 207 0
3.374377 -4.499169 24.505279 206 206 206 0
3.472271 -4.504567 24.534680 207 207 207 0
3.565626 -4.503949 24.531311 208 208 208 0
3.664293 -4.509899 24.563719 207 207 207 0
3.760617 -4.512740 24.579196 207 207 207 0
3.856819 -4.515300 24.593139 207 207 207 0
3.954809 -4.519782 24.617549 207 207 207 0
4.049720 -4.520618 24.622102 207 207 207 0
4.146917 -4.523910 24.640032 207 207 207 0
4.246888 -4.530014 24.673281 207 207 207 0
4.342927 -4.531749 24.682731 207 207 207 0
4.437250 -4.531659 24.682240 207 207 207 0
4.538267 -4.538267 24.718228 207 207 207 0
4.638512 -4.543848 24.748629 207 207 207 0
4.735101 -4.545697 24.758698 208 208 208 0
4.830270 -4.546136 24.761091 207 207 207 0
4.928701 -4.549570 24.779793 207 207 207 0
5.028571 -4.554177 24.804888 207 207 207 0
5.127480 -4.557760 24.824400 207 207 207 0
5.224979 -4.559982 24.836502 207 207 207 0
5.322168 -4.561859 24.846725 207 207 207 0
5.423093 -4.566815 24.873723 207 207 207 0
5.524866 -4.572303 24.903609 208 208 208 0
5.623349 -4.574928 24.917909 208 208 208 0
5.719090 -4.575272 24.919783 207 207 207 0
5.818335 -4.578362 24.936610 207 207 207 0
5.919389 -4.582753 24.960527 207 207 207 0
6.017942 -4.585099 24.973304 208 208 208 0
6.115265 -4.586449 24.980657 207 207 207 0
6.221668 -4.594462 25.024305 207 207 207 0
6.320540 -4.596756 25.036799 207 207 207 0
6.422767 -4.601385 25.062010 207 207 207 0
6.519126 -4.601736 25.063923 207 207 207 0
6.576041 -4.574637 24.916326 207 207 207 0
7.813298 -5.357690 29.181320 206 206 206 0
7.931470 -5.362121 29.205450 205 205 205 0
8.054207 -5.369471 29.245487 205 205 205 0
8.177981 -5.377303 29.288141 206 206 206 0
8.286246 -5.374862 29.274849 205 205 205 0
8.404226 -5.378705 29.295778 205 205 205 0
8.524418 -5.383843 29.323763 205 205 205 0
8.641586 -5.386963 29.340757 205 205 205 0
8.754743 -5.387534 29.343866 205 205 205 0
8.872933 -5.391149 29.363559 205 205 205 0
-5.682537 -5.806070 32.296317 80 80 80 0
-5.475630 -5.718991 31.811939 97 97 97 0
-2.981243 -4.246012 23.618481 142 142 142 0
-2.860670 -4.201609 23.371485 203 203 203 0
-2.770472 -4.200393 23.364721 205 205 205 0
-2.681214 -4.200569 23.365702 205 205 205 0
-2.593311 -4.202952 23.378956 206 206 206 0
-2.506106 -4.206677 23.399678 205 205 205 0
-2.419753 -4.212162 23.430187 205 205 205 0
-2.330001 -4.211925 23.428867 206 206 206 0
-2.241112 -4.213291 23.436467 206 206 206 0
-2.151790 -4.213923 23.439983 206 206 206 0
-2.066938 -4.223742 23.494603 205 205 205 0
-1.976675 -4.222897 23.489899 205 205 205 0
-1.889631 -4.229174 23.524815 205 205 205 0
-1.800270 -4.230634 23.532937 205 205 205 0
-1.710626 -4.231549 23.538030 205 205 205 0
-1.622637 -4.236886 23.567713 206 206 206 0
-1.534660 -4.242883 23.601074 206 206 206 0
-1.445341 -4.245690 23.616689 206 206 206 0
-1.354325 -4.243552 23.604798 205 205 205 0
-1.265208 -4.247485 23.626675 206 206 206 0
