ply
format ascii 1.0
element vertex 1097
property float x
property float y
property float z
property uchar red
property uchar green
property uchar blue
property uchar alpha
end_header
2.024190 -8.883945 29.400000 203 203 203 0
2.136645 -8.883945 29.400000 202 202 202 0
2.249100 -8.883945 29.400000 202 202 202 0
2.361555 -8.883945 29.400000 203 203 203 0
2.474010 -8.883945 29.400000 202 202 202 0
2.586465 -8.883945 29.400000 203 203 203 0
2.698920 -8.883945 29.400000 203 203 203 0
2.811375 -8.883945 29.400000 203 203 203 0
2.923830 -8.883945 29.400000 203 203 203 0
3.036285 -8.883945 29.400000 203 203 203 0
3.148740 -8.883945 29.400000 203 203 203 0
3.261195 -8.883945 29.400000 202 202 202 0
3.373650 -8.883945 29.400000 203 203 203 0
3.486105 -8.883945 29.400000 203 203 203 0
3.598560 -8.883945 29.400000 203 203 203 0
3.711015 -8.883945 29.400000 203 203 203 0
3.823470 -8.883945 29.400000 203 203 203 0
3.935925 -8.883945 29.400000 203 203 203 0
4.048380 -8.883945 29.400000 203 203 203 0
4.160835 -8.883945 29.400000 203 203 203 0
4.273290 -8.883945 29.400000 203 203 203 0
4.385745 -8.883945 29.400000 203 203 203 0
4.498200 -8.883945 29.400000 203 203 203 0
4.610655 -8.883945 29.400000 204 204 204 0
4.723110 -8.883945 29.400000 203 203 203 0
4.835565 -8.883945 29.400000 204 204 204 0
4.948020 -8.883945 29.400000 203 203 203 0
5.060475 -8.883945 29.400000 203 203 203 0
5.172930 -8.883945 29.400000 203 203 203 0
5.285385 -8.883945 29.400000 204 204 204 0
5.397840 -8.883945 29.400000 203 203 203 0
5.510295 -8.883945 29.400000 204 204 204 0
5.622750 -8.883945 29.400000 204 204 204 0
5.735205 -8.883945 29.400000 203 203 203 0
5.847660 -8.883945 29.400000 204 204 204 0
5.960115 -8.883945 29.400000 204 204 204 0
6.072570 -8.883945 29.400000 204 204 204 0
6.185025 -8.883945 29.400000 204 204 204 0
6.297480 -8.883945 29.400000 204 204 204 0
6.409935 -8.883945 29.400000 204 204 204 0
6.522390 -8.883945 29.400000 203 203 203 0
6.634845 -8.883945 29.400000 204 204 204 0
6.747300 -8.883945 29.400000 204 204 204 0
6.859755 -8.883945 29.400000 204 204 204 0
6.972210 -8.883945 29.400000 203 203 203 0
7.084665 -8.883945 29.400000 204 204 204 0
7.197120 -8.883945 29.400000 204 204 204 0
7.309575 -8.883945 29.400000 204 204 204 0
7.422030 -8.883945 29.400000 204 204 204 0
7.534485 -8.883945 29.400000 204 204 204 0
7.646940 -8.883945 29.400000 205 205 205 0
7.759395 -8.883945 29.400000 204 204 204 0
7.871850 -8.883945 29.400000 204 204 204 0
7.984305 -8.883945 29.400000 204 204 204 0
9.593945 -10.526690 34.836403 204 204 204 0
9.738290 -10.538697 34.876139 204 204 204 0
8.321670 -8.883945 29.400000 204 204 204 0
9.954908 -10.485836 34.701203 204 204 204 0
3.281735 -3.411278 11.289079 204 204 204 0
10.281181 -10.548225 34.907669 204 204 204 0
10.110442 -10.240063 33.887856 204 204 204 0
11.702371 -11.702371 38.727130 205 205 205 0
-8.996400 -8.771490 29.400000 195 195 195 0
-8.883945 -8.771490 29.400000 195 195 195 0
-8.771490 -8.771490 29.400000 196 196 196 0
-8.659035 -8.771490 29.400000 195 195 195 0
-8.546580 -8.771490 29.400000 195 195 195 0
-8.434125 -8.771490 29.400000 195 195 195 0
-8.321670 -8.771490 29.400000 196 196 196 0
-8.209215 -8.771490 29.400000 196 196 196 0
-8.096760 -8.771490 29.400000 196 196 196 0
-7.984305 -8.771490 29.400000 196 196 196 0
-7.871850 -8.771490 29.400000 196 196 196 0
-7.759395 -8.771490 29.400000 197 197 197 0
-7.646940 -8.771490 29.400000 196 196 196 0
-7.534485 -8.771490 29.400000 196 196 196 0
-7.422030 -8.771490 29.400000 196 196 196 0
-7.309575 -8.771490 29.400000 197 197 197 0
-7.197120 -8.771490 29.400000 197 197 197 0
-7.084665 -8.771490 29.400000 197 197 197 0
-6.972210 -8.771490 29.400000 197 197 197 0
-6.859755 -8.771490 29.400000 197 197 197 0
-6.747300 -8.771490 29.400000 196 196 196 0
-6.634845 -8.771490 29.400000 197 197 197 0
-6.522390 -8.771490 29.400000 197 197 197 0
-6.409935 -8.771490 29.400000 197 197 197 0
-6.297480 -8.771490 29.400000 198 198 198 0
-6.185025 -8.771490 29.400000 198 198 198 0
-6.072570 -8.771490 29.400000 198 198 198 0
-5.960115 -8.771490 29.400000 198 198 198 0
-5.847660 -8.771490 29.400000 198 198 198 0
-5.735205 -8.771490 29.400000 198 198 198 0
-5.622750 -8.771490 29.400000 198 198 198 0
-5.510295 -8.771490 29.400000 198 198 198 0
-5.397840 -8.771490 29.400000 198 198 198 0
-5.285385 -8.771490 29.400000 198 198 198 0
-5.172930 -8.771490 29.400000 198 198 198 0
-5.060475 -8.771490 29.400000 198 198 198 0
-4.948020 -8.771490 29.400000 198 198 198 0
-4.835565 -8.771490 29.400000 199 199 199 0
-4.723110 -8.771490 29.400000 199 199 199 0
-4.610655 -8.771490 29.400000 199 199 199 0
-4.498200 -8.771490 29.400000 199 199 199 0
-4.385745 -8.771490 29.400000 199 199 199 0
-4.273290 -8.771490 29.400000 199 199 199 0
-4.160835 -8.771490 29.400000 199 199 199 0
-4.048380 -8.771490 29.400000 199 199 199 0
-3.935925 -8.771490 29.400000 199 199 199 0
-3.823470 -8.771490 29.400000 199 199 199 0
-3.711015 -8.771490 29.400000 199 199 199 0
-3.598560 -8.771490 29.400000 199 199 199 0
-3.486105 -8.771490 29.400000 199 199 199 0
-3.373650 -8.771490 29.400000 199 199 199 0
-3.261195 -8.771490 29.400000 200 200 200 0
-3.148740 -8.771490 29.400000 200 200 200 0
-3.036285 -8.771490 29.400000 200 200 200 0
-2.923830 -8.771490 29.400000 200 200 200 0
-2.811375 -8.771490 29.400000 200 200 200 0
-2.698920 -8.771490 29.400000 200 200 200 0
-2.586465 -8.771490 29.400000 200 200 200 0
-2.474010 -8.771490 29.400000 200 200 200 0
-2.361555 -8.771490 29.400000 200 200 200 0
-2.249100 -8.771490 29.400000 200 200 200 0
-2.136645 -8.771490 29.400000 200 200 200 0
-2.024190 -8.771490 29.400000 201 201 201 0
-1.911735 -8.771490 29.400000 200 200 200 0
-1.799280 -8.771490 29.400000 200 200 200 0
-1.686825 -8.771490 29.400000 201 201 201 0
-1.574370 -8.771490 29.400000 200 200 200 0
-1.461915 -8.771490 29.400000 201 201 201 0
-1.349460 -8.771490 29.400000 200 200 200 0
-1.237005 -8.771490 29.400000 201 201 201 0
-1.124550 -8.771490 29.400000 201 201 201 0
-1.012095 -8.771490 29.400000 201 201 201 0
-0.899640 -8.771490 29.400000 201 201 201 0
-0.787185 -8.771490 29.400000 200 200 200 0
-0.674730 -8.771490 29.400000 201 201 201 0
-0.562275 -8.771490 29.400000 201 201 201 0
-0.449820 -8.771490 29.400000 201 201 201 0
-0.337365 -8.771490 29.400000 201 201 201 0
-0.224910 -8.771490 29.400000 201 201 201 0
-0.112455 -8.771490 29.400000 201 201 201 0
0.000000 -8.771490 29.400000 202 202 202 0
0.112455 -8.771490 29.400000 202 202 202 0
0.224910 -8.771490 29.400000 202 202 202 0
0.337365 -8.771490 29.400000 202 202 202 0
0.449820 -8.771490 29.400000 202 202 202 0
0.562275 -8.771490 29.400000 202 202 202 0
0.674730 -8.771490 29.400000 202 202 202 0
0.787185 -8.771490 29.400000 203 203 203 0
0.899640 -8.771490 29.400000 202 202 202 0
1.012095 -8.771490 29.400000 202 202 202 0
1.124550 -8.771490 29.400000 202 202 202 0
1.237005 -8.771490 29.400000 202 202 202 0
1.349460 -8.771490 29.400000 202 202 202 0
1.461915 -8.771490 29.400000 202 202 202 0
1.574370 -8.771490 29.400000 202 202 202 0
1.686825 -8.771490 29.400000 202 202 202 0
1.799280 -8.771490 29.400000 202 202 202 0
1.911735 -8.771490 29.400000 202 202 202 0
2.024190 -8.771490 29.400000 203 203 203 0
2.136645 -8.771490 29.400000 202 202 202 0
2.249100 -8.771490 29.400000 203 203 203 0
2.361555 -8.771490 29.400000 203 203 203 0
2.474010 -8.771490 29.400000 203 203 203 0
2.586465 -8.771490 29.400000 203 203 203 0
2.698920 -8.771490 29.400000 203 203 203 0
2.811375 -8.771490 29.400000 203 203 203 0
2.923830 -8.771490 29.400000 203 203 203 0
3.036285 -8.771490 29.400000 203 203 203 0
3.148740 -8.771490 29.400000 203 203 203 0
3.261195 -8.771490 29.400000 203 203 203 0
3.373650 -8.771490 29.400000 203 203 203 0
3.486105 -8.771490 29.400000 203 203 203 0
3.598560 -8.771490 29.400000 203 203 203 0
3.711015 -8.771490 29.400000 203 203 203 0
3.823470 -8.771490 29.400000 203 203 203 0
3.935925 -8.771490 29.400000 204 204 204 0
4.048380 -8.771490 29.400000 204 204 204 0
4.160835 -8.771490 29.400000 203 203 203 0
4.273290 -8.771490 29.400000 203 203 203 0
4.385745 -8.771490 29.400000 204 204 204 0
4.498200 -8.771490 29.400000 203 203 203 0
4.610655 -8.771490 29.400000 203 203 203 0
4.723110 -8.771490 29.400000 204 204 204 0
4.835565 -8.771490 29.400000 203 203 203 0
4.948020 -8.771490 29.400000 204 204 204 0
5.060475 -8.771490 29.400000 203 203 203 0
5.172930 -8.771490 29.400000 204 204 204 0
5.285385 -8.771490 29.400000 204 204 204 0
5.397840 -8.771490 29.400000 204 204 204 0
5.510295 -8.771490 29.400000 204 204 204 0
5.622750 -8.771490 29.400000 203 203 203 0
5.735205 -8.771490 29.400000 204 204 204 0
5.847660 -8.771490 29.400000 203 203 203 0
5.960115 -8.771490 29.400000 204 204 204 0
6.072570 -8.771490 29.400000 204 204 204 0
6.185025 -8.771490 29.400000 204 204 204 0
6.297480 -8.771490 29.400000 204 204 204 0
6.409935 -8.771490 29.400000 203 203 203 0
6.522390 -8.771490 29.400000 204 204 204 0
6.634845 -8.771490 29.400000 204 204 204 0
6.747300 -8.771490 29.400000 204 204 204 0
6.859755 -8.771490 29.400000 204 204 204 0
6.972210 -8.771490 29.400000 204 204 204 0
7.084665 -8.771490 29.400000 203 203 203 0
7.197120 -8.771490 29.400000 204 204 204 0
7.309575 -8.771490 29.400000 204 204 204 0
7.422030 -8.771490 29.400000 205 205 205 0
7.534485 -8.771490 29.400000 204 204 204 0
7.646940 -8.771490 29.400000 204 204 204 0
7.759395 -8.771490 29.400000 205 205 205 0
7.871850 -8.771490 29.400000 204 204 204 0
7.984305 -8.771490 29.400000 205 205 205 0
8.096760 -8.771490 29.400000 204 204 204 0
8.209215 -8.771490 29.400000 204 204 204 0
7.002969 -7.381508 24.741104 204 204 204 0
5.899621 -6.135606 20.565129 204 204 204 0
10.429949 -10.704421 35.878738 204 204 204 0
10.273606 -10.407029 34.881947 205 205 205 0
10.650570 -10.650570 35.698241 204 204 204 0
11.701074 -11.552959 38.722839 204 204 204 0
-8.996400 -8.659035 29.400000 195 195 195 0
-8.883945 -8.659035 29.400000 195 195 195 0
-8.771490 -8.659035 29.400000 196 196 196 0
-8.659035 -8.659035 29.400000 195 195 195 0
-8.546580 -8.659035 29.400000 195 195 195 0
-8.434125 -8.659035 29.400000 195 195 195 0
-8.321670 -8.659035 29.400000 196 196 196 0
-8.209215 -8.659035 29.400000 195 195 195 0
-8.096760 -8.659035 29.400000 196 196 196 0
-7.984305 -8.659035 29.400000 196 196 196 0
-7.871850 -8.659035 29.400000 196 196 196 0
-7.759395 -8.659035 29.400000 197 197 197 0
-7.646940 -8.659035 29.400000 196 196 196 0
-7.534485 -8.659035 29.400000 196 196 196 0
-7.422030 -8.659035 29.400000 197 197 197 0
-7.309575 -8.659035 29.400000 197 197 197 0
-7.197120 -8.659035 29.400000 196 196 196 0
-7.084665 -8.659035 29.400000 196 196 196 0
-6.972210 -8.659035 29.400000 197 197 197 0
-6.859755 -8.659035 29.400000 197 197 197 0
-6.747300 -8.659035 29.400000 197 197 197 0
-6.634845 -8.659035 29.400000 197 197 197 0
-6.522390 -8.659035 29.400000 197 197 197 0
-6.409935 -8.659035 29.400000 197 197 197 0
-6.297480 -8.659035 29.400000 197 197 197 0
-6.185025 -8.659035 29.400000 197 197 197 0
-6.072570 -8.659035 29.400000 197 197 197 0
-5.960115 -8.659035 29.400000 198 198 198 0
-5.847660 -8.659035 29.400000 198 198 198 0
-5.735205 -8.659035 29.400000 198 198 198 0
-5.622750 -8.659035 29.400000 198 198 198 0
-5.510295 -8.659035 29.400000 198 198 198 0
-5.397840 -8.659035 29.400000 198 198 198 0
-5.285385 -8.659035 29.400000 198 198 198 0
-5.172930 -8.659035 29.400000 199 199 199 0
-5.060475 -8.659035 29.400000 198 198 198 0
-4.948020 -8.659035 29.400000 198 198 198 0
-4.835565 -8.659035 29.400000 199 199 199 0
-4.723110 -8.659035 29.400000 198 198 198 0
-4.610655 -8.659035 29.400000 199 199 199 0
-4.498200 -8.659035 29.400000 198 198 198 0
-4.385745 -8.659035 29.400000 198 198 198 0
-4.273290 -8.659035 29.400000 199 199 199 0
-4.160835 -8.659035 29.400000 198 198 198 0
-4.048380 -8.659035 29.400000 199 199 199 0
-3.935925 -8.659035 29.400000 199 199 199 0
-3.823470 -8.659035 29.400000 199 199 199 0
-3.711015 -8.659035 29.400000 199 199 199 0
-3.598560 -8.659035 29.400000 200 200 200 0
-3.486105 -8.659035 29.400000 200 200 200 0
-3.373650 -8.659035 29.400000 199 199 199 0
-3.261195 -8.659035 29.400000 200 200 200 0
-3.148740 -8.659035 29.400000 200 200 200 0
-3.036285 -8.659035 29.400000 200 200 200 0
-2.923830 -8.659035 29.400000 199 199 199 0
-2.811375 -8.659035 29.400000 200 200 200 0
-2.698920 -8.659035 29.400000 200 200 200 0
-2.586465 -8.659035 29.400000 200 200 200 0
-2.474010 -8.659035 29.400000 201 201 201 0
-2.361555 -8.659035 29.400000 200 200 200 0
-2.249100 -8.659035 29.400000 200 200 200 0
-2.136645 -8.659035 29.400000 201 201 201 0
-2.024190 -8.659035 29.400000 201 201 201 0
-1.911735 -8.659035 29.400000 201 201 201 0
-1.799280 -8.659035 29.400000 201 201 201 0
-1.686825 -8.659035 29.400000 200 200 200 0
-1.574370 -8.659035 29.400000 200 200 200 0
-1.461915 -8.659035 29.400000 200 200 200 0
-1.349460 -8.659035 29.400000 201 201 201 0
-1.237005 -8.659035 29.400000 201 201 201 0
-1.124550 -8.659035 29.400000 201 201 201 0
-1.012095 -8.659035 29.400000 201 201 201 0
-0.899640 -8.659035 29.400000 201 201 201 0
-0.787185 -8.659035 29.400000 201 201 201 0
-0.674730 -8.659035 29.400000 201 201 201 0
-0.562275 -8.659035 29.400000 201 201 201 0
-0.449820 -8.659035 29.400000 202 202 202 0
-0.337365 -8.659035 29.400000 201 201 201 0
-0.224910 -8.659035 29.400000 201 201 201 0
-0.112455 -8.659035 29.400000 201 201 201 0
0.000000 -8.659035 29.400000 202 202 202 0
0.112455 -8.659035 29.400000 202 202 202 0
0.224910 -8.659035 29.400000 202 202 202 0
0.337365 -8.659035 29.400000 201 201 201 0
0.449820 -8.659035 29.400000 201 201 201 0
0.562275 -8.659035 29.400000 201 201 201 0
0.674730 -8.659035 29.400000 202 202 202 0
0.787185 -8.659035 29.400000 202 202 202 0
0.899640 -8.659035 29.400000 202 202 202 0
1.012095 -8.659035 29.400000 202 202 202 0
1.124550 -8.659035 29.400000 201 201 201 0
1.237005 -8.659035 29.400000 202 202 202 0
1.349460 -8.659035 29.400000 202 202 202 0
1.461915 -8.659035 29.400000 202 202 202 0
1.574370 -8.659035 29.400000 202 202 202 0
1.686825 -8.659035 29.400000 202 202 202 0
1.799280 -8.659035 29.400000 203 203 203 0
1.911735 -8.659035 29.400000 202 202 202 0
2.024190 -8.659035 29.400000 203 203 203 0
2.136645 -8.659035 29.400000 202 202 202 0
2.249100 -8.659035 29.400000 202 202 202 0
2.361555 -8.659035 29.400000 203 203 203 0
2.474010 -8.659035 29.400000 202 202 202 0
2.586465 -8.659035 29.400000 203 203 203 0
2.698920 -8.659035 29.400000 202 202 202 0
2.811375 -8.659035 29.400000 202 202 202 0
2.923830 -8.659035 29.400000 203 203 203 0
3.036285 -8.659035 29.400000 202 202 202 0
3.148740 -8.659035 29.400000 203 203 203 0
3.261195 -8.659035 29.400000 203 203 203 0
3.373650 -8.659035 29.400000 202 202 202 0
3.486105 -8.659035 29.400000 202 202 202 0
3.598560 -8.659035 29.400000 204 204 204 0
3.711015 -8.659035 29.400000 204 204 204 0
3.823470 -8.659035 29.400000 203 203 203 0
3.935925 -8.659035 29.400000 203 203 203 0
4.048380 -8.659035 29.400000 203 203 203 0
4.160835 -8.659035 29.400000 203 203 203 0
4.273290 -8.659035 29.400000 203 203 203 0
4.385745 -8.659035 29.400000 204 204 204 0
4.498200 -8.659035 29.400000 204 204 204 0
4.610655 -8.659035 29.400000 203 203 203 0
4.723110 -8.659035 29.400000 204 204 204 0
4.835565 -8.659035 29.400000 204 204 204 0
4.948020 -8.659035 29.400000 204 204 204 0
5.060475 -8.659035 29.400000 204 204 204 0
5.172930 -8.659035 29.400000 204 204 204 0
5.285385 -8.659035 29.400000 204 204 204 0
5.397840 -8.659035 29.400000 204 204 204 0
5.510295 -8.659035 29.400000 204 204 204 0
5.622750 -8.659035 29.400000 204 204 204 0
5.735205 -8.659035 29.400000 203 203 203 0
5.847660 -8.659035 29.400000 204 204 204 0
5.960115 -8.659035 29.400000 204 204 204 0
6.072570 -8.659035 29.400000 204 204 204 0
6.185025 -8.659035 29.400000 204 204 204 0
6.297480 -8.659035 29.400000 204 204 204 0
6.409935 -8.659035 29.400000 204 204 204 0
6.522390 -8.659035 29.400000 204 204 204 0
6.634845 -8.659035 29.400000 204 204 204 0
6.747300 -8.659035 29.400000 204 204 204 0
6.859755 -8.659035 29.400000 204 204 204 0
6.972210 -8.659035 29.400000 204 204 204 0
7.084665 -8.659035 29.400000 204 204 204 0
7.197120 -8.659035 29.400000 204 204 204 0
7.309575 -8.659035 29.400000 204 204 204 0
7.422030 -8.659035 29.400000 204 204 204 0
7.534485 -8.659035 29.400000 204 204 204 0
7.646940 -8.659035 29.400000 204 204 204 0
7.759395 -8.659035 29.400000 204 204 204 0
7.871850 -8.659035 29.400000 204 204 204 0
7.984305 -8.659035 29.400000 205 205 205 0
8.096760 -8.659035 29.400000 205 205 205 0
8.209215 -8.659035 29.400000 204 204 204 0
11.592306 -12.062264 40.954975 204 204 204 0
10.305376 -10.580186 35.922880 204 204 204 0
10.437088 -10.574418 35.903295 204 204 204 0
22.309903 -22.023878 74.777619 205 205 205 0
19.420126 -18.928478 64.267813 205 205 205 0
-8.996400 -8.546580 29.400000 195 195 195 0
-8.883945 -8.546580 29.400000 195 195 195 0
-8.771490 -8.546580 29.400000 195 195 195 0
-8.659035 -8.546580 29.400000 196 196 196 0
-8.546580 -8.546580 29.400000 196 196 196 0
-8.434125 -8.546580 29.400000 196 196 196 0
-8.321670 -8.546580 29.400000 196 196 196 0
-8.209215 -8.546580 29.400000 196 196 196 0
-8.096760 -8.546580 29.400000 196 196 196 0
-7.984305 -8.546580 29.400000 196 196 196 0
-7.871850 -8.546580 29.400000 196 196 196 0
-7.759395 -8.546580 29.400000 197 197 197 0
-7.646940 -8.546580 29.400000 197 197 197 0
-7.534485 -8.546580 29.400000 196 196 196 0
-7.422030 -8.546580 29.400000 196 196 196 0
-7.309575 -8.546580 29.400000 197 197 197 0
-7.197120 -8.546580 29.400000 197 197 197 0
-7.084665 -8.546580 29.400000 197 197 197 0
-6.972210 -8.546580 29.400000 197 197 197 0
-6.859755 -8.546580 29.400000 196 196 196 0
-6.747300 -8.546580 29.400000 198 198 198 0
-6.634845 -8.546580 29.400000 197 197 197 0
-6.522390 -8.546580 29.400000 197 197 197 0
-6.409935 -8.546580 29.400000 197 197 197 0
-6.297480 -8.546580 29.400000 197 197 197 0
-6.185025 -8.546580 29.400000 197 197 197 0
-6.072570 -8.546580 29.400000 198 198 198 0
-5.960115 -8.546580 29.400000 198 198 198 0
-5.847660 -8.546580 29.400000 198 198 198 0
-5.735205 -8.546580 29.400000 198 198 198 0
-5.622750 -8.546580 29.400000 198 198 198 0
-5.510295 -8.546580 29.400000 198 198 198 0
-5.397840 -8.546580 29.400000 198 198 198 0
-5.285385 -8.546580 29.400000 198 198 198 0
-5.172930 -8.546580 29.400000 198 198 198 0
-5.060475 -8.546580 29.400000 198 198 198 0
-4.948020 -8.546580 29.400000 198 198 198 0
-4.835565 -8.546580 29.400000 199 199 199 0
-4.723110 -8.546580 29.400000 199 199 199 0
-4.610655 -8.546580 29.400000 199 199 199 0
-4.498200 -8.546580 29.400000 199 199 199 0
-4.385745 -8.546580 29.400000 199 199 199 0
-4.273290 -8.546580 29.400000 199 199 199 0
-4.160835 -8.546580 29.400000 199 199 199 0
-4.048380 -8.546580 29.400000 199 199 199 0
-3.935925 -8.546580 29.400000 200 200 200 0
-3.823470 -8.546580 29.400000 199 199 199 0
-3.711015 -8.546580 29.400000 199 199 199 0
-3.598560 -8.546580 29.400000 199 199 199 0
-3.486105 -8.546580 29.400000 199 199 199 0
-3.373650 -8.546580 29.400000 199 199 199 0
-3.261195 -8.546580 29.400000 199 199 199 0
-3.148740 -8.546580 29.400000 200 200 200 0
-3.036285 -8.546580 29.400000 200 200 200 0
-2.923830 -8.546580 29.400000 200 200 200 0
-2.811375 -8.546580 29.400000 200 200 200 0
-2.698920 -8.546580 29.400000 200 200 200 0
-2.586465 -8.546580 29.400000 201 201 201 0
-2.474010 -8.546580 29.400000 200 200 200 0
-2.361555 -8.546580 29.400000 200 200 200 0
-2.249100 -8.546580 29.400000 200 200 200 0
-2.136645 -8.546580 29.400000 200 200 200 0
-2.024190 -8.546580 29.400000 200 200 200 0
-1.911735 -8.546580 29.400000 201 201 201 0
-1.799280 -8.546580 29.400000 200 200 200 0
-1.686825 -8.546580 29.400000 201 201 201 0
-1.574370 -8.546580 29.400000 201 201 201 0
-1.461915 -8.546580 29.400000 201 201 201 0
-1.349460 -8.546580 29.400000 201 201 201 0
-1.237005 -8.546580 29.400000 201 201 201 0
-1.124550 -8.546580 29.400000 201 201 201 0
-1.012095 -8.546580 29.400000 200 200 200 0
-0.899640 -8.546580 29.400000 201 201 201 0
-0.787185 -8.546580 29.400000 202 202 202 0
-0.674730 -8.546580 29.400000 201 201 201 0
-0.562275 -8.546580 29.400000 201 201 201 0
-0.449820 -8.546580 29.400000 201 201 201 0
-0.337365 -8.546580 29.400000 201 201 201 0
-0.224910 -8.546580 29.400000 201 201 201 0
-0.112455 -8.546580 29.400000 201 201 201 0
0.000000 -8.546580 29.400000 202 202 202 0
0.112455 -8.546580 29.400000 201 201 201 0
0.224910 -8.546580 29.400000 202 202 202 0
0.337365 -8.546580 29.400000 201 201 201 0
0.449820 -8.546580 29.400000 201 201 201 0
0.562275 -8.546580 29.400000 202 202 202 0
0.674730 -8.546580 29.400000 202 202 202 0
0.787185 -8.546580 29.400000 202 202 202 0
0.899640 -8.546580 29.400000 202 202 202 0
1.012095 -8.546580 29.400000 202 202 202 0
1.124550 -8.546580 29.400000 202 202 202 0
1.237005 -8.546580 29.400000 202 202 202 0
1.349460 -8.546580 29.400000 202 202 202 0
1.461915 -8.546580 29.400000 202 202 202 0
1.574370 -8.546580 29.400000 202 202 202 0
1.686825 -8.546580 29.400000 203 203 203 0
1.799280 -8.546580 29.400000 203 203 203 0
1.911735 -8.546580 29.400000 202 202 202 0
2.024190 -8.546580 29.400000 203 203 203 0
2.136645 -8.546580 29.400000 202 202 202 0
2.249100 -8.546580 29.400000 203 203 203 0
2.361555 -8.546580 29.400000 203 203 203 0
2.474010 -8.546580 29.400000 203 203 203 0
2.586465 -8.546580 29.400000 203 203 203 0
2.698920 -8.546580 29.400000 203 203 203 0
2.811375 -8.546580 29.400000 203 203 203 0
2.923830 -8.546580 29.400000 203 203 203 0
3.036285 -8.546580 29.400000 203 203 203 0
3.148740 -8.546580 29.400000 203 203 203 0
3.261195 -8.546580 29.400000 204 204 204 0
3.373650 -8.546580 29.400000 203 203 203 0
3.486105 -8.546580 29.400000 203 203 203 0
3.598560 -8.546580 29.400000 202 202 202 0
3.711015 -8.546580 29.400000 203 203 203 0
3.823470 -8.546580 29.400000 203 203 203 0
3.935925 -8.546580 29.400000 203 203 203 0
4.048380 -8.546580 29.400000 203 203 203 0
4.160835 -8.546580 29.400000 204 204 204 0
4.273290 -8.546580 29.400000 203 203 203 0
4.385745 -8.546580 29.400000 204 204 204 0
4.498200 -8.546580 29.400000 204 204 204 0
4.610655 -8.546580 29.400000 204 204 204 0
4.723110 -8.546580 29.400000 203 203 203 0
4.835565 -8.546580 29.400000 203 203 203 0
4.948020 -8.546580 29.400000 204 204 204 0
5.060475 -8.546580 29.400000 204 204 204 0
5.172930 -8.546580 29.400000 204 204 204 0
5.285385 -8.546580 29.400000 204 204 204 0
5.397840 -8.546580 29.400000 203 203 203 0
5.510295 -8.546580 29.400000 204 204 204 0
5.622750 -8.546580 29.400000 204 204 204 0
5.735205 -8.546580 29.400000 204 204 204 0
5.847660 -8.546580 29.400000 204 204 204 0
5.960115 -8.546580 29.400000 204 204 204 0
6.072570 -8.546580 29.400000 204 204 204 0
6.185025 -8.546580 29.400000 203 203 203 0
6.297480 -8.546580 29.400000 204 204 204 0
6.409935 -8.546580 29.400000 204 204 204 0
6.522390 -8.546580 29.400000 204 204 204 0
6.634845 -8.546580 29.400000 204 204 204 0
6.747300 -8.546580 29.400000 204 204 204 0
6.859755 -8.546580 29.400000 204 204 204 0
6.972210 -8.546580 29.400000 204 204 204 0
7.084665 -8.546580 29.400000 204 204 204 0
7.197120 -8.546580 29.400000 204 204 204 0
7.309575 -8.546580 29.400000 204 204 204 0
7.422030 -8.546580 29.400000 204 204 204 0
7.534485 -8.546580 29.400000 204 204 204 0
7.646940 -8.546580 29.400000 204 204 204 0
7.759395 -8.546580 29.400000 205 205 205 0
7.871850 -8.546580 29.400000 204 204 204 0
7.984305 -8.546580 29.400000 205 205 205 0
8.096760 -8.546580 29.400000 204 204 204 0
8.209215 -8.546580 29.400000 204 204 204 0
8.321670 -8.546580 29.400000 204 204 204 0
11.978878 -12.138597 41.756438 204 204 204 0
10.150360 -10.150360 34.916959 205 205 205 0
10.620784 -10.482852 36.060723 204 204 204 0
10.336963 -10.071912 34.647102 204 204 204 0
20.017567 -19.257407 66.244949 205 205 205 0
-8.996400 -8.434125 29.400000 195 195 195 0
-8.883945 -8.434125 29.400000 196 196 196 0
-8.771490 -8.434125 29.400000 195 195 195 0
-8.659035 -8.434125 29.400000 195 195 195 0
-8.546580 -8.434125 29.400000 195 195 195 0
-8.434125 -8.434125 29.400000 195 195 195 0
-8.321670 -8.434125 29.400000 196 196 196 0
-8.209215 -8.434125 29.400000 196 196 196 0
-8.096760 -8.434125 29.400000 196 196 196 0
-7.984305 -8.434125 29.400000 196 196 196 0
-7.871850 -8.434125 29.400000 196 196 196 0
-7.759395 -8.434125 29.400000 196 196 196 0
-7.646940 -8.434125 29.400000 196 196 196 0
-7.534485 -8.434125 29.400000 197 197 197 0
-7.422030 -8.434125 29.400000 197 197 197 0
-7.309575 -8.434125 29.400000 197 197 197 0
-7.197120 -8.434125 29.400000 197 197 197 0
-7.084665 -8.434125 29.400000 197 197 197 0
-6.972210 -8.434125 29.400000 197 197 197 0
-6.859755 -8.434125 29.400000 197 197 197 0
-6.747300 -8.434125 29.400000 197 197 197 0
-6.634845 -8.434125 29.400000 197 197 197 0
-6.522390 -8.434125 29.400000 197 197 197 0
-6.409935 -8.434125 29.400000 197 197 197 0
-6.297480 -8.434125 29.400000 197 197 197 0
-6.185025 -8.434125 29.400000 198 198 198 0
-6.072570 -8.434125 29.400000 198 198 198 0
-5.960115 -8.434125 29.400000 198 198 198 0
-5.847660 -8.434125 29.400000 198 198 198 0
-5.735205 -8.434125 29.400000 198 198 198 0
-5.622750 -8.434125 29.400000 198 198 198 0
-5.510295 -8.434125 29.400000 197 197 197 0
-5.397840 -8.434125 29.400000 198 198 198 0
-5.285385 -8.434125 29.400000 198 198 198 0
-5.172930 -8.434125 29.400000 199 199 199 0
-5.060475 -8.434125 29.400000 199 199 199 0
-4.948020 -8.434125 29.400000 199 199 199 0
-4.835565 -8.434125 29.400000 198 198 198 0
-4.723110 -8.434125 29.400000 198 198 198 0
-4.610655 -8.434125 29.400000 199 199 199 0
-4.498200 -8.434125 29.400000 199 199 199 0
-4.385745 -8.434125 29.400000 198 198 198 0
-4.273290 -8.434125 29.400000 199 199 199 0
-4.160835 -8.434125 29.400000 199 199 199 0
-4.048380 -8.434125 29.400000 199 199 199 0
-3.935925 -8.434125 29.400000 199 199 199 0
-3.823470 -8.434125 29.400000 199 199 199 0
-3.711015 -8.434125 29.400000 199 199 199 0
-3.598560 -8.434125 29.400000 199 199 199 0
-3.486105 -8.434125 29.400000 200 200 200 0
-3.373650 -8.434125 29.400000 200 200 200 0
-3.261195 -8.434125 29.400000 199 199 199 0
-3.148740 -8.434125 29.400000 200 200 200 0
-3.036285 -8.434125 29.400000 200 200 200 0
-2.923830 -8.434125 29.400000 200 200 200 0
-2.811375 -8.434125 29.400000 200 200 200 0
-2.698920 -8.434125 29.400000 200 200 200 0
-2.586465 -8.434125 29.400000 200 200 200 0
-2.474010 -8.434125 29.400000 200 200 200 0
-2.361555 -8.434125 29.400000 201 201 201 0
-2.249100 -8.434125 29.400000 200 200 200 0
-2.136645 -8.434125 29.400000 201 201 201 0
-2.024190 -8.434125 29.400000 200 200 200 0
-1.911735 -8.434125 29.400000 201 201 201 0
-1.799280 -8.434125 29.400000 200 200 200 0
-1.686825 -8.434125 29.400000 200 200 200 0
-1.574370 -8.434125 29.400000 201 201 201 0
-1.461915 -8.434125 29.400000 201 201 201 0
-1.349460 -8.434125 29.400000 200 200 200 0
-1.237005 -8.434125 29.400000 201 201 201 0
-1.124550 -8.434125 29.400000 201 201 201 0
-1.012095 -8.434125 29.400000 201 201 201 0
-0.899640 -8.434125 29.400000 201 201 201 0
-0.787185 -8.434125 29.400000 201 201 201 0
-0.674730 -8.434125 29.400000 202 202 202 0
-0.562275 -8.434125 29.400000 201 201 201 0
-0.449820 -8.434125 29.400000 202 202 202 0
-0.337365 -8.434125 29.400000 201 201 201 0
-0.224910 -8.434125 29.400000 202 202 202 0
-0.112455 -8.434125 29.400000 201 201 201 0
0.000000 -8.434125 29.400000 202 202 202 0
0.112455 -8.434125 29.400000 201 201 201 0
0.224910 -8.434125 29.400000 202 202 202 0
0.337365 -8.434125 29.400000 202 202 202 0
0.449820 -8.434125 29.400000 201 201 201 0
0.562275 -8.434125 29.400000 202 202 202 0
0.674730 -8.434125 29.400000 202 202 202 0
0.787185 -8.434125 29.400000 203 203 203 0
0.899640 -8.434125 29.400000 202 202 202 0
1.012095 -8.434125 29.400000 202 202 202 0
1.124550 -8.434125 29.400000 202 202 202 0
1.237005 -8.434125 29.400000 202 202 202 0
1.349460 -8.434125 29.400000 202 202 202 0
1.461915 -8.434125 29.400000 202 202 202 0
1.574370 -8.434125 29.400000 202 202 202 0
1.686825 -8.434125 29.400000 202 202 202 0
1.799280 -8.434125 29.400000 202 202 202 0
1.911735 -8.434125 29.400000 202 202 202 0
2.024190 -8.434125 29.400000 203 203 203 0
2.136645 -8.434125 29.400000 203 203 203 0
2.249100 -8.434125 29.400000 203 203 203 0
2.361555 -8.434125 29.400000 203 203 203 0
2.474010 -8.434125 29.400000 202 202 202 0
2.586465 -8.434125 29.400000 203 203 203 0
2.698920 -8.434125 29.400000 203 203 203 0
2.811375 -8.434125 29.400000 202 202 202 0
2.923830 -8.434125 29.400000 203 203 203 0
3.036285 -8.434125 29.400000 203 203 203 0
3.148740 -8.434125 29.400000 203 203 203 0
3.261195 -8.434125 29.400000 203 203 203 0
3.373650 -8.434125 29.400000 203 203 203 0
3.486105 -8.434125 29.400000 203 203 203 0
3.598560 -8.434125 29.400000 203 203 203 0
3.711015 -8.434125 29.400000 203 203 203 0
3.823470 -8.434125 29.400000 203 203 203 0
3.935925 -8.434125 29.400000 203 203 203 0
4.048380 -8.434125 29.400000 203 203 203 0
4.160835 -8.434125 29.400000 203 203 203 0
4.273290 -8.434125 29.400000 204 204 204 0
4.385745 -8.434125 29.400000 203 203 203 0
4.498200 -8.434125 29.400000 204 204 204 0
4.610655 -8.434125 29.400000 204 204 204 0
4.723110 -8.434125 29.400000 204 204 204 0
4.835565 -8.434125 29.400000 204 204 204 0
4.948020 -8.434125 29.400000 203 203 203 0
5.060475 -8.434125 29.400000 204 204 204 0
5.172930 -8.434125 29.400000 204 204 204 0
5.285385 -8.434125 29.400000 204 204 204 0
5.397840 -8.434125 29.400000 203 203 203 0
5.510295 -8.434125 29.400000 204 204 204 0
5.622750 -8.434125 29.400000 204 204 204 0
5.735205 -8.434125 29.400000 204 204 204 0
5.847660 -8.434125 29.400000 203 203 203 0
5.960115 -8.434125 29.400000 204 204 204 0
6.072570 -8.434125 29.400000 204 204 204 0
6.185025 -8.434125 29.400000 204 204 204 0
6.297480 -8.434125 29.400000 204 204 204 0
6.409935 -8.434125 29.400000 204 204 204 0
6.522390 -8.434125 29.400000 204 204 204 0
6.634845 -8.434125 29.400000 204 204 204 0
6.747300 -8.434125 29.400000 205 205 205 0
6.859755 -8.434125 29.400000 204 204 204 0
6.972210 -8.434125 29.400000 205 205 205 0
7.084665 -8.434125 29.400000 204 204 204 0
7.197120 -8.434125 29.400000 204 204 204 0
7.309575 -8.434125 29.400000 204 204 204 0
7.422030 -8.434125 29.400000 204 204 204 0
7.534485 -8.434125 29.400000 204 204 204 0
7.646940 -8.434125 29.400000 204 204 204 0
7.759395 -8.434125 29.400000 205 205 205 0
7.871850 -8.434125 29.400000 204 204 204 0
7.984305 -8.434125 29.400000 205 205 205 0
8.096760 -8.434125 29.400000 204 204 204 0
8.209215 -8.434125 29.400000 205 205 205 0
8.321670 -8.434125 29.400000 204 204 204 0
8.434125 -8.434125 29.400000 204 204 204 0
7.562899 -7.463387 26.016166 205 205 205 0
10.573666 -10.299025 35.900742 204 204 204 0
5.310537 -5.106285 17.799687 205 205 205 0
10.846027 -10.296861 35.893199 204 204 204 0
-8.996400 -8.321670 29.400000 195 195 195 0
-8.883945 -8.321670 29.400000 196 196 196 0
-8.771490 -8.321670 29.400000 195 195 195 0
-8.659035 -8.321670 29.400000 195 195 195 0
-8.546580 -8.321670 29.400000 196 196 196 0
-8.434125 -8.321670 29.400000 195 195 195 0
-8.321670 -8.321670 29.400000 196 196 196 0
-8.209215 -8.321670 29.400000 196 196 196 0
-8.096760 -8.321670 29.400000 196 196 196 0
-7.984305 -8.321670 29.400000 196 196 196 0
-7.871850 -8.321670 29.400000 197 197 197 0
-7.759395 -8.321670 29.400000 196 196 196 0
-7.646940 -8.321670 29.400000 196 196 196 0
-7.534485 -8.321670 29.400000 197 197 197 0
-7.422030 -8.321670 29.400000 196 196 196 0
-7.309575 -8.321670 29.400000 196 196 196 0
-7.197120 -8.321670 29.400000 197 197 197 0
-7.084665 -8.321670 29.400000 196 196 196 0
-6.972210 -8.321670 29.400000 197 197 197 0
-6.859755 -8.321670 29.400000 198 198 198 0
-6.747300 -8.321670 29.400000 197 197 197 0
-6.634845 -8.321670 29.400000 197 197 197 0
-6.522390 -8.321670 29.400000 197 197 197 0
-6.409935 -8.321670 29.400000 197 197 197 0
-6.297480 -8.321670 29.400000 197 197 197 0
-6.185025 -8.321670 29.400000 198 198 198 0
-6.072570 -8.321670 29.400000 198 198 198 0
-5.960115 -8.321670 29.400000 198 198 198 0
-5.847660 -8.321670 29.400000 198 198 198 0
-5.735205 -8.321670 29.400000 198 198 198 0
-5.622750 -8.321670 29.400000 198 198 198 0
-5.510295 -8.321670 29.400000 198 198 198 0
-5.397840 -8.321670 29.400000 198 198 198 0
-5.285385 -8.321670 29.400000 198 198 198 0
-5.172930 -8.321670 29.400000 198 198 198 0
-5.060475 -8.321670 29.400000 199 199 199 0
-4.948020 -8.321670 29.400000 199 199 199 0
-4.835565 -8.321670 29.400000 198 198 198 0
-4.723110 -8.321670 29.400000 198 198 198 0
-4.610655 -8.321670 29.400000 198 198 198 0
-4.498200 -8.321670 29.400000 199 199 199 0
-4.385745 -8.321670 29.400000 199 199 199 0
-4.273290 -8.321670 29.400000 199 199 199 0
-4.160835 -8.321670 29.400000 198 198 198 0
-4.048380 -8.321670 29.400000 200 200 200 0
-3.935925 -8.321670 29.400000 199 199 199 0
-3.823470 -8.321670 29.400000 200 200 200 0
-3.711015 -8.321670 29.400000 199 199 199 0
-3.598560 -8.321670 29.400000 199 199 199 0
-3.486105 -8.321670 29.400000 200 200 200 0
-3.373650 -8.321670 29.400000 200 200 200 0
-3.261195 -8.321670 29.400000 200 200 200 0
-3.148740 -8.321670 29.400000 200 200 200 0
-3.036285 -8.321670 29.400000 200 200 200 0
-2.923830 -8.321670 29.400000 200 200 200 0
-2.811375 -8.321670 29.400000 200 200 200 0
-2.698920 -8.321670 29.400000 201 201 201 0
-2.586465 -8.321670 29.400000 200 200 200 0
-2.474010 -8.321670 29.400000 200 200 200 0
-2.361555 -8.321670 29.400000 201 201 201 0
-2.249100 -8.321670 29.400000 200 200 200 0
-2.136645 -8.321670 29.400000 200 200 200 0
-2.024190 -8.321670 29.400000 200 200 200 0
-1.911735 -8.321670 29.400000 200 200 200 0
-1.799280 -8.321670 29.400000 200 200 200 0
-1.686825 -8.321670 29.400000 201 201 201 0
-1.574370 -8.321670 29.400000 201 201 201 0
-1.461915 -8.321670 29.400000 200 200 200 0
-1.349460 -8.321670 29.400000 201 201 201 0
-1.237005 -8.321670 29.400000 201 201 201 0
-1.124550 -8.321670 29.400000 201 201 201 0
-1.012095 -8.321670 29.400000 202 202 202 0
-0.899640 -8.321670 29.400000 201 201 201 0
-0.787185 -8.321670 29.400000 202 202 202 0
-0.674730 -8.321670 29.400000 201 201 201 0
-0.562275 -8.321670 29.400000 201 201 201 0
-0.449820 -8.321670 29.400000 201 201 201 0
-0.337365 -8.321670 29.400000 201 201 201 0
-0.224910 -8.321670 29.400000 201 201 201 0
-0.112455 -8.321670 29.400000 202 202 202 0
0.000000 -8.321670 29.400000 201 201 201 0
0.112455 -8.321670 29.400000 201 201 201 0
0.224910 -8.321670 29.400000 202 202 202 0
0.337365 -8.321670 29.400000 202 202 202 0
0.449820 -8.321670 29.400000 202 202 202 0
0.562275 -8.321670 29.400000 202 202 202 0
0.674730 -8.321670 29.400000 202 202 202 0
0.787185 -8.321670 29.400000 202 202 202 0
0.899640 -8.321670 29.400000 202 202 202 0
1.012095 -8.321670 29.400000 202 202 202 0
1.124550 -8.321670 29.400000 203 203 203 0
1.237005 -8.321670 29.400000 202 202 202 0
1.349460 -8.321670 29.400000 202 202 202 0
1.461915 -8.321670 29.400000 202 202 202 0
1.574370 -8.321670 29.400000 202 202 202 0
1.686825 -8.321670 29.400000 203 203 203 0
1.799280 -8.321670 29.400000 203 203 203 0
1.911735 -8.321670 29.400000 203 203 203 0
2.024190 -8.321670 29.400000 202 202 202 0
2.136645 -8.321670 29.400000 203 203 203 0
2.249100 -8.321670 29.400000 203 203 203 0
2.361555 -8.321670 29.400000 202 202 202 0
2.474010 -8.321670 29.400000 202 202 202 0
2.586465 -8.321670 29.400000 202 202 202 0
2.698920 -8.321670 29.400000 203 203 203 0
2.811375 -8.321670 29.400000 203 203 203 0
2.923830 -8.321670 29.400000 203 203 203 0
3.036285 -8.321670 29.400000 202 202 202 0
3.148740 -8.321670 29.400000 204 204 204 0
3.261195 -8.321670 29.400000 203 203 203 0
3.373650 -8.321670 29.400000 203 203 203 0
3.486105 -8.321670 29.400000 203 203 203 0
3.598560 -8.321670 29.400000 203 203 203 0
3.711015 -8.321670 29.400000 204 204 204 0
3.823470 -8.321670 29.400000 203 203 203 0
3.935925 -8.321670 29.400000 203 203 203 0
4.048380 -8.321670 29.400000 204 204 204 0
4.160835 -8.321670 29.400000 204 204 204 0
4.273290 -8.321670 29.400000 203 203 203 0
4.385745 -8.321670 29.400000 203 203 203 0
4.498200 -8.321670 29.400000 204 204 204 0
4.610655 -8.321670 29.400000 203 203 203 0
4.723110 -8.321670 29.400000 203 203 203 0
4.835565 -8.321670 29.400000 204 204 204 0
4.948020 -8.321670 29.400000 204 204 204 0
5.060475 -8.321670 29.400000 203 203 203 0
5.172930 -8.321670 29.400000 203 203 203 0
5.285385 -8.321670 29.400000 203 203 203 0
5.397840 -8.321670 29.400000 204 204 204 0
5.510295 -8.321670 29.400000 204 204 204 0
5.622750 -8.321670 29.400000 204 204 204 0
5.735205 -8.321670 29.400000 204 204 204 0
5.847660 -8.321670 29.400000 204 204 204 0
5.960115 -8.321670 29.400000 204 204 204 0
6.072570 -8.321670 29.400000 204 204 204 0
6.185025 -8.321670 29.400000 205 205 205 0
6.297480 -8.321670 29.400000 204 204 204 0
6.409935 -8.321670 29.400000 204 204 204 0
6.522390 -8.321670 29.400000 204 204 204 0
6.634845 -8.321670 29.400000 204 204 204 0
6.747300 -8.321670 29.400000 204 204 204 0
6.859755 -8.321670 29.400000 204 204 204 0
6.972210 -8.321670 29.400000 203 203 203 0
7.084665 -8.321670 29.400000 204 204 204 0
7.197120 -8.321670 29.400000 204 204 204 0
7.309575 -8.321670 29.400000 204 204 204 0
7.422030 -8.321670 29.400000 204 204 204 0
7.534485 -8.321670 29.400000 204 204 204 0
7.646940 -8.321670 29.400000 204 204 204 0
7.759395 -8.321670 29.400000 205 205 205 0
7.871850 -8.321670 29.400000 204 204 204 0
7.984305 -8.321670 29.400000 205 205 205 0
8.096760 -8.321670 29.400000 204 204 204 0
8.209215 -8.321670 29.400000 205 205 205 0
8.321670 -8.321670 29.400000 205 205 205 0
8.434125 -8.321670 29.400000 205 205 205 0
8.546580 -8.321670 29.400000 204 204 204 0
10.209643 -9.811865 34.664777 204 204 204 0
10.729064 -10.178856 35.961334 204 204 204 0
20.013423 -18.746751 66.231234 205 205 205 0
-8.996400 -8.209215 29.400000 195 195 195 0
-8.883945 -8.209215 29.400000 196 196 196 0
-8.771490 -8.209215 29.400000 195 195 195 0
-8.659035 -8.209215 29.400000 195 195 195 0
-8.546580 -8.209215 29.400000 196 196 196 0
-8.434125 -8.209215 29.400000 196 196 196 0
-8.321670 -8.209215 29.400000 196 196 196 0
-8.209215 -8.209215 29.400000 196 196 196 0
-8.096760 -8.209215 29.400000 195 195 195 0
-7.984305 -8.209215 29.400000 196 196 196 0
-7.871850 -8.209215 29.400000 196 196 196 0
-7.759395 -8.209215 29.400000 196 196 196 0
-7.646940 -8.209215 29.400000 196 196 196 0
-7.534485 -8.209215 29.400000 197 197 197 0
-7.422030 -8.209215 29.400000 197 197 197 0
-7.309575 -8.209215 29.400000 196 196 196 0
-7.197120 -8.209215 29.400000 196 196 196 0
-7.084665 -8.209215 29.400000 196 196 196 0
-6.972210 -8.209215 29.400000 197 197 197 0
-6.859755 -8.209215 29.400000 197 197 197 0
-6.747300 -8.209215 29.400000 197 197 197 0
-6.634845 -8.209215 29.400000 197 197 197 0
-6.522390 -8.209215 29.400000 197 197 197 0
-6.409935 -8.209215 29.400000 197 197 197 0
-6.297480 -8.209215 29.400000 197 197 197 0
-6.185025 -8.209215 29.400000 198 198 198 0
-6.072570 -8.209215 29.400000 198 198 198 0
-5.960115 -8.209215 29.400000 198 198 198 0
-5.847660 -8.209215 29.400000 198 198 198 0
-5.735205 -8.209215 29.400000 198 198 198 0
-5.622750 -8.209215 29.400000 199 199 199 0
-5.510295 -8.209215 29.400000 199 199 199 0
-5.397840 -8.209215 29.400000 198 198 198 0
-5.285385 -8.209215 29.400000 198 198 198 0
-5.172930 -8.209215 29.400000 198 198 198 0
-5.060475 -8.209215 29.400000 199 199 199 0
-4.948020 -8.209215 29.400000 198 198 198 0
-4.835565 -8.209215 29.400000 199 199 199 0
-4.723110 -8.209215 29.400000 198 198 198 0
-4.610655 -8.209215 29.400000 199 199 199 0
-4.498200 -8.209215 29.400000 199 199 199 0
-4.385745 -8.209215 29.400000 199 199 199 0
-4.273290 -8.209215 29.400000 199 199 199 0
-4.160835 -8.209215 29.400000 200 200 200 0
-4.048380 -8.209215 29.400000 200 200 200 0
-3.935925 -8.209215 29.400000 199 199 199 0
-3.823470 -8.209215 29.400000 199 199 199 0
-3.711015 -8.209215 29.400000 199 199 199 0
-3.598560 -8.209215 29.400000 199 199 199 0
-3.486105 -8.209215 29.400000 199 199 199 0
-3.373650 -8.209215 29.400000 200 200 200 0
-3.261195 -8.209215 29.400000 199 199 199 0
-3.148740 -8.209215 29.400000 200 200 200 0
-3.036285 -8.209215 29.400000 200 200 200 0
-2.923830 -8.209215 29.400000 200 200 200 0
-2.811375 -8.209215 29.400000 199 199 199 0
-2.698920 -8.209215 29.400000 201 201 201 0
-2.586465 -8.209215 29.400000 199 199 199 0
-2.474010 -8.209215 29.400000 201 201 201 0
-2.361555 -8.209215 29.400000 201 201 201 0
-2.249100 -8.209215 29.400000 200 200 200 0
-2.136645 -8.209215 29.400000 201 201 201 0
-2.024190 -8.209215 29.400000 201 201 201 0
-1.911735 -8.209215 29.400000 200 200 200 0
-1.799280 -8.209215 29.400000 201 201 201 0
-1.686825 -8.209215 29.400000 200 200 200 0
-1.574370 -8.209215 29.400000 201 201 201 0
-1.461915 -8.209215 29.400000 200 200 200 0
-1.349460 -8.209215 29.400000 201 201 201 0
-1.237005 -8.209215 29.400000 201 201 201 0
-1.124550 -8.209215 29.400000 200 200 200 0
-1.012095 -8.209215 29.400000 201 201 201 0
-0.899640 -8.209215 29.400000 201 201 201 0
-0.787185 -8.209215 29.400000 201 201 201 0
-0.674730 -8.209215 29.400000 202 202 202 0
-0.562275 -8.209215 29.400000 201 201 201 0
-0.449820 -8.209215 29.400000 202 202 202 0
-0.337365 -8.209215 29.400000 201 201 201 0
-0.224910 -8.209215 29.400000 202 202 202 0
-0.112455 -8.209215 29.400000 202 202 202 0
0.000000 -8.209215 29.400000 201 201 201 0
0.112455 -8.209215 29.400000 202 202 202 0
0.224910 -8.209215 29.400000 201 201 201 0
0.337365 -8.209215 29.400000 202 202 202 0
0.449820 -8.209215 29.400000 202 202 202 0
0.562275 -8.209215 29.400000 202 202 202 0
0.674730 -8.209215 29.400000 202 202 202 0
0.787185 -8.209215 29.400000 202 202 202 0
0.899640 -8.209215 29.400000 202 202 202 0
1.012095 -8.209215 29.400000 202 202 202 0
1.124550 -8.209215 29.400000 202 202 202 0
1.237005 -8.209215 29.400000 202 202 202 0
1.349460 -8.209215 29.400000 202 202 202 0
1.461915 -8.209215 29.400000 203 203 203 0
1.574370 -8.209215 29.400000 202 202 202 0
1.686825 -8.209215 29.400000 203 203 203 0
1.799280 -8.209215 29.400000 202 202 202 0
1.911735 -8.209215 29.400000 202 202 202 0
2.024190 -8.209215 29.400000 203 203 203 0
2.136645 -8.209215 29.400000 203 203 203 0
2.249100 -8.209215 29.400000 202 202 202 0
2.361555 -8.209215 29.400000 203 203 203 0
2.474010 -8.209215 29.400000 203 203 203 0
2.586465 -8.209215 29.400000 203 203 203 0
2.698920 -8.209215 29.400000 203 203 203 0
2.811375 -8.209215 29.400000 203 203 203 0
2.923830 -8.209215 29.400000 203 203 203 0
3.036285 -8.209215 29.400000 204 204 204 0
3.148740 -8.209215 29.400000 204 204 204 0
3.261195 -8.209215 29.400000 203 203 203 0
3.373650 -8.209215 29.400000 203 203 203 0
3.486105 -8.209215 29.400000 203 203 203 0
3.598560 -8.209215 29.400000 203 203 203 0
3.711015 -8.209215 29.400000 203 203 203 0
3.823470 -8.209215 29.400000 203 203 203 0
3.935925 -8.209215 29.400000 203 203 203 0
4.048380 -8.209215 29.400000 204 204 204 0
4.160835 -8.209215 29.400000 203 203 203 0
4.273290 -8.209215 29.400000 204 204 204 0
4.385745 -8.209215 29.400000 203 203 203 0
4.498200 -8.209215 29.400000 204 204 204 0
4.610655 -8.209215 29.400000 203 203 203 0
4.723110 -8.209215 29.400000 204 204 204 0
4.835565 -8.209215 29.400000 204 204 204 0
4.948020 -8.209215 29.400000 203 203 203 0
5.060475 -8.209215 29.400000 204 204 204 0
5.172930 -8.209215 29.400000 204 204 204 0
5.285385 -8.209215 29.400000 204 204 204 0
5.397840 -8.209215 29.400000 204 204 204 0
5.510295 -8.209215 29.400000 203 203 203 0
5.622750 -8.209215 29.400000 204 204 204 0
5.735205 -8.209215 29.400000 204 204 204 0
5.847660 -8.209215 29.400000 204 204 204 0
5.960115 -8.209215 29.400000 204 204 204 0
6.072570 -8.209215 29.400000 203 203 203 0
6.185025 -8.209215 29.400000 204 204 204 0
6.297480 -8.209215 29.400000 204 204 204 0
6.409935 -8.209215 29.400000 204 204 204 0
6.522390 -8.209215 29.400000 205 205 205 0
6.634845 -8.209215 29.400000 204 204 204 0
6.747300 -8.209215 29.400000 205 205 205 0
6.859755 -8.209215 29.400000 204 204 204 0
6.972210 -8.209215 29.400000 205 205 205 0
7.084665 -8.209215 29.400000 204 204 204 0
7.197120 -8.209215 29.400000 204 204 204 0
7.309575 -8.209215 29.400000 204 204 204 0
7.422030 -8.209215 29.400000 204 204 204 0
7.534485 -8.209215 29.400000 205 205 205 0
7.646940 -8.209215 29.400000 204 204 204 0
7.759395 -8.209215 29.400000 205 205 205 0
7.871850 -8.209215 29.400000 204 204 204 0
7.984305 -8.209215 29.400000 204 204 204 0
8.096760 -8.209215 29.400000 205 205 205 0
8.209215 -8.209215 29.400000 205 205 205 0
8.321670 -8.209215 29.400000 204 204 204 0
8.434125 -8.209215 29.400000 204 204 204 0
8.546580 -8.209215 29.400000 204 204 204 0
8.659035 -8.209215 29.400000 205 205 205 0
23.868000 -22.338000 80.000000 205 205 205 0
10.518556 -9.719678 34.809483 205 205 205 0
-8.996400 -8.096760 29.400000 195 195 195 0
-8.883945 -8.096760 29.400000 196 196 196 0
-8.771490 -8.096760 29.400000 196 196 196 0
-8.659035 -8.096760 29.400000 195 195 195 0
-8.546580 -8.096760 29.400000 196 196 196 0
-8.434125 -8.096760 29.400000 196 196 196 0
-8.321670 -8.096760 29.400000 196 196 196 0
-8.209215 -8.096760 29.400000 196 196 196 0
-8.096760 -8.096760 29.400000 196 196 196 0
-7.984305 -8.096760 29.400000 197 197 197 0
-7.871850 -8.096760 29.400000 196 196 196 0
-7.759395 -8.096760 29.400000 196 196 196 0
-7.646940 -8.096760 29.400000 196 196 196 0
-7.534485 -8.096760 29.400000 196 196 196 0
-7.422030 -8.096760 29.400000 196 196 196 0
-7.309575 -8.096760 29.400000 197 197 197 0
-7.197120 -8.096760 29.400000 197 197 197 0
-7.084665 -8.096760 29.400000 197 197 197 0
-6.972210 -8.096760 29.400000 197 197 197 0
-6.859755 -8.096760 29.400000 197 197 197 0
-6.747300 -8.096760 29.400000 198 198 198 0
-6.634845 -8.096760 29.400000 198 198 198 0
-6.522390 -8.096760 29.400000 197 197 197 0
-6.409935 -8.096760 29.400000 197 197 197 0
-6.297480 -8.096760 29.400000 198 198 198 0
-6.185025 -8.096760 29.400000 198 198 198 0
-6.072570 -8.096760 29.400000 198 198 198 0
-5.960115 -8.096760 29.400000 198 198 198 0
-5.847660 -8.096760 29.400000 198 198 198 0
-5.735205 -8.096760 29.400000 198 198 198 0
-5.622750 -8.096760 29.400000 198 198 198 0
-5.510295 -8.096760 29.400000 198 198 198 0
-5.397840 -8.096760 29.400000 198 198 198 0
-5.285385 -8.096760 29.400000 198 198 198 0
-5.172930 -8.096760 29.400000 198 198 198 0
-5.060475 -8.096760 29.400000 199 199 199 0
-4.948020 -8.096760 29.400000 198 198 198 0
-4.835565 -8.096760 29.400000 199 199 199 0
-4.723110 -8.096760 29.400000 198 198 198 0
-4.610655 -8.096760 29.400000 199 199 199 0
-4.498200 -8.096760 29.400000 199 199 199 0
-4.385745 -8.096760 29.400000 199 199 199 0
-4.273290 -8.096760 29.400000 199 199 199 0
-4.160835 -8.096760 29.400000 200 200 200 0
-4.048380 -8.096760 29.400000 200 200 200 0
-3.935925 -8.096760 29.400000 200 200 200 0
-3.823470 -8.096760 29.400000 200 200 200 0
-3.711015 -8.096760 29.400000 199 199 199 0
-3.598560 -8.096760 29.400000 200 200 200 0
-3.486105 -8.096760 29.400000 199 199 199 0
-3.373650 -8.096760 29.400000 199 199 199 0
-3.261195 -8.096760 29.400000 200 200 200 0
-3.148740 -8.096760 29.400000 200 200 200 0
-3.036285 -8.096760 29.400000 200 200 200 0
-2.923830 -8.096760 29.400000 200 200 200 0
-2.811375 -8.096760 29.400000 200 200 200 0
-2.698920 -8.096760 29.400000 200 200 200 0
-2.586465 -8.096760 29.400000 200 200 200 0
-2.474010 -8.096760 29.400000 200 200 200 0
-2.361555 -8.096760 29.400000 200 200 200 0
-2.249100 -8.096760 29.400000 201 201 201 0
-2.136645 -8.096760 29.400000 200 200 200 0
-2.024190 -8.096760 29.400000 200 200 200 0
-1.911735 -8.096760 29.400000 201 201 201 0
-1.799280 -8.096760 29.400000 201 201 201 0
-1.686825 -8.096760 29.400000 201 201 201 0
-1.574370 -8.096760 29.400000 201 201 201 0
-1.461915 -8.096760 29.400000 201 201 201 0
-1.349460 -8.096760 29.400000 201 201 201 0
-1.237005 -8.096760 29.400000 201 201 201 0
-1.124550 -8.096760 29.400000 201 201 201 0
-1.012095 -8.096760 29.400000 201 201 201 0
-0.899640 -8.096760 29.400000 201 201 201 0
-0.787185 -8.096760 29.400000 202 202 202 0
-0.674730 -8.096760 29.400000 201 201 201 0
-0.562275 -8.096760 29.400000 202 202 202 0
