ply
format ascii 1.0
element vertex 1103
property float x
property float y
property float z
property uchar red
property uchar green
property uchar blue
property uchar alpha
end_header
-2.567050 -5.134101 23.968725 162 162 162 0
-2.462337 -5.107069 23.842525 167 167 167 0
-2.354747 -5.071762 23.677695 168 168 168 0
-2.251031 -5.042310 23.540194 170 170 170 0
-2.150435 -5.017682 23.425219 169 169 169 0
-2.043402 -4.975240 23.227076 131 131 131 0
-1.888845 -4.807969 22.446168 119 119 119 0
-1.774249 -4.731331 22.088379 134 134 134 0
-1.676562 -4.694374 21.915844 148 148 148 0
-1.575541 -4.643699 21.679268 151 151 151 0
-1.483651 -4.615803 21.549033 159 159 159 0
-1.392513 -4.587102 21.415042 166 166 166 0
-1.300807 -4.552825 21.255020 167 167 167 0
-1.214082 -4.532573 21.160471 169 169 169 0
-1.124744 -4.498977 21.003629 177 177 177 0
-1.038201 -4.472252 20.878859 179 179 179 0
-0.952794 -4.446373 20.758045 179 179 179 0
-0.868639 -4.422165 20.645026 180 180 180 0
-0.787061 -4.407542 20.576762 182 182 182 0
-0.707303 -4.400997 20.546204 186 186 186 0
-0.627161 -4.390125 20.495450 188 188 188 0
-0.546886 -4.375089 20.425252 188 188 188 0
-0.467091 -4.359516 20.352549 190 190 190 0
-0.387424 -4.339149 20.257464 190 190 190 0
-0.308581 -4.320133 20.168688 190 190 190 0
-0.231050 -4.312925 20.135036 194 194 194 0
-0.153784 -4.305947 20.102461 195 195 195 0
-0.076804 -4.301044 20.079568 196 196 196 0
0.000000 -4.289007 20.023377 196 196 196 0
0.076390 -4.277815 19.971126 197 197 197 0
0.152248 -4.262940 19.901681 197 197 197 0
0.227955 -4.255158 19.865350 196 196 196 0
0.303306 -4.246287 19.823936 197 197 197 0
0.379127 -4.246222 19.823634 199 199 199 0
0.454112 -4.238382 19.787030 201 201 201 0
0.529300 -4.234396 19.768423 202 202 202 0
0.603407 -4.223846 19.719168 202 202 202 0
0.677695 -4.216771 19.686141 203 203 203 0
0.751786 -4.210003 19.654541 203 203 203 0
0.827297 -4.211692 19.662426 203 203 203 0
0.902037 -4.209508 19.652230 203 203 203 0
0.976131 -4.204871 19.630584 204 204 204 0
1.050182 -4.200729 19.611247 204 204 204 0
1.122485 -4.190611 19.564009 204 204 204 0
1.196353 -4.187237 19.548259 205 205 205 0
1.271441 -4.188277 19.553113 205 205 205 0
1.347556 -4.192395 19.572341 205 205 205 0
1.421479 -4.189622 19.559395 205 205 205 0
1.494166 -4.183664 19.531580 205 205 205 0
1.567958 -4.181223 19.520180 206 206 206 0
1.641909 -4.179404 19.511690 206 206 206 0
1.718338 -4.183780 19.532120 206 206 206 0
1.793848 -4.185645 19.540827 207 207 207 0
1.868240 -4.184857 19.537148 207 207 207 0
1.942717 -4.184313 19.534607 207 207 207 0
2.016658 -4.182698 19.527068 207 207 207 0
2.093326 -4.186652 19.545526 207 207 207 0
2.169646 -4.189662 19.559580 208 208 208 0
2.248843 -4.197841 19.597763 208 208 208 0
2.321448 -4.193584 19.577890 208 208 208 0
2.397170 -4.195048 19.584724 209 209 209 0
2.472868 -4.196383 19.590956 208 208 208 0
2.552046 -4.203371 19.623579 208 208 208 0
2.632705 -4.212328 19.665398 209 209 209 0
2.709119 -4.214185 19.674064 209 209 209 0
2.787694 -4.219212 19.697534 209 209 209 0
2.863714 -4.220210 19.702196 209 209 209 0
2.945122 -4.228893 19.742730 209 209 209 0
3.026964 -4.237750 19.784080 209 209 209 0
3.106110 -4.242492 19.806217 208 208 208 0
3.185303 -4.247070 19.827592 207 207 207 0
3.270439 -4.259176 19.884108 208 208 208 0
3.357074 -4.272640 19.946966 208 208 208 0
3.441281 -4.282483 19.992919 208 208 208 0
3.522656 -4.288451 20.020779 208 208 208 0
3.608221 -4.299156 20.070758 208 208 208 0
3.695902 -4.311885 20.130184 208 208 208 0
3.784284 -4.324896 20.190926 207 207 207 0
3.873063 -4.337831 20.251312 206 206 206 0
3.963590 -4.352177 20.318288 206 206 206 0
4.059373 -4.371633 20.409117 206 206 206 0
4.155791 -4.391025 20.499648 206 206 206 0
4.249888 -4.407291 20.575590 205 205 205 0
4.350052 -4.429144 20.677611 203 203 203 0
4.457819 -4.457819 20.811478 203 203 203 0
4.563225 -4.483168 20.929824 202 202 202 0
4.670031 -4.508995 21.050398 202 202 202 0
4.789163 -4.545646 21.221504 200 200 200 0
4.917371 -4.589546 21.426453 198 198 198 0
5.055348 -4.640976 21.666553 196 196 196 0
5.191026 -4.688668 21.889208 193 193 193 0
6.163922 -5.479042 25.579094 202 202 202 0
6.155891 -5.386405 25.146613 208 208 208 0
6.264370 -5.396996 25.196060 208 208 208 0
6.389806 -5.421653 25.311173 207 207 207 0
6.500414 -5.433182 25.364994 207 207 207 0
6.620054 -5.451809 25.451958 207 207 207 0
6.748374 -5.476941 25.569285 207 207 207 0
6.871203 -5.496963 25.662757 207 207 207 0
6.982613 -5.507413 25.711547 206 206 206 0
7.110578 -5.530450 25.819093 206 206 206 0
7.234541 -5.549785 25.909361 206 206 206 0
7.348351 -5.560914 25.961318 206 206 206 0
7.481218 -5.585976 26.078320 206 206 206 0
7.604306 -5.603173 26.158602 206 206 206 0
7.731844 -5.623159 26.251911 206 206 206 0
7.853675 -5.638536 26.323697 205 205 205 0
7.994393 -5.666911 26.456169 205 205 205 0
-4.811385 -7.350727 34.941068 77 77 77 0
-3.379364 -5.310428 25.242678 102 102 102 0
-3.241016 -5.242821 24.921310 125 125 125 0
-3.101947 -5.169912 24.574745 140 140 140 0
-2.976709 -5.116218 24.319516 149 149 149 0
-2.859124 -5.072640 24.112370 155 155 155 0
-2.747637 -5.037334 23.944548 160 160 160 0
-2.643889 -5.014273 23.834927 165 165 165 0
-2.542933 -4.995047 23.743539 167 167 167 0
-2.439530 -4.969412 23.621686 168 168 168 0
-2.339951 -4.949896 23.528918 169 169 169 0
-2.232717 -4.911978 23.348678 171 171 171 0
-2.120331 -4.859092 23.097290 147 147 147 0
-1.989436 -4.757347 22.613652 120 120 120 0
-1.865429 -4.663572 22.167898 132 132 132 0
-1.760199 -4.610044 21.913462 147 147 147 0
-1.661320 -4.568630 21.716600 151 151 151 0
-1.565606 -4.532019 21.542572 158 158 158 0
-1.472628 -4.499697 21.388932 165 165 165 0
-1.382877 -4.474013 21.266849 167 167 167 0
-1.294879 -4.451148 21.158160 168 168 168 0
-1.207485 -4.427445 21.045488 176 176 176 0
-1.120674 -4.402649 20.927623 178 178 178 0
-1.033537 -4.372657 20.785060 180 180 180 0
-0.948437 -4.347003 20.663115 179 179 179 0
-0.865537 -4.327684 20.571287 182 182 182 0
-0.784040 -4.312218 20.497768 186 186 186 0
-0.703796 -4.300978 20.444339 188 188 188 0
-0.625165 -4.298007 20.430215 189 189 189 0
-0.545022 -4.282313 20.355617 188 188 188 0
-0.465055 -4.263003 20.263827 189 189 189 0
-0.385848 -4.244329 20.175063 191 191 191 0
-0.307512 -4.228297 20.098856 195 195 195 0
-0.230030 -4.217216 20.046183 195 195 195 0
-0.153205 -4.213136 20.026791 195 195 195 0
-0.076554 -4.210473 20.014133 196 196 196 0
0.000000 -4.199615 19.962518 196 196 196 0
0.076166 -4.189111 19.912588 197 197 197 0
0.151872 -4.176488 19.852586 197 197 197 0
0.227190 -4.165152 19.798702 198 198 198 0
0.302391 -4.157870 19.764087 200 200 200 0
0.377556 -4.153114 19.741481 201 201 201 0
0.452721 -4.149945 19.726416 202 202 202 0
0.527826 -4.147206 19.713399 202 202 202 0
0.602076 -4.139272 19.675686 203 203 203 0
0.675657 -4.129018 19.626942 203 203 203 0
0.749555 -4.122555 19.596219 203 203 203 0
0.824195 -4.120974 19.588707 204 204 204 0
0.899530 -4.122846 19.597604 203 203 203 0
0.973497 -4.118640 19.577609 204 204 204 0
1.047818 -4.116428 19.567098 204 204 204 0
1.118983 -4.102938 19.502973 204 204 204 0
1.192893 -4.100570 19.491715 204 204 204 0
1.267167 -4.099660 19.487389 205 205 205 0
1.342715 -4.102741 19.502035 206 206 206 0
1.417021 -4.101903 19.498053 206 206 206 0
1.490122 -4.097836 19.478721 206 206 206 0
1.564127 -4.096524 19.472484 207 207 207 0
1.636842 -4.092106 19.451485 208 208 208 0
1.712110 -4.094176 19.461325 207 207 207 0
1.788839 -4.099422 19.486259 208 208 208 0
1.863429 -4.099545 19.486843 208 208 208 0
1.936788 -4.097052 19.474995 208 208 208 0
2.009998 -4.094440 19.462579 208 208 208 0
2.086838 -4.099145 19.484945 209 209 209 0
2.161367 -4.099144 19.484938 208 208 208 0
2.239538 -4.105819 19.516670 208 208 208 0
2.315202 -4.107616 19.525209 209 209 209 0
2.390414 -4.108524 19.529526 208 208 208 0
2.463835 -4.106391 19.519387 209 209 209 0
2.543560 -4.114582 19.558324 209 209 209 0
2.625315 -4.125494 19.610193 209 209 209 0
2.701457 -4.127226 19.618424 209 209 209 0
2.779796 -4.132130 19.641734 209 209 209 0
2.855322 -4.132703 19.644458 210 210 210 0
2.936331 -4.140979 19.683799 209 209 209 0
3.017484 -4.149041 19.722120 209 209 209 0
3.098440 -4.156443 19.757307 210 210 210 0
3.177922 -4.161564 19.781648 209 209 209 0
3.257152 -4.166124 19.803324 209 209 209 0
3.341137 -4.176422 19.852273 208 208 208 0
3.428049 -4.189837 19.916041 208 208 208 0
3.511084 -4.198035 19.955008 208 208 208 0
3.595226 -4.207179 19.998475 209 209 209 0
3.680530 -4.217274 20.046460 208 208 208 0
3.770964 -4.232715 20.119856 209 209 209 0
3.858125 -4.243938 20.173204 207 207 207 0
3.948515 -4.258202 20.241008 207 207 207 0
4.040273 -4.273366 20.313087 206 206 206 0
4.138723 -4.294902 20.415457 206 206 206 0
4.233353 -4.311748 20.495534 206 206 206 0
4.326969 -4.326969 20.567886 205 205 205 0
4.429457 -4.350359 20.679070 204 204 204 0
4.537465 -4.378256 20.811672 203 203 203 0
4.642754 -4.402611 20.927446 203 203 203 0
4.751892 -4.429730 21.056351 202 202 202 0
4.876695 -4.470304 21.249215 200 200 200 0
5.003450 -4.511307 21.444122 198 198 198 0
5.146310 -4.565275 21.700653 195 195 195 0
5.281970 -4.611244 21.919161 193 193 193 0
6.220608 -5.345835 25.410979 202 202 202 0
6.261550 -5.298235 25.184716 207 207 207 0
6.379447 -5.316206 25.270140 207 207 207 0
6.499154 -5.335127 25.360080 207 207 207 0
6.615719 -5.350949 25.435290 207 207 207 0
6.740115 -5.372555 25.537992 206 206 206 0
6.862769 -5.392176 25.631256 207 207 207 0
6.974259 -5.402595 25.680784 206 206 206 0
7.103630 -5.426384 25.793864 207 207 207 0
7.229159 -5.446627 25.890085 206 206 206 0
7.343698 -5.458154 25.944880 206 206 206 0
7.466894 -5.475722 26.028389 207 207 207 0
7.601074 -5.500777 26.147485 206 206 206 0
7.718412 -5.513151 26.206305 206 206 206 0
7.852153 -5.536774 26.318594 206 206 206 0
7.980184 -5.555824 26.409146 205 205 205 0
-3.594214 -5.107567 24.727994 79 79 79 0
-3.558028 -5.192798 25.140636 91 91 91 0
-3.433749 -5.150623 24.936447 116 116 116 0
-3.307643 -5.103221 24.706950 132 132 132 0
-3.183756 -5.056554 24.481017 145 145 145 0
-3.066446 -5.017820 24.293488 152 152 152 0
-2.951179 -4.980115 24.110943 154 154 154 0
-2.827522 -4.925361 23.845851 163 163 163 0
-2.718754 -4.893757 23.692846 167 167 167 0
-2.615976 -4.871128 23.583286 168 168 168 0
-2.520065 -4.860125 23.530015 169 169 169 0
-2.418199 -4.836397 23.415140 173 173 173 0
-2.324715 -4.828254 23.375713 176 176 176 0
-2.210796 -4.775320 23.119439 157 157 157 0
-2.059863 -4.634691 22.438592 116 116 116 0
-1.950437 -4.579287 22.170357 129 129 129 0
-1.854142 -4.551076 22.033776 143 143 143 0
-1.752470 -4.506351 21.817242 151 151 151 0
-1.649388 -4.453347 21.560625 156 156 156 0
-1.553523 -4.415276 21.376305 166 166 166 0
-1.462408 -4.387225 21.240501 167 167 167 0
-1.372554 -4.359877 21.108097 168 168 168 0
-1.286971 -4.343527 21.028937 174 174 174 0
-1.201441 -4.325186 20.940142 177 177 177 0
-1.116893 -4.308016 20.857013 178 178 178 0
-1.029918 -4.278120 20.712271 179 179 179 0
-0.945346 -4.254056 20.595769 181 181 181 0
-0.861715 -4.230238 20.480453 187 187 187 0
-0.780515 -4.214780 20.405615 188 188 188 0
-0.701081 -4.206486 20.365460 189 189 189 0
-0.622317 -4.200641 20.337165 188 188 188 0
-0.542886 -4.187975 20.275842 188 188 188 0
-0.463451 -4.171059 20.193943 190 190 190 0
-0.384977 -4.157750 20.129509 194 194 194 0
-0.306549 -4.138412 20.035887 196 196 196 0
-0.229167 -4.125006 19.970980 195 195 195 0
-0.152734 -4.123827 19.965273 196 196 196 0
-0.076237 -4.116802 19.931262 196 196 196 0
0.000000 -4.110683 19.901636 196 196 196 0
0.075939 -4.100713 19.853368 197 197 197 0
0.151475 -4.089815 19.800605 199 199 199 0
0.226466 -4.076381 19.735564 201 201 201 0
0.301408 -4.069008 19.699869 202 202 202 0
0.376205 -4.063010 19.670832 201 201 201 0
0.451587 -4.064286 19.677007 202 202 202 0
0.526657 -4.062786 19.669744 203 203 203 0
0.600724 -4.054884 19.631489 203 203 203 0
0.673896 -4.043375 19.575769 203 203 203 0
0.747144 -4.034579 19.533183 203 203 203 0
0.821430 -4.032475 19.522995 203 203 203 0
0.896146 -4.032658 19.523881 204 204 204 0
0.970462 -4.031149 19.516575 204 204 204 0
1.045117 -4.031164 19.516650 205 205 205 0
1.116369 -4.018929 19.457416 206 206 206 0
1.190616 -4.018330 19.454517 207 207 207 0
1.264035 -4.015172 19.439223 207 207 207 0
1.338995 -4.016984 19.447997 208 208 208 0
1.412934 -4.015706 19.441812 208 208 208 0
1.487235 -4.015534 19.440977 208 208 208 0
1.561127 -4.014327 19.435132 209 209 209 0
1.633018 -4.008316 19.406033 209 209 209 0
1.707385 -4.008644 19.407620 209 209 209 0
1.784021 -4.014046 19.433776 209 209 209 0
1.857509 -4.012220 19.424934 210 210 210 0
1.931387 -4.011343 19.420686 209 209 209 0
2.005879 -4.011758 19.422698 209 209 209 0
2.080962 -4.013285 19.430088 210 210 210 0
2.156640 -4.015813 19.442330 210 210 210 0
2.232810 -4.019058 19.458037 210 210 210 0
2.308729 -4.021657 19.470620 210 210 210 0
2.383656 -4.022420 19.474317 210 210 210 0
2.456730 -4.020103 19.463100 210 210 210 0
2.535247 -4.026569 19.494404 209 209 209 0
2.615744 -4.035719 19.538702 209 209 209 0
2.693271 -4.039907 19.558978 210 210 210 0
2.770565 -4.043527 19.576504 210 210 210 0
2.846167 -4.044554 19.581475 210 210 210 0
2.926252 -4.051734 19.616237 210 210 210 0
3.007360 -4.059936 19.655948 210 210 210 0
3.089869 -4.069584 19.702656 210 210 210 0
3.168866 -4.074256 19.725277 210 210 210 0
3.245981 -4.076348 19.735407 210 210 210 0
3.330271 -4.087150 19.787704 209 209 209 0
3.413864 -4.096637 19.833631 209 209 209 0
3.500008 -4.108705 19.892059 209 209 209 0
3.583089 -4.116741 19.930965 209 209 209 0
3.665612 -4.123814 19.965209 209 209 209 0
3.755765 -4.139006 20.038760 208 208 208 0
3.844502 -4.152062 20.101970 209 209 209 0
3.934169 -4.165591 20.167470 209 209 209 0
4.023144 -4.177880 20.226967 207 207 207 0
4.118853 -4.196567 20.317438 207 207 207 0
4.216271 -4.216271 20.412836 206 206 206 0
4.307249 -4.228935 20.474148 207 207 207 0
4.404599 -4.247292 20.563023 205 205 205 0
4.511034 -4.273611 20.690442 204 204 204 0
4.618632 -4.300106 20.818716 204 204 204 0
4.721429 -4.321308 20.921366 203 203 203 0
4.839024 -4.355122 21.085073 202 202 202 0
4.961763 -4.392381 21.265460 199 199 199 0
5.088176 -4.431638 21.455520 198 198 198 0
5.240533 -4.491885 21.747206 195 195 195 0
5.364082 -4.525944 21.912101 195 195 195 0
6.295907 -5.230446 25.322903 204 204 204 0
6.380555 -5.220454 25.274528 208 208 208 0
6.493373 -5.233465 25.337521 207 207 207 0
6.607449 -5.247092 25.403496 208 208 208 0
6.733724 -5.269871 25.513779 207 207 207 0
6.853627 -5.287084 25.597114 206 206 206 0
6.965423 -5.297646 25.648248 207 207 207 0
7.093636 -5.320227 25.757576 207 207 207 0
7.220345 -5.341077 25.858520 206 206 206 0
7.339810 -5.356077 25.931142 206 206 206 0
7.463008 -5.373366 26.014843 206 206 206 0
7.594067 -5.395784 26.123381 206 206 206 0
7.716791 -5.411776 26.200801 205 205 205 0
7.841853 -5.428975 26.284071 205 205 205 0
7.976166 -5.452063 26.395849 205 205 205 0
-3.915748 -5.061820 24.968899 79 79 79 0
-3.788266 -5.019453 24.759909 96 96 96 0
-3.668227 -4.985027 24.590093 117 117 117 0
-3.562417 -4.968634 24.509232 133 133 133 0
-3.444963 -4.934676 24.341726 141 141 141 0
-3.329364 -4.901564 24.178387 147 147 147 0
-3.218493 -4.873717 24.041028 150 150 150 0
-3.119714 -4.863083 23.988571 156 156 156 0
-3.019025 -4.848738 23.917808 160 160 160 0
-2.918712 -4.834116 23.845683 163 163 163 0
-2.803568 -4.793197 23.643836 166 166 166 0
-2.702061 -4.773641 23.547373 168 168 168 0
-2.594925 -4.742449 23.393506 172 172 172 0
-2.498777 -4.729827 23.331247 176 176 176 0
-2.405494 -4.721897 23.292128 178 178 178 0
-2.301276 -4.691064 23.140035 172 172 172 0
-2.163672 -4.586985 22.626637 122 122 122 0
-2.046581 -4.519532 22.293905 126 126 126 0
-1.940767 -4.472202 22.060438 139 139 139 0
-1.844887 -4.444501 21.923792 150 150 150 0
-1.739100 -4.389156 21.650788 152 152 152 0
-1.641309 -4.349468 21.455014 163 163 163 0
-1.545985 -4.312486 21.272589 166 166 166 0
-1.453236 -4.278971 21.107270 167 167 167 0
-1.364622 -4.254409 20.986110 173 173 173 0
-1.278851 -4.236195 20.896264 178 178 178 0
-1.195449 -4.223921 20.835718 178 178 178 0
-1.110899 -4.205544 20.745071 179 179 179 0
-1.028025 -4.191178 20.674203 181 181 181 0
-0.942007 -4.160531 20.523029 186 186 186 0
-0.859474 -4.141103 20.427194 187 187 187 0
-0.777555 -4.121039 20.328224 187 187 187 0
-0.698517 -4.113489 20.290979 189 189 189 0
-0.619074 -4.101367 20.231185 189 189 189 0
-0.540693 -4.093820 20.193957 191 191 191 0
-0.462180 -4.082591 20.138566 195 195 195 0
-0.383830 -4.068596 20.069531 195 195 195 0
-0.305693 -4.050438 19.979965 196 196 196 0
-0.228530 -4.037363 19.915469 196 196 196 0
-0.152267 -4.035083 19.904220 196 196 196 0
-0.075935 -4.024565 19.852335 196 196 196 0
0.000000 -4.020478 19.832179 197 197 197 0
0.075743 -4.014395 19.802171 199 199 199 0
0.151071 -4.003384 19.747854 201 201 201 0
0.225831 -3.989673 19.680223 202 202 202 0
0.300679 -3.983999 19.652231 202 202 202 0
0.375370 -3.978924 19.627198 202 202 202 0
0.450260 -3.977299 19.619181 202 202 202 0
0.525017 -3.975127 19.608472 202 202 202 0
0.599157 -3.969412 19.580281 203 203 203 0
0.671942 -3.956990 19.519001 204 204 204 0
0.744739 -3.947115 19.470293 203 203 203 0
0.819322 -3.947642 19.472893 205 205 205 0
0.893258 -3.945221 19.460951 206 206 206 0
0.967981 -3.946386 19.466694 206 206 206 0
1.040737 -3.939932 19.434862 206 206 206 0
1.114467 -3.937782 19.424256 207 207 207 0
1.186554 -3.930460 19.388139 207 207 207 0
1.260075 -3.928469 19.378315 208 208 208 0
1.334502 -3.929368 19.382752 208 208 208 0
1.409113 -3.930684 19.389244 208 208 208 0
1.483407 -3.931029 19.390944 208 208 208 0
1.555613 -3.926070 19.366483 208 208 208 0
1.630719 -3.928550 19.378713 209 209 209 0
1.703547 -3.925565 19.363992 209 209 209 0
1.778123 -3.926688 19.369529 209 209 209 0
1.852079 -3.926407 19.368145 210 210 210 0
1.927327 -3.928782 19.379861 210 210 210 0
2.002052 -3.929954 19.385638 209 209 209 0
2.076157 -3.929869 19.385223 210 210 210 0
2.149932 -3.929187 19.381856 210 210 210 0
2.226479 -3.933447 19.402868 210 210 210 0
2.302378 -3.936323 19.417057 211 211 211 0
2.377704 -3.938072 19.425685 211 211 211 0
2.452940 -3.939570 19.433077 211 211 211 0
2.527638 -3.940141 19.435891 211 211 211 0
2.608457 -3.949949 19.484271 211 211 211 0
2.684585 -3.952306 19.495899 210 210 210 0
2.763156 -3.958034 19.524154 210 210 210 0
2.838527 -3.958999 19.528912 210 210 210 0
2.917549 -3.964875 19.557896 210 210 210 0
2.997804 -3.972091 19.593492 210 210 210 0
3.080769 -3.982457 19.644627 210 210 210 0
3.160165 -3.987827 19.671116 211 211 211 0
3.238347 -3.991452 19.688995 210 210 210 0
3.318895 -3.997759 19.720111 210 210 210 0
3.403760 -4.008873 19.774930 210 210 210 0
3.487693 -4.018429 19.822067 209 209 209 0
3.570591 -4.026411 19.861444 209 209 209 0
3.655804 -4.036617 19.911785 209 209 209 0
3.743184 -4.048750 19.971635 209 209 209 0
3.831254 -4.061129 20.032701 209 209 209 0
3.921287 -4.075063 20.101435 210 210 210 0
4.006402 -4.083449 20.142798 209 209 209 0
4.098056 -4.098056 20.214854 207 207 207 0
4.194776 -4.117095 20.308766 206 206 206 0
4.288441 -4.132498 20.384748 207 207 207 0
4.384544 -4.149657 20.469391 207 207 207 0
4.483256 -4.168642 20.563037 206 206 206 0
4.590826 -4.195065 20.693379 205 205 205 0
4.695638 -4.218115 20.807080 204 204 204 0
4.809682 -4.248553 20.957220 204 204 204 0
4.925447 -4.279486 21.109811 201 201 201 0
5.048914 -4.316007 21.289960 200 200 200 0
5.184145 -4.361265 21.513206 198 198 198 0
5.347035 -4.428013 21.842463 196 196 196 0
6.502174 -5.301772 26.152534 196 196 196 0
6.394815 -5.135230 25.331016 207 207 207 0
6.484549 -5.129569 25.303089 208 208 208 0
6.599348 -5.143609 25.372348 208 208 208 0
6.726166 -5.166476 25.485143 207 207 207 0
6.849200 -5.185823 25.580579 207 207 207 0
6.961135 -5.196340 25.632457 207 207 207 0
7.087434 -5.217139 25.735056 207 207 207 0
7.208757 -5.233755 25.817017 207 207 207 0
7.332205 -5.251444 25.904277 206 206 206 0
7.454772 -5.268039 25.986133 207 207 207 0
7.587353 -5.291180 26.100284 206 206 206 0
7.710994 -5.307567 26.181120 205 205 205 0
7.834924 -5.323731 26.260849 205 205 205 0
7.965857 -5.344183 26.361735 205 205 205 0
-4.196728 -4.959769 24.935995 76 76 76 0
-4.072588 -4.924990 24.761137 92 92 92 0
-3.951084 -4.891819 24.594362 111 111 111 0
-3.819129 -4.843774 24.352809 128 128 128 0
-3.699484 -4.809329 24.179633 143 143 143 0
-3.594172 -4.792229 24.093661 150 150 150 0
-3.483472 -4.766856 23.966093 152 152 152 0
-3.374730 -4.742864 23.845470 156 156 156 0
-3.262883 -4.713053 23.695593 159 159 159 0
-3.155650 -4.688395 23.571618 161 161 161 0
-3.055872 -4.673687 23.497670 166 166 166 0
-2.966616 -4.674668 23.502606 169 169 169 0
-2.877498 -4.675935 23.508972 169 169 169 0
-2.781931 -4.666465 23.461364 169 169 169 0
-2.678793 -4.643241 23.344598 170 170 170 0
-2.578190 -4.622961 23.242642 174 174 174 0
-2.484054 -4.613244 23.193783 178 178 178 0
-2.385149 -4.593621 23.095127 178 178 178 0
-2.266577 -4.533154 22.791119 145 145 145 0
-2.130075 -4.430556 22.275295 124 124 124 0
-2.024610 -4.386654 22.054570 136 136 136 0
-1.924120 -4.350184 21.871210 148 148 148 0
-1.827201 -4.318838 21.713615 151 151 151 0
-1.732239 -4.289354 21.565380 162 162 162 0
-1.629601 -4.236963 21.301975 164 164 164 0
-1.540189 -4.215254 21.192829 166 166 166 0
-1.446040 -4.177449 21.002760 172 172 172 0
-1.358804 -4.156341 20.896636 177 177 177 0
-1.271837 -4.133470 20.781648 178 178 178 0
-1.190518 -4.127130 20.749772 178 178 178 0
-1.106438 -4.109625 20.661767 180 180 180 0
-1.023126 -4.092506 20.575696 185 185 185 0
-0.939405 -4.070756 20.466343 187 187 187 0
-0.856189 -4.047437 20.349104 187 187 187 0
-0.775148 -4.030769 20.265302 187 187 187 0
-0.695496 -4.018419 20.203215 188 188 188 0
-0.617102 -4.011163 20.166731 191 191 191 0
-0.539012 -4.004088 20.131162 195 195 195 0
-0.460826 -3.993824 20.079558 195 195 195 0
-0.382510 -3.978104 20.000522 195 195 195 0
-0.305038 -3.965492 19.937113 195 195 195 0
-0.227876 -3.949855 19.858498 195 195 195 0
-0.151557 -3.940491 19.811419 196 196 196 0
-0.075763 -3.939700 19.807441 198 198 198 0
0.000000 -3.930625 19.761817 200 200 200 0
0.075538 -3.927980 19.748518 202 202 202 0
0.150647 -3.916818 19.692396 201 201 201 0
0.225268 -3.904645 19.631197 202 202 202 0
0.299845 -3.897984 19.597709 202 202 202 0
0.374276 -3.892475 19.570009 202 202 202 0
0.449167 -3.892780 19.571546 202 202 202 0
0.523342 -3.887682 19.545914 202 202 202 0
0.597058 -3.880875 19.511689 203 203 203 0
0.670373 -3.873264 19.473424 204 204 204 0
0.743322 -3.865272 19.433244 205 205 205 0
0.817088 -3.862598 19.419797 206 206 206 0
0.891171 -3.861743 19.415500 207 207 207 0
0.965572 -3.862288 19.418241 206 206 206 0
1.039137 -3.859651 19.404983 206 206 206 0
1.112981 -3.858335 19.398365 207 207 207 0
1.183853 -3.847522 19.344002 207 207 207 0
1.258371 -3.849136 19.352115 208 208 208 0
1.331660 -3.847018 19.341470 208 208 208 0
1.406342 -3.848935 19.351108 208 208 208 0
1.481107 -3.850877 19.360870 208 208 208 0
1.553034 -3.845608 19.334381 209 209 209 0
1.625021 -3.840960 19.311009 209 209 209 0
1.698577 -3.840260 19.307492 208 208 208 0
1.773642 -3.842890 19.320714 210 210 210 0
1.847870 -3.843569 19.324129 209 209 209 0
1.923262 -3.846525 19.338987 209 209 209 0
1.997943 -3.847891 19.345857 210 210 210 0
2.070051 -3.844380 19.328205 210 210 210 0
2.145507 -3.847117 19.341964 209 209 209 0
2.220237 -3.848411 19.348470 210 210 210 0
2.297120 -3.853234 19.372720 211 211 211 0
2.372050 -3.854581 19.379493 211 211 211 0
2.446313 -3.854797 19.380577 211 211 211 0
2.522782 -3.858372 19.398551 211 211 211 0
2.599049 -3.861445 19.414000 211 211 211 0
2.676767 -3.866441 19.439118 210 210 210 0
2.754709 -3.871483 19.464471 212 212 212 0
2.830783 -3.873703 19.475631 211 211 211 0
2.909502 -3.879336 19.503951 210 210 210 0
2.990208 -3.887271 19.543845 210 210 210 0
3.069329 -3.892807 19.571682 210 210 210 0
3.153405 -3.904216 19.629041 210 210 210 0
3.228516 -3.904251 19.629218 211 211 211 0
3.310122 -3.911963 19.667988 210 210 210 0
3.392034 -3.919684 19.706807 211 211 211 0
3.478496 -3.932213 19.769800 211 211 211 0
3.559976 -3.938696 19.802396 210 210 210 0
3.641977 -3.945475 19.836473 209 209 209 0
3.729871 -3.958231 19.900607 209 209 209 0
3.819540 -3.972321 19.971449 209 209 209 0
3.908865 -3.985509 20.037752 210 210 210 0
3.991636 -3.991636 20.068557 209 209 209 0
4.083720 -4.006668 20.144134 208 208 208 0
4.177803 -4.023070 20.226595 208 208 208 0
4.274082 -4.040950 20.316493 207 207 207 0
4.366417 -4.054530 20.384768 207 207 207 0
4.465737 -4.074006 20.482683 208 208 208 0
4.568673 -4.096051 20.593521 206 206 206 0
4.671308 -4.117085 20.699273 204 204 204 0
4.781976 -4.144379 20.836497 204 204 204 0
4.891318 -4.169648 20.963539 203 203 203 0
5.011116 -4.202871 21.130576 202 202 202 0
5.140417 -4.242884 21.331745 201 201 201 0
5.281864 -4.291515 21.576244 198 198 198 0
5.442035 -4.353628 21.888528 195 195 195 0
6.543649 -5.155603 25.920576 199 199 199 0
6.493602 -5.039811 25.338415 207 207 207 0
6.595198 -5.043386 25.356392 208 208 208 0
6.718688 -5.063359 25.456809 207 207 207 0
6.844929 -5.084805 25.564629 208 208 208 0
6.960537 -5.097858 25.630257 206 206 206 0
7.082779 -5.115340 25.718151 206 206 206 0
7.204580 -5.132029 25.802058 206 206 206 0
7.330378 -5.151076 25.897819 206 206 206 0
7.448281 -5.164142 25.963508 206 206 206 0
7.582229 -5.187841 26.082658 206 206 206 0
7.704591 -5.203101 26.159379 205 205 205 0
7.824829 -5.216553 26.227013 206 206 206 0
7.956566 -5.237233 26.330986 205 205 205 0
-4.360128 -4.834055 24.780496 83 83 83 0
-4.229482 -4.793413 24.572157 109 109 109 0
-4.112110 -4.766309 24.433214 126 126 126 0
-3.979973 -4.720433 24.198044 137 137 137 0
-3.858156 -4.684903 24.015907 145 145 145 0
-3.729769 -4.639468 23.782997 150 150 150 0
-3.619489 -4.614848 23.656788 157 157 157 0
-3.522989 -4.606985 23.616482 161 161 161 0
-3.426741 -4.599048 23.575791 164 164 164 0
-3.328623 -4.588102 23.519681 165 165 165 0
-3.219698 -4.561238 23.381973 165 165 165 0
-3.110110 -4.531875 23.231448 166 166 166 0
-3.014473 -4.521709 23.179336 169 169 169 0
-2.923832 -4.518649 23.163652 171 171 171 0
-2.842362 -4.530015 23.221915 172 172 172 0
-2.751808 -4.527169 23.207323 174 174 174 0
-2.646911 -4.499749 23.066764 175 175 175 0
-2.551045 -4.486320 22.997925 176 176 176 0
-2.459673 -4.480118 22.966130 181 181 181 0
-2.361242 -4.460124 22.863636 166 166 166 0
-2.226882 -4.368114 22.391971 123 123 123 0
-2.109535 -4.303450 22.060492 133 133 133 0
-2.013892 -4.279521 21.937823 147 147 147 0
-1.908320 -4.231493 21.691620 151 151 151 0
-1.818112 -4.214715 21.605613 158 158 158 0
-1.722644 -4.183563 21.445920 165 165 165 0
-1.627245 -4.149474 21.271173 167 167 167 0
-1.530010 -4.106868 21.052765 168 168 168 0
-1.438936 -4.076985 20.899577 176 176 176 0
-1.352972 -4.058917 20.806959 177 177 177 0
-1.266453 -4.036819 20.693675 178 178 178 0
-1.183933 -4.025373 20.635002 179 179 179 0
-1.100986 -4.010736 20.559971 185 185 185 0
-1.020566 -4.003760 20.524210 187 187 187 0
-0.936577 -3.980453 20.404730 187 187 187 0
-0.853451 -3.956908 20.284035 188 188 188 0
-0.772684 -3.940688 20.200887 187 187 187 0
-0.692520 -3.924279 20.116769 190 190 190 0
-0.614690 -3.918651 20.087918 193 193 193 0
-0.537413 -3.915436 20.071438 194 194 194 0
-0.459584 -3.906463 20.025442 195 195 195 0
-0.382052 -3.896935 19.976600 196 196 196 0
-0.304146 -3.877857 19.878802 196 196 196 0
-0.227371 -3.865312 19.814491 196 196 196 0
-0.151162 -3.854643 19.759801 198 198 198 0
-0.075525 -3.851786 19.745155 200 200 200 0
0.000000 -3.846740 19.719290 201 201 201 0
0.075385 -3.844641 19.708527 201 201 201 0
0.150343 -3.833757 19.652734 200 200 200 0
0.224816 -3.821880 19.591847 202 202 202 0
0.299048 -3.812863 19.545626 202 202 202 0
0.373206 -3.806697 19.514017 202 202 202 0
0.447399 -3.802896 19.494531 202 202 202 0
0.521956 -3.802821 19.494148 203 203 203 0
0.595781 -3.798105 19.469973 205 205 205 0
0.669385 -3.793184 19.444745 206 206 206 0
0.742717 -3.787857 19.417438 205 205 205 0
0.815681 -3.781795 19.386365 206 206 206 0
0.889109 -3.778711 19.370556 207 207 207 0
0.962993 -3.777895 19.366374 207 207 207 0
1.037028 -3.777746 19.365607 208 208 208 0
1.109626 -3.772729 19.339889 207 207 207 0
1.181479 -3.765965 19.305218 207 207 207 0
1.254863 -3.764588 19.298157 207 207 207 0
1.327429 -3.761048 19.280012 208 208 208 0
1.402600 -3.764873 19.299617 208 208 208 0
1.477200 -3.766861 19.309809 208 208 208 0
1.549759 -3.763699 19.293601 208 208 208 0
1.621054 -3.757897 19.263857 209 209 209 0
1.694290 -3.756903 19.258762 210 210 210 0
1.768428 -3.757911 19.263927 209 209 209 0
1.844565 -3.762913 19.289569 209 209 209 0
1.918625 -3.763457 19.292361 210 210 210 0
1.992839 -3.764252 19.296434 210 210 210 0
2.064243 -3.759872 19.273981 210 210 210 0
2.139296 -3.762211 19.285970 210 210 210 0
2.215201 -3.765842 19.304588 211 211 211 0
2.291548 -3.769966 19.325727 211 211 211 0
2.368521 -3.774831 19.350666 211 211 211 0
2.441286 -3.772897 19.340750 211 211 211 0
2.516432 -3.774648 19.349728 211 211 211 0
2.594774 -3.780957 19.382068 211 211 211 0
2.672861 -3.786553 19.410755 212 212 212 0
2.750383 -3.791069 19.433904 211 211 211 0
2.825609 -3.792264 19.440033 211 211 211 0
2.901309 -3.794020 19.449032 212 212 212 0
2.979702 -3.799120 19.475176 211 211 211 0
3.062238 -3.809125 19.526466 211 211 211 0
3.143388 -3.816971 19.566687 210 210 210 0
3.220206 -3.819315 19.578698 211 211 211 0
3.301410 -3.826635 19.616223 211 211 211 0
3.382268 -3.833237 19.650067 211 211 211 0
3.469342 -3.846444 19.717771 211 211 211 0
3.550094 -3.852229 19.747427 211 211 211 0
3.634523 -3.861680 19.795875 211 211 211 0
3.716610 -3.868308 19.829849 210 210 210 0
3.805179 -3.881282 19.896360 210 210 210 0
3.895032 -3.895032 19.966843 210 210 210 0
3.979817 -3.903282 20.009135 209 209 209 0
4.070012 -3.916427 20.076519 210 210 210 0
4.161762 -3.930553 20.148934 209 209 209 0
4.254881 -3.945435 20.225221 207 207 207 0
4.347468 -3.959301 20.296304 207 207 207 0
4.444327 -3.976503 20.384481 207 207 207 0
4.548525 -3.999565 20.502704 207 207 207 0
4.647469 -4.017304 20.593636 206 206 206 0
4.753317 -4.040320 20.711623 205 205 205 0
4.868106 -4.070056 20.864057 205 205 205 0
4.980005 -4.096456 20.999390 204 204 204 0
5.098967 -4.127735 21.159734 201 201 201 0
5.238687 -4.174579 21.399866 200 200 200 0
5.382935 -4.223533 21.650818 197 197 197 0
5.543974 -4.283980 21.960680 194 194 194 0
6.571489 -5.002178 25.642334 204 204 204 0
6.585416 -4.939062 25.318786 207 207 207 0
6.711819 -4.960910 25.430783 208 208 208 0
6.831633 -4.977332 25.514968 207 207 207 0
6.951452 -4.993296 25.596802 207 207 207 0
7.072103 -5.009406 25.679386 207 207 207 0
7.196825 -5.027919 25.774285 207 207 207 0
7.321372 -5.045810 25.866002 206 206 206 0
7.439637 -5.058953 25.933375 206 206 206 0
7.572334 -5.081435 26.048622 206 206 206 0
7.699154 -5.099440 26.140918 206 206 206 0
7.821557 -5.114095 26.216045 207 207 207 0
7.950495 -5.132598 26.310897 206 206 206 0
-4.563765 -4.753922 24.857108 86 86 86 0
-4.414830 -4.696628 24.557531 107 107 107 0
-4.269879 -4.641173 24.267570 130 130 130 0
-4.138651 -4.598501 24.044450 142 142 142 0
-4.023239 -4.571863 23.905166 148 148 148 0
-3.913047 -4.550055 23.791135 153 153 153 0
-3.795022 -4.517883 23.622917 157 157 157 0
-3.678595 -4.486091 23.456687 160 160 160 0
-3.568781 -4.460976 23.325365 164 164 164 0
-3.470179 -4.448948 23.262473 165 165 165 0
-3.374127 -4.439641 23.213811 167 167 167 0
-3.281958 -4.435078 23.189952 168 168 168 0
-3.183299 -4.421248 23.117638 171 171 171 0
-3.079614 -4.399448 23.003650 172 172 172 0
-2.982747 -4.386393 22.935388 178 178 178 0
-2.889322 -4.377761 22.890252 178 178 178 0
-2.803043 -4.379754 22.900677 179 179 179 0
-2.717606 -4.383236 22.918879 179 179 179 0
-2.625633 -4.376055 22.881335 179 179 179 0
-2.530332 -4.362642 22.811199 180 180 180 0
-2.435993 -4.349987 22.745031 182 182 182 0
-2.319643 -4.295635 22.460839 148 148 148 0
-2.186159 -4.204151 21.982489 130 130 130 0
-2.091871 -4.183742 21.875775 144 144 144 0
-1.994242 -4.154670 21.723765 151 151 151 0
-1.901212 -4.133070 21.610823 156 156 156 0
-1.807644 -4.108282 21.481216 164 164 164 0
-1.713402 -4.079530 21.330873 165 165 165 0
-1.619848 -4.049621 21.174488 168 168 168 0
-1.526433 -4.016928 21.003546 176 176 176 0
-1.434644 -3.985123 20.837243 177 177 177 0
-1.347336 -3.962753 20.720279 178 178 178 0
-1.261773 -3.943041 20.617210 177 177 177 0
-1.179753 -3.932510 20.562145 183 183 183 0
-1.096857 -3.917347 20.482863 187 187 187 0
-1.016003 -3.907702 20.432431 187 187 187 0
-0.934931 -3.895547 20.368875 187 187 187 0
-0.851595 -3.870888 20.239936 188 188 188 0
-0.770237 -3.851187 20.136927 190 190 190 0
-0.691140 -3.839666 20.076685 193 193 193 0
-0.613176 -3.832351 20.038438 194 194 194 0
-0.535920 -3.828000 20.015685 194 194 194 0
-0.458211 -3.818426 19.965628 195 195 195 0
-0.380626 -3.806260 19.902010 195 195 195 0
-0.303394 -3.792431 19.829704 196 196 196 0
-0.226842 -3.780706 19.768395 197 197 197 0
-0.150810 -3.770250 19.713723 200 200 200 0
-0.075357 -3.767835 19.701097 200 200 200 0
0.000000 -3.762752 19.674519 200 200 200 0
0.075169 -3.758428 19.651913 201 201 201 0
0.150117 -3.752917 19.623097 201 201 201 0
0.224411 -3.740182 19.556509 202 202 202 0
0.298406 -3.730077 19.503671 202 202 202 0
0.372456 -3.724564 19.474842 202 202 202 0
0.446534 -3.721118 19.456825 204 204 204 0
0.520504 -3.717883 19.439911 205 205 205 0
0.594573 -3.716082 19.430494 205 205 205 0
0.667926 -3.710701 19.402358 206 206 206 0
0.740685 -3.703427 19.364322 206 206 206 0
0.813693 -3.698603 19.339101 206 206 206 0
0.886978 -3.695740 19.324131 207 207 207 0
0.961386 -3.697640 19.334065 207 207 207 0
1.033919 -3.692568 19.307546 207 207 207 0
1.107520 -3.691734 19.303186 207 207 207 0
1.179567 -3.686146 19.273964 208 208 208 0
1.251817 -3.681813 19.251312 207 207 207 0
1.325420 -3.681721 19.250831 208 208 208 0
1.398862 -3.681216 19.248189 208 208 208 0
1.473695 -3.684238 19.263988 208 208 208 0
1.545941 -3.680812 19.246074 208 208 208 0
1.619489 -3.680657 19.245267 209 209 209 0
1.690874 -3.675813 19.219937 209 209 209 0
1.763174 -3.673279 19.206686 209 209 209 0
1.840018 -3.680037 19.242021 209 209 209 0
1.912668 -3.678208 19.232461 210 210 210 0
1.988653 -3.682690 19.255898 210 210 210 0
2.060090 -3.678732 19.235202 211 211 211 0
2.133799 -3.678965 19.236416 210 210 210 0
2.210735 -3.684559 19.265666 211 211 211 0
2.286534 -3.687959 19.283445 211 211 211 0
2.363418 -3.692841 19.308972 211 211 211 0
2.436192 -3.691199 19.300388 211 211 211 0
2.510087 -3.691304 19.300937 211 211 211 0
2.588018 -3.697168 19.331600 211 211 211 0
2.664241 -3.700335 19.348156 212 212 212 0
2.742209 -3.705688 19.376147 211 211 211 0
2.819790 -3.710250 19.400000 212 212 212 0
2.896235 -3.713122 19.415019 212 212 212 0
2.974436 -3.718045 19.440758 213 213 213 0
3.052333 -3.722358 19.463308 212 212 212 0
3.132355 -3.728994 19.498010 211 211 211 0
3.212784 -3.735795 19.533569 211 211 211 0
3.293571 -3.742694 19.569642 211 211 211 0
3.373303 -3.748115 19.597985 212 212 212 0
3.460523 -3.761438 19.667650 211 211 211 0
3.541679 -3.767743 19.700619 212 212 212 0
3.623810 -3.774802 19.737527 211 211 211 0
3.706717 -3.782365 19.777070 211 211 211 0
3.791917 -3.791917 19.827016 211 211 211 0
3.883635 -3.807485 19.908419 209 209 209 0
3.966743 -3.814176 19.943404 210 210 210 0
4.056026 -3.826440 20.007527 210 210 210 0
4.145477 -3.838405 20.070091 210 210 210 0
4.240030 -3.854573 20.154630 209 209 209 0
4.334618 -3.870195 20.236311 208 208 208 0
4.427430 -3.883710 20.306982 207 207 207 0
4.528549 -3.903921 20.412660 207 207 207 0
4.631532 -3.925027 20.523018 208 208 208 0
4.731243 -3.942703 20.615439 206 206 206 0
4.840479 -3.967605 20.745649 204 204 204 0
4.956542 -3.997211 20.900450 204 204 204 0
5.068723 -4.022796 21.034226 203 203 203 0
5.199596 -4.062184 21.240180 200 200 200 0
5.335308 -4.104083 21.459259 199 199 199 0
5.490155 -4.159208 21.747493 197 197 197 0
5.622202 -4.195673 21.938158 196 196 196 0
6.623634 -4.870319 25.465721 205 205 205 0
6.705730 -4.859225 25.407711 207 207 207 0
6.831095 -4.879354 25.512961 207 207 207 0
6.943214 -4.889587 25.566468 207 207 207 0
7.067888 -4.908255 25.664080 207 207 207 0
7.191846 -4.925922 25.756453 207 207 207 0
7.314506 -4.942234 25.841745 207 207 207 0
7.432415 -4.954943 25.908200 206 206 206 0
7.568379 -4.979197 26.035017 206 206 206 0
7.690599 -4.993896 26.111873 207 207 207 0
7.813917 -5.008921 26.190436 206 206 206 0
7.944349 -5.028069 26.290556 206 206 206 0
-4.705124 -4.611022 24.601957 87 87 87 0
-4.588107 -4.588107 24.479697 111 111 111 0
-4.449709 -4.542412 24.235890 129 129 129 0
-4.304583 -4.487757 23.944280 139 139 139 0
-4.176357 -4.448728 23.736043 149 149 149 0
-4.053617 -4.413939 23.550426 157 157 157 0
-3.955049 -4.404486 23.499992 159 159 159 0
-3.852472 -4.390027 23.422844 161 161 161 0
-3.747389 -4.371954 23.326417 162 162 162 0
-3.635256 -4.344574 23.180333 164 164 164 0
-3.526385 -4.319822 23.048268 170 170 170 0
-3.419004 -4.295672 22.919420 173 173 173 0
-3.335452 -4.300978 22.947726 174 174 174 0
-3.246093 -4.298879 22.936531 175 175 175 0
-3.152666 -4.291129 22.895179 176 176 176 0
-3.055360 -4.277504 22.822486 177 177 177 0
-2.957305 -4.261998 22.739751 179 179 179 0
-2.863342 -4.251629 22.684428 179 179 179 0
-2.778892 -4.255178 22.703363 179 179 179 0
-2.694819 -4.259552 22.726703 179 179 179 0
-2.607365 -4.258695 22.722131 180 180 180 0
-2.515027 -4.249529 22.673223 182 182 182 0
-2.417916 -4.231352 22.576244 180 180 180 0
-2.285368 -4.147520 22.128959 140 140 140 0
-2.174815 -4.098690 21.868426 138 138 138 0
-2.083707 -4.084066 21.790399 151 151 151 0
-1.978165 -4.038754 21.548639 152 152 152 0
-1.884003 -4.013745 21.415208 162 162 162 0
-1.794410 -3.996641 21.323946 165 165 165 0
-1.700546 -3.967940 21.170813 168 168 168 0
-1.611265 -3.947599 21.062289 173 173 173 0
-1.521591 -3.924104 20.936929 177 177 177 0
-1.430808 -3.894978 20.781529 178 178 178 0
-1.342685 -3.870091 20.648744 179 179 179 0
-1.257035 -3.849671 20.539792 181 181 181 0
-1.175058 -3.838522 20.480311 186 186 186 0
-1.093230 -3.826306 20.415129 187 187 187 0
-1.013369 -3.819623 20.379472 186 186 186 0
-0.931234 -3.802540 20.288327 186 186 186 0
-0.849085 -3.782289 20.180280 190 190 190 0
-0.768339 -3.764862 20.087298 193 193 193 0
-0.688897 -3.750662 20.011535 194 194 194 0
-0.610711 -3.740607 19.957885 194 194 194 0
-0.534120 -3.738841 19.948464 195 195 195 0
-0.457140 -3.733307 19.918936 194 194 194 0
-0.379647 -3.720543 19.850834 195 195 195 0
-0.302766 -3.708882 19.788619 198 198 198 0
-0.226421 -3.698209 19.731676 201 201 201 0
-0.150546 -3.688379 19.679224 200 200 200 0
-0.075113 -3.680514 19.637262 200 200 200 0
0.000000 -3.679608 19.632430 201 201 201 0
0.074940 -3.672049 19.592097 201 201 201 0
0.149608 -3.665397 19.556609 201 201 201 0
0.223705 -3.653845 19.494971 202 202 202 0
0.297905 -3.649335 19.470907 203 203 203 0
0.371461 -3.640319 19.422801 205 205 205 0
0.445754 -3.640323 19.422823 206 206 206 0
0.519395 -3.635765 19.398507 205 205 205 0
0.593239 -3.633589 19.386894 206 206 206 0
0.666683 -3.629719 19.366245 205 205 205 0
0.739606 -3.624069 19.336102 206 206 206 0
0.811479 -3.614770 19.286490 207 207 207 0
0.885334 -3.615113 19.288318 206 206 206 0
0.958719 -3.613632 19.280418 207 207 207 0
1.031952 -3.611832 19.270813 208 208 208 0
1.105481 -3.611239 19.267651 207 207 207 0
1.177177 -3.605103 19.234912 207 207 207 0
1.249538 -3.601610 19.216271 207 207 207 0
1.321719 -3.598013 19.197080 209 209 209 0
1.395240 -3.598250 19.198344 209 209 209 0
1.469246 -3.599652 19.205827 209 209 209 0
1.542129 -3.598302 19.198624 211 211 211 0
1.614334 -3.595563 19.184010 211 211 211 0
1.686659 -3.593316 19.172023 211 211 211 0
1.760417 -3.594185 19.176659 212 212 212 0
1.834732 -3.596074 19.186735 212 212 212 0
1.909893 -3.599413 19.204552 211 211 211 0
1.984028 -3.600644 19.211119 211 211 211 0
2.054823 -3.595941 19.186026 211 211 211 0
2.128650 -3.596684 19.189991 211 211 211 0
2.204828 -3.601220 19.214191 212 212 212 0
2.280629 -3.604866 19.233643 211 211 211 0
2.357237 -3.609520 19.258476 211 211 211 0
2.430147 -3.608400 19.252500 211 211 211 0
2.505681 -3.611129 19.267063 211 211 211 0
2.580699 -3.612978 19.276929 212 212 212 0
2.658121 -3.617998 19.303712 212 212 212 0
2.736735 -3.624325 19.337467 211 211 211 0
2.813313 -3.627693 19.355437 212 212 212 0
2.890422 -3.631556 19.376048 213 213 213 0
2.967884 -3.635658 19.397935 213 213 213 0
3.046743 -3.641230 19.427664 212 212 212 0
3.127423 -3.648660 19.467307 212 212 212 0
3.206035 -3.653388 19.492534 213 213 213 0
3.283224 -3.656317 19.508161 211 211 211 0
3.364447 -3.663509 19.546532 211 211 211 0
3.450073 -3.675078 19.608260 211 211 211 0
3.533854 -3.684231 19.657095 212 212 212 0
3.614437 -3.689738 19.686476 212 212 212 0
3.697311 -3.697311 19.726880 212 212 212 0
3.781518 -3.705888 19.772643 212 212 212 0
3.869188 -3.717456 19.834363 210 210 210 0
3.959029 -3.730623 19.904620 210 210 210 0
4.042786 -3.737670 19.942217 210 210 210 0
4.133142 -3.750444 20.010372 210 210 210 0
4.227058 -3.765924 20.092965 210 210 210 0
4.319911 -3.779922 20.167652 209 209 209 0
4.412888 -3.793535 20.240284 208 208 208 0
4.513272 -3.812937 20.343801 208 208 208 0
4.612337 -3.830585 20.437960 207 207 207 0
4.713305 -3.849199 20.537275 207 207 207 0
4.817951 -3.870157 20.649098 206 206 206 0
4.932390 -3.898179 20.798607 205 205 205 0
5.044152 -3.923230 20.932264 204 204 204 0
5.162239 -3.952340 21.087579 203 203 203 0
5.297162 -3.993245 21.305829 201 201 201 0
5.431757 -4.032668 21.516170 200 200 200 0
5.602822 -4.097586 21.862539 196 196 196 0
6.746313 -4.861314 25.937382 199 199 199 0
6.707980 -4.763638 25.416236 207 207 207 0
6.824129 -4.776891 25.486944 208 208 208 0
6.935541 -4.786500 25.538217 207 207 207 0
7.060929 -4.805355 25.638814 207 207 207 0
7.186766 -4.823994 25.738262 206 206 206 0
7.306977 -4.838404 25.815147 207 207 207 0
7.430631 -4.854679 25.901983 207 207 207 0
7.559415 -4.873834 26.004181 206 206 206 0
7.688504 -4.892685 26.104760 206 206 206 0
7.807749 -4.904868 26.169762 206 206 206 0
7.935546 -4.922047 26.261424 206 206 206 0
-4.906032 -4.528645 24.665824 83 83 83 0
-4.777667 -4.496628 24.491439 112 112 112 0
-4.630113 -4.444909 24.209742 131 131 131 0
-4.501148 -4.409288 24.015731 140 140 140 0
-4.362705 -4.362705 23.762012 148 148 148 0
-4.236740 -4.326883 23.566902 153 153 153 0
-4.112176 -4.290966 23.371274 158 158 158 0
-4.002388 -4.269214 23.252800 162 162 162 0
-3.891038 -4.244769 23.119658 163 163 163 0
-3.807271 -4.249977 23.148023 166 166 166 0
-3.702883 -4.231866 23.049378 170 170 170 0
-3.596602 -4.210656 22.933859 172 172 172 0
-3.499144 -4.198973 22.870223 174 174 174 0
-3.391826 -4.174555 22.737230 175 175 175 0
-3.299539 -4.167839 22.700646 176 176 176 0
-3.215161 -4.171019 22.717969 176 176 176 0
-3.121549 -4.162065 22.669202 177 177 177 0
-3.031693 -4.157750 22.645698 177 177 177 0
-2.937826 -4.147519 22.589974 180 180 180 0
-2.842352 -4.134331 22.518141 181 181 181 0
-2.750557 -4.125836 22.471873 182 182 182 0
-2.666823 -4.129274 22.490597 183 183 183 0
-2.581635 -4.130616 22.497909 185 185 185 0
-2.492830 -4.126064 22.473114 185 185 185 0
-2.394610 -4.105045 22.358633 183 183 183 0
-2.267029 -4.030273 21.951379 144 144 144 0
-2.156781 -3.981750 21.687093 148 148 148 0
-2.062180 -3.959385 21.565276 151 151 151 0
-1.967999 -3.935998 21.437897 159 159 159 0
-1.875134 -3.913323 21.314398 164 164 164 0
-1.785034 -3.894619 21.212522 165 165 165 0
-1.696188 -3.877002 21.116568 170 170 170 0
-1.605324 -3.852777 20.984624 176 176 176 0
-1.514411 -3.825880 20.838129 178 178 178 0
-1.424302 -3.798138 20.687026 178 178 178 0
-1.337305 -3.775919 20.566005 180 180 180 0
-1.252247 -3.756741 20.461551 185 185 185 0
-1.171497 -3.748790 20.418247 186 186 186 0
-1.089063 -3.733931 20.337317 187 187 187 0
-1.009609 -3.727788 20.303857 187 187 187 0
-0.927877 -3.711507 20.215180 188 188 188 0
-0.847162 -3.696707 20.134571 192 192 192 0
-0.765749 -3.675594 20.019574 193 193 193 0
-0.687800 -3.668264 19.979652 194 194 194 0
-0.608817 -3.652903 19.895986 194 194 194 0
-0.532501 -3.651433 19.887979 195 195 195 0
-0.456106 -3.648849 19.873904 196 196 196 0
-0.378729 -3.635802 19.802843 198 198 198 0
-0.302371 -3.628450 19.762799 200 200 200 0
-0.226139 -3.618227 19.707119 200 200 200 0
-0.150114 -3.602741 19.622771 201 201 201 0
-0.074951 -3.597640 19.594992 201 201 201 0
0.000000 -3.594459 19.577664 201 201 201 0
0.074804 -3.590597 19.556626 201 201 201 0
0.149389 -3.585326 19.527920 202 202 202 0
0.223412 -3.574590 19.469443 203 203 203 0
0.297247 -3.566965 19.427912 204 204 204 0
0.370988 -3.561480 19.398041 205 205 205 0
0.444580 -3.556642 19.371691 206 206 206 0
0.518228 -3.553567 19.354938 206 206 206 0
0.592049 -3.552296 19.348018 206 206 206 0
0.665298 -3.548257 19.326017 206 206 206 0
0.737856 -3.541710 19.290358 206 206 206 0
0.810723 -3.537702 19.268527 206 206 206 0
0.883014 -3.532057 19.237786 206 206 206 0
0.957201 -3.534281 19.249895 207 207 207 0
1.029858 -3.530942 19.231710 207 207 207 0
1.102801 -3.528964 19.220936 208 208 208 0
1.174514 -3.523542 19.191403 209 209 209 0
1.245838 -3.517660 19.159369 209 209 209 0
1.319474 -3.518597 19.164472 210 210 210 0
1.392903 -3.518913 19.166195 210 210 210 0
1.467066 -3.520958 19.177332 211 211 211 0
1.540204 -3.520467 19.174659 210 210 210 0
1.611226 -3.515403 19.147073 211 211 211 0
1.684350 -3.515166 19.145786 211 211 211 0
1.757770 -3.515540 19.147821 211 211 211 0
1.833513 -3.520346 19.173996 211 211 211 0
1.906062 -3.518883 19.166031 211 211 211 0
1.980390 -3.520693 19.175889 211 211 211 0
2.053069 -3.519546 19.169643 212 212 212 0
2.125219 -3.517604 19.159061 212 212 212 0
2.200850 -3.521360 19.179519 212 212 212 0
2.275817 -3.523846 19.193060 212 212 212 0
2.353505 -3.530258 19.227982 212 212 212 0
2.424164 -3.526056 19.205098 212 212 212 0
2.500754 -3.530476 19.229174 212 212 212 0
2.574039 -3.530110 19.227180 211 211 211 0
2.654040 -3.538720 19.274076 211 211 211 0
2.731875 -3.544054 19.303125 212 212 212 0
2.808611 -3.547720 19.323092 213 213 213 0
2.885778 -3.551727 19.344920 212 212 212 0
2.960201 -3.552241 19.347717 212 212 212 0
3.039239 -3.558133 19.379809 212 212 212 0
3.117374 -3.562713 19.404756 213 213 213 0
3.199171 -3.571168 19.450804 213 213 213 0
3.275678 -3.573467 19.463326 212 212 212 0
3.355728 -3.579443 19.495875 212 212 212 0
3.440233 -3.589809 19.552336 212 212 212 0
3.524646 -3.599638 19.605873 212 212 212 0
3.608254 -3.608254 19.652801 211 211 211 0
3.686959 -3.611715 19.671648 211 211 211 0
3.771259 -3.620409 19.719003 212 212 212 0
3.856575 -3.629718 19.769703 212 212 212 0
3.945212 -3.641734 19.835154 211 211 211 0
4.032805 -3.652352 19.892985 210 210 210 0
4.121508 -3.663562 19.954044 210 210 210 0
4.215933 -3.679359 20.040084 210 210 210 0
4.306048 -3.690898 20.102933 210 210 210 0
4.398894 -3.704332 20.176098 210 210 210 0
4.496849 -3.721530 20.269773 209 209 209 0
4.597627 -3.740442 20.372780 209 209 209 0
4.696497 -3.757198 20.464041 208 208 208 0
4.794495 -3.772717 20.548568 207 207 207 0
4.906959 -3.798936 20.691371 206 206 206 0
5.020399 -3.825066 20.833691 205 205 205 0
5.133097 -3.849823 20.968533 204 204 204 0
5.260567 -3.884726 21.158639 203 203 203 0
5.397758 -3.925642 21.381494 202 202 202 0
5.544757 -3.972363 21.635963 198 198 198 0
5.710093 -4.030654 21.953451 195 195 195 0
6.768178 -4.708298 25.644323 203 203 203 0
6.813968 -4.672435 25.448992 208 208 208 0
6.929100 -4.684462 25.514499 207 207 207 0
7.052094 -4.701396 25.606733 207 207 207 0
7.180690 -4.721550 25.716502 207 207 207 0
7.299311 -4.734688 25.788062 207 207 207 0
7.421843 -4.749979 25.871347 206 206 206 0
7.551089 -4.769109 25.975537 206 206 206 0
7.679851 -4.787440 26.075381 206 206 206 0
7.793615 -4.796071 26.122388 206 206 206 0
7.929207 -4.817746 26.240448 206 206 206 0
