ply
format ascii 1.0
element vertex 1119
property float x
property float y
property float z
property uchar red
property uchar green
property uchar blue
property uchar alpha
end_header
-0.974918 -0.177258 23.170950 172 172 172 0
-0.880173 -0.176035 23.011049 172 172 172 0
-0.792346 -0.176077 23.016586 172 172 172 0
-0.692983 -0.173246 22.646487 177 177 177 0
-0.604622 -0.172749 22.581581 181 181 181 0
-0.516047 -0.172016 22.485690 181 181 181 0
-0.428230 -0.171292 22.391127 181 181 181 0
-0.340720 -0.170360 22.269291 181 181 181 0
-0.254996 -0.169997 22.221857 182 182 182 0
-0.169246 -0.169246 22.123615 186 186 186 0
-0.084393 -0.168786 22.063560 188 188 188 0
0.000000 -0.168049 21.967253 187 187 187 0
0.083821 -0.167641 21.913894 187 187 187 0
0.166536 -0.166536 21.769427 188 188 188 0
0.249282 -0.166188 21.723898 189 189 189 0
0.331320 -0.165660 21.654919 190 190 190 0
0.413460 -0.165384 21.618830 192 192 192 0
0.496311 -0.165437 21.625765 194 194 194 0
0.574739 -0.164211 21.465514 194 194 194 0
0.655455 -0.163864 21.420089 193 193 193 0
0.733751 -0.163056 21.314467 196 196 196 0
0.814098 -0.162820 21.283613 196 196 196 0
0.895995 -0.162908 21.295186 196 196 196 0
0.974692 -0.162449 21.235115 196 196 196 0
1.052163 -0.161871 21.159632 197 197 197 0
1.130476 -0.161497 21.110660 198 198 198 0
1.206282 -0.160838 21.024519 199 199 199 0
1.285337 -0.160667 21.002238 200 200 200 0
1.364829 -0.160568 20.989295 201 201 201 0
1.443471 -0.160386 20.965443 201 201 201 0
1.520943 -0.160099 20.928008 201 201 201 0
1.601150 -0.160115 20.930068 201 201 201 0
1.673732 -0.159403 20.837001 201 201 201 0
1.750074 -0.159098 20.797073 202 202 202 0
1.826926 -0.158863 20.766417 202 202 202 0
1.908029 -0.159002 20.784625 203 203 203 0
1.982631 -0.158610 20.733395 202 202 202 0
2.060748 -0.158519 20.721443 203 203 203 0
2.133985 -0.158073 20.663128 204 204 204 0
2.207462 -0.157676 20.611225 205 205 205 0
2.286420 -0.157684 20.612303 205 205 205 0
2.364869 -0.157658 20.608879 206 206 206 0
2.442271 -0.157566 20.596843 206 206 206 0
2.519665 -0.157479 20.585496 206 206 206 0
2.594253 -0.157227 20.552606 207 207 207 0
2.670646 -0.157097 20.535531 206 206 206 0
2.747814 -0.157018 20.525220 207 207 207 0
2.827966 -0.157109 20.537151 208 208 208 0
2.905219 -0.157039 20.527958 207 207 207 0
2.982700 -0.156984 20.520809 208 208 208 0
3.056589 -0.156748 20.489955 208 208 208 0
3.130490 -0.156525 20.460719 208 208 208 0
3.210385 -0.156604 20.471128 208 208 208 0
3.293416 -0.156829 20.500563 209 209 209 0
3.372523 -0.156862 20.504775 208 208 208 0
3.444075 -0.156549 20.463903 209 209 209 0
3.520537 -0.156468 20.453375 209 209 209 0
3.599617 -0.156505 20.458179 210 210 210 0
3.683215 -0.156733 20.487917 210 210 210 0
3.761921 -0.156747 20.489768 209 209 209 0
3.842346 -0.156830 20.500711 209 209 209 0
3.917458 -0.156698 20.483442 210 210 210 0
3.996160 -0.156712 20.485250 210 210 210 0
4.080818 -0.156955 20.516935 210 210 210 0
4.161416 -0.157035 20.527395 211 211 211 0
4.242173 -0.157118 20.538236 210 210 210 0
4.321130 -0.157132 20.540131 210 210 210 0
4.401734 -0.157205 20.549645 211 211 211 0
4.484459 -0.157349 20.568552 211 211 211 0
4.568113 -0.157521 20.590997 210 210 210 0
4.652684 -0.157718 20.616746 211 211 211 0
4.732430 -0.157748 20.620610 210 210 210 0
4.816758 -0.157926 20.643987 210 210 210 0
4.902119 -0.158133 20.670962 209 209 209 0
4.992763 -0.158500 20.719008 210 210 210 0
5.072546 -0.158517 20.721183 210 210 210 0
5.159843 -0.158764 20.753518 209 209 209 0
5.249674 -0.159081 20.794905 209 209 209 0
5.343324 -0.159502 20.849961 210 210 210 0
5.433529 -0.159810 20.890153 210 210 210 0
5.519203 -0.159977 20.912011 209 209 209 0
5.609788 -0.160280 20.951590 210 210 210 0
5.704059 -0.160678 21.003625 209 209 209 0
5.795829 -0.160995 21.045130 209 209 209 0
5.883854 -0.161201 21.072088 210 210 210 0
5.982320 -0.161684 21.135206 208 208 208 0
6.086732 -0.162313 21.217367 207 207 207 0
6.188811 -0.162863 21.289340 208 208 208 0
6.285068 -0.163249 21.339675 208 208 208 0
6.387981 -0.163794 21.411030 207 207 207 0
6.494759 -0.164424 21.493370 207 207 207 0
-8.386327 -0.104829 27.406297 202 202 202 0
-8.348191 -0.105673 27.627007 203 203 203 0
-8.150818 -0.104498 27.319651 202 202 202 0
-8.127444 -0.105551 27.595091 203 203 203 0
-8.032965 -0.105697 27.633179 203 203 203 0
-7.955421 -0.106072 27.731316 202 202 202 0
-7.904111 -0.106812 27.924788 202 202 202 0
-7.821036 -0.107137 28.009797 203 203 203 0
-7.696625 -0.106898 27.947078 202 202 202 0
-7.618822 -0.107307 28.054209 204 204 204 0
-7.514308 -0.107347 28.064643 202 202 202 0
-7.440364 -0.107831 28.191207 202 202 202 0
-7.300146 -0.107355 28.066690 202 202 202 0
-7.239439 -0.108051 28.248712 202 202 202 0
-7.133400 -0.108082 28.256683 203 203 203 0
-7.049612 -0.108456 28.354397 202 202 202 0
-6.921178 -0.108143 28.272785 203 203 203 0
-6.803730 -0.107996 28.234174 203 203 203 0
-6.738700 -0.108689 28.415347 203 203 203 0
-6.632651 -0.108732 28.426662 204 204 204 0
-6.533097 -0.108885 28.466652 199 199 199 0
-6.248688 -0.105910 27.688878 160 160 160 0
-5.868337 -0.101178 26.451822 129 129 129 0
-6.030764 -0.105803 27.660882 142 142 142 0
-5.793915 -0.103463 27.049091 145 145 145 0
-5.613285 -0.102060 26.682282 154 154 154 0
-5.460940 -0.101129 26.438829 158 158 158 0
-5.357327 -0.101082 26.426571 158 158 158 0
-5.205837 -0.100112 26.173138 164 164 164 0
-5.054448 -0.099107 25.910283 169 169 169 0
-4.944449 -0.098889 25.853328 171 171 171 0
-4.828701 -0.098545 25.763376 171 171 171 0
-4.715202 -0.098233 25.681931 174 174 174 0
-4.614781 -0.098187 25.669759 177 177 177 0
-4.509043 -0.098023 25.626844 180 180 180 0
-4.381769 -0.097373 25.456899 182 182 182 0
-4.289174 -0.097481 25.485290 182 182 182 0
-4.171952 -0.097022 25.365266 182 182 182 0
-4.073702 -0.096993 25.357622 184 184 184 0
-3.971704 -0.096871 25.325705 186 186 186 0
-3.870014 -0.096750 25.294206 186 186 186 0
-3.762466 -0.096473 25.221829 190 190 190 0
-3.649909 -0.096050 25.111172 192 192 192 0
-3.563587 -0.096313 25.179908 191 191 191 0
-3.465897 -0.096275 25.169913 193 193 193 0
-3.370399 -0.096297 25.175718 193 193 193 0
-3.260027 -0.095883 25.067492 193 193 193 0
-3.170987 -0.096091 25.121699 195 195 195 0
-3.075299 -0.096103 25.124996 195 195 195 0
-2.983501 -0.096242 25.161298 195 195 195 0
-2.895933 -0.096531 25.236893 195 195 195 0
-2.788323 -0.096149 25.137011 196 196 196 0
-2.688683 -0.096024 25.104418 197 197 197 0
-2.593475 -0.096055 25.112322 198 198 198 0
-2.498940 -0.096113 25.127598 198 198 198 0
-2.407694 -0.096308 25.178497 199 199 199 0
-2.313500 -0.096396 25.201523 201 201 201 0
-2.205139 -0.095876 25.065516 202 202 202 0
-2.111609 -0.095982 25.093394 202 202 202 0
-2.020830 -0.096230 25.158174 203 203 203 0
-1.910869 -0.095543 24.978682 198 198 198 0
-1.771941 -0.093260 24.381706 166 166 166 0
-1.637621 -0.090979 23.785346 162 162 162 0
-1.542546 -0.090738 23.722347 159 159 159 0
-1.453582 -0.090849 23.751343 165 165 165 0
-1.345138 -0.089676 23.444677 164 164 164 0
-1.244836 -0.088917 23.246233 164 164 164 0
-1.159546 -0.089196 23.319178 172 172 172 0
-1.066306 -0.088859 23.231066 171 171 171 0
-0.972900 -0.088445 23.122996 171 171 171 0
-0.880665 -0.088067 23.023929 170 170 170 0
-0.782838 -0.086982 22.740404 175 175 175 0
-0.692768 -0.086596 22.639488 177 177 177 0
-0.604226 -0.086318 22.566815 179 179 179 0
-0.516166 -0.086028 22.490893 179 179 179 0
-0.426048 -0.085210 22.276998 179 179 179 0
-0.339076 -0.084769 22.161838 181 181 181 0
-0.253645 -0.084548 22.104171 185 185 185 0
-0.168767 -0.084383 22.061033 187 187 187 0
-0.084463 -0.084463 22.081855 187 187 187 0
0.000000 -0.083946 21.946756 188 188 188 0
0.083406 -0.083406 21.805372 188 188 188 0
0.165945 -0.082972 21.692153 187 187 187 0
0.248448 -0.082816 21.651237 190 190 190 0
0.330133 -0.082533 21.577346 193 193 193 0
0.412677 -0.082535 21.577904 194 194 194 0
0.493721 -0.082287 21.512910 194 194 194 0
0.573219 -0.081888 21.408722 194 194 194 0
0.652048 -0.081506 21.308759 195 195 195 0
0.730858 -0.081206 21.230437 195 195 195 0
0.811310 -0.081131 21.210724 195 195 195 0
0.890620 -0.080965 21.167433 196 196 196 0
0.971998 -0.081000 21.176418 196 196 196 0
1.050237 -0.080787 21.120903 199 199 199 0
1.127341 -0.080524 21.052122 200 200 200 0
1.203937 -0.080262 20.983657 200 200 200 0
1.281453 -0.080091 20.938769 201 201 201 0
1.359405 -0.079965 20.905881 201 201 201 0
1.439803 -0.079989 20.912178 201 201 201 0
1.519086 -0.079952 20.902451 202 202 202 0
1.594794 -0.079740 20.846983 201 201 201 0
1.670103 -0.079529 20.791821 201 201 201 0
1.744916 -0.079314 20.735776 202 202 202 0
1.822109 -0.079222 20.711667 202 202 202 0
1.902108 -0.079255 20.720132 202 202 202 0
1.976889 -0.079076 20.673352 204 204 204 0
2.054064 -0.079002 20.654240 204 204 204 0
2.129368 -0.078865 20.618431 205 205 205 0
2.204017 -0.078715 20.579053 206 206 206 0
2.281959 -0.078688 20.572087 206 206 206 0
2.360658 -0.078689 20.572180 206 206 206 0
2.437704 -0.078636 20.558328 207 207 207 0
2.513729 -0.078554 20.537002 207 207 207 0
2.590145 -0.078489 20.520061 207 207 207 0
2.661300 -0.078274 20.463670 207 207 207 0
2.741186 -0.078320 20.475711 208 208 208 0
2.819933 -0.078331 20.478813 207 207 207 0
2.896813 -0.078292 20.468563 207 207 207 0
2.975985 -0.078315 20.474614 208 208 208 0
3.048426 -0.078165 20.435232 207 207 207 0
3.123042 -0.078076 20.412039 208 208 208 0
3.202477 -0.078109 20.420704 208 208 208 0
3.282751 -0.078161 20.434182 208 208 208 0
3.362476 -0.078197 20.443690 208 208 208 0
3.435900 -0.078089 20.415330 209 209 209 0
3.512211 -0.078049 20.405004 209 209 209 0
3.590911 -0.078063 20.408704 209 209 209 0
3.671655 -0.078120 20.423612 209 209 209 0
3.752865 -0.078185 20.440444 209 209 209 0
3.832209 -0.078208 20.446625 209 209 209 0
3.906800 -0.078136 20.427714 210 210 210 0
3.985788 -0.078153 20.432079 210 210 210 0
4.065385 -0.078180 20.439340 210 210 210 0
4.150237 -0.078306 20.472251 210 210 210 0
4.230404 -0.078341 20.481259 210 210 210 0
4.308929 -0.078344 20.482135 210 210 210 0
4.388887 -0.078373 20.489667 210 210 210 0
4.470439 -0.078429 20.504252 211 211 211 0
4.557256 -0.078573 20.542058 211 211 211 0
4.639190 -0.078630 20.556952 210 210 210 0
4.718569 -0.078643 20.560214 211 211 211 0
4.802494 -0.078729 20.582854 211 211 211 0
4.888244 -0.078843 20.612456 211 211 211 0
4.971237 -0.078909 20.629678 211 211 211 0
5.059439 -0.079054 20.667643 210 210 210 0
5.144896 -0.079152 20.693398 210 210 210 0
5.230638 -0.079252 20.719502 209 209 209 0
5.325300 -0.079482 20.779633 210 210 210 0
5.414470 -0.079625 20.816878 210 210 210 0
5.503097 -0.079755 20.850987 210 210 210 0
5.590930 -0.079870 20.881157 210 210 210 0
5.684116 -0.080058 20.930188 209 209 209 0
5.777785 -0.080247 20.979611 210 210 210 0
5.867198 -0.080373 21.012439 210 210 210 0
5.962191 -0.080570 21.064091 210 210 210 0
6.063065 -0.080841 21.134866 209 209 209 0
6.164803 -0.081116 21.206753 208 208 208 0
6.262082 -0.081326 21.261630 208 208 208 0
6.359818 -0.081536 21.316635 207 207 207 0
6.467841 -0.081871 21.404289 207 207 207 0
-8.421820 0.000000 27.522289 203 203 203 0
-8.330225 0.000000 27.567551 203 203 203 0
-8.228258 0.000000 27.579211 203 203 203 0
-8.125697 0.000000 27.589158 202 202 202 0
-8.076545 0.000000 27.783093 202 202 202 0
-7.963932 0.000000 27.760982 202 202 202 0
-7.887964 0.000000 27.867742 202 202 202 0
-7.792776 0.000000 27.908589 202 202 202 0
-7.709086 0.000000 27.992323 202 202 202 0
-7.600580 0.000000 27.987039 202 202 202 0
-7.522590 0.000000 28.095575 202 202 202 0
-7.411480 0.000000 28.081766 202 202 202 0
-7.313325 0.000000 28.117357 203 203 203 0
-7.222039 0.000000 28.180816 203 203 203 0
-7.114777 0.000000 28.182916 204 204 204 0
-7.062482 0.000000 28.406162 202 202 202 0
-6.948974 0.000000 28.386334 202 202 202 0
-6.852044 0.000000 28.434669 203 203 203 0
-6.772721 0.000000 28.558805 202 202 202 0
-6.652629 0.000000 28.512285 204 204 204 0
-6.591912 0.000000 28.722929 203 203 203 0
-6.427861 0.000000 28.482822 197 197 197 0
-6.214628 0.000000 28.012748 162 162 162 0
-5.854230 0.000000 26.851188 129 129 129 0
-5.959619 0.000000 27.822682 135 135 135 0
-5.667195 0.000000 26.938540 145 145 145 0
-5.567222 0.000000 26.953387 153 153 153 0
-5.369112 0.000000 26.484704 157 157 157 0
-5.284546 0.000000 26.568857 159 159 159 0
-5.106865 0.000000 26.178981 165 165 165 0
-4.982310 0.000000 26.051297 168 168 168 0
-4.858919 0.000000 25.924603 170 170 170 0
-4.757624 0.000000 25.912987 170 170 170 0
-4.639061 0.000000 25.804816 173 173 173 0
-4.534812 0.000000 25.773298 177 177 177 0
-4.409806 0.000000 25.619790 180 180 180 0
-4.296876 0.000000 25.531054 181 181 181 0
-4.192664 0.000000 25.491194 183 183 183 0
-4.097240 0.000000 25.504139 183 183 183 0
-3.983784 0.000000 25.402738 183 183 183 0
-3.886644 0.000000 25.402902 184 184 184 0
-3.771072 0.000000 25.279515 185 185 185 0
-3.669122 0.000000 25.243356 187 187 187 0
-3.574935 0.000000 25.260095 187 187 187 0
-3.481340 0.000000 25.282064 189 189 189 0
-3.381874 0.000000 25.261430 191 191 191 0
-3.273130 0.000000 25.168241 192 192 192 0
-3.178192 0.000000 25.178781 192 192 192 0
-3.089684 0.000000 25.242513 193 193 193 0
-2.999531 0.000000 25.296488 195 195 195 0
-2.908466 0.000000 25.346110 197 197 197 0
-2.806336 0.000000 25.299397 196 196 196 0
-2.703773 0.000000 25.245314 198 198 198 0
-2.607989 0.000000 25.252859 199 199 199 0
-2.510190 0.000000 25.240728 198 198 198 0
-2.416369 0.000000 25.269223 198 198 198 0
-2.312117 0.000000 25.186455 198 198 198 0
-2.209138 0.000000 25.110978 200 200 200 0
-2.117009 0.000000 25.157568 201 201 201 0
-2.024668 0.000000 25.205945 197 197 197 0
-1.882729 0.000000 24.610832 175 175 175 0
-1.745648 0.000000 24.019929 161 161 161 0
-1.621812 0.000000 23.555726 156 156 156 0
-1.555333 0.000000 23.919007 164 164 164 0
-1.443288 0.000000 23.583142 164 164 164 0
-1.345553 0.000000 23.451902 163 163 163 0
-1.244248 0.000000 23.235258 168 168 168 0
-1.148871 0.000000 23.104488 170 170 170 0
-1.059501 0.000000 23.082820 172 172 172 0
-0.966765 0.000000 22.977178 172 172 172 0
-0.871728 0.000000 22.790274 176 176 176 0
-0.783747 0.000000 22.766801 179 179 179 0
-0.692154 0.000000 22.619408 177 177 177 0
-0.602051 0.000000 22.485562 178 178 178 0
-0.510798 0.000000 22.256979 178 178 178 0
-0.424091 0.000000 22.174680 181 181 181 0
-0.338889 0.000000 22.149577 188 188 188 0
-0.253266 0.000000 22.071131 187 187 187 0
-0.168059 0.000000 21.968533 187 187 187 0
-0.083832 0.000000 21.916899 187 187 187 0
0.000000 0.000000 21.898469 188 188 188 0
0.082900 0.000000 21.673138 188 188 188 0
0.165245 0.000000 21.600706 188 188 188 0
0.247079 0.000000 21.531941 192 192 192 0
0.329095 0.000000 21.509496 195 195 195 0
0.410864 0.000000 21.483086 195 195 195 0
0.491307 0.000000 21.407725 195 195 195 0
0.573171 0.000000 21.406942 194 194 194 0
0.650929 0.000000 21.272192 194 194 194 0
0.728033 0.000000 21.148377 195 195 195 0
0.808420 0.000000 21.135167 196 196 196 0
0.888584 0.000000 21.119047 197 197 197 0
0.968498 0.000000 21.100175 199 199 199 0
1.047073 0.000000 21.057273 200 200 200 0
1.126308 0.000000 21.032824 200 200 200 0
1.199729 0.000000 20.910307 200 200 200 0
1.278101 0.000000 20.883997 200 200 200 0
1.356815 0.000000 20.866056 200 200 200 0
1.435932 0.000000 20.855947 201 201 201 0
1.512080 0.000000 20.806056 201 201 201 0
1.591348 0.000000 20.801940 202 202 202 0
1.663562 0.000000 20.710393 202 202 202 0
1.738938 0.000000 20.664738 202 202 202 0
1.817134 0.000000 20.655112 203 203 203 0
1.895548 0.000000 20.648675 205 205 205 0
1.972763 0.000000 20.630206 205 205 205 0
2.048713 0.000000 20.600430 205 205 205 0
2.124474 0.000000 20.571037 205 205 205 0
2.198874 0.000000 20.531033 206 206 206 0
2.274007 0.000000 20.500401 206 206 206 0
2.352562 0.000000 20.501631 206 206 206 0
2.431615 0.000000 20.506979 206 206 206 0
2.506920 0.000000 20.481370 206 206 206 0
2.583203 0.000000 20.465064 207 207 207 0
2.655496 0.000000 20.419040 207 207 207 0
2.734717 0.000000 20.427388 208 208 208 0
2.812106 0.000000 20.421974 207 207 207 0
2.890397 0.000000 20.423228 208 208 208 0
2.968222 0.000000 20.421203 208 208 208 0
3.041094 0.000000 20.386081 208 208 208 0
3.116875 0.000000 20.371729 208 208 208 0
3.193419 0.000000 20.362944 209 209 209 0
3.274483 0.000000 20.382716 209 209 209 0
3.350474 0.000000 20.370721 208 208 208 0
3.429466 0.000000 20.377100 208 208 208 0
3.502182 0.000000 20.346735 209 209 209 0
3.581213 0.000000 20.353581 209 209 209 0
3.661120 0.000000 20.365014 209 209 209 0
3.741084 0.000000 20.376272 210 210 210 0
3.822766 0.000000 20.396245 210 210 210 0
3.895832 0.000000 20.370365 210 210 210 0
3.975633 0.000000 20.380024 210 210 210 0
4.055442 0.000000 20.389350 211 211 211 0
4.136458 0.000000 20.404284 210 210 210 0
4.219182 0.000000 20.426929 211 211 211 0
4.299541 0.000000 20.437511 211 211 211 0
4.376531 0.000000 20.431983 211 211 211 0
4.457103 0.000000 20.443083 210 210 210 0
4.542823 0.000000 20.477003 211 211 211 0
4.629071 0.000000 20.512113 211 211 211 0
4.707906 0.000000 20.513752 211 211 211 0
4.787400 0.000000 20.518161 211 211 211 0
4.872740 0.000000 20.547078 211 211 211 0
4.960587 0.000000 20.585485 211 211 211 0
5.046124 0.000000 20.613250 211 211 211 0
5.130091 0.000000 20.633851 211 211 211 0
5.215720 0.000000 20.660406 210 210 210 0
5.302392 0.000000 20.690244 210 210 210 0
5.400464 0.000000 20.763028 210 210 210 0
5.485362 0.000000 20.783789 210 210 210 0
5.571281 0.000000 20.807774 210 210 210 0
5.662480 0.000000 20.850522 210 210 210 0
5.759861 0.000000 20.914527 210 210 210 0
5.850322 0.000000 20.951999 210 210 210 0
5.943407 0.000000 20.997728 211 211 211 0
6.039483 0.000000 21.052664 210 210 210 0
6.135828 0.000000 21.107078 210 210 210 0
6.236604 0.000000 21.175124 208 208 208 0
6.334401 0.000000 21.231443 208 208 208 0
6.442399 0.000000 21.320091 208 208 208 0
-8.414275 0.105178 27.497631 202 202 202 0
-8.297842 0.105036 27.460387 202 202 202 0
-8.255059 0.105834 27.669042 202 202 202 0
-8.111321 0.105342 27.540347 202 202 202 0
-8.046768 0.105879 27.680661 202 202 202 0
-7.955693 0.106076 27.732264 202 202 202 0
-7.848967 0.106067 27.729966 202 202 202 0
-7.770675 0.106448 27.829440 202 202 202 0
-7.696168 0.106891 27.945417 203 203 203 0
-7.601130 0.107058 27.989064 203 203 203 0
-7.522624 0.107466 28.095702 202 202 202 0
-7.461410 0.108136 28.270947 203 203 203 0
-7.347598 0.108053 28.249129 203 203 203 0
-7.250621 0.108218 28.292347 203 203 203 0
-7.150123 0.108335 28.322926 203 203 203 0
-7.045408 0.108391 28.337488 202 202 202 0
-6.945975 0.108531 28.374082 203 203 203 0
-6.871172 0.109066 28.514044 203 203 203 0
-6.769974 0.109193 28.547222 202 202 202 0
-6.682720 0.109553 28.641251 203 203 203 0
-6.579818 0.109664 28.670229 203 203 203 0
-6.479404 0.109820 28.711216 204 204 204 0
-6.351902 0.109516 28.631515 198 198 198 0
-6.129327 0.107532 28.112954 158 158 158 0
-5.994450 0.107044 27.985292 124 124 124 0
-5.722921 0.104053 27.203428 137 137 137 0
-5.572207 0.103189 26.977521 143 143 143 0
-5.415237 0.102174 26.712230 147 147 147 0
-5.293743 0.101803 26.615098 156 156 156 0
-5.141878 0.100821 26.358468 159 159 159 0
-5.003991 0.100080 26.164658 161 161 161 0
-4.909773 0.100199 26.195935 167 167 167 0
-4.778675 0.099556 26.027643 171 171 171 0
-4.681981 0.099617 26.043560 172 172 172 0
-4.548267 0.098875 25.849768 173 173 173 0
-4.436011 0.098578 25.772035 174 174 174 0
-4.319525 0.098171 25.665627 177 177 177 0
-4.220260 0.098146 25.658975 180 180 180 0
-4.121111 0.098122 25.652729 183 183 183 0
-4.016701 0.097968 25.612629 183 183 183 0
-3.902008 0.097550 25.503323 183 183 183 0
-3.791617 0.097221 25.417239 186 186 186 0
-3.692731 0.097177 25.405788 187 187 187 0
-3.602111 0.097354 25.452119 186 186 186 0
-3.497688 0.097158 25.400781 187 187 187 0
-3.407969 0.097371 25.456351 189 189 189 0
-3.300329 0.097068 25.377383 188 188 188 0
-3.197974 0.096908 25.335501 190 190 190 0
-3.099403 0.096856 25.321917 190 190 190 0
-3.014145 0.097230 25.419734 191 191 191 0
-2.910911 0.097030 25.367415 193 193 193 0
-2.811526 0.096949 25.346191 193 193 193 0
-2.705245 0.096616 25.259060 195 195 195 0
-2.621439 0.097090 25.383091 194 194 194 0
-2.520318 0.096935 25.342561 194 194 194 0
-2.428421 0.097137 25.395253 197 197 197 0
-2.319976 0.096666 25.272072 198 198 198 0
-2.223765 0.096685 25.277236 199 199 199 0
-2.127475 0.096703 25.281934 196 196 196 0
-1.999496 0.095214 24.892572 177 177 177 0
-1.852484 0.092624 24.215483 159 159 159 0
-1.737198 0.091431 23.903657 156 156 156 0
-1.622120 0.090118 23.560203 157 157 157 0
-1.539014 0.090530 23.668029 162 162 162 0
-1.445166 0.090323 23.613823 160 160 160 0
-1.334461 0.088964 23.258581 164 164 164 0
-1.240781 0.088627 23.170507 170 170 170 0
-1.143337 0.087949 22.993196 170 170 170 0
-1.053637 0.087803 22.955062 171 171 171 0
-0.960084 0.087280 22.818405 171 171 171 0
-0.868555 0.086856 22.707328 177 177 177 0
-0.775748 0.086194 22.534447 179 179 179 0
-0.686763 0.085845 22.443251 178 178 178 0
-0.600324 0.085761 22.421048 180 180 180 0
-0.511530 0.085255 22.288869 180 180 180 0
-0.423066 0.084613 22.121083 183 183 183 0
-0.336809 0.084202 22.013678 186 186 186 0
-0.251961 0.083987 21.957347 187 187 187 0
-0.167821 0.083910 21.937368 187 187 187 0
-0.083781 0.083781 21.903590 187 187 187 0
0.000000 0.083414 21.807543 186 186 186 0
0.082710 0.082710 21.623595 188 188 188 0
0.165054 0.082527 21.575647 191 191 191 0
0.246510 0.082170 21.482353 192 192 192 0
0.328866 0.082216 21.494506 195 195 195 0
0.409446 0.081889 21.408921 194 194 194 0
0.490532 0.081755 21.373929 194 194 194 0
0.571793 0.081685 21.355464 195 195 195 0
0.648400 0.081050 21.189551 194 194 194 0
0.728513 0.080946 21.162321 195 195 195 0
0.807726 0.080773 21.117010 197 197 197 0
0.886012 0.080547 21.057928 200 200 200 0
0.965470 0.080456 21.034201 200 200 200 0
1.043108 0.080239 20.977543 200 200 200 0
1.123000 0.080214 20.971062 200 200 200 0
1.197614 0.079841 20.873455 200 200 200 0
1.274921 0.079683 20.832037 200 200 200 0
1.350135 0.079420 20.763318 201 201 201 0
1.431498 0.079528 20.791549 200 200 200 0
1.509338 0.079439 20.768326 202 202 202 0
1.586157 0.079308 20.734082 202 202 202 0
1.661641 0.079126 20.686479 202 202 202 0
1.735096 0.078868 20.619086 203 203 203 0
1.811591 0.078765 20.592116 204 204 204 0
1.889250 0.078719 20.580066 205 205 205 0
1.967059 0.078682 20.570556 206 206 206 0
2.044241 0.078625 20.555465 206 206 206 0
2.119567 0.078502 20.523528 206 206 206 0
2.193736 0.078348 20.483067 206 206 206 0
2.268320 0.078218 20.449132 206 206 206 0
2.347680 0.078256 20.459087 206 206 206 0
2.426194 0.078264 20.461262 206 206 206 0
2.500823 0.078151 20.431563 207 207 207 0
2.577529 0.078107 20.420113 207 207 207 0
2.651245 0.077978 20.386353 208 208 208 0
2.725999 0.077886 20.362268 208 208 208 0
2.802420 0.077845 20.351633 207 207 207 0
2.880382 0.077848 20.352458 207 207 207 0
2.957317 0.077824 20.346177 208 208 208 0
3.035357 0.077830 20.347628 209 209 209 0
3.109830 0.077746 20.325684 208 208 208 0
3.182164 0.077614 20.291178 208 208 208 0
3.265796 0.077757 20.328637 209 209 209 0
3.343588 0.077758 20.328851 209 209 209 0
3.421155 0.077754 20.327717 209 209 209 0
3.494905 0.077665 20.304457 209 209 209 0
3.571091 0.077632 20.296053 209 209 209 0
3.652048 0.077703 20.314549 210 210 210 0
3.729560 0.077699 20.313506 210 210 210 0
3.809185 0.077738 20.323782 210 210 210 0
3.887128 0.077743 20.324852 210 210 210 0
3.963706 0.077720 20.318885 210 210 210 0
4.042224 0.077735 20.322897 210 210 210 0
4.124385 0.077819 20.344730 210 210 210 0
4.209687 0.077957 20.380961 210 210 210 0
4.285495 0.077918 20.370744 210 210 210 0
4.364330 0.077934 20.375022 210 210 210 0
4.447826 0.078032 20.400531 211 211 211 0
4.531595 0.078131 20.426390 211 211 211 0
4.614451 0.078211 20.447329 211 211 211 0
4.695766 0.078263 20.460853 210 210 210 0
4.773717 0.078258 20.459519 211 211 211 0
4.859504 0.078379 20.491266 211 211 211 0
4.945309 0.078497 20.522082 211 211 211 0
5.033117 0.078642 20.560117 211 211 211 0
5.117513 0.078731 20.583261 211 211 211 0
5.201166 0.078806 20.602758 211 211 211 0
5.287870 0.078923 20.633579 211 211 211 0
5.378786 0.079100 20.679685 211 211 211 0
5.467737 0.079243 20.717009 210 210 210 0
5.549956 0.079285 20.728128 210 210 210 0
5.647338 0.079540 20.794765 210 210 210 0
5.742007 0.079750 20.849699 211 211 211 0
5.835453 0.079938 20.898749 211 211 211 0
5.926287 0.080085 20.937243 211 211 211 0
6.019109 0.080255 20.981643 211 211 211 0
6.118019 0.080500 21.045816 210 210 210 0
6.213708 0.080698 21.097389 210 210 210 0
6.309111 0.080886 21.146677 208 208 208 0
6.417763 0.081238 21.238563 208 208 208 0
-8.438203 0.210955 27.575828 201 201 201 0
-8.333685 0.210979 27.579001 202 202 202 0
-8.281315 0.212341 27.757047 202 202 202 0
-8.147968 0.211636 27.664776 202 202 202 0
-8.070194 0.212374 27.761244 202 202 202 0
-7.991397 0.213104 27.856722 201 201 201 0
-7.906180 0.213681 27.932098 203 203 203 0
-7.799345 0.213681 27.932116 202 202 202 0
-7.707969 0.214110 27.988268 202 202 202 0
-7.624038 0.214762 28.073418 202 202 202 0
-7.518211 0.214806 28.079219 202 202 202 0
-7.424213 0.215195 28.130010 202 202 202 0
-7.398705 0.217609 28.445618 202 202 202 0
-7.256331 0.216607 28.314628 203 203 203 0
-7.165422 0.217134 28.383528 202 202 202 0
-7.077551 0.217771 28.466773 202 202 202 0
-6.998140 0.218692 28.587172 202 202 202 0
-6.863320 0.217883 28.481461 203 203 203 0
-6.772508 0.218468 28.557908 202 202 202 0
-6.676780 0.218911 28.615794 203 203 203 0
-6.565586 0.218853 28.608218 202 202 202 0
-6.454305 0.218790 28.600000 202 202 202 0
-6.372807 0.219752 28.725747 203 203 203 0
-6.260167 0.219655 28.713068 198 198 198 0
-6.094037 0.217644 28.450221 159 159 159 0
-5.889342 0.214158 27.994498 124 124 124 0
-5.661656 0.209691 27.410583 131 131 131 0
-5.532648 0.208779 27.291396 142 142 142 0
-5.377920 0.206843 27.038310 146 146 146 0
-5.205497 0.204137 26.684592 156 156 156 0
-5.042053 0.201682 26.363676 158 158 158 0
-4.928284 0.201154 26.294701 159 159 159 0
-4.823617 0.200984 26.272422 163 163 163 0
-4.704070 0.200173 26.166430 170 170 170 0
-4.593372 0.199712 26.106123 172 172 172 0
-4.452845 0.197904 25.869832 173 173 173 0
-4.345625 0.197528 25.820709 174 174 174 0
-4.236562 0.197049 25.758092 176 176 176 0
-4.143737 0.197321 25.793571 177 177 177 0
-4.037758 0.196964 25.746903 180 180 180 0
-3.920559 0.196028 25.624567 182 182 182 0
-3.802681 0.195009 25.491409 185 185 185 0
-3.713173 0.195430 25.546423 187 187 187 0
-3.620938 0.195726 25.585148 185 185 185 0
-3.530037 0.196113 25.635707 187 187 187 0
-3.434650 0.196266 25.655650 189 189 189 0
-3.325600 0.195624 25.571702 190 190 190 0
-3.210357 0.194567 25.433608 189 189 189 0
-3.128366 0.195523 25.558549 190 190 190 0
-3.030289 0.195503 25.555886 192 192 192 0
-2.936888 0.195793 25.593799 192 192 192 0
-2.827811 0.195021 25.493002 192 192 192 0
-2.725373 0.194669 25.446992 192 192 192 0
-2.628713 0.194719 25.453526 194 194 194 0
-2.530805 0.194677 25.448014 195 195 195 0
-2.423927 0.193914 25.348260 195 195 195 0
-2.337388 0.194782 25.461747 198 198 198 0
-2.226770 0.193632 25.311399 197 197 197 0
-2.115070 0.192279 25.134525 175 175 175 0
-1.937624 0.184536 24.122307 158 158 158 0
-1.820170 0.182017 23.793074 158 158 158 0
-1.733572 0.182481 23.853766 157 157 157 0
-1.640117 0.182235 23.821603 162 162 162 0
-1.537825 0.180921 23.649752 160 160 160 0
-1.443240 0.180405 23.582357 162 162 162 0
-1.338554 0.178474 23.329920 167 167 167 0
-1.239388 0.177055 23.144497 168 168 168 0
-1.135612 0.174709 22.837839 168 168 168 0
-1.046758 0.174460 22.805182 171 171 171 0
-0.955334 0.173697 22.705509 177 177 177 0
-0.866350 0.173270 22.649674 179 179 179 0
-0.774970 0.172216 22.511849 178 178 178 0
-0.686260 0.171565 22.426797 179 179 179 0
-0.597129 0.170608 22.301733 178 178 178 0
-0.508635 0.169545 22.162743 182 182 182 0
-0.422748 0.169099 22.104480 185 185 185 0
-0.335667 0.167833 21.938999 185 185 185 0
-0.251306 0.167537 21.900295 186 186 186 0
-0.167137 0.167137 21.847931 187 187 187 0
-0.083306 0.166612 21.779402 188 188 188 0
0.000000 0.166098 21.712139 188 188 188 0
0.082708 0.165415 21.622929 191 191 191 0
0.164611 0.164611 21.517769 193 193 193 0
0.246243 0.164162 21.459080 193 193 193 0
0.327414 0.163707 21.399606 193 193 193 0
0.408055 0.163222 21.336185 194 194 194 0
0.489773 0.163258 21.340885 194 194 194 0
0.568890 0.162540 21.247058 195 195 195 0
0.648651 0.162163 21.197738 195 195 195 0
0.726768 0.161504 21.111624 197 197 197 0
0.804304 0.160861 21.027553 199 199 199 0
0.883584 0.160652 21.000216 200 200 200 0
0.961918 0.160320 20.956816 199 199 199 0
1.041459 0.160224 20.944367 200 200 200 0
1.120177 0.160025 20.918345 200 200 200 0
1.195999 0.159467 20.845298 200 200 200 0
1.271106 0.158888 20.769707 201 201 201 0
1.348020 0.158591 20.730797 200 200 200 0
1.426936 0.158548 20.725290 201 201 201 0
1.506086 0.158535 20.723576 202 202 202 0
1.581991 0.158199 20.679626 202 202 202 0
1.655890 0.157704 20.614873 204 204 204 0
1.730473 0.157316 20.564148 205 205 205 0
1.806658 0.157101 20.536036 205 205 205 0
1.883403 0.156950 20.516373 206 206 206 0
1.962363 0.156989 20.521440 205 205 205 0
2.040053 0.156927 20.513355 206 206 206 0
2.115658 0.156715 20.485675 205 205 205 0
2.189458 0.156390 20.443120 206 206 206 0
2.262980 0.156068 20.400992 207 207 207 0
2.339726 0.155982 20.389773 207 207 207 0
2.419378 0.156089 20.403782 206 206 206 0
2.497017 0.156064 20.400463 206 206 206 0
2.570420 0.155783 20.363799 206 206 206 0
2.642467 0.155439 20.318853 207 207 207 0
2.719981 0.155427 20.317317 207 207 207 0
2.796541 0.155363 20.308937 207 207 207 0
2.873643 0.155332 20.304844 207 207 207 0
2.951059 0.155319 20.303121 208 208 208 0
3.027038 0.155233 20.291861 208 208 208 0
3.098957 0.154948 20.254623 209 209 209 0
3.177884 0.155019 20.263884 208 208 208 0
3.254016 0.154953 20.255312 209 209 209 0
3.333580 0.155050 20.268003 210 210 210 0
3.411405 0.155064 20.269783 211 211 211 0
3.486151 0.154940 20.253599 210 210 210 0
3.562407 0.154887 20.246699 210 210 210 0
3.642064 0.154981 20.259011 211 211 211 0
3.719198 0.154967 20.257069 211 211 211 0
3.800953 0.155141 20.279860 211 211 211 0
3.877911 0.155116 20.276658 211 211 211 0
3.953612 0.155044 20.267141 210 210 210 0
4.034513 0.155174 20.284128 210 210 210 0
4.112895 0.155204 20.288051 210 210 210 0
4.196579 0.155429 20.317497 211 211 211 0
4.275286 0.155465 20.322214 211 211 211 0
4.352159 0.155434 20.318203 211 211 211 0
4.432963 0.155543 20.332362 211 211 211 0
4.516990 0.155758 20.360560 211 211 211 0
4.603148 0.156039 20.397245 211 211 211 0
4.684321 0.156144 20.410983 211 211 211 0
4.764863 0.156225 20.421569 211 211 211 0
4.846677 0.156344 20.437179 211 211 211 0
4.931948 0.156570 20.466638 212 212 212 0
5.018914 0.156841 20.502098 211 211 211 0
5.104140 0.157050 20.529470 212 212 212 0
5.187259 0.157190 20.547670 212 212 212 0
5.272482 0.157388 20.573532 212 212 212 0
5.361164 0.157681 20.611932 211 211 211 0
5.449067 0.157944 20.646269 212 212 212 0
5.532649 0.158076 20.663487 210 210 210 0
5.627723 0.158527 20.722537 211 211 211 0
5.721863 0.158941 20.776555 211 211 211 0
5.821374 0.159490 20.848326 211 211 211 0
5.908268 0.159683 20.873583 210 210 210 0
5.998887 0.159970 20.911153 210 210 210 0
6.094788 0.160389 20.965902 210 210 210 0
6.194602 0.160899 21.032517 210 210 210 0
6.289670 0.161274 21.081515 209 209 209 0
6.390613 0.161788 21.148715 208 208 208 0
-8.462115 0.317329 27.653969 203 203 203 0
-8.363664 0.317607 27.678212 203 203 203 0
-8.257263 0.317587 27.676430 203 203 203 0
-8.201981 0.319558 27.848166 202 202 202 0
-8.071677 0.318619 27.766347 202 202 202 0
-8.003166 0.320127 27.897746 202 202 202 0
-7.908650 0.320621 27.940822 202 202 202 0
-7.825913 0.321613 28.027265 203 203 203 0
-7.745847 0.322744 28.125807 203 203 203 0
-7.621368 0.322030 28.063586 201 201 201 0
-7.536899 0.323010 28.149015 204 204 204 0
-7.436626 0.323332 28.177042 201 201 201 0
-7.329077 0.323342 28.177920 202 202 202 0
-7.256822 0.324932 28.316544 202 202 202 0
-7.157969 0.325362 28.354008 203 203 203 0
-7.069025 0.326263 28.432478 203 203 203 0
-6.977116 0.327052 28.501292 203 203 203 0
-6.875997 0.327428 28.534068 202 202 202 0
-6.789646 0.328531 28.630175 203 203 203 0
-6.682053 0.328626 28.638395 202 202 202 0
-6.595470 0.329773 28.738431 202 202 202 0
-6.480936 0.329539 28.718007 202 202 202 0
-6.385253 0.330272 28.781846 201 201 201 0
-6.291992 0.331157 28.859037 201 201 201 0
-6.186637 0.331427 28.882525 195 195 195 0
-6.014706 0.328075 28.590402 148 148 148 0
-5.921180 0.328954 28.667053 113 113 113 0
-5.523461 0.312649 27.246078 123 123 123 0
-5.359080 0.309178 26.943591 139 139 139 0
-5.251562 0.308915 26.920733 145 145 145 0
-5.101798 0.306108 26.676067 152 152 152 0
-5.015335 0.307061 26.759155 158 158 158 0
-4.853718 0.303357 26.436372 160 160 160 0
-4.741339 0.302639 26.373738 163 163 163 0
-4.609890 0.300645 26.200000 167 167 167 0
-4.481517 0.298768 26.036409 170 170 170 0
-4.377580 0.298471 26.010577 172 172 172 0
-4.272174 0.298059 25.974610 176 176 176 0
-4.170495 0.297892 25.960130 178 178 178 0
-4.050340 0.296366 25.827130 177 177 177 0
-3.939610 0.295471 25.749087 177 177 177 0
-3.835931 0.295072 25.714301 179 179 179 0
-3.742360 0.295450 25.747234 182 182 182 0
-3.643733 0.295438 25.746214 183 183 183 0
-3.548325 0.295694 25.768521 186 186 186 0
-3.432036 0.294175 25.636127 187 187 187 0
-3.320599 0.292994 25.533250 189 189 189 0
-3.230264 0.293660 25.591321 188 188 188 0
-3.144557 0.294802 25.690823 191 191 191 0
-3.042313 0.294417 25.657289 192 192 192 0
-2.940463 0.294046 25.624951 192 192 192 0
-2.844357 0.294244 25.642166 192 192 192 0
-2.735095 0.293046 25.537768 194 194 194 0
-2.638555 0.293173 25.548829 194 194 194 0
-2.545226 0.293680 25.593020 196 196 196 0
-2.438386 0.292606 25.499460 195 195 195 0
-2.340739 0.292592 25.498245 197 197 197 0
-2.227562 0.290552 25.320401 180 180 180 0
-2.057706 0.280596 24.452833 151 151 151 0
-1.921500 0.274500 23.921570 150 150 150 0
-1.778429 0.266764 23.247432 154 154 154 0
-1.725711 0.272481 23.745596 155 155 155 0
-1.626322 0.271054 23.621228 160 160 160 0
-1.531922 0.270339 23.558964 159 159 159 0
-1.425124 0.267211 23.286336 167 167 167 0
-1.337364 0.267473 23.309173 169 169 169 0
-1.237295 0.265135 23.105419 168 168 168 0
-1.139278 0.262910 22.911575 168 168 168 0
-1.039962 0.259990 22.657118 174 174 174 0
-0.946785 0.258214 22.502307 178 178 178 0
-0.861648 0.258494 22.526753 178 178 178 0
-0.774781 0.258260 22.506333 178 178 178 0
-0.683053 0.256145 22.321999 180 180 180 0
-0.595978 0.255419 22.258767 180 180 180 0
-0.508791 0.254396 22.169562 186 186 186 0
-0.420852 0.252511 22.005355 185 185 185 0
-0.334486 0.250864 21.861798 185 185 185 0
-0.250679 0.250679 21.845705 186 186 186 0
-0.166478 0.249717 21.761802 186 186 186 0
-0.082946 0.248839 21.685345 188 188 188 0
0.000000 0.248339 21.641720 191 191 191 0
0.082451 0.247353 21.555824 193 193 193 0
0.163976 0.245964 21.434729 192 192 192 0
0.244596 0.244596 21.315556 192 192 192 0
0.326596 0.244947 21.346154 194 194 194 0
0.407127 0.244276 21.287662 193 193 193 0
0.487400 0.243700 21.237453 194 194 194 0
0.566741 0.242889 21.166780 195 195 195 0
0.645988 0.242246 21.110727 197 197 197 0
0.724517 0.241506 21.046253 199 199 199 0
0.803215 0.240965 20.999094 199 199 199 0
0.881411 0.240385 20.948574 199 199 199 0
0.959529 0.239882 20.904766 199 199 199 0
1.038738 0.239709 20.889648 200 200 200 0
1.114942 0.238916 20.820587 200 200 200 0
1.193376 0.238675 20.799577 200 200 200 0
1.267457 0.237648 20.710090 200 200 200 0
1.343831 0.237147 20.666374 201 201 201 0
1.423015 0.237169 20.668337 202 202 202 0
1.500703 0.236953 20.649512 204 204 204 0
1.576775 0.236516 20.611433 204 204 204 0
1.652870 0.236124 20.577286 205 205 205 0
1.727653 0.235589 20.530632 205 205 205 0
1.803378 0.235223 20.498755 205 205 205 0
1.880290 0.235036 20.482461 205 205 205 0
1.957333 0.234880 20.468839 205 205 205 0
2.035759 0.234895 20.470180 206 206 206 0
2.111961 0.234662 20.449873 206 206 206 0
2.185686 0.234181 20.407898 207 207 207 0
2.257559 0.233541 20.352125 206 206 206 0
2.333457 0.233346 20.335135 207 207 207 0
2.412343 0.233453 20.344450 207 207 207 0
2.490138 0.233450 20.344262 207 207 207 0
2.566504 0.233319 20.332768 207 207 207 0
2.638152 0.232778 20.285672 208 208 208 0
2.713736 0.232606 20.270669 207 207 207 0
2.790331 0.232528 20.263843 208 208 208 0
2.866196 0.232394 20.252227 209 209 209 0
2.942691 0.232318 20.245555 209 209 209 0
3.019638 0.232280 20.242253 210 210 210 0
3.093738 0.232030 20.220510 210 210 210 0
3.170271 0.231971 20.215343 210 210 210 0
3.246991 0.231928 20.211585 211 211 211 0
3.326612 0.232089 20.225640 211 211 211 0
3.402361 0.231979 20.216051 210 210 210 0
3.478627 0.231908 20.209888 211 211 211 0
3.555736 0.231896 20.208787 211 211 211 0
3.634061 0.231961 20.214493 212 212 212 0
3.711310 0.231957 20.214107 211 211 211 0
3.788101 0.231925 20.211290 212 212 212 0
3.866491 0.231989 20.216947 212 212 212 0
3.942534 0.231914 20.210350 212 212 212 0
4.021808 0.232027 20.220250 211 211 211 0
4.103847 0.232293 20.243419 212 212 212 0
4.182910 0.232384 20.251319 212 212 212 0
4.263674 0.232564 20.267017 211 211 211 0
4.343963 0.232712 20.279938 212 212 212 0
4.421199 0.232695 20.278404 211 211 211 0
4.506532 0.233096 20.313417 212 212 212 0
4.589093 0.233344 20.334964 211 211 211 0
4.673436 0.233672 20.363554 211 211 211 0
4.750462 0.233629 20.359851 211 211 211 0
4.833161 0.233863 20.380185 212 212 212 0
4.918088 0.234195 20.409120 212 212 212 0
5.006682 0.234688 20.452132 212 212 212 0
5.091957 0.235013 20.480470 212 212 212 0
5.174530 0.235206 20.497247 211 211 211 0
5.258327 0.235447 20.518297 211 211 211 0
5.346344 0.235868 20.554955 212 212 212 0
5.436197 0.236356 20.597505 212 212 212 0
5.522201 0.236666 20.624466 212 212 212 0
5.609475 0.237020 20.655344 211 211 211 0
5.703422 0.237643 20.709592 211 211 211 0
5.799949 0.238354 20.771596 210 210 210 0
5.889308 0.238756 20.806599 211 211 211 0
5.980702 0.239228 20.847761 210 210 210 0
6.076106 0.239846 20.901636 211 211 211 0
6.178717 0.240729 20.978583 211 211 211 0
6.272459 0.241248 21.023827 211 211 211 0
6.369596 0.241883 21.079162 210 210 210 0
-8.445795 0.422290 27.600637 202 202 202 0
-8.354788 0.423027 27.648840 203 203 203 0
-8.263609 0.423775 27.697701 202 202 202 0
-8.157490 0.423766 27.697106 202 202 202 0
-8.101432 0.426391 27.868702 202 202 202 0
-8.004821 0.426924 27.903515 202 202 202 0
-7.893083 0.426653 27.885826 202 202 202 0
-7.799620 0.427376 27.933100 203 203 203 0
-7.740643 0.430036 28.106909 201 201 201 0
-7.636029 0.430199 28.117571 202 202 202 0
-7.531817 0.430390 28.130036 202 202 202 0
-7.430294 0.430742 28.153049 202 202 202 0
-7.350071 0.432357 28.258634 201 201 201 0
-7.258789 0.433361 28.324217 202 202 202 0
-7.174296 0.434806 28.418679 201 201 201 0
-7.048926 0.433780 28.351639 201 201 201 0
-6.987930 0.436746 28.545467 199 199 199 0
-6.894944 0.437774 28.612696 196 196 196 0
-6.780134 0.437428 28.590063 192 192 192 0
-6.694352 0.438974 28.691103 187 187 187 0
-6.595775 0.439718 28.739760 180 180 180 0
-6.509027 0.441290 28.842481 173 173 173 0
-6.375164 0.439666 28.736371 162 162 162 0
-6.282408 0.440871 28.815082 146 146 146 0
-6.173504 0.440965 28.821213 126 126 126 0
-6.040590 0.439316 28.713440 100 100 100 0
-5.921180 0.438606 28.667053 75 75 75 0
-6.014116 0.453896 29.666375 101 101 101 0
-5.548655 0.426820 27.896707 123 123 123 0
-5.324059 0.417573 27.292371 135 135 135 0
-5.181216 0.414497 27.091327 143 143 143 0
-5.030490 0.410652 26.840015 147 147 147 0
-4.919135 0.409928 26.792672 156 156 156 0
-4.746191 0.403931 26.400727 163 163 163 0
-4.651014 0.404436 26.433724 161 161 161 0
-4.521157 0.401881 26.266709 164 164 164 0
-4.413121 0.401193 26.221755 165 165 165 0
-4.305091 0.400474 26.174745 173 173 173 0
-4.191305 0.399172 26.089665 173 173 173 0
-4.069075 0.396983 25.946595 176 176 176 0
-3.961490 0.396149 25.892094 177 177 177 0
-3.865423 0.396454 25.912006 179 179 179 0
-3.762377 0.396040 25.884944 179 179 179 0
-3.670032 0.396760 25.932037 179 179 179 0
-3.561637 0.395737 25.865191 181 181 181 0
-3.454488 0.394799 25.803829 182 182 182 0
-3.354280 0.394621 25.792231 183 183 183 0
-3.251621 0.394136 25.760519 184 184 184 0
-3.159806 0.394976 25.815406 188 188 188 0
-3.054586 0.394140 25.760795 187 187 187 0
-2.949241 0.393232 25.701450 189 189 189 0
-2.846323 0.392596 25.659886 188 188 188 0
-2.754552 0.393507 25.719436 191 191 191 0
-2.663374 0.394574 25.789147 192 192 192 0
-2.550724 0.392419 25.648307 192 192 192 0
-2.446852 0.391496 25.587996 192 192 192 0
-2.341758 0.390293 25.509347 185 185 185 0
-2.196156 0.381940 24.963416 154 154 154 0
-1.994215 0.362585 23.698336 147 147 147 0
-1.897194 0.361370 23.618977 146 146 146 0
-1.804584 0.360917 23.589338 149 149 149 0
-1.719069 0.361909 23.654205 159 159 159 0
-1.623390 0.360753 23.578645 158 158 158 0
-1.518771 0.357358 23.356729 162 162 162 0
-1.430522 0.357630 23.374535 166 166 166 0
-1.330985 0.354929 23.197993 167 167 167 0
-1.231720 0.351920 23.001307 166 166 166 0
-1.133546 0.348783 22.796304 171 171 171 0
-1.043518 0.347839 22.734595 175 175 175 0
-0.948374 0.344863 22.540092 176 176 176 0
-0.857810 0.343124 22.426402 176 176 176 0
-0.766593 0.340708 22.268495 178 178 178 0
-0.682497 0.341249 22.303826 180 180 180 0
-0.594087 0.339478 22.188126 182 182 182 0
-0.505513 0.337009 22.026716 185 185 185 0
-0.419265 0.335412 21.922327 185 185 185 0
-0.333780 0.333780 21.815708 185 185 185 0
-0.249349 0.332466 21.729801 185 185 185 0
-0.165508 0.331017 21.635068 186 186 186 0
-0.082839 0.331355 21.657162 188 188 188 0
0.000000 0.330714 21.615266 192 192 192 0
0.082399 0.329597 21.542280 193 193 193 0
0.163501 0.327003 21.372725 193 193 193 0
0.244010 0.325347 21.264529 194 194 194 0
0.324659 0.324659 21.219554 194 194 194 0
0.405710 0.324568 21.213608 194 194 194 0
0.485248 0.323499 21.143720 193 193 193 0
0.564708 0.322691 21.090887 196 196 196 0
0.644812 0.322406 21.072290 198 198 198 0
0.721317 0.320586 20.953304 199 199 199 0
0.801148 0.320459 20.945056 200 200 200 0
0.878498 0.319454 20.879325 198 198 198 0
0.957106 0.319035 20.851976 199 199 199 0
1.035359 0.318572 20.821702 200 200 200 0
1.114596 0.318456 20.814124 199 199 199 0
1.191476 0.317727 20.766466 201 201 201 0
1.266196 0.316549 20.689477 201 201 201 0
1.340985 0.315526 20.622603 202 202 202 0
1.418206 0.315157 20.598487 203 203 203 0
1.496340 0.315019 20.589471 204 204 204 0
1.572309 0.314462 20.553064 204 204 204 0
1.649802 0.314248 20.539086 205 205 205 0
1.725943 0.313808 20.510314 205 205 205 0
1.799383 0.312936 20.453341 205 205 205 0
1.873640 0.312273 20.410027 206 206 206 0
1.953410 0.312546 20.427815 205 205 205 0
2.029430 0.312220 20.406533 206 206 206 0
2.105602 0.311941 20.388307 206 206 206 0
2.178569 0.311224 20.341446 206 206 206 0
2.253179 0.310783 20.312633 206 206 206 0
2.328094 0.310413 20.288399 206 206 206 0
2.405569 0.310396 20.287323 207 207 207 0
2.484959 0.310620 20.301954 207 207 207 0
2.559202 0.310206 20.274922 208 208 208 0
2.632603 0.309718 20.243009 208 208 208 0
2.707582 0.309438 20.224703 209 209 209 0
2.783831 0.309315 20.216641 210 210 210 0
2.858805 0.309060 20.200000 210 210 210 0
2.937120 0.309171 20.207223 210 210 210 0
3.013951 0.309123 20.204131 210 210 210 0
3.088424 0.308842 20.185780 211 211 211 0
3.163694 0.308653 20.173406 210 210 210 0
3.237587 0.308342 20.153045 211 211 211 0
3.318041 0.308655 20.173525 211 211 211 0
3.395329 0.308666 20.174267 211 211 211 0
3.471096 0.308542 20.166134 211 211 211 0
3.548068 0.308528 20.165207 211 211 211 0
3.624023 0.308428 20.158660 211 211 211 0
3.702471 0.308539 20.165961 211 211 211 0
3.781097 0.308661 20.173918 211 211 211 0
3.858594 0.308687 20.175652 211 211 211 0
3.935221 0.308645 20.172862 212 212 212 0
4.014774 0.308829 20.184889 212 212 212 0
4.096287 0.309154 20.206124 211 211 211 0
4.174190 0.309199 20.209104 212 212 212 0
4.253987 0.309381 20.220970 212 212 212 0
4.333502 0.309536 20.231102 212 212 212 0
4.410766 0.309527 20.230553 212 212 212 0
4.494898 0.309993 20.260977 212 212 212 0
4.577824 0.310361 20.285029 211 211 211 0
4.661760 0.310784 20.312681 211 211 211 0
4.740332 0.310841 20.316432 212 212 212 0
4.819217 0.310917 20.321388 212 212 212 0
4.907822 0.311608 20.366521 212 212 212 0
4.993043 0.312065 20.396418 211 211 211 0
5.079249 0.312569 20.429357 211 211 211 0
5.160007 0.312728 20.439720 212 212 212 0
5.243032 0.313017 20.458618 213 213 213 0
5.332501 0.313677 20.501732 213 213 213 0
5.422778 0.314364 20.546664 212 212 212 0
5.510990 0.314914 20.582596 211 211 211 0
5.594696 0.315194 20.600923 212 212 212 0
5.685244 0.315847 20.643588 211 211 211 0
5.781801 0.316811 20.706603 211 211 211 0
5.873587 0.317491 20.751057 211 211 211 0
5.963182 0.318036 20.786690 210 210 210 0
6.057693 0.318826 20.838297 210 210 210 0
6.159259 0.319961 20.912516 211 211 211 0
6.254051 0.320721 20.962129 210 210 210 0
6.346968 0.321365 21.004280 211 211 211 0
-8.465818 0.529114 27.666073 201 201 201 0
-8.394121 0.531274 27.779007 202 202 202 0
-8.270915 0.530187 27.722190 202 202 202 0
-8.205554 0.532828 27.860296 202 202 202 0
-8.105728 0.533272 27.883483 202 202 202 0
-8.017791 0.534519 27.948728 202 202 202 0
-7.899456 0.533747 27.908340 200 200 200 0
-7.792776 0.533752 27.908589 201 201 201 0
-7.720642 0.536156 28.034286 198 198 198 0
-7.632795 0.537521 28.105661 195 195 195 0
-7.549651 0.539261 28.196644 193 193 193 0
-7.467390 0.541115 28.293604 188 188 188 0
-7.278594 0.535191 27.983828 185 185 185 0
-7.245651 0.540720 28.272953 172 172 172 0
-7.170503 0.543220 28.403656 162 162 162 0
-7.086003 0.545077 28.500765 147 147 147 0
-6.940719 0.542244 28.352612 136 136 136 0
-6.888966 0.546743 28.587885 115 115 115 0
-6.763074 0.545409 28.518130 103 103 103 0
-6.681112 0.547632 28.634360 87 87 87 0
-6.449363 0.537447 28.101798 84 84 84 0
-7.851911 0.665416 34.793005 75 75 75 0
-5.542763 0.532958 27.867086 84 84 84 0
-5.420738 0.531445 27.787971 112 112 112 0
-5.253384 0.525338 27.468677 129 129 129 0
-5.134675 0.523946 27.395889 139 139 139 0
-4.939645 0.514546 26.904383 146 146 146 0
-4.859332 0.516950 27.030079 152 152 152 0
-4.692535 0.510058 26.669710 157 157 157 0
-4.557372 0.506375 26.477104 163 163 163 0
-4.453769 0.506110 26.463272 164 164 164 0
-4.348005 0.505582 26.435660 166 166 166 0
-4.240957 0.504876 26.398737 170 170 170 0
-4.114475 0.501765 26.236090 170 170 170 0
-3.995141 0.499393 26.112032 172 172 172 0
-3.888960 0.498585 26.069785 176 176 176 0
-3.798232 0.499767 26.131627 179 179 179 0
-3.695370 0.499374 26.111076 179 179 179 0
-3.576170 0.496690 25.970736 181 181 181 0
-3.474046 0.496292 25.949922 180 180 180 0
-3.378392 0.496822 25.977639 182 182 182 0
-3.273811 0.496032 25.936315 183 183 183 0
-3.184072 0.497511 26.013663 183 183 183 0
-3.073043 0.495652 25.916452 185 185 185 0
-2.967640 0.494607 25.861788 184 184 184 0
-2.863924 0.493780 25.818562 185 185 185 0
-2.775082 0.495550 25.911131 190 190 190 0
-2.671226 0.494671 25.865176 190 190 190 0
-2.568936 0.494026 25.831434 190 190 190 0
-2.458428 0.491686 25.709048 185 185 185 0
-2.330368 0.485493 25.385274 142 142 142 0
-2.119539 0.460769 24.092512 144 144 144 0
-1.999116 0.454344 23.756574 142 142 142 0
-1.902203 0.452905 23.681328 147 147 147 0
-1.813442 0.453361 23.705128 153 153 153 0
-1.724610 0.453845 23.730445 154 154 154 0
-1.612126 0.447813 23.415049 161 161 161 0
-1.510320 0.444212 23.226766 167 167 167 0
-1.422075 0.444398 23.236512 170 170 170 0
-1.324498 0.441499 23.084935 167 167 167 0
-1.228516 0.438756 22.941476 167 167 167 0
-1.124699 0.432577 22.618387 174 174 174 0
-1.037154 0.432148 22.595948 176 176 176 0
-0.942021 0.428192 22.389099 178 178 178 0
-0.855375 0.427687 22.362737 177 177 177 0
-0.766658 0.425921 22.270387 177 177 177 0
-0.680660 0.425413 22.243798 181 181 181 0
-0.592554 0.423253 22.130850 186 186 186 0
