ply
format ascii 1.0
element vertex 1123
property float x
property float y
property float z
property uchar red
property uchar green
property uchar blue
property uchar alpha
end_header
-5.945897 5.276984 19.431037 209 209 209 0
-5.898348 5.301047 19.519642 209 209 209 0
-5.806061 5.285005 19.460571 209 209 209 0
-5.738870 5.291686 19.485172 209 209 209 0
-5.661989 5.289489 19.477085 209 209 209 0
-5.593495 5.295176 19.498023 209 209 209 0
-5.515792 5.292178 19.486986 209 209 209 0
-5.455261 5.305802 19.537152 209 209 209 0
-5.390701 5.315831 19.574079 209 209 209 0
-5.313203 5.313203 19.564406 210 210 210 0
-5.240978 5.315849 19.574147 209 209 209 0
-5.172697 5.322631 19.599119 210 210 210 0
-5.099043 5.324001 19.604165 209 209 209 0
-5.040889 5.341837 19.669842 210 210 210 0
-4.950709 5.325763 19.610653 210 210 210 0
-4.888174 5.339390 19.660829 209 209 209 0
-4.808491 5.334420 19.642530 209 209 209 0
-4.737571 5.339168 19.660011 210 210 210 0
-4.667220 5.344720 19.680456 210 210 210 0
-4.592584 5.345467 19.683207 209 209 209 0
-4.516442 5.344457 19.679487 209 209 209 0
-4.452945 5.358629 19.731671 210 210 210 0
-4.372731 5.352826 19.710305 210 210 210 0
-4.303615 5.360643 19.739088 210 210 210 0
-4.231511 5.364951 19.754953 211 211 211 0
-4.159783 5.369902 19.773182 210 210 210 0
-4.085436 5.371592 19.779405 210 210 210 0
-4.012784 5.375616 19.794222 210 210 210 0
-3.935258 5.373140 19.785106 210 210 210 0
-3.870167 5.387879 19.839378 210 210 210 0
-3.789735 5.381423 19.815606 210 210 210 0
-3.717003 5.385861 19.831946 211 211 211 0
-3.646845 5.394292 19.862990 210 210 210 0
-3.572020 5.396030 19.869392 210 210 210 0
-3.493491 5.392127 19.855021 210 210 210 0
-3.424956 5.403819 19.898073 211 211 211 0
-3.346397 5.399867 19.883521 211 211 211 0
-3.271839 5.402339 19.892623 210 210 210 0
-3.200512 5.410390 19.922267 211 211 211 0
-3.126328 5.413885 19.935139 211 211 211 0
-3.047673 5.409619 19.919428 211 211 211 0
-2.973244 5.412829 19.931248 211 211 211 0
-2.899844 5.418130 19.950767 211 211 211 0
-2.826541 5.423903 19.972025 211 211 211 0
-2.752535 5.428611 19.989362 211 211 211 0
-2.677078 5.430644 19.996849 211 211 211 0
-2.600871 5.431231 19.999009 211 211 211 0
-2.529815 5.442936 20.042111 211 211 211 0
-2.452380 5.441218 20.035785 211 211 211 0
-2.376880 5.443822 20.045371 211 211 211 0
-2.300261 5.443951 20.045846 212 212 212 0
-2.227398 5.453285 20.080218 212 212 212 0
-2.149774 5.451211 20.072582 211 211 211 0
-2.073183 5.451703 20.074393 211 211 211 0
-1.998549 5.457577 20.096020 211 211 211 0
-1.924240 5.464842 20.122774 212 212 212 0
-1.847123 5.464405 20.121162 211 211 211 0
-1.772015 5.470133 20.142255 211 211 211 0
-1.694726 5.469341 20.139341 212 212 212 0
-1.620578 5.479097 20.175262 212 212 212 0
-1.543624 5.479865 20.178091 212 212 212 0
-1.466457 5.479920 20.178292 212 212 212 0
-1.389721 5.481679 20.184771 212 212 212 0
-1.314147 5.488496 20.209872 211 211 211 0
-1.237811 5.492786 20.225670 212 212 212 0
-1.160809 5.494498 20.231972 211 211 211 0
-1.084692 5.500936 20.255680 212 212 212 0
-1.007360 5.501737 20.258627 212 212 212 0
-0.930306 5.504311 20.268107 212 212 212 0
-0.853032 5.505935 20.274088 212 212 212 0
-0.776407 5.512489 20.298219 212 212 212 0
-0.698921 5.513712 20.302723 212 212 212 0
-0.621967 5.519958 20.325723 212 212 212 0
-0.544030 5.518022 20.318592 212 212 212 0
-0.466983 5.525961 20.347825 212 212 212 0
-0.389272 5.527657 20.354073 212 212 212 0
-0.311647 5.531732 20.369075 212 212 212 0
-0.233979 5.537491 20.390284 212 212 212 0
-0.156050 5.539785 20.398728 212 212 212 0
-0.078044 5.541124 20.403659 212 212 212 0
0.000000 5.543650 20.412960 212 212 212 0
0.078113 5.546041 20.421766 213 213 213 0
0.156336 5.549929 20.436083 213 213 213 0
0.234821 5.557429 20.463698 212 212 212 0
0.313431 5.563400 20.485684 212 212 212 0
0.391659 5.561563 20.478920 212 212 212 0
0.470336 5.565639 20.493930 213 213 213 0
0.548887 5.567282 20.499980 212 212 212 0
0.627563 5.569625 20.508608 212 212 212 0
0.706906 5.576703 20.534671 212 212 212 0
0.785497 5.577027 20.535863 213 213 213 0
0.864302 5.578677 20.541938 212 212 212 0
0.944296 5.587083 20.572891 213 213 213 0
1.023443 5.589574 20.582064 212 212 212 0
1.102043 5.588931 20.579697 213 213 213 0
1.181569 5.592760 20.593796 213 213 213 0
1.261089 5.596083 20.606030 213 213 213 0
1.341647 5.603349 20.632786 213 213 213 0
1.421429 5.606748 20.645302 212 212 212 0
1.500898 5.608619 20.652190 213 213 213 0
1.581788 5.615348 20.676970 213 213 213 0
1.661129 5.616197 20.680096 213 213 213 0
1.740487 5.617026 20.683149 213 213 213 0
1.820946 5.621181 20.698449 213 213 213 0
1.902056 5.626915 20.719563 213 213 213 0
1.983531 5.633229 20.742812 213 213 213 0
2.061952 5.630715 20.733554 213 213 213 0
2.142896 5.635023 20.749417 213 213 213 0
2.223376 5.637846 20.759812 213 213 213 0
2.305702 5.644995 20.786137 213 213 213 0
2.387281 5.649898 20.804189 213 213 213 0
2.466805 5.649779 20.803753 213 213 213 0
2.546251 5.649495 20.802706 213 213 213 0
2.628794 5.655890 20.826254 213 213 213 0
2.710193 5.659520 20.839621 214 214 214 0
2.793232 5.666270 20.864476 214 214 214 0
2.875616 5.671354 20.883196 213 213 213 0
2.954099 5.668676 20.873334 213 213 213 0
3.036209 5.672918 20.888954 213 213 213 0
3.118384 5.677058 20.904199 214 214 214 0
3.201617 5.682871 20.925603 213 213 213 0
3.283105 5.685378 20.934834 213 213 213 0
3.365098 5.688617 20.946763 214 214 214 0
3.446887 5.691371 20.956904 214 214 214 0
3.529542 5.695398 20.971731 213 213 213 0
3.612064 5.699034 20.985120 213 213 213 0
3.693683 5.701119 20.992798 214 214 214 0
3.776992 5.705668 21.009549 213 213 213 0
3.859855 5.709368 21.023174 214 214 214 0
3.944568 5.715598 21.046112 213 213 213 0
4.025283 5.715902 21.047233 213 213 213 0
4.109196 5.720646 21.064700 214 214 214 0
4.189388 5.720126 21.062785 214 214 214 0
4.274812 5.726635 21.086754 214 214 214 0
4.358961 5.731227 21.103661 214 214 214 0
4.441565 5.733656 21.112608 213 213 213 0
4.529240 5.742429 21.144909 213 213 213 0
4.609900 5.742156 21.143907 213 213 213 0
4.691524 5.743072 21.147279 213 213 213 0
4.774501 5.745586 21.156536 214 214 214 0
4.864694 5.756555 21.196924 214 214 214 0
4.945172 5.755856 21.194351 214 214 214 0
5.019847 5.748535 21.167393 208 208 208 0
5.074090 5.718419 21.056499 125 125 125 0
-5.964321 5.367889 19.491246 209 209 209 0
-5.884008 5.362640 19.472185 209 209 209 0
-5.811144 5.364133 19.477605 209 209 209 0
-5.734774 5.362386 19.471264 209 209 209 0
-5.669065 5.370693 19.501426 209 209 209 0
-5.605381 5.381165 19.539453 209 209 209 0
-5.531273 5.381779 19.541681 209 209 209 0
-5.454690 5.379969 19.535108 209 209 209 0
-5.381366 5.381366 19.540182 210 210 210 0
-5.309191 5.383969 19.549632 209 209 209 0
-5.234878 5.384446 19.551364 209 209 209 0
-5.167586 5.392263 19.579751 209 209 209 0
-5.097888 5.397764 19.599724 210 210 210 0
-5.031077 5.406530 19.631555 209 209 209 0
-4.953331 5.403634 19.621037 210 210 210 0
-4.872296 5.397005 19.596969 210 210 210 0
-4.811711 5.413175 19.655683 210 210 210 0
-4.734761 5.411155 19.648348 210 210 210 0
-4.667190 5.419962 19.680328 210 210 210 0
-4.587817 5.415128 19.662775 210 210 210 0
-4.520961 5.425153 19.699176 210 210 210 0
-4.449866 5.430345 19.718027 210 210 210 0
-4.376839 5.433317 19.728820 210 210 210 0
-4.303015 5.435388 19.736338 210 210 210 0
-4.231470 5.440462 19.754762 210 210 210 0
-4.151219 5.434323 19.732471 211 211 211 0
-4.085817 5.447757 19.781251 210 210 210 0
-4.012836 5.451400 19.794479 210 210 210 0
-3.936283 5.450238 19.790260 210 210 210 0
-3.862485 5.452920 19.800000 210 210 210 0
-3.791774 5.460155 19.826270 210 210 210 0
-3.718479 5.463887 19.839823 211 211 211 0
-3.647029 5.470544 19.863993 210 210 210 0
-3.566891 5.464174 19.840863 211 211 211 0
-3.496098 5.472153 19.869836 210 210 210 0
-3.421496 5.474393 19.877971 211 211 211 0
-3.346733 5.476473 19.885521 211 211 211 0
-3.275226 5.484099 19.913215 211 211 211 0
-3.199025 5.484043 19.913009 211 211 211 0
-3.125893 5.489373 19.932363 211 211 211 0
-3.049203 5.488565 19.929430 211 211 211 0
-2.974369 5.491143 19.938791 211 211 211 0
-2.900876 5.496397 19.957869 211 211 211 0
-2.824254 5.495846 19.955868 211 211 211 0
-2.751016 5.502032 19.978329 211 211 211 0
-2.680493 5.514158 20.022359 211 211 211 0
-2.600871 5.507727 19.999009 211 211 211 0
-2.528767 5.517311 20.033808 211 211 211 0
-2.451813 5.516580 20.031153 211 211 211 0
-2.375930 5.518290 20.037362 212 212 212 0
-2.303627 5.528704 20.075179 211 211 211 0
-2.226151 5.526996 20.068975 211 211 211 0
-2.153362 5.537217 20.106088 211 211 211 0
-2.076152 5.536405 20.103140 211 211 211 0
-1.997617 5.531862 20.086644 211 211 211 0
-1.922030 5.535446 20.099660 211 211 211 0
-1.846110 5.538329 20.110127 212 212 212 0
-1.772409 5.548412 20.146739 212 212 212 0
-1.695585 5.549188 20.149558 211 211 211 0
-1.618876 5.550432 20.154073 211 211 211 0
-1.542671 5.553616 20.165636 212 212 212 0
-1.467738 5.561956 20.195919 212 212 212 0
-1.390411 5.561644 20.194787 212 212 212 0
-1.313582 5.563405 20.201180 212 212 212 0
-1.237765 5.569944 20.224923 211 211 211 0
-1.160809 5.571883 20.231964 212 212 212 0
-1.084041 5.575067 20.243526 212 212 212 0
-1.007192 5.578292 20.255235 212 212 212 0
-0.930411 5.582464 20.270385 212 212 212 0
-0.853445 5.586187 20.283902 212 212 212 0
-0.776131 5.588146 20.291017 211 211 211 0
-0.699174 5.593393 20.310067 213 213 213 0
-0.621924 5.597320 20.324328 212 212 212 0
-0.544485 5.600415 20.335567 212 212 212 0
-0.467140 5.605677 20.354672 212 212 212 0
-0.389070 5.602601 20.343503 213 213 213 0
-0.311567 5.608200 20.363836 212 212 212 0
-0.233979 5.615486 20.390290 212 212 212 0
-0.156049 5.617770 20.398583 212 212 212 0
-0.078083 5.621997 20.413932 213 213 213 0
0.000000 5.618962 20.402913 212 212 212 0
0.078089 5.622404 20.415411 213 213 213 0
0.156241 5.624684 20.423691 213 213 213 0
0.234718 5.633230 20.454719 213 213 213 0
0.313356 5.640405 20.480772 212 212 212 0
0.391690 5.640334 20.480515 212 212 212 0
0.470540 5.646477 20.502823 212 212 212 0
0.548821 5.645013 20.497505 213 213 213 0
0.627648 5.648829 20.511360 212 212 212 0
0.706616 5.652927 20.526244 212 212 212 0
0.785756 5.657445 20.542647 212 212 212 0
0.864520 5.658676 20.547117 213 213 213 0
0.944294 5.665763 20.572851 213 213 213 0
1.023451 5.668343 20.582220 212 212 212 0
1.103010 5.672621 20.597751 213 213 213 0
1.182545 5.676215 20.610804 213 213 213 0
1.260289 5.671301 20.592959 212 212 212 0
1.340941 5.679281 20.621935 213 213 213 0
1.420573 5.682291 20.632863 212 212 212 0
1.501398 5.689508 20.659072 213 213 213 0
1.581349 5.692857 20.671232 213 213 213 0
1.660820 5.694241 20.676258 213 213 213 0
1.741875 5.700683 20.699646 213 213 213 0
1.821642 5.702530 20.706355 213 213 213 0
1.902644 5.707931 20.725965 213 213 213 0
1.982799 5.710460 20.735149 213 213 213 0
2.062722 5.712154 20.741302 213 213 213 0
2.142608 5.713621 20.746628 213 213 213 0
2.221831 5.713280 20.745388 213 213 213 0
2.304600 5.721766 20.776203 213 213 213 0
2.387223 5.729336 20.803690 213 213 213 0
2.467438 5.730824 20.809091 213 213 213 0
2.546251 5.729065 20.802706 213 213 213 0
2.627646 5.733045 20.817157 214 214 214 0
2.710579 5.740050 20.842593 213 213 213 0
2.792954 5.745506 20.862404 213 213 213 0
2.874604 5.749208 20.875846 213 213 213 0
2.955450 5.751147 20.882886 213 213 213 0
3.035183 5.750873 20.881893 213 213 213 0
3.117716 5.755783 20.899722 213 213 213 0
3.201485 5.762673 20.924737 213 213 213 0
3.283716 5.766526 20.938730 213 213 213 0
3.366305 5.770809 20.954279 213 213 213 0
3.446959 5.771652 20.957342 213 213 213 0
3.528547 5.773986 20.965817 213 213 213 0
3.611326 5.778122 20.980836 213 213 213 0
3.694316 5.782407 20.996395 214 214 214 0
3.777729 5.787160 21.013651 214 214 214 0
3.860477 5.790715 21.026562 213 213 213 0
3.943412 5.794401 21.039944 213 213 213 0
4.027048 5.798949 21.056459 213 213 213 0
4.106606 5.797562 21.051423 214 214 214 0
4.188456 5.799401 21.058101 213 213 213 0
4.273284 5.805216 21.079217 213 213 213 0
4.358044 5.810725 21.099221 213 213 213 0
4.443311 5.816698 21.120907 214 214 214 0
4.527867 5.821543 21.138500 214 214 214 0
4.606541 5.818788 21.128498 213 213 213 0
4.690812 5.823076 21.144068 214 214 214 0
4.775899 5.828215 21.162728 214 214 214 0
4.865145 5.838174 21.198888 214 214 214 0
4.944132 5.835697 21.189895 214 214 214 0
5.022304 5.832353 21.177753 209 209 209 0
5.076014 5.801158 21.064483 128 128 128 0
-5.959439 5.437988 19.475291 209 209 209 0
-5.888520 5.441290 19.487118 209 209 209 0
-5.814453 5.441732 19.488698 209 209 209 0
-5.728466 5.430884 19.449847 209 209 209 0
-5.664688 5.441082 19.486371 209 209 209 0
-5.600633 5.451283 19.522904 210 210 210 0
-5.520413 5.445813 19.503313 210 210 210 0
-5.445867 5.445867 19.503509 209 209 209 0
-5.394571 5.469496 19.588130 209 209 209 0
-5.308116 5.457640 19.545671 209 209 209 0
-5.245388 5.470191 19.590619 209 209 209 0
-5.175071 5.475075 19.608111 209 209 209 0
-5.099748 5.474730 19.606875 210 210 210 0
-5.029469 5.479870 19.625283 210 210 210 0
-4.962554 5.488885 19.657570 210 210 210 0
-4.885012 5.486244 19.648112 209 209 209 0
-4.807822 5.483921 19.639794 210 210 210 0
-4.734390 5.485881 19.646810 209 209 209 0
-4.654690 5.480522 19.627621 210 210 210 0
-4.591339 5.494553 19.677868 210 210 210 0
-4.517734 5.496576 19.685114 210 210 210 0
-4.442087 5.496141 19.683557 210 210 210 0
-4.374474 5.505803 19.718160 210 210 210 0
-4.300594 5.507779 19.725235 210 210 210 0
-4.225745 5.508561 19.728036 210 210 210 0
-4.161498 5.523443 19.781335 210 210 210 0
-4.085302 5.522723 19.778757 211 211 211 0
-4.009408 5.522392 19.777570 211 211 211 0
-3.934223 5.523043 19.779902 210 210 210 0
-3.865240 5.532599 19.814123 210 210 210 0
-3.790368 5.533938 19.818919 210 210 210 0
-3.717295 5.538011 19.833508 210 210 210 0
-3.643982 5.541890 19.847399 210 210 210 0
-3.573123 5.549745 19.875530 210 210 210 0
-3.492211 5.541988 19.847749 210 210 210 0
-3.416764 5.542751 19.850482 211 211 211 0
-3.347974 5.554593 19.892892 211 211 211 0
-3.274748 5.559457 19.910311 211 211 211 0
-3.200570 5.562896 19.922628 211 211 211 0
-3.126847 5.567313 19.938449 211 211 211 0
-3.051917 5.569748 19.947170 210 210 210 0
-2.972484 5.563879 19.926151 211 211 211 0
-2.899367 5.569836 19.947484 211 211 211 0
-2.824525 5.572712 19.957782 211 211 211 0
-2.750175 5.576744 19.972225 211 211 211 0
-2.676198 5.581784 19.990274 212 212 212 0
-2.602651 5.588044 20.012694 211 211 211 0
-2.525499 5.586711 20.007917 211 211 211 0
-2.451794 5.593156 20.030999 211 211 211 0
-2.376149 5.595448 20.039210 211 211 211 0
-2.299920 5.596471 20.042871 211 211 211 0
-2.226875 5.605582 20.075503 211 211 211 0
-2.148457 5.601333 20.060286 212 212 212 0
-2.073455 5.606009 20.077032 211 211 211 0
-1.998706 5.611752 20.097598 211 211 211 0
-1.922156 5.612695 20.100975 211 211 211 0
-1.847849 5.620540 20.129072 211 211 211 0
-1.770571 5.619640 20.125848 212 212 212 0
-1.695619 5.626373 20.149961 212 212 212 0
-1.621472 5.636545 20.186390 212 212 212 0
-1.542666 5.630731 20.165568 212 212 212 0
-1.466929 5.636096 20.184784 212 212 212 0
-1.390779 5.640381 20.200130 211 211 211 0
-1.314129 5.643025 20.209598 211 211 211 0
-1.237810 5.647506 20.225647 212 212 212 0
-1.161005 5.650227 20.235389 212 212 212 0
-1.084081 5.652706 20.244268 212 212 212 0
-1.007952 5.660037 20.270525 211 211 211 0
-0.930447 5.660219 20.271176 212 212 212 0
-0.853687 5.665379 20.289655 212 212 212 0
-0.775463 5.660878 20.273535 211 211 211 0
-0.699169 5.671034 20.309908 212 212 212 0
-0.621974 5.675510 20.325939 212 212 212 0
-0.544226 5.675500 20.325904 212 212 212 0
-0.466862 5.680151 20.342557 212 212 212 0
-0.388750 5.675745 20.326778 212 212 212 0
-0.311452 5.684002 20.356352 212 212 212 0
-0.233907 5.691726 20.384013 212 212 212 0
-0.156036 5.695325 20.396903 212 212 212 0
-0.078068 5.698969 20.409954 213 213 213 0
0.000000 5.702570 20.422850 212 212 212 0
0.078163 5.705908 20.434802 213 213 213 0
0.156325 5.705857 20.434622 213 213 213 0
0.234762 5.712552 20.458598 212 212 212 0
0.313116 5.714368 20.465103 212 212 212 0
0.391790 5.720133 20.485746 213 213 213 0
0.469832 5.716293 20.471996 212 212 212 0
0.548933 5.724582 20.501682 213 213 213 0
0.627485 5.725797 20.506034 213 213 213 0
0.706616 5.731440 20.526244 213 213 213 0
0.786200 5.739260 20.554249 213 213 213 0
0.864595 5.737767 20.548900 213 213 213 0
0.943885 5.741965 20.563936 212 212 212 0
1.022999 5.744533 20.573132 213 213 213 0
1.102134 5.746843 20.581405 213 213 213 0
1.182384 5.754266 20.607991 213 213 213 0
1.262279 5.759146 20.625467 212 212 212 0
1.341416 5.760198 20.629235 213 213 213 0
1.420661 5.761569 20.634143 212 212 212 0
1.501234 5.767900 20.656817 213 213 213 0
1.579351 5.764631 20.645110 213 213 213 0
1.660241 5.771313 20.669042 213 213 213 0
1.740950 5.776790 20.688656 213 213 213 0
1.821002 5.779703 20.699087 213 213 213 0
1.902245 5.785995 20.721621 212 212 212 0
1.982615 5.789237 20.733231 213 213 213 0
2.062154 5.789895 20.735590 213 213 213 0
2.143446 5.795243 20.754744 213 213 213 0
2.222966 5.795589 20.755983 213 213 213 0
2.304086 5.799939 20.771562 214 214 214 0
2.386332 5.806741 20.795920 213 213 213 0
2.467753 5.811161 20.811749 213 213 213 0
2.547034 5.810421 20.809099 213 213 213 0
2.629111 5.815913 20.828769 213 213 213 0
2.710469 5.819537 20.841749 213 213 213 0
2.792984 5.825366 20.862623 213 213 213 0
2.875693 5.831266 20.883752 214 214 214 0
2.953893 5.827950 20.871879 213 213 213 0
3.037205 5.834631 20.895806 213 213 213 0
3.117448 5.835223 20.897926 213 213 213 0
3.200617 5.841126 20.919067 213 213 213 0
3.282171 5.843866 20.928878 214 214 214 0
3.365030 5.848743 20.946343 213 213 213 0
3.445061 5.848592 20.945803 213 213 213 0
3.528199 5.853603 20.963750 214 214 214 0
3.612104 5.859636 20.985356 213 213 213 0
3.692404 5.859684 20.985528 213 213 213 0
3.778566 5.868836 21.018306 213 213 213 0
3.858280 5.867801 21.014596 213 213 213 0
3.942202 5.873077 21.033491 214 214 214 0
4.023975 5.875003 21.040390 213 213 213 0
4.107867 5.879889 21.057888 213 213 213 0
4.190962 5.883466 21.070699 214 214 214 0
4.274317 5.887267 21.084311 213 213 213 0
4.360225 5.894378 21.109779 213 213 213 0
4.443004 5.897078 21.119449 213 213 213 0
4.524585 5.898120 21.123180 213 213 213 0
4.605272 5.897980 21.122677 213 213 213 0
4.691676 5.905040 21.147964 213 213 213 0
4.775988 5.909273 21.163122 214 214 214 0
4.861277 5.914554 21.182036 214 214 214 0
4.945949 5.918922 21.197679 214 214 214 0
5.023404 5.914653 21.182392 209 209 209 0
5.075308 5.880913 21.061554 131 131 131 0
-5.962625 5.515428 19.485703 210 210 210 0
-5.883744 5.511355 19.471313 209 209 209 0
-5.811144 5.513136 19.477605 209 209 209 0
-5.740152 5.516510 19.489523 209 209 209 0
-5.659273 5.510345 19.467743 209 209 209 0
-5.602852 5.528147 19.530638 209 209 209 0
-5.515792 5.515792 19.486986 209 209 209 0
-5.452409 5.527099 19.526936 209 209 209 0
-5.388003 5.537670 19.564281 209 209 209 0
-5.317588 5.542275 19.580552 210 210 210 0
-5.242880 5.542473 19.581252 210 210 210 0
-5.172814 5.547656 19.599562 210 210 210 0
-5.101198 5.551304 19.612449 209 209 209 0
-5.027510 5.552772 19.617636 210 210 210 0
-4.956358 5.557129 19.633029 209 209 209 0
-4.883302 5.559451 19.641234 210 210 210 0
-4.809569 5.561064 19.646933 209 209 209 0
-4.731776 5.557960 19.635964 209 209 209 0
-4.667190 5.570517 19.680328 210 210 210 0
-4.595271 5.574592 19.694724 210 210 210 0
-4.519823 5.574449 19.694220 209 209 209 0
-4.447460 5.578171 19.707369 211 211 211 0
-4.374732 5.581555 19.719324 211 211 211 0
-4.294517 5.575337 19.697359 210 210 210 0
-4.225855 5.584165 19.728548 210 210 210 0
-4.155174 5.590598 19.751274 210 210 210 0
-4.085727 5.598959 19.780814 211 211 211 0
-4.008284 5.596471 19.772024 210 210 210 0
-3.940597 5.607773 19.811952 210 210 210 0
-3.865011 5.608056 19.812951 211 211 211 0
-3.783683 5.599851 19.783966 210 210 210 0
-3.714144 5.609116 19.816695 210 210 210 0
-3.647552 5.623310 19.866842 211 211 211 0
-3.566662 5.615596 19.839589 211 211 211 0
-3.496496 5.624799 19.872103 211 211 211 0
-3.421196 5.625966 19.876228 210 210 210 0
-3.346561 5.628307 19.884499 211 211 211 0
-3.270832 5.628874 19.886499 211 211 211 0
-3.199201 5.636687 19.914102 211 211 211 0
-3.124185 5.638772 19.921470 211 211 211 0
-3.050430 5.643296 19.937454 211 211 211 0
-2.972604 5.640326 19.926961 211 211 211 0
-2.898526 5.644499 19.941701 211 211 211 0
-2.825392 5.650784 19.963909 211 211 211 0
-2.749774 5.652313 19.969310 211 211 211 0
-2.678035 5.662132 20.004000 211 211 211 0
-2.605682 5.671190 20.036002 211 211 211 0
-2.525035 5.662200 20.004239 211 211 211 0
-2.452153 5.670603 20.033927 211 211 211 0
-2.376895 5.673880 20.045503 211 211 211 0
-2.299840 5.672939 20.042178 211 211 211 0
-2.225275 5.678287 20.061074 212 212 212 0
-2.150464 5.683370 20.079030 211 211 211 0
-2.074370 5.685311 20.085889 212 212 212 0
-1.999681 5.691399 20.107396 211 211 211 0
-1.921880 5.688765 20.098092 212 212 212 0
-1.847520 5.696521 20.125493 212 212 212 0
-1.770855 5.697534 20.129073 211 211 211 0
-1.694768 5.700583 20.139845 212 212 212 0
-1.617105 5.698371 20.132028 212 212 212 0
-1.542613 5.707667 20.164872 211 211 211 0
-1.467082 5.713899 20.186891 211 211 211 0
-1.390068 5.714723 20.189799 212 212 212 0
-1.313050 5.715631 20.193009 212 212 212 0
-1.237765 5.724665 20.224923 212 212 212 0
-1.160598 5.725617 20.228288 212 212 212 0
-1.084717 5.733504 20.256151 212 212 212 0
-1.006957 5.731908 20.250515 211 211 211 0
-0.930433 5.737671 20.270874 212 212 212 0
-0.852740 5.736617 20.267152 212 212 212 0
-0.776494 5.746056 20.300499 212 212 212 0
-0.698583 5.743903 20.292893 212 212 212 0
-0.621298 5.747004 20.303846 212 212 212 0
-0.544485 5.755982 20.335567 211 211 211 0
-0.466423 5.752556 20.323462 213 213 213 0
-0.389272 5.761220 20.354073 213 213 213 0
-0.311502 5.762794 20.359632 212 212 212 0
-0.233988 5.771713 20.391142 213 213 213 0
-0.155976 5.771129 20.389078 212 212 212 0
-0.078122 5.781002 20.423960 212 212 212 0
0.000000 5.774659 20.401550 212 212 212 0
0.078130 5.781643 20.426224 212 212 212 0
0.156293 5.782842 20.430461 213 213 213 0
0.234749 5.790484 20.457461 212 212 212 0
0.312987 5.790262 20.456674 212 212 212 0
0.391591 5.795540 20.475322 213 213 213 0
0.469901 5.795450 20.475005 212 212 212 0
0.548712 5.800665 20.493427 212 212 212 0
0.627426 5.803689 20.504111 213 213 213 0
0.706179 5.806359 20.513545 213 213 213 0
0.785964 5.816134 20.548080 213 213 213 0
0.864351 5.814725 20.543100 213 213 213 0
0.943885 5.820625 20.563947 213 213 213 0
1.023038 5.823449 20.573922 212 212 212 0
1.102882 5.829520 20.595372 212 212 212 0
1.182376 5.833057 20.607866 212 212 212 0
1.261477 5.834332 20.612371 213 213 213 0
1.340939 5.837030 20.621904 213 213 213 0
1.420748 5.840854 20.635415 213 213 213 0
1.500792 5.845188 20.650727 213 213 213 0
1.580514 5.847901 20.660312 213 213 213 0
1.660132 5.849990 20.667689 213 213 213 0
1.740106 5.853084 20.678621 213 213 213 0
1.820985 5.858823 20.698896 213 213 213 0
1.901232 5.862133 20.710591 213 213 213 0
1.983841 5.872168 20.746046 213 213 213 0
2.061762 5.868093 20.731649 213 213 213 0
2.141691 5.869820 20.737749 213 213 213 0
2.222633 5.874101 20.752875 213 213 213 0
2.304960 5.881622 20.779446 213 213 213 0
2.387235 5.888512 20.803787 213 213 213 0
2.466910 5.888752 20.804635 213 213 213 0
2.548479 5.893357 20.820903 213 213 213 0
2.627347 5.891626 20.814789 213 213 213 0
2.710466 5.899249 20.841721 213 213 213 0
2.792086 5.903267 20.855917 214 214 214 0
2.875101 5.909930 20.879455 213 213 213 0
2.955446 5.910891 20.882852 214 214 214 0
3.035599 5.911429 20.884751 213 213 213 0
3.117123 5.914540 20.895744 214 214 214 0
3.200805 5.921489 20.920293 213 213 213 0
3.283131 5.925651 20.934999 213 213 213 0
3.365496 5.929684 20.949247 214 214 214 0
3.445722 5.929847 20.949821 214 214 214 0
3.526230 5.930477 20.952047 213 213 213 0
3.611773 5.939360 20.983430 213 213 213 0
3.692751 5.940513 20.987503 213 213 213 0
3.775169 5.943883 20.999409 214 214 214 0
3.859327 5.949796 21.020299 213 213 213 0
3.942318 5.953705 21.034110 213 213 213 0
4.025612 5.957906 21.048954 214 214 214 0
4.108494 5.961345 21.061101 213 213 213 0
4.188404 5.960421 21.057838 213 213 213 0
4.272510 5.965391 21.075396 213 213 213 0
4.358337 5.972536 21.100640 214 214 214 0
4.440843 5.974953 21.109177 214 214 214 0
4.523784 5.977858 21.119441 213 213 213 0
4.606066 5.979805 21.126322 213 213 213 0
4.689690 5.983397 21.139012 214 214 214 0
4.774404 5.988236 21.156106 214 214 214 0
4.861527 5.995883 21.183123 213 213 213 0
4.944585 5.998349 21.191835 214 214 214 0
5.021538 5.993449 21.174523 209 209 209 0
5.073322 5.959140 21.053311 126 126 126 0
-5.954156 5.582022 19.458027 208 208 208 0
-5.888506 5.590354 19.487073 209 209 209 0
-5.813195 5.589610 19.484480 209 209 209 0
-5.746575 5.597313 19.511331 209 209 209 0
-5.676583 5.601891 19.527289 209 209 209 0
-5.611787 5.611787 19.561784 209 209 209 0
-5.531462 5.606212 19.542351 209 209 209 0
-5.455261 5.604721 19.537152 209 209 209 0
-5.386842 5.611294 19.560067 209 209 209 0
-5.306342 5.605291 19.539139 209 209 209 0
-5.252307 5.627471 19.616458 209 209 209 0
-5.170268 5.619856 19.589912 209 209 209 0
-5.096442 5.621076 19.594165 210 210 210 0
-5.026183 5.626324 19.612458 209 209 209 0
-4.953863 5.629390 19.623145 209 209 209 0
-4.890284 5.642635 19.669317 210 210 210 0
-4.820157 5.648622 19.690184 210 210 210 0
-4.728585 5.629268 19.622720 209 209 209 0
-4.662631 5.640280 19.661105 210 210 210 0
-4.591339 5.645088 19.677868 210 210 210 0
-4.516445 5.645556 19.679498 210 210 210 0
-4.444390 5.649648 19.693764 211 211 211 0
-4.369880 5.650706 19.697451 210 210 210 0
-4.309661 5.670607 19.766823 210 210 210 0
-4.223451 5.656408 19.717325 210 210 210 0
-4.153949 5.664476 19.745448 211 211 211 0
-4.082032 5.669489 19.762925 211 211 211 0
-4.004882 5.667285 19.755243 211 211 211 0
-3.934376 5.674581 19.780676 211 211 211 0
-3.862306 5.679862 19.799084 210 210 210 0
-3.788492 5.682737 19.809106 210 210 210 0
-3.719201 5.692655 19.843676 211 211 211 0
-3.644031 5.693798 19.847662 210 210 210 0
-3.569820 5.696522 19.857157 210 210 210 0
-3.498362 5.703850 19.882703 211 211 211 0
-3.416950 5.694917 19.851564 211 211 211 0
-3.346733 5.704659 19.885521 210 210 210 0
-3.271350 5.705843 19.889647 211 211 211 0
-3.198735 5.712027 19.911207 211 211 211 0
-3.126401 5.719025 19.935601 210 210 210 0
-3.048783 5.716468 19.926686 211 211 211 0
-2.972890 5.717097 19.928877 211 211 211 0
-2.898746 5.721209 19.943212 211 211 211 0
-2.825689 5.727748 19.966005 211 211 211 0
-2.749510 5.728146 19.967394 211 211 211 0
-2.677145 5.736740 19.997351 211 211 211 0
-2.599512 5.734217 19.988556 211 211 211 0
-2.524559 5.737634 20.000466 211 211 211 0
-2.451364 5.745383 20.027480 212 212 212 0
-2.377785 5.752706 20.053006 211 211 211 0
-2.301725 5.754314 20.058609 211 211 211 0
-2.226770 5.758887 20.074553 211 211 211 0
-2.150220 5.759517 20.076747 211 211 211 0
-2.073623 5.760065 20.078657 211 211 211 0
-1.999959 5.769111 20.110192 212 212 212 0
-1.924450 5.773351 20.124970 211 211 211 0
-1.847854 5.774545 20.129133 212 212 212 0
-1.771765 5.777496 20.139419 212 212 212 0
-1.695740 5.780930 20.151391 212 212 212 0
-1.618712 5.781113 20.152027 211 211 211 0
-1.542637 5.784890 20.165195 212 212 212 0
-1.467223 5.791668 20.188822 211 211 211 0
-1.390055 5.791897 20.189618 211 211 211 0
-1.312922 5.792303 20.191034 212 212 212 0
-1.237811 5.802239 20.225670 212 212 212 0
-1.161420 5.807101 20.242619 212 212 212 0
-1.083539 5.804674 20.234159 212 212 212 0
-1.007172 5.810607 20.254839 212 212 212 0
-0.930380 5.814877 20.269722 211 211 211 0
-0.852991 5.815850 20.273114 212 212 212 0
-0.775165 5.813739 20.265758 212 212 212 0
-0.699158 5.826313 20.309587 212 212 212 0
-0.621417 5.825786 20.307752 212 212 212 0
-0.544423 5.833105 20.333264 212 212 212 0
-0.466967 5.837091 20.347157 212 212 212 0
-0.389131 5.836968 20.346728 213 213 213 0
-0.311211 5.835215 20.340619 212 212 212 0
-0.233675 5.841864 20.363797 212 212 212 0
-0.156006 5.850233 20.392970 212 212 212 0
-0.078031 5.852349 20.400344 212 212 212 0
0.000000 5.854802 20.408897 212 212 212 0
0.078139 5.860444 20.428562 212 212 212 0
0.156200 5.857482 20.418238 212 212 212 0
0.234956 5.873908 20.475497 213 213 213 0
0.313319 5.874737 20.478386 212 212 212 0
0.391648 5.874727 20.478350 213 213 213 0
0.469908 5.873847 20.475284 213 213 213 0
0.548472 5.876491 20.484500 213 213 213 0
0.627648 5.884196 20.511360 213 213 213 0
0.706565 5.888044 20.524772 213 213 213 0
0.785962 5.894718 20.548037 213 213 213 0
0.864239 5.892538 20.540436 213 213 213 0
0.943388 5.896177 20.553124 212 212 212 0
1.022985 5.901839 20.572858 213 213 213 0
1.102467 5.906073 20.587618 213 213 213 0
1.181041 5.905207 20.584598 213 213 213 0
1.261086 5.911342 20.605986 212 212 212 0
1.340465 5.913817 20.614611 212 212 212 0
1.420748 5.919785 20.635415 213 213 213 0
1.500349 5.922429 20.644634 213 213 213 0
1.581518 5.930693 20.673440 213 213 213 0
1.660904 5.931799 20.677295 213 213 213 0
1.740075 5.932073 20.678250 213 213 213 0
1.820129 5.935203 20.689161 212 212 212 0
1.900589 5.939340 20.703582 213 213 213 0
1.982938 5.948815 20.736611 213 213 213 0
2.060753 5.944480 20.721500 213 213 213 0
2.140718 5.946440 20.728330 213 213 213 0
2.222633 5.953481 20.752875 213 213 213 0
2.305285 5.961944 20.782376 213 213 213 0
2.385558 5.963894 20.789172 213 213 213 0
2.466390 5.967073 20.800254 213 213 213 0
2.545958 5.967089 20.800310 214 214 214 0
2.628203 5.973190 20.821576 213 213 213 0
2.710371 5.978759 20.840990 213 213 213 0
2.792014 5.982887 20.855380 213 213 213 0
2.873649 5.986769 20.868912 213 213 213 0
2.954988 5.989841 20.879621 213 213 213 0
3.034369 5.988887 20.876293 214 214 214 0
3.116177 5.992647 20.889403 213 213 213 0
3.199569 5.999192 20.912217 214 214 214 0
3.281972 6.003607 20.927606 213 213 213 0
3.364106 6.007331 20.940589 214 214 214 0
3.445816 6.010143 20.950391 213 213 213 0
3.529576 6.016323 20.971931 214 214 214 0
3.610188 6.016981 20.974224 213 213 213 0
3.693986 6.022803 20.994521 213 213 213 0
3.777773 6.028361 21.013893 213 213 213 0
3.860357 6.031807 21.025908 214 214 214 0
3.942272 6.034090 21.033865 213 213 213 0
4.025177 6.037766 21.046678 213 213 213 0
4.107390 6.040279 21.055438 213 213 213 0
4.189201 6.042117 21.061844 213 213 213 0
4.271196 6.044146 21.068917 213 213 213 0
4.358770 6.053848 21.102737 213 213 213 0
4.443261 6.058993 21.120672 214 214 214 0
4.525787 6.061322 21.128791 213 213 213 0
4.607307 6.062246 21.132014 214 214 214 0
4.690393 6.065163 21.142182 214 214 214 0
4.775511 6.070565 21.161010 214 214 214 0
4.861168 6.076460 21.181559 213 213 213 0
4.945976 6.081118 21.197798 213 213 213 0
5.022305 6.075368 21.177755 209 209 209 0
5.072192 6.038324 21.048624 128 128 128 0
-5.953402 5.655732 19.455562 208 208 208 0
-5.870206 5.647287 19.426512 209 209 209 0
-5.811479 5.662467 19.478730 209 209 209 0
-5.732728 5.658277 19.464317 208 208 208 0
-5.670213 5.670213 19.505377 209 209 209 0
-5.598348 5.672993 19.514939 209 209 209 0
-5.523400 5.672681 19.513868 209 209 209 0
-5.449730 5.673692 19.517343 209 209 209 0
-5.388138 5.687479 19.564771 209 209 209 0
-5.307838 5.681629 19.544648 209 209 209 0
-5.247336 5.697108 19.597893 209 209 209 0
-5.172814 5.697593 19.599562 209 209 209 0
-5.099425 5.699357 19.605632 210 210 210 0
-5.025130 5.700147 19.608349 209 209 209 0
-4.953334 5.703840 19.621051 210 210 210 0
-4.877625 5.703069 19.618401 209 209 209 0
-4.810535 5.712511 19.650880 210 210 210 0
-4.741388 5.719769 19.675850 210 210 210 0
-4.661218 5.713751 19.655147 210 210 210 0
-4.592725 5.722083 19.683808 210 210 210 0
-4.517734 5.722463 19.685114 210 210 210 0
-4.447517 5.729004 19.707618 210 210 210 0
-4.378607 5.737485 19.736790 210 210 210 0
-4.296120 5.728160 19.704714 210 210 210 0
-4.227645 5.737518 19.736904 210 210 210 0
-4.154568 5.740858 19.748393 210 210 210 0
-4.085475 5.749928 19.779594 210 210 210 0
-4.008015 5.747342 19.770699 210 210 210 0
-3.929684 5.743384 19.757084 210 210 210 0
-3.865079 5.759725 19.813295 211 211 211 0
-3.790203 5.761109 19.818057 210 210 210 0
-3.714621 5.761453 19.819238 210 210 210 0
-3.644069 5.769775 19.847868 210 210 210 0
-3.566965 5.767859 19.841276 210 210 210 0
-3.492211 5.769741 19.847749 210 210 210 0
-3.423514 5.781935 19.889697 211 211 211 0
-3.342820 5.773961 19.862268 211 211 211 0
-3.271831 5.782771 19.892573 211 211 211 0
-3.198399 5.787579 19.909113 211 211 211 0
-3.126792 5.796005 19.938099 210 210 210 0
-3.053210 5.801100 19.955623 211 211 211 0
-2.975632 5.798667 19.947255 210 210 210 0
-2.899847 5.799694 19.950787 211 211 211 0
-2.824254 5.801171 19.955868 211 211 211 0
-2.751005 5.807678 19.978252 211 211 211 0
-2.678326 5.815794 20.006171 211 211 211 0
-2.600254 5.812332 19.994264 211 211 211 0
-2.526560 5.818744 20.016318 211 211 211 0
-2.450049 5.818866 20.016739 211 211 211 0
-2.375887 5.824755 20.036997 211 211 211 0
-2.301761 5.831127 20.058917 211 211 211 0
-2.226326 5.834508 20.070549 211 211 211 0
-2.152046 5.841269 20.093804 211 211 211 0
-2.071532 5.830980 20.058411 211 211 211 0
-1.997927 5.840094 20.089763 211 211 211 0
-1.923110 5.846254 20.110952 211 211 211 0
-1.846761 5.848078 20.117227 211 211 211 0
-1.772970 5.858508 20.153108 212 212 212 0
-1.696283 5.859888 20.157855 212 212 212 0
-1.617913 5.855304 20.142086 211 211 211 0
-1.541716 5.858523 20.153157 212 212 212 0
-1.467079 5.868314 20.186839 211 211 211 0
-1.390770 5.872140 20.200000 212 212 212 0
-1.314140 5.874980 20.209769 211 211 211 0
-1.237574 5.878478 20.221804 211 211 211 0
-1.159812 5.876382 20.214591 212 212 212 0
-1.084591 5.887780 20.253801 212 212 212 0
-1.007234 5.888447 20.256094 212 212 212 0
-0.930463 5.892933 20.271526 212 212 212 0
-0.852744 5.891689 20.267247 212 212 212 0
-0.775430 5.893265 20.272668 211 211 211 0
-0.698664 5.899833 20.295262 212 212 212 0
-0.621416 5.903455 20.307723 212 212 212 0
-0.544363 5.910228 20.331020 212 212 212 0
-0.467029 5.915700 20.349844 213 213 213 0
-0.388989 5.912636 20.339305 212 212 212 0
-0.311401 5.916622 20.353015 212 212 212 0
-0.233804 5.923030 20.375059 212 212 212 0
-0.155915 5.924785 20.381099 212 212 212 0
-0.078047 5.931605 20.404557 212 212 212 0
0.000000 5.930731 20.401550 212 212 212 0
0.078130 5.937910 20.426246 212 212 212 0
0.156198 5.935510 20.417991 212 212 212 0
0.234632 5.944000 20.447195 212 212 212 0
0.313310 5.952886 20.477763 212 212 212 0
0.391202 5.946276 20.455028 213 213 213 0
0.470055 5.954030 20.481698 213 213 213 0
0.548271 5.952656 20.476972 212 212 212 0
0.627428 5.960566 20.504181 213 213 213 0
0.706504 5.966032 20.522985 212 212 212 0
0.785742 5.971636 20.542262 212 212 212 0
0.864273 5.971338 20.541237 213 213 213 0
0.943542 5.975763 20.556461 212 212 212 0
1.022611 5.978339 20.565321 213 213 213 0
1.102586 5.985470 20.589850 213 213 213 0
1.180914 5.983298 20.582381 213 213 213 0
1.261452 5.991898 20.611963 213 213 213 0
1.340706 5.993742 20.618309 212 212 212 0
1.421163 6.000467 20.641441 213 213 213 0
1.500316 6.001263 20.644179 213 213 213 0
1.579351 6.001533 20.645110 213 213 213 0
1.660158 6.008191 20.668012 213 213 213 0
1.740238 6.011730 20.680187 213 213 213 0
1.820104 6.014257 20.688877 212 212 212 0
1.900760 6.019074 20.705448 213 213 213 0
1.982888 6.027980 20.736085 213 213 213 0
2.062888 6.029980 20.742964 213 213 213 0
2.142477 6.030675 20.745357 213 213 213 0
2.222167 6.031595 20.748521 213 213 213 0
2.304020 6.038122 20.770974 213 213 213 0
2.385982 6.044486 20.792867 213 213 213 0
2.467428 6.049177 20.809003 213 213 213 0
2.546736 6.048498 20.806667 213 213 213 0
2.627536 6.051294 20.816285 213 213 213 0
2.709552 6.056645 20.834692 213 213 213 0
2.792914 6.064612 20.862099 213 213 213 0
2.873562 6.066408 20.868275 213 213 213 0
2.953809 6.067283 20.871285 212 212 212 0
3.033916 6.067833 20.873177 212 212 212 0
3.116010 6.072225 20.888286 213 213 213 0
3.200972 6.081846 20.921384 213 213 213 0
3.281243 6.082303 20.922956 214 214 214 0
3.364864 6.088801 20.945308 213 213 213 0
3.445715 6.090101 20.949781 213 213 213 0
3.526135 6.090596 20.951484 213 213 213 0
3.609667 6.096327 20.971196 213 213 213 0
3.693367 6.102085 20.991006 213 213 213 0
3.775275 6.104700 21.000000 213 213 213 0
3.858768 6.109715 21.017253 213 213 213 0
3.940941 6.112480 21.026762 213 213 213 0
4.024262 6.116878 21.041890 213 213 213 0
4.107089 6.120368 21.053899 214 214 214 0
4.189158 6.122615 21.061629 214 214 214 0
4.273120 6.127493 21.078407 213 213 213 0
4.358596 6.134320 21.101891 213 213 213 0
4.440869 6.136474 21.109300 214 214 214 0
4.526333 6.142881 21.131342 213 213 213 0
4.605897 6.141195 21.125543 214 214 214 0
4.690410 6.146055 21.142260 214 214 214 0
4.774675 6.150429 21.157306 213 213 213 0
4.861159 6.157469 21.181523 214 214 214 0
4.944515 6.160379 21.191534 213 213 213 0
5.019617 6.153079 21.166421 210 210 210 0
5.075071 6.122307 21.060569 130 130 130 0
-5.958595 5.735148 19.472532 209 209 209 0
-5.884247 5.735279 19.472979 209 209 209 0
-5.812765 5.738242 19.483040 209 209 209 0
-5.739308 5.739308 19.486659 209 209 209 0
-5.674359 5.749022 19.519639 209 209 209 0
-5.592026 5.741146 19.492900 209 209 209 0
-5.511305 5.734736 19.471135 209 209 209 0
-5.454808 5.753702 19.535529 210 210 210 0
-5.390919 5.765288 19.574869 210 210 210 0
-5.304097 5.752330 19.530873 209 209 209 0
-5.226646 5.749311 19.520621 210 210 210 0
-5.175703 5.775784 19.610505 209 209 209 0
-5.086678 5.759915 19.556625 210 210 210 0
-5.031262 5.782197 19.632279 209 209 209 0
-4.956351 5.782410 19.633002 210 210 210 0
-4.883867 5.785504 19.643507 209 209 209 0
-4.812418 5.789941 19.658571 210 210 210 0
-4.740286 5.793683 19.671279 210 210 210 0
-4.665584 5.794354 19.673555 209 209 209 0
-4.595271 5.800588 19.694724 210 210 210 0
-4.520790 5.801681 19.698432 209 209 209 0
-4.446332 5.802840 19.702368 209 209 209 0
-4.368010 5.798910 19.689026 210 210 210 0
-4.299634 5.808278 19.720831 209 209 209 0
-4.218023 5.799782 19.691986 210 210 210 0
-4.163489 5.828884 19.790797 209 209 209 0
-4.081511 5.819932 19.760401 210 210 210 0
-4.010352 5.826361 19.782227 210 210 210 0
-3.934223 5.825676 19.779902 210 210 210 0
-3.859719 5.827419 19.785822 210 210 210 0
-3.787202 5.832291 19.802364 211 211 211 0
-3.716762 5.840626 19.830663 211 211 211 0
-3.641567 5.841680 19.834240 210 210 210 0
-3.566365 5.842768 19.837936 211 211 211 0
-3.496485 5.852812 19.872039 211 211 211 0
-3.419568 5.851261 19.866772 210 210 210 0
-3.346009 5.855515 19.881215 210 210 210 0
-3.274551 5.863730 19.909109 211 211 211 0
-3.196335 5.859948 19.896268 211 211 211 0
-3.128464 5.875409 19.948760 211 211 211 0
-3.048208 5.867800 19.922925 211 211 211 0
-2.976264 5.876214 19.951494 211 211 211 0
-2.899844 5.876000 19.950767 211 211 211 0
-2.824791 5.878618 19.959657 211 211 211 0
-2.750698 5.883437 19.976019 211 211 211 0
-2.676205 5.887651 19.990328 211 211 211 0
-2.600867 5.890198 19.998976 211 211 211 0
-2.524342 5.890131 19.998749 212 212 212 0
-2.450412 5.896304 20.019705 211 211 211 0
-2.376053 5.901810 20.038401 211 211 211 0
-2.299874 5.903010 20.042476 212 212 212 0
-2.225010 5.907784 20.058686 211 211 211 0
-2.148318 5.907874 20.058992 211 211 211 0
-2.072070 5.909238 20.063621 211 211 211 0
-2.000273 5.923885 20.113351 211 211 211 0
-1.922898 5.922525 20.108735 211 211 211 0
-1.845741 5.921754 20.106116 211 211 211 0
-1.770295 5.926641 20.122710 212 212 212 0
-1.695700 5.934950 20.150920 212 212 212 0
-1.618353 5.933962 20.147567 211 211 211 0
-1.542543 5.938789 20.163956 212 212 212 0
-1.466965 5.945067 20.185272 212 212 212 0
-1.390043 5.946295 20.189440 211 211 211 0
-1.313505 5.949405 20.200000 211 211 211 0
-1.237798 5.956901 20.225451 211 211 211 0
-1.160439 5.956920 20.225517 212 212 212 0
-1.084073 5.962403 20.244133 212 212 212 0
-1.007014 5.964622 20.251665 212 212 212 0
-0.930272 5.969245 20.267362 211 211 211 0
-0.853152 5.972065 20.276936 211 211 211 0
-0.776107 5.976025 20.290382 212 212 212 0
-0.698572 5.976673 20.292582 212 212 212 0
-0.621375 5.980736 20.306379 212 212 212 0
-0.544156 5.985716 20.323288 211 211 211 0
-0.466327 5.984527 20.319251 213 213 213 0
-0.388895 5.988978 20.334362 211 211 211 0
-0.311271 5.991959 20.344482 212 212 212 0
-0.233763 5.999927 20.371537 212 212 212 0
-0.155905 6.002357 20.379789 212 212 212 0
-0.078040 6.009049 20.402511 212 212 212 0
0.000000 6.013328 20.417037 212 212 212 0
0.078090 6.012921 20.415655 212 212 212 0
0.156154 6.011916 20.412243 213 213 213 0
0.234634 6.022261 20.447369 212 212 212 0
0.313050 6.026219 20.460806 213 213 213 0
0.391561 6.030043 20.473792 212 212 212 0
0.469908 6.030483 20.475284 213 213 213 0
0.548581 6.034393 20.488558 212 212 212 0
0.627172 6.036527 20.495804 212 212 212 0
0.705895 6.039323 20.505297 213 213 213 0
0.785702 6.049908 20.541238 212 212 212 0
0.864075 6.048527 20.536548 212 212 212 0
0.943598 6.054754 20.557690 213 213 213 0
1.023037 6.059530 20.573906 213 213 213 0
1.102158 6.061870 20.581851 213 213 213 0
1.181190 6.063443 20.587193 213 213 213 0
1.260327 6.065322 20.593573 213 213 213 0
1.340680 6.072491 20.617912 213 213 213 0
1.420716 6.077508 20.634948 213 213 213 0
1.500855 6.082411 20.651594 213 213 213 0
1.579910 6.082655 20.652423 213 213 213 0
1.659836 6.086066 20.664005 213 213 213 0
1.740148 6.090517 20.679118 213 213 213 0
1.820104 6.093392 20.688877 213 213 213 0
1.900515 6.097486 20.702781 213 213 213 0
1.982060 6.104745 20.727424 213 213 213 0
2.062888 6.109321 20.742964 213 213 213 0
2.142308 6.109546 20.743725 213 213 213 0
2.221379 6.108792 20.741166 213 213 213 0
2.304653 6.119250 20.776675 213 213 213 0
2.385060 6.121654 20.784838 213 213 213 0
2.467508 6.128972 20.809684 214 214 214 0
2.547034 6.128800 20.809099 213 213 213 0
2.627362 6.130511 20.814909 213 213 213 0
2.709569 6.136376 20.834823 214 214 214 0
2.790789 6.139737 20.846233 212 212 212 0
2.875183 6.149698 20.880053 213 213 213 0
2.953601 6.146683 20.869817 213 213 213 0
3.034977 6.149822 20.880475 213 213 213 0
3.116629 6.153345 20.892437 213 213 213 0
3.199027 6.158126 20.908671 213 213 213 0
3.281574 6.162955 20.925066 213 213 213 0
3.362539 6.164655 20.930837 214 214 214 0
3.445719 6.170241 20.949802 213 213 213 0
3.527246 6.172680 20.958085 213 213 213 0
3.609887 6.176918 20.972476 213 213 213 0
3.692978 6.181723 20.988790 213 213 213 0
3.775275 6.185025 21.000000 213 213 213 0
3.859864 6.191865 21.023223 213 213 213 0
3.941069 6.193109 21.027448 214 214 214 0
4.025719 6.199608 21.049513 214 214 214 0
4.107630 6.201716 21.056672 214 214 214 0
4.189201 6.203240 21.061844 213 213 213 0
4.271476 6.205729 21.070298 213 213 213 0
4.359008 6.215623 21.103889 213 213 213 0
4.440954 6.217335 21.109702 213 213 213 0
4.523305 6.219544 21.117204 213 213 213 0
4.605430 6.221370 21.123401 213 213 213 0
4.689637 6.225898 21.138775 214 214 214 0
4.774600 6.231258 21.156973 213 213 213 0
4.858371 6.234909 21.169371 213 213 213 0
4.944459 6.241366 21.191295 213 213 213 0
5.020489 6.235124 21.170101 210 210 210 0
5.074839 6.202581 21.059609 127 127 127 0
-5.945945 5.797296 19.431193 209 209 209 0
-5.876693 5.802304 19.447978 209 209 209 0
-5.804482 5.804482 19.455277 209 209 209 0
-5.740151 5.814699 19.489521 209 209 209 0
-5.667234 5.816372 19.495128 209 209 209 0
-5.600759 5.824789 19.523342 209 209 209 0
-5.516926 5.815138 19.490995 209 209 209 0
-5.442156 5.814906 19.490216 209 209 209 0
-5.384125 5.832802 19.550198 208 208 208 0
-5.311018 5.834639 19.556357 210 210 210 0
-5.247572 5.847295 19.598776 209 209 209 0
-5.175231 5.850262 19.608720 210 210 210 0
-5.089349 5.837782 19.566892 209 209 209 0
-5.028465 5.854034 19.621364 210 210 210 0
-4.950703 5.850831 19.610628 209 209 209 0
-4.885012 5.862014 19.648112 209 209 209 0
-4.809569 5.861662 19.646933 210 210 210 0
-4.737272 5.865194 19.658771 210 210 210 0
-4.659121 5.861474 19.646302 209 209 209 0
-4.592739 5.872683 19.683871 210 210 210 0
-4.521009 5.877312 19.699386 210 210 210 0
-4.447662 5.879959 19.708260 209 209 209 0
-4.372269 5.879947 19.708220 209 209 209 0
-4.303660 5.889218 19.739294 210 210 210 0
-4.235895 5.899997 19.775421 211 211 211 0
-4.150965 5.886822 19.731264 211 211 211 0
-4.082163 5.896457 19.763556 210 210 210 0
-4.006975 5.897058 19.765571 211 211 211 0
-3.930350 5.895525 19.760433 210 210 210 0
-3.862177 5.906858 19.798419 210 210 210 0
-3.791561 5.914835 19.825155 210 210 210 0
-3.715528 5.914514 19.824081 210 210 210 0
-3.643968 5.921447 19.847318 211 211 211 0
-3.566522 5.918909 19.838811 211 211 211 0
-3.496889 5.929508 19.874335 210 210 210 0
-3.416741 5.922352 19.850349 211 211 211 0
-3.347984 5.935062 19.892952 211 211 211 0
-3.267925 5.927864 19.868825 211 211 211 0
-3.198445 5.939969 19.909398 211 211 211 0
-3.126177 5.947362 19.934178 210 210 210 0
-3.048716 5.944996 19.926246 211 211 211 0
-2.975302 5.950603 19.945043 211 211 211 0
-2.900934 5.954549 19.958268 211 211 211 0
-2.822996 5.951181 19.946978 211 211 211 0
-2.748682 5.955478 19.961382 210 210 210 0
-2.678967 5.970270 20.010959 211 211 211 0
-2.597110 5.958075 19.970086 211 211 211 0
-2.525936 5.970395 20.011380 211 211 211 0
-2.449186 5.969891 20.009691 211 211 211 0
-2.373711 5.972563 20.018645 210 210 210 0
-2.300603 5.981569 20.048830 211 211 211 0
-2.224423 5.982931 20.053396 212 212 212 0
-2.147385 5.982002 20.050284 211 211 211 0
-2.073339 5.989645 20.075900 211 211 211 0
-1.998219 5.994656 20.092696 211 211 211 0
-1.924082 6.003135 20.121116 212 212 212 0
-1.847703 6.005036 20.127487 211 211 211 0
-1.771662 6.008245 20.138244 211 211 211 0
-1.693449 6.004045 20.124166 211 211 211 0
-1.616820 6.005332 20.128480 212 212 212 0
-1.542500 6.015752 20.163404 211 211 211 0
-1.466959 6.022253 20.185196 211 211 211 0
-1.388617 6.017339 20.168725 212 212 212 0
-1.314199 6.029852 20.210667 211 211 211 0
-1.236822 6.029507 20.209510 212 212 212 0
-1.159787 6.030892 20.214151 212 212 212 0
-1.084132 6.040165 20.245232 212 212 212 0
-1.006568 6.039406 20.242688 212 212 212 0
-0.930013 6.045084 20.261721 212 212 212 0
-0.853120 6.049395 20.276170 211 211 211 0
-0.775436 6.048402 20.272842 212 212 212 0
-0.699114 6.058989 20.308327 212 212 212 0
-0.622010 6.064595 20.327116 212 212 212 0
-0.544285 6.064889 20.328100 212 212 212 0
-0.466676 6.066783 20.334448 212 212 212 0
-0.388941 6.067486 20.336805 212 212 212 0
-0.311262 6.069606 20.343911 211 211 211 0
-0.233916 6.081813 20.384826 212 212 212 0
-0.155889 6.079683 20.377688 212 212 212 0
-0.078040 6.087089 20.402511 212 212 212 0
0.000000 6.088997 20.408906 212 212 212 0
0.078159 6.096369 20.433614 213 213 213 0
0.156225 6.092778 20.421579 212 212 212 0
0.234574 6.098933 20.442208 213 213 213 0
0.313040 6.104289 20.460161 212 212 212 0
0.391519 6.107691 20.471564 213 213 213 0
0.469767 6.106967 20.469136 213 213 213 0
0.548318 6.109827 20.478724 213 213 213 0
0.627634 6.119430 20.510911 212 212 212 0
0.706671 6.124485 20.527852 213 213 213 0
0.785283 6.125210 20.530285 212 212 212 0
0.864448 6.129719 20.545396 213 213 213 0
0.942955 6.129209 20.543687 213 213 213 0
1.023011 6.138068 20.573380 212 212 212 0
1.102146 6.140528 20.581625 213 213 213 0
1.181132 6.141889 20.586186 213 213 213 0
1.260720 6.146010 20.600000 213 213 213 0
1.339988 6.148180 20.607273 213 213 213 0
1.420100 6.153768 20.626004 212 212 212 0
1.500068 6.158175 20.640773 213 213 213 0
1.580748 6.164917 20.663373 213 213 213 0
1.660276 6.166738 20.669476 213 213 213 0
1.739824 6.168465 20.675265 213 213 213 0
1.820276 6.173111 20.690838 212 212 212 0
1.901233 6.179008 20.710602 213 213 213 0
1.981160 6.181218 20.718008 213 213 213 0
2.062249 6.186747 20.736541 213 213 213 0
2.141670 6.187047 20.737547 213 213 213 0
2.220590 6.185929 20.733800 212 212 212 0
2.303989 6.196936 20.770692 213 213 213 0
2.385370 6.201962 20.787538 213 213 213 0
2.466007 6.204792 20.797024 213 213 213 0
2.546734 6.207664 20.806651 213 213 213 0
2.626492 6.208073 20.808021 212 212 212 0
2.709540 6.216004 20.834602 213 213 213 0
