ply
format ascii 1.0
element vertex 1108
property float x
property float y
property float z
property uchar red
property uchar green
property uchar blue
property uchar alpha
end_header
4.966864 -2.591408 28.228840 197 197 197 0
5.088031 -2.598144 28.302217 197 197 197 0
5.210549 -2.605275 28.379897 195 195 195 0
5.345517 -2.618213 28.520834 194 194 194 0
5.477741 -2.629316 28.641783 194 194 194 0
5.606837 -2.638512 28.741958 193 193 193 0
5.747526 -2.652705 28.896563 191 191 191 0
5.894060 -2.669008 29.074165 189 189 189 0
6.039459 -2.684204 29.239697 188 188 188 0
6.201013 -2.705897 29.476000 186 186 186 0
6.365050 -2.727878 29.715452 184 184 184 0
6.554845 -2.759935 30.064649 180 180 180 0
6.764738 -2.799202 30.492395 167 167 167 0
6.931756 -2.819697 30.715659 113 113 113 0
-1.555477 -2.751999 31.281597 78 78 78 0
-1.419297 -2.720319 30.921498 105 105 105 0
-1.281655 -2.679824 30.461194 125 125 125 0
-1.155258 -2.657094 30.202825 135 135 135 0
-1.029275 -2.630369 29.899056 143 143 143 0
-0.909336 -2.614342 29.716872 151 151 151 0
-0.791188 -2.599617 29.549498 153 153 153 0
-0.673914 -2.583338 29.364452 159 159 159 0
-0.559568 -2.574012 29.258444 165 165 165 0
-0.444962 -2.558530 29.082463 167 167 167 0
-0.331889 -2.544482 28.922786 167 167 167 0
-0.220094 -2.531076 28.770397 172 172 172 0
-0.109640 -2.521717 28.664023 176 176 176 0
0.000000 -2.516477 28.604460 177 177 177 0
0.109060 -2.508388 28.512509 178 178 178 0
0.217321 -2.499187 28.407920 179 179 179 0
0.324500 -2.487833 28.278869 182 182 182 0
0.431525 -2.481267 28.204227 184 184 184 0
0.538271 -2.476046 28.144885 185 185 185 0
0.645349 -2.473837 28.119775 186 186 186 0
0.751560 -2.469412 28.069474 186 186 186 0
0.855208 -2.458723 27.947970 186 186 186 0
0.959460 -2.451953 27.871019 187 187 187 0
1.064704 -2.448819 27.835398 191 191 191 0
1.169726 -2.445790 27.800971 192 192 192 0
1.273808 -2.441464 27.751798 192 192 192 0
1.378027 -2.438048 27.712959 193 193 193 0
1.480027 -2.431473 27.638223 192 192 192 0
1.584620 -2.429750 27.618642 193 193 193 0
1.690454 -2.430027 27.621791 193 193 193 0
1.795809 -2.429624 27.617213 193 193 193 0
1.896807 -2.423698 27.549845 194 194 194 0
1.999614 -2.420585 27.514469 195 195 195 0
2.103380 -2.418887 27.495160 195 195 195 0
2.208610 -2.418954 27.495921 196 196 196 0
2.314192 -2.419383 27.500799 197 197 197 0
2.413402 -2.413402 27.432811 198 198 198 0
2.518763 -2.413815 27.437508 199 199 199 0
2.623928 -2.414014 27.439774 199 199 199 0
2.730427 -2.415377 27.455269 199 199 199 0
2.835922 -2.415786 27.459910 199 199 199 0
2.937473 -2.412925 27.427389 199 199 199 0
3.042411 -2.412946 27.427638 199 199 199 0
3.151317 -2.416009 27.462455 200 200 200 0
3.259470 -2.418316 27.488675 199 199 199 0
3.365292 -2.418804 27.494218 199 199 199 0
3.468485 -2.417429 27.478587 198 198 198 0
3.579376 -2.421342 27.523074 199 199 199 0
3.691742 -2.426002 27.576035 199 199 199 0
3.799054 -2.427174 27.589357 199 199 199 0
3.906118 -2.428127 27.600198 199 199 199 0
4.017560 -2.431681 27.640593 199 199 199 0
4.131499 -2.436525 27.695654 199 199 199 0
4.243936 -2.440263 27.738142 199 199 199 0
4.353658 -2.442296 27.761253 200 200 200 0
4.468615 -2.447099 27.815845 199 199 199 0
4.585933 -2.452941 27.882250 199 199 199 0
4.705827 -2.459864 27.960942 198 198 198 0
4.822880 -2.465027 28.019635 197 197 197 0
4.945150 -2.472575 28.105426 198 198 198 0
5.069335 -2.480739 28.198223 198 198 198 0
5.186774 -2.485329 28.250403 197 197 197 0
5.315187 -2.494884 28.359007 195 195 195 0
5.449285 -2.506671 28.492995 194 194 194 0
5.583041 -2.517842 28.619972 195 195 195 0
5.712682 -2.526763 28.721379 194 194 194 0
5.856052 -2.541306 28.886680 192 192 192 0
5.999091 -2.555168 29.044254 190 190 190 0
6.152461 -2.572847 29.245208 189 189 189 0
6.310593 -2.591851 29.461219 186 186 186 0
6.484741 -2.616650 29.743106 184 184 184 0
6.678605 -2.648412 30.104147 179 179 179 0
6.883262 -2.683306 30.500774 163 163 163 0
7.049749 -2.702404 30.717861 101 101 101 0
-1.541843 -2.609273 31.007407 97 97 97 0
-1.403062 -2.572281 30.567805 119 119 119 0
-1.274460 -2.548920 30.290201 132 132 132 0
-1.146819 -2.523002 29.982195 142 142 142 0
-1.024111 -2.503382 29.749040 151 151 151 0
-0.903272 -2.483997 29.518681 154 154 154 0
-0.786385 -2.471495 29.370108 158 158 158 0
-0.671227 -2.461167 29.247379 165 165 165 0
-0.556884 -2.450289 29.118108 165 165 165 0
-0.442937 -2.436154 28.950133 167 167 167 0
-0.330317 -2.422323 28.785772 172 172 172 0
-0.219144 -2.410582 28.646245 177 177 177 0
-0.109133 -2.400924 28.531482 176 176 176 0
0.000000 -2.396318 28.476750 177 177 177 0
0.108696 -2.391305 28.417177 179 179 179 0
0.216544 -2.381989 28.306467 183 183 183 0
0.323713 -2.373896 28.210295 184 184 184 0
0.429659 -2.363124 28.082285 186 186 186 0
0.536128 -2.358961 28.032816 185 185 185 0
0.642687 -2.356518 28.003782 186 186 186 0
0.748433 -2.352217 27.952664 186 186 186 0
0.853056 -2.345905 27.877661 189 189 189 0
0.956304 -2.337631 27.779336 191 191 191 0
1.060535 -2.333177 27.726404 191 191 191 0
1.166011 -2.332022 27.712676 192 192 192 0
1.270533 -2.329310 27.680456 192 192 192 0
1.374560 -2.326179 27.643246 192 192 192 0
1.476788 -2.320667 27.577737 193 193 193 0
1.578856 -2.315655 27.518186 194 194 194 0
1.684030 -2.315541 27.516830 194 194 194 0
1.788290 -2.314258 27.501576 195 195 195 0
1.891135 -2.311387 27.467468 196 196 196 0
1.992978 -2.307659 27.423156 197 197 197 0
2.096738 -2.306411 27.408335 198 198 198 0
2.201971 -2.306826 27.413265 198 198 198 0
2.306367 -2.306367 27.407806 199 199 199 0
2.408891 -2.304157 27.381546 198 198 198 0
2.511539 -2.302244 27.358817 199 199 199 0
2.614729 -2.300962 27.343574 199 199 199 0
2.722021 -2.303249 27.370752 200 200 200 0
2.827770 -2.304109 27.380976 199 199 199 0
2.930651 -2.302654 27.363686 200 200 200 0
3.032638 -2.300622 27.339532 200 200 200 0
3.140637 -2.303134 27.369389 201 201 201 0
3.248895 -2.305667 27.399492 201 201 201 0
3.353462 -2.305505 27.397565 201 201 201 0
3.459712 -2.306474 27.409084 201 201 201 0
3.567000 -2.308059 27.427915 200 200 200 0
3.678028 -2.311903 27.473600 200 200 200 0
3.785692 -2.313478 27.492315 200 200 200 0
3.892310 -2.314346 27.502629 200 200 200 0
4.002423 -2.317193 27.536453 200 200 200 0
4.118837 -2.323447 27.610773 199 199 199 0
4.234066 -2.328736 27.673635 200 200 200 0
4.337870 -2.327637 27.660574 200 200 200 0
4.452845 -2.332443 27.717681 201 201 201 0
4.572736 -2.339539 27.802013 200 200 200 0
4.686491 -2.343245 27.846054 200 200 200 0
4.802325 -2.347804 27.900220 199 199 199 0
4.922244 -2.354117 27.975241 198 198 198 0
5.049117 -2.363416 28.085757 197 197 197 0
5.168508 -2.368899 28.150915 198 198 198 0
5.290708 -2.375420 28.228398 197 197 197 0
5.424028 -2.386572 28.360932 197 197 197 0
5.550088 -2.394156 28.451048 196 196 196 0
5.683947 -2.404747 28.576906 195 195 195 0
5.821980 -2.416671 28.718607 194 194 194 0
5.963436 -2.429548 28.871633 192 192 192 0
6.111249 -2.444500 29.049313 191 191 191 0
6.268701 -2.462704 29.265644 190 190 190 0
6.429033 -2.481381 29.487593 187 187 187 0
6.606242 -2.505816 29.777968 184 184 184 0
6.810658 -2.539568 30.179055 178 178 178 0
7.010483 -2.570510 30.546765 155 155 155 0
7.141020 -2.575450 30.605463 86 86 86 0
-1.664514 -2.496771 31.083356 91 91 91 0
-1.523700 -2.461362 30.642535 112 112 112 0
-1.393679 -2.438938 30.363370 129 129 129 0
-1.263825 -2.412757 30.037439 137 137 137 0
-1.140548 -2.395150 29.818237 148 148 148 0
-1.017683 -2.374594 29.562333 152 152 152 0
-0.899232 -2.360484 29.386661 158 158 158 0
-0.780953 -2.342858 29.167227 164 164 164 0
-0.667410 -2.335936 29.081063 166 166 166 0
-0.553408 -2.324313 28.936364 166 166 166 0
-0.441340 -2.317035 28.845751 172 172 172 0
-0.329216 -2.304510 28.689824 175 175 175 0
-0.218261 -2.291742 28.530863 177 177 177 0
-0.108753 -2.283808 28.432090 177 177 177 0
0.000000 -2.275966 28.334463 179 179 179 0
0.108255 -2.273353 28.301931 183 183 183 0
0.215747 -2.265339 28.202170 184 184 184 0
0.322735 -2.259143 28.125035 184 184 184 0
0.428457 -2.249400 28.003733 185 185 185 0
0.533792 -2.241928 27.910712 185 185 185 0
0.639778 -2.239224 27.877051 187 187 187 0
0.745706 -2.237119 27.850845 190 190 190 0
0.850276 -2.231975 27.786803 191 191 191 0
0.954076 -2.226178 27.714639 192 192 192 0
1.057312 -2.220355 27.642139 191 191 191 0
1.162678 -2.219658 27.633468 192 192 192 0
1.266015 -2.215526 27.582024 192 192 192 0
1.369984 -2.213051 27.551206 193 193 193 0
1.471955 -2.207933 27.487489 193 193 193 0
1.573558 -2.202981 27.425842 195 195 195 0
1.678314 -2.202787 27.423436 196 196 196 0
1.783490 -2.203135 27.427760 198 198 198 0
1.886316 -2.200702 27.397476 198 198 198 0
1.989693 -2.199134 27.377953 198 198 198 0
2.089619 -2.194100 27.315287 197 197 197 0
2.194891 -2.194891 27.325125 198 198 198 0
2.299703 -2.195171 27.328613 199 199 199 0
2.402467 -2.193557 27.308517 199 199 199 0
2.503362 -2.190442 27.269736 199 199 199 0
2.609178 -2.191710 27.285523 199 199 199 0
2.711857 -2.190346 27.268550 199 199 199 0
2.819179 -2.192695 27.297787 200 200 200 0
2.922191 -2.191643 27.284698 201 201 201 0
3.025137 -2.190616 27.271911 200 200 200 0
3.131324 -2.191927 27.288223 201 201 201 0
3.240101 -2.194907 27.325326 201 201 201 0
3.345288 -2.195345 27.330780 201 201 201 0
3.448682 -2.194616 27.321707 201 201 201 0
3.555990 -2.196347 27.343250 201 201 201 0
3.664022 -2.198413 27.368979 202 202 202 0
3.773271 -2.201075 27.402114 202 202 202 0
3.880073 -2.202204 27.416166 201 201 201 0
3.989046 -2.204473 27.444419 201 201 201 0
4.104629 -2.210185 27.515526 201 201 201 0
4.216746 -2.213792 27.560431 201 201 201 0
4.325610 -2.215556 27.582398 200 200 200 0
4.436119 -2.218059 27.613561 200 200 200 0
4.554698 -2.224388 27.692344 200 200 200 0
4.672963 -2.230278 27.765675 201 201 201 0
4.784917 -2.232961 27.799080 201 201 201 0
4.904701 -2.239103 27.875540 200 200 200 0
5.028403 -2.246733 27.970534 199 199 199 0
5.148293 -2.252378 28.040814 198 198 198 0
5.270352 -2.258722 28.119792 198 198 198 0
5.399916 -2.267965 28.234854 199 199 199 0
5.525324 -2.275133 28.324102 197 197 197 0
5.654867 -2.283696 28.430704 195 195 195 0
5.793497 -2.295536 28.578106 195 195 195 0
5.930460 -2.306290 28.711981 194 194 194 0
6.071878 -2.318353 28.862163 193 193 193 0
6.230516 -2.336443 29.087376 191 191 191 0
6.385225 -2.352451 29.286664 190 190 190 0
6.546957 -2.370450 29.510736 187 187 187 0
6.737723 -2.398173 29.855869 184 184 184 0
6.945724 -2.431003 30.264591 177 177 177 0
7.133282 -2.455720 30.572300 140 140 140 0
7.282549 -2.466670 30.708617 79 79 79 0
-1.787976 -2.383968 31.162977 82 82 82 0
-1.648245 -2.354636 30.779550 106 106 106 0
-1.512288 -2.326597 30.413032 127 127 127 0
-1.382947 -2.304911 30.129562 133 133 133 0
-1.258367 -2.287940 29.907718 146 146 146 0
-1.134132 -2.268264 29.650515 150 150 150 0
-1.013614 -2.252476 29.444130 154 154 154 0
-0.893668 -2.234170 29.204843 163 163 163 0
-0.777738 -2.222110 29.047186 165 165 165 0
-0.663578 -2.211927 28.914082 166 166 166 0
-0.551233 -2.204934 28.822665 171 171 171 0
-0.439316 -2.196579 28.713446 175 175 175 0
-0.328357 -2.189048 28.615008 176 176 176 0
-0.217622 -2.176223 28.447359 176 176 176 0
-0.108358 -2.167151 28.328765 178 178 178 0
0.000000 -2.159755 28.232093 183 183 183 0
0.107825 -2.156505 28.189608 184 184 184 0
0.215173 -2.151727 28.127148 184 184 184 0
0.321473 -2.143154 28.015080 184 184 184 0
0.426767 -2.133836 27.893287 186 186 186 0
0.532385 -2.129538 27.837101 188 188 188 0
0.638469 -2.128229 27.819990 190 190 190 0
0.743206 -2.123445 27.757457 191 191 191 0
0.847721 -2.119303 27.703308 191 191 191 0
0.951135 -2.113634 27.629208 192 192 192 0
1.053932 -2.107864 27.553781 192 192 192 0
1.158548 -2.106451 27.535301 192 192 192 0
1.262766 -2.104609 27.511233 193 193 193 0
1.366247 -2.101918 27.476052 195 195 195 0
1.469173 -2.098819 27.435537 196 196 196 0
1.570661 -2.094215 27.375358 197 197 197 0
1.673476 -2.091846 27.344386 198 198 198 0
1.777956 -2.091713 27.342654 197 197 197 0
1.881461 -2.090512 27.326958 197 197 197 0
1.984139 -2.088567 27.301528 198 198 198 0
2.084252 -2.084252 27.245127 198 198 198 0
2.188303 -2.084098 27.243108 198 198 198 0
2.293946 -2.085405 27.260202 199 199 199 0
2.395389 -2.082947 27.228064 199 199 199 0
2.496593 -2.080495 27.196008 199 199 199 0
2.600770 -2.080616 27.197590 200 200 200 0
2.705764 -2.081357 27.207284 200 200 200 0
2.812228 -2.083132 27.230486 200 200 200 0
2.913965 -2.081403 27.207887 201 201 201 0
3.014792 -2.079167 27.178656 201 201 201 0
3.120597 -2.080398 27.194749 201 201 201 0
3.229562 -2.083588 27.236447 201 201 201 0
3.334721 -2.084201 27.244452 201 201 201 0
3.438740 -2.084085 27.242937 202 202 202 0
3.544829 -2.085193 27.257430 202 202 202 0
3.653695 -2.087826 27.291842 202 202 202 0
3.765591 -2.091995 27.346340 202 202 202 0
3.871917 -2.092928 27.358536 202 202 202 0
3.980242 -2.094864 27.383848 202 202 202 0
4.090215 -2.097546 27.418903 202 202 202 0
4.203056 -2.101528 27.470955 201 201 201 0
4.311470 -2.103156 27.492239 201 201 201 0
4.421421 -2.105438 27.522070 201 201 201 0
4.540733 -2.111969 27.607437 201 201 201 0
4.658461 -2.117482 27.679505 201 201 201 0
4.771835 -2.120815 27.723078 201 201 201 0
4.886671 -2.124640 27.773066 201 201 201 0
5.009610 -2.131749 27.865997 200 200 200 0
5.130207 -2.137586 27.942304 199 199 199 0
5.247098 -2.141673 27.995720 199 199 199 0
5.377150 -2.150860 28.115816 198 198 198 0
5.506807 -2.159532 28.229178 198 198 198 0
5.628649 -2.164865 28.298888 197 197 197 0
5.761910 -2.174305 28.422294 195 195 195 0
5.904967 -2.187025 28.588558 195 195 195 0
6.041912 -2.197059 28.719723 195 195 195 0
6.186359 -2.209414 28.881230 192 192 192 0
6.345553 -2.226510 29.104703 191 191 191 0
6.497488 -2.240513 29.287751 189 189 189 0
6.676367 -2.263175 29.583990 186 186 186 0
6.870307 -2.290102 29.935978 183 183 183 0
7.090198 -2.324655 30.387648 173 173 173 0
7.272769 -2.346055 30.667381 120 120 120 0
7.393902 -2.347270 30.683273 75 75 75 0
-1.774264 -2.247401 30.923985 98 98 98 0
-1.630517 -2.212845 30.448506 122 122 122 0
-1.501069 -2.193869 30.187403 131 131 131 0
-1.371743 -2.171926 29.885468 144 144 144 0
-1.250456 -2.159878 29.719690 150 150 150 0
-1.129269 -2.145612 29.523379 152 152 152 0
-1.009799 -2.131798 29.333303 160 160 160 0
-0.891550 -2.117432 29.135637 164 164 164 0
-0.774303 -2.101681 28.918894 164 164 164 0
-0.661277 -2.094043 28.813804 170 170 170 0
-0.549115 -2.086636 28.711882 175 175 175 0
-0.437888 -2.079968 28.620126 175 175 175 0
-0.327201 -2.072275 28.514275 175 175 175 0
-0.217047 -2.061945 28.372133 177 177 177 0
-0.107997 -2.051947 28.234564 182 182 182 0
0.000000 -2.044909 28.137722 183 183 183 0
0.107436 -2.041278 28.087763 184 184 184 0
0.214620 -2.038892 28.054934 184 184 184 0
0.320740 -2.031356 27.951235 185 185 185 0
0.425679 -2.021977 27.822183 187 187 187 0
0.530683 -2.016596 27.748142 190 190 190 0
0.636034 -2.014106 27.713879 190 190 190 0
0.741557 -2.012796 27.695856 190 190 190 0
0.845500 -2.008062 27.630706 191 191 191 0
0.948357 -2.002086 27.548482 191 191 191 0
1.050480 -1.995913 27.463541 193 193 193 0
1.154472 -1.994088 27.438436 194 194 194 0
1.258639 -1.992846 27.421339 196 196 196 0
1.361987 -1.990596 27.390386 196 196 196 0
1.464944 -1.988138 27.356563 196 196 196 0
1.565211 -1.982600 27.280361 196 196 196 0
1.668804 -1.981705 27.268043 197 197 197 0
1.773033 -1.981625 27.266948 197 197 197 0
1.877244 -1.981535 27.265707 197 197 197 0
1.978714 -1.978714 27.226894 198 198 198 0
2.077525 -1.973649 27.157195 198 198 198 0
2.182147 -1.974323 27.166471 198 198 198 0
2.286292 -1.974524 27.169240 199 199 199 0
2.388885 -1.973427 27.154136 200 200 200 0
2.491327 -1.972300 27.138635 199 199 199 0
2.593507 -1.971065 27.121643 201 201 201 0
2.698171 -1.971740 27.130928 201 201 201 0
2.802998 -1.972480 27.141107 201 201 201 0
2.907119 -1.972688 27.143967 201 201 201 0
3.009879 -1.971990 27.134359 201 201 201 0
3.112709 -1.971383 27.126008 202 202 202 0
3.220126 -1.973625 27.156869 201 201 201 0
3.327975 -1.975985 27.189337 201 201 201 0
3.430933 -1.975386 27.181090 202 202 202 0
3.534550 -1.975190 27.178396 202 202 202 0
3.644598 -1.978496 27.223891 202 202 202 0
3.755182 -1.981902 27.270751 202 202 202 0
3.861550 -1.982958 27.285286 202 202 202 0
3.968133 -1.984066 27.300536 203 203 203 0
4.077524 -1.986486 27.333827 202 202 202 0
4.191085 -1.990766 27.392715 203 203 203 0
4.300111 -1.992734 27.419807 203 203 203 0
4.408279 -1.994221 27.440268 202 202 202 0
4.521653 -1.997940 27.491430 202 202 202 0
4.643741 -2.005252 27.592043 201 201 201 0
4.756262 -2.008199 27.632603 201 201 201 0
4.869557 -2.011339 27.675799 201 201 201 0
4.990560 -2.017460 27.760033 201 201 201 0
5.110340 -2.022843 27.834096 201 201 201 0
5.229908 -2.027923 27.904003 200 200 200 0
5.356156 -2.035339 28.006045 199 199 199 0
5.483529 -2.042883 28.109851 199 199 199 0
5.607981 -2.049070 28.194979 199 199 199 0
5.740558 -2.057936 28.316974 197 197 197 0
5.880039 -2.068903 28.467873 195 195 195 0
6.011486 -2.076695 28.575098 195 195 195 0
6.153574 -2.087820 28.728172 195 195 195 0
6.306875 -2.102292 28.927303 192 192 192 0
6.459997 -2.116206 29.118760 191 191 191 0
6.624383 -2.133276 29.353642 189 189 189 0
6.807283 -2.155640 29.661364 185 185 185 0
7.006922 -2.182484 30.030739 181 181 181 0
7.227884 -2.214997 30.478111 164 164 164 0
7.380888 -2.225982 30.629270 92 92 92 0
-1.899312 -2.136726 31.034512 87 87 87 0
-1.759826 -2.111791 30.672351 110 110 110 0
-1.621303 -2.084533 30.276440 127 127 127 0
-1.490052 -2.063148 29.965844 137 137 137 0
-1.364931 -2.047396 29.737054 149 149 149 0
-1.243583 -2.034954 29.556337 151 151 151 0
-1.124373 -2.023872 29.395384 159 159 159 0
-1.004810 -2.009620 29.188379 164 164 164 0
-0.887524 -1.996929 29.004058 165 165 165 0
-0.771805 -1.984642 28.825591 167 167 167 0
-0.658201 -1.974604 28.679797 173 173 173 0
-0.546772 -1.968379 28.589376 175 175 175 0
-0.436315 -1.963416 28.517303 175 175 175 0
-0.325899 -1.955396 28.400819 177 177 177 0
-0.216515 -1.948633 28.302589 181 181 181 0
-0.107663 -1.937942 28.147300 183 183 183 0
0.000000 -1.931230 28.049820 182 182 182 0
0.107137 -1.928473 28.009768 183 183 183 0
0.213711 -1.923396 27.936037 185 185 185 0
0.319708 -1.918250 27.861286 188 188 188 0
0.424955 -1.912298 27.774838 189 189 189 0
0.529346 -1.905646 27.678234 190 190 190 0
0.634044 -1.902133 27.627203 190 190 190 0
0.739068 -1.900460 27.602906 191 191 191 0
0.842836 -1.896382 27.543668 191 191 191 0
0.946296 -1.892592 27.488629 193 193 193 0
1.048255 -1.886859 27.405355 195 195 195 0
1.151863 -1.884866 27.376416 196 196 196 0
1.254836 -1.882254 27.338471 196 196 196 0
1.358580 -1.881111 27.321877 196 196 196 0
1.461573 -1.879165 27.293609 197 197 197 0
1.561508 -1.873810 27.215828 197 197 197 0
1.663544 -1.871487 27.182085 197 197 197 0
1.767211 -1.871164 27.177402 197 197 197 0
1.871803 -1.871803 27.186683 198 198 198 0
1.972080 -1.868286 27.135601 199 199 199 0
2.073742 -1.866368 27.107740 200 200 200 0
2.176167 -1.865286 27.092029 200 200 200 0
2.280214 -1.865630 27.097022 201 201 201 0
2.383607 -1.865432 27.094145 202 202 202 0
2.487362 -1.865522 27.095452 202 202 202 0
2.588405 -1.863652 27.068290 202 202 202 0
2.690311 -1.862523 27.051897 202 202 202 0
2.796456 -1.864304 27.077764 203 203 203 0
2.901030 -1.864948 27.087113 203 203 203 0
3.001706 -1.863128 27.060682 202 202 202 0
3.106332 -1.863799 27.070428 203 203 203 0
3.211666 -1.864839 27.085527 202 202 202 0
3.316666 -1.865625 27.096945 202 202 202 0
3.422138 -1.866621 27.111414 203 203 203 0
3.525388 -1.866382 27.107945 203 203 203 0
3.633353 -1.868581 27.139888 203 203 203 0
3.743709 -1.871854 27.187429 203 203 203 0
3.852709 -1.874291 27.222818 202 202 202 0
3.956929 -1.874335 27.223455 203 203 203 0
4.064851 -1.876085 27.248878 203 203 203 0
4.178504 -1.880327 27.310486 203 203 203 0
4.291301 -1.883986 27.363631 203 203 203 0
4.396537 -1.884230 27.367177 203 203 203 0
4.511134 -1.888382 27.427473 203 203 203 0
4.628147 -1.893333 27.499387 202 202 202 0
4.741999 -1.896800 27.549742 202 202 202 0
4.854102 -1.899431 27.587962 202 202 202 0
4.976123 -1.905749 27.679727 201 201 201 0
5.097424 -1.911534 27.763745 201 201 201 0
5.214164 -1.915407 27.820005 200 200 200 0
5.334313 -1.920353 27.891834 199 199 199 0
5.465677 -1.929062 28.018336 199 199 199 0
5.593151 -1.936091 28.120420 199 199 199 0
5.715681 -1.941175 28.194257 199 199 199 0
5.855331 -1.951777 28.348252 198 198 198 0
5.990508 -1.960530 28.475381 196 196 196 0
6.126806 -1.969330 28.603202 196 196 196 0
6.273307 -1.981044 28.773338 195 195 195 0
6.423614 -1.993535 28.954763 192 192 192 0
6.583801 -2.008617 29.173814 192 192 192 0
6.754672 -2.026402 29.432123 188 188 188 0
6.945190 -2.049400 29.766165 184 184 184 0
7.160607 -2.078886 30.194421 179 179 179 0
7.365220 -2.104349 30.564250 143 143 143 0
7.431837 -2.090204 30.358813 77 77 77 0
-2.268208 -2.268208 34.882093 76 76 76 0
-1.888014 -2.006015 30.849909 100 100 100 0
-1.744488 -1.977087 30.405028 124 124 124 0
-1.611715 -1.957082 30.097378 132 132 132 0
-1.482838 -1.939095 29.820765 146 146 146 0
-1.356341 -1.921484 29.549921 149 149 149 0
-1.238213 -1.913602 29.428707 155 155 155 0
-1.118121 -1.900806 29.231927 163 163 163 0
-1.002277 -1.893190 29.114806 164 164 164 0
-0.884554 -1.879678 28.907004 165 165 165 0
-0.769381 -1.868497 28.735051 172 172 172 0
-0.655711 -1.857847 28.571267 174 174 174 0
-0.544730 -1.852083 28.482624 175 175 175 0
-0.434755 -1.847709 28.415362 176 176 176 0
-0.324653 -1.839700 28.292188 182 182 182 0
-0.215533 -1.832032 28.174275 183 183 183 0
-0.107296 -1.824033 28.051259 183 183 183 0
0.000000 -1.818219 27.961841 183 183 183 0
0.106742 -1.814616 27.906441 184 184 184 0
0.213052 -1.810938 27.849871 188 188 188 0
0.318789 -1.806471 27.781170 189 189 189 0
0.423814 -1.801210 27.700268 189 189 189 0
0.527794 -1.794498 27.597052 190 190 190 0
0.632111 -1.790982 27.542977 190 190 190 0
0.737012 -1.789887 27.526133 191 191 191 0
0.841351 -1.787872 27.495141 194 194 194 0
0.943629 -1.782409 27.411142 195 195 195 0
1.046335 -1.778770 27.355173 196 196 196 0
1.148366 -1.774748 27.293310 196 196 196 0
1.252015 -1.773688 27.277012 196 196 196 0
1.355503 -1.772581 27.259992 196 196 196 0
1.459005 -1.771649 27.245652 196 196 196 0
1.559661 -1.767616 27.183639 197 197 197 0
1.659417 -1.763131 27.114664 197 197 197 0
1.762688 -1.762688 27.107851 199 199 199 0
1.865584 -1.761940 27.096351 200 200 200 0
1.967644 -1.760524 27.074564 201 201 201 0
2.069490 -1.759066 27.052155 201 201 201 0
2.171659 -1.758010 27.035910 201 201 201 0
2.275634 -1.758445 27.042594 201 201 201 0
2.377317 -1.757147 27.022644 202 202 202 0
2.480436 -1.756975 27.019998 201 201 201 0
2.580604 -1.754811 26.986708 203 203 203 0
2.684366 -1.755162 26.992114 203 203 203 0
2.788740 -1.755873 27.003050 202 202 202 0
2.890044 -1.754670 26.984539 203 203 203 0
2.994163 -1.755199 26.992676 203 203 203 0
3.100109 -1.756728 27.016199 203 203 203 0
3.205913 -1.758081 27.037003 203 203 203 0
3.308869 -1.757837 27.033242 203 203 203 0
3.414460 -1.758964 27.050584 204 204 204 0
3.518993 -1.759497 27.058770 204 204 204 0
3.624044 -1.760250 27.070354 204 204 204 0
3.733159 -1.762881 27.110813 204 204 204 0
3.841993 -1.765240 27.147097 204 204 204 0
3.946001 -1.765316 27.148271 203 203 203 0
4.054314 -1.767265 27.178244 203 203 203 0
4.168302 -1.771528 27.243801 202 202 202 0
4.278887 -1.774173 27.284468 203 203 203 0
4.387399 -1.775852 27.310294 203 203 203 0
4.500956 -1.779448 27.365595 203 203 203 0
4.614894 -1.783027 27.420643 204 204 204 0
4.728997 -1.786510 27.474204 203 203 203 0
4.840763 -1.788978 27.512154 202 202 202 0
4.959557 -1.793882 27.587578 202 202 202 0
5.082136 -1.799923 27.680480 201 201 201 0
5.199620 -1.803950 27.742402 201 201 201 0
5.320690 -1.809035 27.820601 202 202 202 0
5.442389 -1.814130 27.898958 201 201 201 0
5.576012 -1.822927 28.034250 199 199 199 0
5.698374 -1.827780 28.108887 200 200 200 0
5.831417 -1.835817 28.232474 199 199 199 0
5.964093 -1.843447 28.349816 197 197 197 0
6.098472 -1.851322 28.470926 196 196 196 0
6.247104 -1.863171 28.653156 196 196 196 0
6.400169 -1.875912 28.849083 195 195 195 0
6.547834 -1.886664 29.014441 192 192 192 0
6.714704 -1.902500 29.257970 191 191 191 0
6.890099 -1.920192 29.530051 188 188 188 0
7.087934 -1.943466 29.887978 184 184 184 0
7.326147 -1.976897 30.402105 171 171 171 0
7.499624 -1.992088 30.635720 109 109 109 0
-2.015431 -1.896877 30.994715 91 91 91 0
-1.867495 -1.867495 30.514618 115 115 115 0
-1.733368 -1.848926 30.211206 128 128 128 0
-1.602950 -1.831943 29.933703 140 140 140 0
-1.476023 -1.816644 29.683730 148 148 148 0
-1.350269 -1.800359 29.417626 151 151 151 0
-1.230410 -1.789687 29.243259 160 160 160 0
-1.113392 -1.781427 29.108288 163 163 163 0
-0.997729 -1.773740 28.982681 165 165 165 0
-0.880625 -1.761249 28.778583 170 170 170 0
-0.766586 -1.752198 28.630679 173 173 173 0
-0.653852 -1.743607 28.490303 174 174 174 0
-0.542552 -1.736166 28.368725 175 175 175 0
-0.433266 -1.733064 28.318033 179 179 179 0
-0.323953 -1.727751 28.231231 182 182 182 0
-0.215035 -1.720277 28.109095 183 183 183 0
-0.107081 -1.713299 27.995077 183 183 183 0
0.000000 -1.706615 27.885858 184 184 184 0
0.106438 -1.703011 27.826976 187 187 187 0
0.212482 -1.699856 27.775424 189 189 189 0
0.318116 -1.696617 27.722507 189 189 189 0
0.422822 -1.691287 27.635401 189 189 189 0
0.526658 -1.685307 27.537693 190 190 190 0
0.630537 -1.681431 27.474370 191 191 191 0
0.734915 -1.679805 27.447797 193 193 193 0
0.838638 -1.677277 27.406482 194 194 194 0
0.941624 -1.673997 27.352899 195 195 195 0
1.043431 -1.669490 27.279243 195 195 195 0
1.145664 -1.666420 27.229082 196 196 196 0
1.248728 -1.664971 27.205406 196 196 196 0
1.352154 -1.664189 27.192635 196 196 196 0
1.455021 -1.662881 27.171265 197 197 197 0
1.555574 -1.659279 27.112409 199 199 199 0
1.656457 -1.656457 27.066297 199 199 199 0
1.758650 -1.655200 27.045746 200 200 200 0
1.863102 -1.656091 27.060305 201 201 201 0
1.963430 -1.653415 27.016577 201 201 201 0
2.065132 -1.652106 26.995193 201 201 201 0
2.164801 -1.649372 26.950521 201 201 201 0
2.269419 -1.650487 26.968736 201 201 201 0
2.372320 -1.650310 26.965845 202 202 202 0
2.474379 -1.649586 26.954020 202 202 202 0
2.575202 -1.648129 26.930220 202 202 202 0
2.679073 -1.648660 26.938889 203 203 203 0
2.781633 -1.648375 26.934232 202 202 202 0
2.887256 -1.649861 26.958505 203 203 203 0
2.989195 -1.649211 26.947897 202 202 202 0
3.093207 -1.649710 26.956049 203 203 203 0
3.196681 -1.649900 26.959144 203 203 203 0
3.302543 -1.651271 26.981558 203 203 203 0
3.406854 -1.651808 26.990327 204 204 204 0
3.510811 -1.652147 26.995858 204 204 204 0
3.617358 -1.653649 27.020412 204 204 204 0
3.724420 -1.655298 27.047349 204 204 204 0
3.832463 -1.657281 27.079762 204 204 204 0
3.936872 -1.657630 27.085464 204 204 204 0
4.042519 -1.658469 27.099169 204 204 204 0
4.157684 -1.663074 27.174407 204 204 204 0
4.269338 -1.666083 27.223580 203 203 203 0
4.375520 -1.666865 27.236353 204 204 204 0
4.486857 -1.669528 27.279870 203 203 203 0
4.602867 -1.673770 27.349182 204 204 204 0
4.716858 -1.677105 27.403679 204 204 204 0
4.828409 -1.679447 27.441938 203 203 203 0
4.942152 -1.682435 27.490762 202 202 202 0
5.067879 -1.689293 27.602826 202 202 202 0
5.187843 -1.693989 27.679565 201 201 201 0
5.300464 -1.696148 27.714844 202 202 202 0
5.424757 -1.701884 27.808569 202 202 202 0
5.552411 -1.708434 27.915591 201 201 201 0
5.679533 -1.714576 28.015948 199 199 199 0
5.808613 -1.721071 28.122067 199 199 199 0
5.944494 -1.729307 28.256657 200 200 200 0
6.074895 -1.735684 28.360856 197 197 197 0
6.216644 -1.745023 28.513447 195 195 195 0
6.368863 -1.756928 28.707969 195 195 195 0
6.511302 -1.765777 28.852563 194 194 194 0
6.676785 -1.780476 29.092745 192 192 192 0
6.846684 -1.795852 29.343980 190 190 190 0
7.035459 -1.815602 29.666703 186 186 186 0
7.259695 -1.843732 30.126343 182 182 182 0
7.474036 -1.868509 30.531192 155 155 155 0
7.629973 -1.878147 30.688680 79 79 79 0
-2.148576 -1.790480 31.206623 77 77 77 0
-1.998499 -1.763382 30.734320 100 100 100 0
-1.859611 -1.743386 30.385807 125 125 125 0
-1.724317 -1.724317 30.053453 133 133 133 0
-1.595500 -1.709464 29.794579 146 146 146 0
-1.468587 -1.694524 29.534180 149 149 149 0
-1.345041 -1.681301 29.303727 157 157 157 0
-1.224887 -1.670300 29.111988 162 162 162 0
-1.109736 -1.664604 29.012704 163 163 163 0
-0.994021 -1.656701 28.874966 167 167 167 0
-0.878931 -1.647995 28.723229 172 172 172 0
-0.764796 -1.638849 28.563819 173 173 173 0
-0.651559 -1.628897 28.390367 175 175 175 0
-0.541346 -1.624037 28.305658 178 178 178 0
-0.431987 -1.619953 28.234468 182 182 182 0
-0.322936 -1.614679 28.142555 182 182 182 0
-0.214540 -1.609051 28.044462 183 183 183 0
-0.106854 -1.602814 27.935759 184 184 184 0
0.000000 -1.595960 27.816296 186 186 186 0
0.106235 -1.593527 27.773896 189 189 189 0
0.211871 -1.589032 27.695554 189 189 189 0
0.317389 -1.586945 27.659178 190 190 190 0
0.421817 -1.581814 27.569747 190 190 190 0
0.525239 -1.575716 27.463452 191 191 191 0
0.628982 -1.572454 27.406602 193 193 193 0
0.733228 -1.571204 27.384814 194 194 194 0
0.836520 -1.568475 27.337258 195 195 195 0
0.939631 -1.566052 27.295019 196 196 196 0
1.041575 -1.562363 27.230729 195 195 195 0
1.143007 -1.558646 27.165945 196 196 196 0
1.246822 -1.558527 27.163869 196 196 196 0
1.349466 -1.557076 27.138574 198 198 198 0
1.451527 -1.555208 27.106019 199 199 199 0
1.551515 -1.551515 27.041650 199 199 199 0
1.653800 -1.550438 27.022879 200 200 200 0
1.755909 -1.549331 27.003599 200 200 200 0
1.858738 -1.548948 26.996916 200 200 200 0
1.959365 -1.546867 26.960652 200 200 200 0
2.061827 -1.546370 26.951985 201 201 201 0
2.160327 -1.543091 26.894829 202 202 202 0
2.264099 -1.543704 26.905509 202 202 202 0
2.368062 -1.544388 26.917437 202 202 202 0
2.468890 -1.543056 26.894227 203 203 203 0
2.567984 -1.540790 26.854734 202 202 202 0
2.673421 -1.542359 26.882066 203 203 203 0
2.774849 -1.541583 26.868546 203 203 203 0
2.881027 -1.543408 26.900350 203 203 203 0
2.983726 -1.543306 26.898585 203 203 203 0
3.084133 -1.542066 26.876973 203 203 203 0
3.188236 -1.542695 26.887926 204 204 204 0
3.295356 -1.544698 26.922843 204 204 204 0
3.399489 -1.545222 26.931975 203 203 203 0
3.503780 -1.545785 26.941793 204 204 204 0
3.608667 -1.546572 26.955497 204 204 204 0
3.714321 -1.547634 26.974012 205 205 205 0
3.823153 -1.549927 27.013975 204 204 204 0
3.930424 -1.551483 27.041100 204 204 204 0
4.036409 -1.552465 27.058213 205 205 205 0
4.146232 -1.554837 27.099556 204 204 204 0
4.256796 -1.557364 27.143604 204 204 204 0
4.366620 -1.559507 27.180954 204 204 204 0
4.475706 -1.561293 27.212072 203 203 203 0
4.590001 -1.564773 27.272736 204 204 204 0
4.706919 -1.568973 27.345935 203 203 203 0
4.816280 -1.570526 27.373003 203 203 203 0
4.935007 -1.575002 27.451021 203 203 203 0
5.050779 -1.578368 27.509687 203 203 203 0
5.172788 -1.583507 27.599244 202 202 202 0
5.289029 -1.586709 27.655054 202 202 202 0
5.411213 -1.591533 27.739143 202 202 202 0
5.533396 -1.596172 27.819990 202 202 202 0
5.659332 -1.601698 27.916301 200 200 200 0
5.788265 -1.607851 28.023555 200 200 200 0
5.924616 -1.615804 28.162169 200 200 200 0
6.057831 -1.622633 28.281191 198 198 198 0
6.194499 -1.630131 28.411877 196 196 196 0
6.342959 -1.640420 28.591204 196 196 196 0
6.485607 -1.648883 28.738702 196 196 196 0
6.642200 -1.660550 28.942048 193 193 193 0
6.813891 -1.675547 29.203433 192 192 192 0
6.985848 -1.690124 29.457507 189 189 189 0
7.189212 -1.711717 29.833850 186 186 186 0
7.417340 -1.738439 30.299590 175 175 175 0
7.610846 -1.756349 30.611750 118 118 118 0
-2.133788 -1.659613 30.991839 88 88 88 0
-1.984002 -1.633884 30.511369 113 113 113 0
-1.847965 -1.616970 30.195514 126 126 126 0
-1.718406 -1.603845 29.950426 141 141 141 0
-1.589404 -1.589404 29.680753 147 147 147 0
-1.461191 -1.573591 29.385449 152 152 152 0
-1.340560 -1.563986 29.206096 161 161 161 0
-1.221676 -1.554861 29.035679 163 163 163 0
-1.104694 -1.546571 28.880886 163 163 163 0
-0.991476 -1.542296 28.801037 171 171 171 0
-0.876629 -1.534100 28.648000 173 173 173 0
-0.761803 -1.523606 28.452018 173 173 173 0
-0.650391 -1.517580 28.339487 176 176 176 0
-0.539755 -1.511313 28.222471 181 181 181 0
-0.430772 -1.507704 28.155065 182 182 182 0
-0.322196 -1.503582 28.078100 182 182 182 0
-0.213999 -1.497994 27.973751 183 183 183 0
-0.106547 -1.491659 27.855451 185 185 185 0
0.000000 -1.485668 27.743562 188 188 188 0
0.105906 -1.482681 27.687792 189 189 189 0
0.211500 -1.480499 27.647037 189 189 189 0
0.316706 -1.477962 27.599668 189 189 189 0
0.421154 -1.474038 27.526383 190 190 190 0
0.524543 -1.468720 27.427070 193 193 193 0
0.627911 -1.465127 27.359977 194 194 194 0
0.731163 -1.462326 27.307675 195 195 195 0
0.835403 -1.461955 27.300747 195 195 195 0
0.937762 -1.458740 27.240712 195 195 195 0
1.039170 -1.454838 27.167841 196 196 196 0
1.140747 -1.451859 27.112220 196 196 196 0
1.243240 -1.450447 27.085836 198 198 198 0
1.345747 -1.449266 27.063796 200 200 200 0
1.449150 -1.449150 27.061625 200 200 200 0
1.548609 -1.445369 26.991015 199 199 199 0
1.650244 -1.443964 26.964772 200 200 200 0
1.752184 -1.442975 26.946314 200 200 200 0
1.854316 -1.442246 26.932693 200 200 200 0
1.957979 -1.442721 26.941574 201 201 201 0
2.057196 -1.440037 26.891452 200 200 200 0
2.156005 -1.437337 26.841021 202 202 202 0
2.260470 -1.438481 26.862391 201 201 201 0
2.363027 -1.438364 26.860207 202 202 202 0
2.466135 -1.438578 26.864211 202 202 202 0
2.564179 -1.435940 26.814940 204 204 204 0
2.667114 -1.436138 26.818641 203 203 203 0
2.769727 -1.436155 26.818948 203 203 203 0
2.873460 -1.436730 26.829692 204 204 204 0
2.978287 -1.437794 26.849554 204 204 204 0
3.079091 -1.436909 26.833036 204 204 204 0
3.180796 -1.436489 26.825184 204 204 204 0
3.288001 -1.438500 26.862751 204 204 204 0
3.392284 -1.439151 26.874896 204 204 204 0
3.495936 -1.439503 26.881480 204 204 204 0
3.600389 -1.440156 26.893662 205 205 205 0
3.708999 -1.442389 26.935361 204 204 204 0
3.817205 -1.444348 26.971945 205 205 205 0
3.920519 -1.444402 26.972956 205 205 205 0
4.027695 -1.445839 26.999799 205 205 205 0
4.137774 -1.448221 27.044273 205 205 205 0
4.247925 -1.450511 27.087040 205 205 205 0
4.357590 -1.452530 27.124745 205 205 205 0
4.464594 -1.453589 27.144513 204 204 204 0
4.579283 -1.457045 27.209051 204 204 204 0
4.694524 -1.460519 27.273922 204 204 204 0
4.810317 -1.464010 27.339116 204 204 204 0
4.920676 -1.465733 27.371302 203 203 203 0
5.039197 -1.469766 27.446606 204 204 204 0
5.157818 -1.473662 27.519371 203 203 203 0
5.272299 -1.476244 27.567577 202 202 202 0
5.396163 -1.481300 27.661993 202 202 202 0
5.520997 -1.486422 27.757651 202 202 202 0
5.643007 -1.490606 27.835773 202 202 202 0
5.773577 -1.496853 27.952440 199 199 199 0
5.905862 -1.503310 28.073022 200 200 200 0
6.039385 -1.509846 28.195074 199 199 199 0
6.169098 -1.515217 28.295370 199 199 199 0
6.319046 -1.525287 28.483417 197 197 197 0
6.461001 -1.533119 28.629672 196 196 196 0
6.612688 -1.542961 28.813456 195 195 195 0
6.775445 -1.555020 29.038659 192 192 192 0
6.947324 -1.568751 29.295063 191 191 191 0
7.135188 -1.585597 29.609662 187 187 187 0
7.349691 -1.607745 30.023248 183 183 183 0
7.578742 -1.632344 30.482621 157 157 157 0
7.767183 -1.647584 30.767215 83 83 83 0
-2.265664 -1.550191 31.175290 76 76 76 0
-2.117545 -1.529338 30.755916 99 99 99 0
-1.974506 -1.509916 30.365336 122 122 122 0
-1.839455 -1.494557 30.056447 131 131 131 0
-1.708089 -1.480344 29.770623 145 145 145 0
-1.582367 -1.469341 29.549333 148 148 148 0
-1.457055 -1.457055 29.302272 157 157 157 0
-1.335858 -1.447180 29.103666 162 162 162 0
-1.215936 -1.437015 28.899242 163 163 163 0
-1.102125 -1.432763 28.813736 168 168 168 0
-0.988248 -1.427469 28.707278 173 173 173 0
-0.874540 -1.421128 28.579754 173 173 173 0
-0.761158 -1.413579 28.427936 174 174 174 0
-0.648866 -1.405877 28.273040 179 179 179 0
-0.538250 -1.399451 28.143810 181 181 181 0
-0.429240 -1.395030 28.054895 182 182 182 0
-0.321134 -1.391581 27.985549 182 182 182 0
-0.213727 -1.389226 27.938178 184 184 184 0
-0.106347 -1.382510 27.803114 187 187 187 0
0.000000 -1.377105 27.694413 189 189 189 0
0.105702 -1.374123 27.634444 189 189 189 0
0.210890 -1.370784 27.567302 189 189 189 0
0.315891 -1.368859 27.528597 190 190 190 0
0.420049 -1.365158 27.454168 192 192 192 0
0.523384 -1.360798 27.366467 194 194 194 0
0.626475 -1.357363 27.297403 195 195 195 0
0.729192 -1.354214 27.234057 194 194 194 0
0.833798 -1.354921 27.248288 195 195 195 0
0.935510 -1.351293 27.175320 195 195 195 0
1.037053 -1.348169 27.112498 196 196 196 0
1.139285 -1.346428 27.077492 198 198 198 0
1.240652 -1.344040 27.029453 198 198 198 0
1.342695 -1.342695 27.002411 199 199 199 0
1.446424 -1.343108 27.010727 200 200 200 0
1.546750 -1.340517 26.958609 200 200 200 0
1.647733 -1.338783 26.923739 200 200 200 0
1.747603 -1.336402 26.875861 201 201 201 0
1.850428 -1.336420 26.876220 201 201 201 0
1.953505 -1.336609 26.880018 201 201 201 0
2.053132 -1.334536 26.838324 201 201 201 0
2.152670 -1.332605 26.799498 203 203 203 0
2.254815 -1.332390 26.795182 204 204 204 0
2.357927 -1.332741 26.802242 203 203 203 0
2.459710 -1.332343 26.794223 204 204 204 0
2.560994 -1.331717 26.781640 204 204 204 0
2.662073 -1.331036 26.767952 205 205 205 0
2.764546 -1.331078 26.768786 204 204 204 0
2.869573 -1.332302 26.793399 204 204 204 0
2.970454 -1.331583 26.778937 205 205 205 0
3.073014 -1.331639 26.780080 206 206 206 0
3.176030 -1.331884 26.784991 204 204 204 0
3.279387 -1.332251 26.792380 205 205 205 0
3.385686 -1.333755 26.822626 205 205 205 0
3.490852 -1.334738 26.842384 205 205 205 0
3.591754 -1.334080 26.829164 205 205 205 0
3.699988 -1.336107 26.869918 204 204 204 0
3.810017 -1.338654 26.921156 205 205 205 0
3.913509 -1.338832 26.924725 205 205 205 0
4.023689 -1.341230 26.972942 206 206 206 0
4.129420 -1.342061 26.989671 205 205 205 0
4.237093 -1.343468 27.017967 206 206 206 0
4.348946 -1.346102 27.070939 205 205 205 0
4.455337 -1.346962 27.088233 205 205 205 0
4.569540 -1.350091 27.151159 205 205 205 0
4.683061 -1.352884 27.207325 204 204 204 0
4.799146 -1.356280 27.275623 204 204 204 0
4.908512 -1.357674 27.303641 203 203 203 0
5.029027 -1.362028 27.391212 204 204 204 0
5.144253 -1.364802 27.446995 204 204 204 0
5.259592 -1.367494 27.501133 203 203 203 0
5.379203 -1.371169 27.575049 203 203 203 0
5.507235 -1.376809 27.688460 203 203 203 0
5.631244 -1.381249 27.777748 202 202 202 0
5.753367 -1.385070 27.854596 201 201 201 0
5.888199 -1.391756 27.989064 200 200 200 0
6.021605 -1.397873 28.112066 200 200 200 0
6.151384 -1.402947 28.214121 200 200 200 0
6.291657 -1.410199 28.359958 199 199 199 0
6.439883 -1.418957 28.536093 196 196 196 0
6.585995 -1.426965 28.697144 196 196 196 0
6.746334 -1.437743 28.913891 193 193 193 0
6.910586 -1.448994 29.140147 192 192 192 0
7.088126 -1.462629 29.414360 189 189 189 0
7.296346 -1.482070 29.805334 186 186 186 0
7.528808 -1.505762 30.281780 176 176 176 0
7.717794 -1.520171 30.571573 113 113 113 0
-2.259846 -1.427271 31.095228 87 87 87 0
-2.102976 -1.401984 30.544313 112 112 112 0
-1.963885 -1.386272 30.201996 126 126 126 0
-1.831242 -1.373431 29.922254 140 140 140 0
-1.703059 -1.362447 29.682944 147 147 147 0
-1.577350 -1.352015 29.455656 151 151 151 0
-1.452586 -1.340849 29.212391 160 160 160 0
-1.330816 -1.330816 28.993804 161 161 161 0
-1.214115 -1.324489 28.855975 164 164 164 0
-1.099049 -1.318859 28.733307 171 171 171 0
-0.984426 -1.312569 28.596266 173 173 173 0
-0.872552 -1.308828 28.514776 173 173 173 0
-0.758715 -1.300654 28.336687 176 176 176 0
-0.647190 -1.294380 28.200000 181 181 181 0
-0.536636 -1.287926 28.059382 181 181 181 0
-0.428461 -1.285382 28.003971 181 181 181 0
-0.320644 -1.282578 27.942876 183 183 183 0
-0.213110 -1.278660 27.857518 187 187 187 0
-0.106093 -1.273119 27.736792 189 189 189 0
0.000000 -1.269116 27.649575 189 189 189 0
0.105334 -1.264005 27.538227 189 189 189 0
0.210467 -1.262801 27.511999 189 189 189 0
0.315191 -1.260763 27.467605 192 192 192 0
0.419365 -1.258095 27.409470 194 194 194 0
0.522376 -1.253702 27.313767 194 194 194 0
0.625703 -1.251405 27.263735 194 194 194 0
0.728159 -1.248272 27.195464 194 194 194 0
0.831389 -1.247083 27.169574 195 195 195 0
0.935189 -1.246919 27.165986 197 197 197 0
1.035667 -1.242801 27.076264 198 198 198 0
1.137027 -1.240394 27.023824 198 198 198 0
1.237902 -1.237902 26.969542 199 199 199 0
1.340677 -1.237548 26.961833 200 200 200 0
1.443416 -1.237214 26.954549 199 199 199 0
1.544723 -1.235778 26.923275 200 200 200 0
1.642973 -1.232230 26.845970 199 199 199 0
1.744010 -1.231066 26.820613 201 201 201 0
1.846970 -1.231313 26.825994 201 201 201 0
1.949260 -1.231111 26.821600 202 202 202 0
2.049646 -1.229788 26.792759 203 203 203 0
2.149077 -1.228044 26.754769 203 203 203 0
2.250776 -1.227696 26.747190 203 203 203 0
2.354519 -1.228445 26.763504 203 203 203 0
2.456550 -1.228275 26.759806 204 204 204 0
2.558202 -1.227937 26.752436 203 203 203 0
2.656248 -1.225961 26.709381 204 204 204 0
2.761032 -1.227125 26.734754 204 204 204 0
2.864367 -1.227586 26.744787 204 204 204 0
2.968425 -1.228314 26.760651 204 204 204 0
3.068918 -1.227567 26.744388 205 205 205 0
3.169960 -1.227081 26.733799 205 205 205 0
3.275376 -1.228266 26.759607 205 205 205 0
3.380343 -1.229216 26.780301 206 206 206 0
3.484100 -1.229682 26.790467 206 206 206 0
3.585942 -1.229466 26.785749 206 206 206 0
3.692444 -1.230815 26.815136 205 205 205 0
3.800578 -1.232620 26.854461 205 205 205 0
3.907605 -1.233981 26.884107 205 205 205 0
4.013109 -1.234803 26.902021 205 205 205 0
4.118814 -1.235644 26.920350 206 206 206 0
4.230769 -1.238274 26.977642 206 206 206 0
4.340695 -1.240199 27.019579 205 205 205 0
4.448648 -1.241483 27.047562 206 206 206 0
4.558159 -1.243134 27.083537 206 206 206 0
4.672588 -1.246024 27.146483 205 205 205 0
4.785999 -1.248521 27.200902 205 205 205 0
4.898547 -1.250693 27.248212 204 204 204 0
5.017924 -1.254481 27.330743 205 205 205 0
5.134373 -1.257398 27.394282 205 205 205 0
5.250900 -1.260216 27.455684 204 204 204 0
5.367900 -1.263035 27.517107 202 202 202 0
5.493111 -1.267641 27.617452 203 203 203 0
5.619284 -1.272291 27.718752 202 202 202 0
5.741725 -1.275939 27.798232 202 202 202 0
5.870199 -1.280771 27.903502 201 201 201 0
6.000557 -1.285834 28.013807 200 200 200 0
6.136641 -1.291924 28.146503 200 200 200 0
6.271670 -1.297587 28.269866 199 199 199 0
6.418845 -1.305528 28.442870 197 197 197 0
6.565220 -1.313044 28.606624 196 196 196 0
6.717304 -1.321437 28.789473 196 196 196 0
6.884116 -1.332410 29.028531 193 193 193 0
7.052357 -1.343306 29.265927 192 192 192 0
7.250332 -1.359437 29.617370 188 188 188 0
7.469916 -1.379061 30.044911 182 182 182 0
7.698890 -1.399798 30.496692 154 154 154 0
8.964912 -1.605656 34.981609 78 78 78 0
-2.409198 -1.325059 31.492788 71 71 71 0
-2.241729 -1.297843 30.845943 94 94 94 0
-2.092084 -1.278496 30.386114 121 121 121 0
-1.954395 -1.264609 30.056057 130 130 130 0
-1.821697 -1.252416 29.766286 144 144 144 0
-1.694718 -1.242793 29.537572 147 147 147 0
-1.572593 -1.235609 29.366821 156 156 156 0
-1.448172 -1.225377 29.123625 161 161 161 0
-1.327161 -1.216564 28.914184 161 161 161 0
-1.210425 -1.210425 28.768281 168 168 168 0
-1.094857 -1.204343 28.623712 172 172 172 0
-0.983013 -1.201461 28.555213 172 172 172 0
-0.869576 -1.195668 28.417533 174 174 174 0
-0.758029 -1.191188 28.311070 179 179 179 0
-0.646219 -1.184734 28.157671 180 180 180 0
-0.535714 -1.178571 28.011192 181 181 181 0
-0.427201 -1.174802 27.921605 182 182 182 0
-0.319682 -1.172169 27.859038 185 185 185 0
-0.212617 -1.169393 27.793052 188 188 188 0
-0.106010 -1.166113 27.715092 188 188 188 0
0.000000 -1.160856 27.590158 188 188 188 0
0.105100 -1.156097 27.477056 189 189 189 0
0.209979 -1.154883 27.448189 191 191 191 0
0.314384 -1.152741 27.397282 193 193 193 0
0.418673 -1.151351 27.364264 193 193 193 0
0.521831 -1.148028 27.285278 194 194 194 0
0.624111 -1.144203 27.194373 194 194 194 0
0.726703 -1.141962 27.141116 195 195 195 0
0.829801 -1.140977 27.117694 196 196 196 0
0.932722 -1.139993 27.094316 198 198 198 0
1.033918 -1.137309 27.030524 199 199 199 0
1.135616 -1.135616 26.990280 199 199 199 0
1.235837 -1.132850 26.924548 199 199 199 0
1.338394 -1.132487 26.915919 198 198 198 0
1.441611 -1.132694 26.920832 199 199 199 0
1.541496 -1.130430 26.867025 200 200 200 0
1.641023 -1.128203 26.814094 201 201 201 0
1.741027 -1.126547 26.774737 202 202 202 0
1.844079 -1.126937 26.784005 203 203 203 0
1.946990 -1.127205 26.790363 202 202 202 0
2.046904 -1.125797 26.756910 203 203 203 0
2.145819 -1.124000 26.714210 203 203 203 0
2.248737 -1.124368 26.722954 204 204 204 0
2.350905 -1.124346 26.722421 204 204 204 0
2.452549 -1.124085 26.716219 204 204 204 0
2.553119 -1.123372 26.699283 204 204 204 0
2.653641 -1.122694 26.683170 204 204 204 0
2.755568 -1.122639 26.681852 204 204 204 0
2.860492 -1.123765 26.708613 205 205 205 0
2.961428 -1.123300 26.697570 205 205 205 0
3.063705 -1.123358 26.698953 205 205 205 0
3.165897 -1.123383 26.699532 205 205 205 0
3.270323 -1.124174 26.718325 205 205 205 0
3.374721 -1.124907 26.735761 206 206 206 0
3.478608 -1.125432 26.748235 206 206 206 0
3.582544 -1.125942 26.760365 206 206 206 0
3.685275 -1.126056 26.763075 206 206 206 0
3.795036 -1.128254 26.815301 206 206 206 0
3.899249 -1.128730 26.826618 206 206 206 0
4.005376 -1.129722 26.850185 205 205 205 0
4.111966 -1.130791 26.875598 206 206 206 0
4.224411 -1.133379 26.937104 206 206 206 0
4.332199 -1.134624 26.966692 206 206 206 0
4.441091 -1.136093 27.001617 206 206 206 0
4.551711 -1.137928 27.045224 205 205 205 0
4.664277 -1.140156 27.098193 206 206 206 0
4.778058 -1.142579 27.155774 206 206 206 0
4.888942 -1.144220 27.194781 204 204 204 0
5.002563 -1.146421 27.247074 205 205 205 0
5.122997 -1.150060 27.333582 204 204 204 0
5.241069 -1.153035 27.404284 204 204 204 0
5.356895 -1.155409 27.460697 204 204 204 0
5.479667 -1.159160 27.549859 203 203 203 0
5.607355 -1.163791 27.659907 203 203 203 0
5.725158 -1.166236 27.718024 203 203 203 0
5.855860 -1.171172 27.835340 202 202 202 0
5.990349 -1.176676 27.966148 201 201 201 0
6.116967 -1.180467 28.056265 200 200 200 0
6.256395 -1.186558 28.201012 199 199 199 0
6.397372 -1.192730 28.347720 198 198 198 0
6.543461 -1.199635 28.511814 197 197 197 0
6.694720 -1.207245 28.692680 197 197 197 0
6.854835 -1.216180 28.905059 194 194 194 0
7.024501 -1.226500 29.150330 192 192 192 0
7.206861 -1.238679 29.439791 189 189 189 0
7.414621 -1.254782 29.822507 185 185 185 0
7.650645 -1.275107 30.305584 174 174 174 0
7.831204 -1.285720 30.557816 103 103 103 0
-2.387106 -1.193553 31.204003 80 80 80 0
-2.228238 -1.172757 30.660315 104 104 104 0
-2.082600 -1.157000 30.248368 124 124 124 0
-1.944763 -1.143978 29.907927 136 136 136 0
-1.816493 -1.135308 29.681257 146 146 146 0
-1.690134 -1.126756 29.457667 150 150 150 0
-1.567233 -1.119452 29.266731 160 160 160 0
-1.446027 -1.112329 29.080487 161 161 161 0
-1.323936 -1.103280 28.843916 163 163 163 0
-1.206360 -1.096691 28.671648 170 170 170 0
-1.093204 -1.093204 28.580500 172 172 172 0
-0.979182 -1.087980 28.443913 172 172 172 0
-0.868142 -1.085177 28.370650 176 176 176 0
-0.755840 -1.079772 28.229327 181 181 181 0
-0.644854 -1.074757 28.098221 181 181 181 0
-0.534868 -1.069736 27.966958 182 182 182 0
-0.426351 -1.065879 27.866108 183 183 183 0
-0.318980 -1.063266 27.797800 187 187 187 0
-0.212247 -1.061235 27.744706 188 188 188 0
-0.105846 -1.058458 27.672096 188 188 188 0
0.000000 -1.053992 27.555335 188 188 188 0
0.104930 -1.049299 27.432648 190 190 190 0
0.209651 -1.048256 27.405385 193 193 193 0
0.314064 -1.046879 27.369377 194 194 194 0
0.418039 -1.045096 27.322780 193 193 193 0
0.521179 -1.042358 27.251181 194 194 194 0
0.623483 -1.039139 27.167022 194 194 194 0
0.724911 -1.035587 27.074173 196 196 196 0
0.828690 -1.035862 27.081358 198 198 198 0
0.931067 -1.034519 27.046254 198 198 198 0
1.032495 -1.032495 26.993324 199 199 199 0
1.133834 -1.030758 26.947933 199 199 199 0
1.233632 -1.028027 26.876518 199 199 199 0
1.335649 -1.027423 26.860723 198 198 198 0
