ply
format ascii 1.0
element vertex 1089
property float x
property float y
property float z
property uchar red
property uchar green
property uchar blue
property uchar alpha
end_header
-2.869422 -6.956174 22.732596 206 206 206 0
-2.780706 -6.951766 22.718189 206 206 206 0
-2.692847 -6.949283 22.710075 205 205 205 0
-2.608850 -6.956935 22.735080 206 206 206 0
-2.518103 -6.946492 22.700955 206 206 206 0
-2.428430 -6.938371 22.674415 205 205 205 0
-2.340464 -6.934709 22.662448 206 206 206 0
-2.254770 -6.937755 22.672401 206 206 206 0
-2.167148 -6.934874 22.662988 206 206 206 0
-2.079736 -6.932453 22.655076 206 206 206 0
-1.991401 -6.926613 22.635991 207 207 207 0
-1.905761 -6.930042 22.647195 207 207 207 0
-1.816269 -6.919119 22.611499 207 207 207 0
-1.732641 -6.930564 22.648902 206 206 206 0
-1.644004 -6.922124 22.621320 206 206 206 0
-1.556702 -6.918676 22.610053 207 207 207 0
-1.468608 -6.911096 22.585281 207 207 207 0
-1.382499 -6.912497 22.589860 207 207 207 0
-1.295935 -6.911651 22.587096 207 207 207 0
-1.208817 -6.907523 22.573606 207 207 207 0
-1.122002 -6.904625 22.564136 207 207 207 0
-1.035414 -6.902759 22.558037 207 207 207 0
-0.949148 -6.902895 22.558480 208 208 208 0
-0.861885 -6.895084 22.532954 208 208 208 0
-0.775655 -6.894711 22.531737 207 207 207 0
-0.689639 -6.896386 22.537208 207 207 207 0
-0.602964 -6.891018 22.519667 208 208 208 0
-0.516002 -6.880031 22.483762 208 208 208 0
-0.430168 -6.882688 22.492446 207 207 207 0
-0.344222 -6.884442 22.498178 208 208 208 0
-0.258102 -6.882725 22.492567 208 208 208 0
-0.171810 -6.872409 22.458852 207 207 207 0
-0.085905 -6.872394 22.458804 208 208 208 0
0.000000 -6.870934 22.454031 207 207 207 0
0.085810 -6.864811 22.434022 208 208 208 0
0.171659 -6.866370 22.439117 208 208 208 0
0.257608 -6.869548 22.449502 208 208 208 0
0.343254 -6.865077 22.434893 208 208 208 0
0.428428 -6.854840 22.401439 208 208 208 0
0.514029 -6.853718 22.397773 208 208 208 0
0.599945 -6.856510 22.406896 208 208 208 0
0.686133 -6.861331 22.422651 209 209 209 0
0.769789 -6.842571 22.361344 208 208 208 0
0.851111 -6.808890 22.251274 167 167 167 0
-7.095634 -7.006939 23.188348 201 201 201 0
-6.978257 -6.978257 23.093429 201 201 201 0
-6.896981 -6.985404 23.117081 202 202 202 0
-6.804710 -6.981455 23.104013 202 202 202 0
-6.726502 -6.992022 23.138981 201 201 201 0
-6.631839 -6.985538 23.117523 201 201 201 0
-6.546917 -6.989276 23.129895 201 201 201 0
-6.440344 -6.969687 23.065069 201 201 201 0
-6.368051 -6.987168 23.122917 201 201 201 0
-6.262192 -6.967791 23.058795 202 202 202 0
-6.173697 -6.967459 23.057694 202 202 202 0
-6.086259 -6.968325 23.060562 202 202 202 0
-5.988615 -6.957361 23.024279 202 202 202 0
-5.892707 -6.948117 22.993686 202 202 202 0
-5.804396 -6.947686 22.992261 202 202 202 0
-5.712777 -6.943222 22.977485 202 202 202 0
-5.646213 -6.969544 23.064597 203 203 203 0
-5.552800 -6.963035 23.043053 202 202 202 0
-5.450098 -6.944479 22.981647 203 203 203 0
-5.369134 -6.953469 23.011396 203 203 203 0
-5.277046 -6.948111 22.993666 203 203 203 0
-5.180718 -6.936893 22.956543 203 203 203 0
-5.093563 -6.937784 22.959491 203 203 203 0
-5.006815 -6.939270 22.964408 203 203 203 0
-4.914077 -6.932358 22.941535 203 203 203 0
-4.817331 -6.919439 22.898780 203 203 203 0
-4.733997 -6.925662 22.919375 204 204 204 0
-4.647915 -6.928025 22.927194 204 204 204 0
-4.559121 -6.926357 22.921675 203 203 203 0
-4.473850 -6.930081 22.933999 204 204 204 0
-4.378458 -6.917963 22.893896 204 204 204 0
-4.290751 -6.917741 22.893161 204 204 204 0
-4.200619 -6.913518 22.879186 204 204 204 0
-4.115774 -6.918004 22.894031 204 204 204 0
-4.028337 -6.918232 22.894785 204 204 204 0
-3.934529 -6.907284 22.858557 204 204 204 0
-3.842376 -6.898811 22.830517 204 204 204 0
-3.756721 -6.901883 22.840682 205 205 205 0
-3.668118 -6.899555 22.832978 204 204 204 0
-3.580580 -6.899166 22.831691 205 205 205 0
-3.497208 -6.906985 22.857565 205 205 205 0
-3.401663 -6.890547 22.803167 205 205 205 0
-3.309840 -6.880983 22.771518 205 205 205 0
-3.229126 -6.894621 22.816650 205 205 205 0
-3.134745 -6.879025 22.765035 205 205 205 0
-3.053986 -6.893282 22.812220 205 205 205 0
-2.958643 -6.874493 22.750040 205 205 205 0
-2.873937 -6.880031 22.768368 205 205 205 0
-2.783076 -6.870718 22.737546 206 206 206 0
-2.696983 -6.872956 22.744951 205 205 205 0
-2.612012 -6.878297 22.762627 206 206 206 0
-2.521429 -6.868720 22.730933 206 206 206 0
-2.431407 -6.860041 22.702213 206 206 206 0
-2.344265 -6.859146 22.699250 206 206 206 0
-2.256302 -6.855688 22.687807 206 206 206 0
-2.171307 -6.861332 22.706483 206 206 206 0
-2.079398 -6.844684 22.651390 206 206 206 0
-1.991115 -6.839047 22.632737 206 206 206 0
-1.907526 -6.849753 22.668166 206 206 206 0
-1.820569 -6.848807 22.665034 206 206 206 0
-1.732198 -6.842183 22.643114 206 206 206 0
-1.645837 -6.843216 22.646532 206 206 206 0
-1.556720 -6.832271 22.610312 206 206 206 0
-1.469565 -6.829155 22.600000 207 207 207 0
-1.382932 -6.828225 22.596922 206 206 206 0
-1.296922 -6.830458 22.604313 207 207 207 0
-1.211526 -6.836471 22.624210 207 207 207 0
-1.121870 -6.817521 22.561498 207 207 207 0
-1.035188 -6.814986 22.553109 207 207 207 0
-0.948845 -6.814431 22.551274 207 207 207 0
-0.863104 -6.818523 22.564815 207 207 207 0
-0.776513 -6.816063 22.556673 207 207 207 0
-0.689682 -6.810612 22.538636 208 208 208 0
-0.603630 -6.812392 22.544525 207 207 207 0
-0.516766 -6.804091 22.517055 207 207 207 0
-0.430611 -6.803662 22.515634 208 208 208 0
-0.344657 -6.806979 22.526613 207 207 207 0
-0.258200 -6.799259 22.501065 207 207 207 0
-0.172110 -6.798328 22.497983 207 207 207 0
-0.086031 -6.796463 22.491811 207 207 207 0
0.000000 -6.788370 22.465029 208 208 208 0
0.085987 -6.792967 22.480241 208 208 208 0
0.171950 -6.792011 22.477079 208 208 208 0
0.257493 -6.780636 22.439434 208 208 208 0
0.343407 -6.782288 22.444900 208 208 208 0
0.428555 -6.771175 22.408124 209 209 209 0
0.514542 -6.774799 22.420118 208 208 208 0
0.600067 -6.772180 22.411449 209 209 209 0
0.686515 -6.779338 22.435137 208 208 208 0
0.771040 -6.768016 22.397672 207 207 207 0
0.850896 -6.722080 22.245651 165 165 165 0
-7.093465 -6.916128 23.181258 201 201 201 0
-6.977700 -6.889374 23.091585 201 201 201 0
-6.899383 -6.899383 23.125131 202 202 202 0
-6.810828 -6.899280 23.124786 201 201 201 0
-6.716818 -6.893576 23.105667 201 201 201 0
-6.633442 -6.898780 23.123110 201 201 201 0
-6.526187 -6.878954 23.056659 202 202 202 0
-6.438426 -6.879414 23.058201 202 202 202 0
-6.346595 -6.875478 23.045006 202 202 202 0
-6.270534 -6.888756 23.089512 202 202 202 0
-6.177078 -6.883029 23.070318 202 202 202 0
-6.090145 -6.884511 23.075286 203 203 203 0
-5.988615 -6.869294 23.024279 202 202 202 0
-5.918517 -6.890214 23.094399 202 202 202 0
-5.820138 -6.878345 23.054618 202 202 202 0
-5.737722 -6.885266 23.077816 202 202 202 0
-5.635498 -6.868264 23.020827 203 203 203 0
-5.548448 -6.869507 23.024996 203 203 203 0
-5.455286 -6.863102 23.003527 203 203 203 0
-5.360855 -6.854864 22.975914 203 203 203 0
-5.277238 -6.860410 22.994501 202 202 202 0
-5.186566 -6.856816 22.982456 203 203 203 0
-5.100540 -6.859348 22.990942 203 203 203 0
-5.026660 -6.878587 23.055429 203 203 203 0
-4.914658 -6.845417 22.944250 204 204 204 0
-4.828444 -6.847611 22.951604 204 204 204 0
-4.742233 -6.849892 22.959248 204 204 204 0
-4.650709 -6.844440 22.940975 204 204 204 0
-4.567240 -6.850860 22.962493 204 204 204 0
-4.465196 -6.829123 22.889636 204 204 204 0
-4.381587 -6.835276 22.910259 204 204 204 0
-4.289305 -6.827873 22.885446 204 204 204 0
-4.205111 -6.833305 22.903653 204 204 204 0
-4.117760 -6.833729 22.905075 204 204 204 0
-4.023093 -6.821766 22.864979 204 204 204 0
-3.934229 -6.819330 22.856813 204 204 204 0
-3.846659 -6.819077 22.855966 204 204 204 0
-3.762543 -6.825077 22.876076 205 205 205 0
-3.672158 -6.819722 22.858126 205 205 205 0
-3.579571 -6.809915 22.825255 205 205 205 0
-3.493804 -6.812917 22.835317 205 205 205 0
-3.403752 -6.807504 22.817173 205 205 205 0
-3.314026 -6.802475 22.800320 205 205 205 0
-3.231902 -6.813198 22.836261 205 205 205 0
-3.139457 -6.802158 22.799255 205 205 205 0
-3.053566 -6.805090 22.809083 205 205 205 0
-2.960125 -6.790875 22.761438 205 205 205 0
-2.872936 -6.790576 22.760437 205 205 205 0
-2.785975 -6.790814 22.761233 205 205 205 0
-2.699793 -6.793029 22.768656 206 206 206 0
-2.611496 -6.789889 22.758133 205 205 205 0
-2.521193 -6.781141 22.728811 206 206 206 0
-2.433638 -6.779421 22.723045 206 206 206 0
-2.347466 -6.781567 22.730241 206 206 206 0
-2.258852 -6.776555 22.713442 206 206 206 0
-2.171996 -6.776629 22.713688 207 207 207 0
-2.082827 -6.769187 22.688744 206 206 206 0
-1.994485 -6.763905 22.671039 206 206 206 0
-1.908103 -6.765092 22.675018 206 206 206 0
-1.819537 -6.758281 22.652190 206 206 206 0
-1.733867 -6.762082 22.664929 207 207 207 0
-1.646532 -6.759449 22.656105 206 206 206 0
-1.558778 -6.754706 22.640208 207 207 207 0
-1.471514 -6.751654 22.629978 207 207 207 0
-1.384664 -6.750238 22.625234 207 207 207 0
-1.297436 -6.746669 22.613270 207 207 207 0
-1.210230 -6.742710 22.600000 206 206 206 0
-1.123291 -6.739749 22.590075 207 207 207 0
-1.036967 -6.740288 22.591883 207 207 207 0
-0.949525 -6.732996 22.567440 207 207 207 0
-0.863982 -6.739061 22.587770 207 207 207 0
-0.777369 -6.737195 22.581514 207 207 207 0
-0.690312 -6.730542 22.559217 207 207 207 0
-0.603913 -6.729322 22.555126 207 207 207 0
-0.517769 -6.730995 22.560735 207 207 207 0
-0.430718 -6.719198 22.521192 207 207 207 0
-0.344645 -6.720572 22.525797 207 207 207 0
-0.258615 -6.723987 22.537243 207 207 207 0
-0.172247 -6.717617 22.515895 207 207 207 0
-0.086043 -6.711342 22.494863 207 207 207 0
0.000000 -6.712734 22.499527 208 208 208 0
0.086022 -6.709747 22.489515 208 208 208 0
0.171998 -6.707940 22.483459 209 209 209 0
0.257988 -6.707687 22.482610 208 208 208 0
0.343755 -6.703216 22.467625 208 208 208 0
0.429285 -6.696852 22.446296 209 209 209 0
0.515202 -6.697628 22.448896 208 208 208 0
0.600861 -6.695308 22.441121 209 209 209 0
0.686649 -6.694830 22.439517 208 208 208 0
0.771451 -6.685906 22.409604 208 208 208 0
0.851308 -6.640201 22.256412 166 166 166 0
-7.103072 -6.836707 23.212654 201 201 201 0
-7.002155 -6.824885 23.172516 200 200 200 0
-6.920842 -6.832113 23.197058 202 202 202 0
-6.822465 -6.822465 23.164298 201 201 201 0
-6.732850 -6.821440 23.160818 201 201 201 0
-6.646749 -6.823995 23.169494 201 201 201 0
-6.545908 -6.811282 23.126330 201 201 201 0
-6.457568 -6.811407 23.126753 201 201 201 0
-6.357644 -6.799147 23.085129 202 202 202 0
-6.275974 -6.806338 23.109542 202 202 202 0
-6.185385 -6.803923 23.101343 202 202 202 0
-6.104687 -6.812477 23.130386 203 203 203 0
-6.006431 -6.801400 23.092778 202 202 202 0
-5.920796 -6.804497 23.103292 202 202 202 0
-5.814556 -6.783648 23.032504 203 203 203 0
-5.724497 -6.781327 23.024623 203 203 203 0
-5.647913 -6.795146 23.071542 202 202 202 0
-5.556751 -6.791584 23.059450 202 202 202 0
-5.463819 -6.785711 23.039508 203 203 203 0
-5.371370 -6.780253 23.020978 203 203 203 0
-5.277168 -6.772366 22.994198 203 203 203 0
-5.186837 -6.769262 22.983657 203 203 203 0
-5.100497 -6.771349 22.990744 203 203 203 0
-5.022769 -6.785144 23.037581 203 203 203 0
-4.926600 -6.774075 23.000000 203 203 203 0
-4.837192 -6.772069 22.993189 203 203 203 0
-4.742804 -6.762887 22.962014 203 203 203 0
-4.657841 -6.767052 22.976154 204 204 204 0
-4.567280 -6.763088 22.962694 204 204 204 0
-4.477301 -6.759846 22.951688 204 204 204 0
-4.385182 -6.753181 22.929057 204 204 204 0
-4.296202 -6.751174 22.922244 204 204 204 0
-4.207232 -6.749101 22.915205 204 204 204 0
-4.112610 -6.737679 22.876426 204 204 204 0
-4.028343 -6.743096 22.894816 205 205 205 0
-3.937469 -6.737448 22.875639 204 204 204 0
-3.847688 -6.733455 22.862082 204 204 204 0
-3.762606 -6.737690 22.876461 205 205 205 0
-3.678473 -6.743868 22.897438 204 204 204 0
-3.589720 -6.741669 22.889971 205 205 205 0
-3.494814 -6.727516 22.841920 204 204 204 0
-3.407237 -6.727110 22.840538 204 204 204 0
-3.316107 -6.719479 22.814631 205 205 205 0
-3.232212 -6.726496 22.838454 204 204 204 0
-3.143642 -6.723902 22.829648 205 205 205 0
-3.056461 -6.724215 22.830710 205 205 205 0
-2.966842 -6.719024 22.813086 205 205 205 0
-2.871483 -6.700127 22.748925 205 205 205 0
-2.786950 -6.706098 22.769196 206 206 206 0
-2.701843 -6.711030 22.785942 206 206 206 0
-2.613118 -6.707002 22.772268 205 205 205 0
-2.525479 -6.705582 22.767447 206 206 206 0
-2.437164 -6.702201 22.755968 206 206 206 0
-2.346866 -6.692915 22.724439 206 206 206 0
-2.262811 -6.701400 22.753248 205 205 205 0
-2.174596 -6.697755 22.740871 206 206 206 0
-2.084698 -6.688407 22.709131 207 207 207 0
-1.997108 -6.685970 22.700856 206 206 206 0
-1.908564 -6.679973 22.680494 207 207 207 0
-1.821516 -6.678891 22.676823 206 206 206 0
-1.737296 -6.688590 22.709752 207 207 207 0
-1.648692 -6.681542 22.685824 207 207 207 0
-1.560088 -6.673709 22.659229 207 207 207 0
-1.474243 -6.677455 22.671948 207 207 207 0
-1.386512 -6.672591 22.655432 207 207 207 0
-1.300510 -6.675951 22.666839 207 207 207 0
-1.213171 -6.672441 22.654923 207 207 207 0
-1.125717 -6.667708 22.638852 206 206 206 0
-1.038104 -6.661170 22.616654 207 207 207 0
-0.950895 -6.656265 22.600000 207 207 207 0
-0.864431 -6.656117 22.599499 207 207 207 0
-0.778005 -6.656265 22.600000 207 207 207 0
-0.691355 -6.654295 22.593311 207 207 207 0
-0.604155 -6.645708 22.564156 207 207 207 0
-0.517285 -6.638487 22.539638 207 207 207 0
-0.431271 -6.641579 22.550138 207 207 207 0
-0.345010 -6.641444 22.549678 208 208 208 0
-0.258744 -6.641088 22.548470 207 207 207 0
-0.172438 -6.638871 22.540943 208 208 208 0
-0.086104 -6.629970 22.510722 208 208 208 0
0.000000 -6.624118 22.490851 208 208 208 0
0.086064 -6.626954 22.500480 208 208 208 0
0.172153 -6.627888 22.503650 208 208 208 0
0.258103 -6.624654 22.492670 208 208 208 0
0.344100 -6.623928 22.490206 208 208 208 0
0.429876 -6.620096 22.477197 208 208 208 0
0.515143 -6.611000 22.446314 208 208 208 0
0.601852 -6.620368 22.478121 209 209 209 0
0.687398 -6.616209 22.463999 209 209 209 0
0.772322 -6.607641 22.434909 208 208 208 0
0.852433 -6.563732 22.285824 165 165 165 0
-7.093190 -6.738530 23.180359 201 201 201 0
-7.021466 -6.754828 23.236421 200 200 200 0
-6.905461 -6.728398 23.145505 201 201 201 0
-6.833664 -6.744915 23.202322 202 202 202 0
-6.735160 -6.735160 23.168766 201 201 201 0
-6.639145 -6.727667 23.142990 202 202 202 0
-6.573208 -6.750862 23.222780 202 202 202 0
-6.451390 -6.716515 23.104628 202 202 202 0
-6.375655 -6.729858 23.150525 202 202 202 0
-6.278850 -6.721022 23.120131 201 201 201 0
-6.198726 -6.730045 23.151171 202 202 202 0
-6.114500 -6.734811 23.167566 203 203 203 0
-6.000421 -6.706352 23.069668 203 203 203 0
-5.909424 -6.703227 23.058918 202 202 202 0
-5.825793 -6.708489 23.077017 202 202 202 0
-5.743633 -6.715632 23.101589 203 203 203 0
-5.652118 -6.711890 23.088717 203 203 203 0
-5.565616 -6.714076 23.096236 202 202 202 0
-5.469581 -6.704648 23.063804 203 203 203 0
-5.373873 -6.695317 23.031707 202 202 202 0
-5.293660 -6.705303 23.066057 203 203 203 0
-5.196457 -6.693741 23.026284 203 203 203 0
-5.119343 -6.708104 23.075693 203 203 203 0
-5.018355 -6.691140 23.017336 203 203 203 0
-4.930930 -6.691977 23.020215 203 203 203 0
-4.840387 -6.688535 23.008377 203 203 203 0
-4.754761 -6.691885 23.019901 204 204 204 0
-4.660139 -6.682463 22.987489 204 204 204 0
-4.571007 -6.680702 22.981431 204 204 204 0
-4.477325 -6.672092 22.951811 204 204 204 0
-4.387548 -6.669073 22.941427 203 203 203 0
-4.300397 -6.670003 22.944628 204 204 204 0
-4.213153 -6.670825 22.947454 204 204 204 0
-4.128684 -6.676169 22.965839 204 204 204 0
-4.033498 -6.664040 22.924113 204 204 204 0
-3.939824 -6.653926 22.889321 204 204 204 0
-3.849846 -6.649734 22.874903 204 204 204 0
-3.766337 -6.656781 22.899144 204 204 204 0
-3.679289 -6.657760 22.902512 205 205 205 0
-3.590690 -6.655914 22.896160 205 205 205 0
-3.498694 -6.647518 22.867279 205 205 205 0
-3.407974 -6.641180 22.845478 205 205 205 0
-3.322059 -6.644118 22.855584 205 205 205 0
-3.233922 -6.642651 22.850536 205 205 205 0
-3.144522 -6.638435 22.836032 205 205 205 0
-3.058857 -6.642090 22.848608 206 206 206 0
-2.968207 -6.634815 22.823581 205 205 205 0
-2.878362 -6.628956 22.803425 205 205 205 0
-2.792505 -6.632199 22.814582 205 205 205 0
-2.705369 -6.632517 22.815678 205 205 205 0
-2.617796 -6.631750 22.813036 205 205 205 0
-2.529483 -6.628990 22.803541 205 205 205 0
-2.438189 -6.617941 22.765536 206 206 206 0
-2.348951 -6.611861 22.744620 206 206 206 0
-2.262987 -6.614886 22.755025 206 206 206 0
-2.176036 -6.615148 22.755929 206 206 206 0
-2.087098 -6.609145 22.735277 207 207 207 0
-1.998539 -6.603869 22.717127 207 207 207 0
-1.910714 -6.600649 22.706050 206 206 206 0
-1.824622 -6.603394 22.715495 206 206 206 0
-1.737472 -6.602393 22.712051 206 206 206 0
-1.650065 -6.600260 22.704712 206 206 206 0
-1.562272 -6.596260 22.690954 207 207 207 0
-1.473594 -6.587834 22.661968 207 207 207 0
-1.387307 -6.589709 22.668418 206 206 206 0
-1.300356 -6.588469 22.664152 207 207 207 0
-1.213248 -6.586204 22.656362 207 207 207 0
-1.125842 -6.581843 22.641360 207 207 207 0
-1.037800 -6.572735 22.610029 207 207 207 0
-0.951370 -6.573101 22.611286 207 207 207 0
-0.865379 -6.576881 22.624290 207 207 207 0
-0.778557 -6.574485 22.616047 207 207 207 0
-0.691560 -6.569820 22.600000 207 207 207 0
-0.605081 -6.569456 22.598748 208 208 208 0
-0.518908 -6.572829 22.610350 207 207 207 0
-0.431759 -6.562735 22.575628 208 208 208 0
-0.345321 -6.561099 22.570000 208 208 208 0
-0.259060 -6.562858 22.576051 207 207 207 0
-0.172443 -6.552838 22.541582 208 208 208 0
-0.086198 -6.551067 22.535489 207 207 207 0
0.000000 -6.550579 22.533813 208 208 208 0
0.086178 -6.549558 22.530300 208 208 208 0
0.172389 -6.550774 22.534481 208 208 208 0
0.258387 -6.545814 22.517421 208 208 208 0
0.344343 -6.542524 22.506101 208 208 208 0
0.430083 -6.537262 22.488003 208 208 208 0
0.515866 -6.534297 22.477803 208 208 208 0
0.601887 -6.534773 22.479439 209 209 209 0
0.687924 -6.535279 22.481182 208 208 208 0
0.772750 -6.525444 22.447346 208 208 208 0
0.852800 -6.481282 22.295432 163 163 163 0
-7.117448 -6.672608 23.259635 201 201 201 0
-7.028449 -6.672579 23.259533 201 201 201 0
-6.918454 -6.652360 23.189054 201 201 201 0
-6.834030 -6.656523 23.203566 201 201 201 0
-6.738455 -6.649791 23.180100 201 201 201 0
-6.660123 -6.660123 23.216115 201 201 201 0
-6.585960 -6.674960 23.267833 201 201 201 0
-6.473107 -6.650452 23.182404 202 202 202 0
-6.373489 -6.639051 23.142662 202 202 202 0
-6.279526 -6.633303 23.122623 202 202 202 0
-6.197660 -6.640350 23.147191 202 202 202 0
-6.114465 -6.646157 23.167433 202 202 202 0
-6.006403 -6.624710 23.092669 202 202 202 0
-5.924769 -6.632204 23.118793 203 203 203 0
-5.824376 -6.618609 23.071405 203 203 203 0
-5.743831 -6.627497 23.102387 203 203 203 0
-5.661104 -6.634106 23.125424 202 202 202 0
-5.566825 -6.627173 23.101255 202 202 202 0
-5.473111 -6.620699 23.078690 203 203 203 0
-5.382495 -6.617822 23.068659 202 202 202 0
-5.294060 -6.617575 23.067798 203 203 203 0
-5.201741 -6.612383 23.049700 203 203 203 0
-5.112807 -6.611389 23.046234 203 203 203 0
-5.026301 -6.613554 23.053784 203 203 203 0
-4.937987 -6.613375 23.053159 203 203 203 0
-4.837311 -6.596333 22.993753 204 204 204 0
-4.750931 -6.598516 23.001363 204 204 204 0
-4.666133 -6.603018 23.017056 204 204 204 0
-4.568827 -6.589654 22.970473 204 204 204 0
-4.483238 -6.592997 22.982125 203 203 203 0
-4.393055 -6.589583 22.970224 204 204 204 0
-4.302959 -6.586162 22.958300 203 203 203 0
-4.216894 -6.588898 22.967835 204 204 204 0
-4.126028 -6.584087 22.951066 204 204 204 0
-4.034773 -6.578433 22.931358 205 205 205 0
-3.948272 -6.580454 22.938402 205 205 205 0
-3.854031 -6.569371 22.899768 205 205 205 0
-3.769136 -6.574075 22.916164 204 204 204 0
-3.682466 -6.575832 22.922291 204 204 204 0
-3.593850 -6.574115 22.916307 205 205 205 0
-3.508378 -6.578209 22.930576 205 205 205 0
-3.414297 -6.565957 22.887866 204 204 204 0
-3.324633 -6.561776 22.873292 205 205 205 0
-3.235168 -6.557774 22.859343 205 205 205 0
-3.148572 -6.559524 22.865443 205 205 205 0
-3.060578 -6.558381 22.861459 205 205 205 0
-2.970081 -6.551650 22.837995 205 205 205 0
-2.882180 -6.550408 22.833667 205 205 205 0
-2.792319 -6.544497 22.813062 205 205 205 0
-2.706440 -6.547839 22.824711 206 206 206 0
-2.617377 -6.543443 22.809388 206 206 206 0
-2.530214 -6.543657 22.810132 205 205 205 0
-2.441766 -6.540444 22.798933 206 206 206 0
-2.352285 -6.534124 22.776903 206 206 206 0
-2.264952 -6.533515 22.774782 206 206 206 0
-2.176166 -6.528498 22.757290 206 206 206 0
-2.091355 -6.535484 22.781643 206 206 206 0
-2.001268 -6.525874 22.748143 206 206 206 0
-1.912175 -6.518778 22.723410 206 206 206 0
-1.825054 -6.518050 22.720871 207 207 207 0
-1.739159 -6.521846 22.734104 206 206 206 0
-1.652442 -6.522799 22.737425 207 207 207 0
-1.562572 -6.510718 22.695313 206 206 206 0
-1.474497 -6.505133 22.675845 207 207 207 0
-1.387899 -6.505776 22.678088 206 206 206 0
-1.301147 -6.505736 22.677948 207 207 207 0
-1.214134 -6.504289 22.672902 207 207 207 0
-1.125823 -6.495134 22.640989 207 207 207 0
-1.038875 -6.492968 22.633441 206 206 206 0
-0.952323 -6.493108 22.633928 207 207 207 0
-0.866236 -6.496771 22.646698 207 207 207 0
-0.779674 -6.497280 22.648470 207 207 207 0
-0.692405 -6.491297 22.627616 207 207 207 0
-0.605364 -6.486040 22.609291 207 207 207 0
-0.519133 -6.489165 22.620182 208 208 208 0
-0.432167 -6.482502 22.596958 207 207 207 0
-0.345441 -6.477024 22.577860 208 208 208 0
-0.259181 -6.479535 22.586616 208 208 208 0
-0.172702 -6.476308 22.575367 208 208 208 0
-0.086301 -6.472600 22.562441 207 207 207 0
0.000000 -6.469687 22.552285 208 208 208 0
0.086252 -6.468872 22.549444 208 208 208 0
0.172469 -6.467580 22.544940 208 208 208 0
0.258381 -6.459531 22.516884 208 208 208 0
0.344310 -6.455806 22.503897 208 208 208 0
0.430582 -6.458735 22.514110 208 208 208 0
0.516371 -6.454638 22.499828 208 208 208 0
0.602441 -6.454727 22.500139 209 209 209 0
0.688527 -6.454940 22.500879 208 208 208 0
0.773021 -6.441839 22.455211 208 208 208 0
0.853248 -6.399357 22.307127 163 163 163 0
-7.121298 -6.587200 23.272215 201 201 201 0
-7.024096 -6.579533 23.245127 201 201 201 0
-6.923452 -6.568404 23.205806 201 201 201 0
-6.829424 -6.563343 23.187927 201 201 201 0
-6.740858 -6.563467 23.188364 202 202 202 0
-6.664701 -6.575838 23.232074 201 201 201 0
-6.550919 -6.550919 23.144034 202 202 202 0
-6.459365 -6.547850 23.133191 202 202 202 0
-6.378545 -6.555727 23.161021 202 202 202 0
-6.295638 -6.561651 23.181950 202 202 202 0
-6.210700 -6.565598 23.195893 202 202 202 0
-6.117437 -6.560730 23.178695 202 202 202 0
-6.011067 -6.541455 23.110598 202 202 202 0
-5.910073 -6.527543 23.061448 203 203 203 0
-5.832616 -6.539600 23.104044 202 202 202 0
-5.752251 -6.548717 23.136254 202 202 202 0
-5.661104 -6.545651 23.125424 203 203 203 0
-5.563581 -6.535000 23.087795 202 202 202 0
-5.478382 -6.538713 23.100913 202 202 202 0
-5.387030 -6.535085 23.088096 203 203 203 0
-5.293968 -6.529227 23.067398 203 203 203 0
-5.214206 -6.539851 23.104933 203 203 203 0
-5.123303 -6.536628 23.093545 203 203 203 0
-5.018788 -6.515619 23.019323 203 203 203 0
-4.935829 -6.522345 23.043084 203 203 203 0
-4.844075 -6.517483 23.025906 203 203 203 0
-4.755299 -6.516521 23.022509 204 204 204 0
-4.668909 -6.518855 23.030753 204 204 204 0
-4.574700 -6.510150 23.000000 204 204 204 0
-4.477199 -6.496328 22.951168 204 204 204 0
-4.396822 -6.507297 22.989921 204 204 204 0
-4.306734 -6.504047 22.978437 204 204 204 0
-4.218717 -6.503856 22.977763 204 204 204 0
-4.127077 -6.497952 22.956904 204 204 204 0
-4.043901 -6.505406 22.983241 204 204 204 0
-3.949961 -6.495491 22.948211 205 205 205 0
-3.859886 -6.491627 22.934559 205 205 205 0
-3.773879 -6.494582 22.945000 204 204 204 0
-3.684493 -6.491725 22.934906 204 204 204 0
-3.593435 -6.485713 22.913664 204 204 204 0
-3.507149 -6.488225 22.922541 205 205 205 0
-3.418497 -6.486379 22.916019 205 205 205 0
-3.326687 -6.478286 22.887426 205 205 205 0
-3.244087 -6.488175 22.922363 204 204 204 0
-3.152334 -6.479797 22.892765 206 206 206 0
-3.062234 -6.474439 22.873833 205 205 205 0
-2.973695 -6.472160 22.865782 205 205 205 0
-2.882912 -6.464711 22.839466 205 205 205 0
-2.796749 -6.467481 22.849255 205 205 205 0
-2.709215 -6.467159 22.848115 206 206 206 0
-2.619230 -6.460768 22.825535 206 206 206 0
-2.532325 -6.461794 22.829160 206 206 206 0
-2.442482 -6.455132 22.805623 206 206 206 0
-2.353450 -6.450196 22.788184 206 206 206 0
-2.267998 -6.455073 22.805415 206 206 206 0
-2.179228 -6.450515 22.789314 206 206 206 0
-2.090611 -6.446050 22.773540 207 207 207 0
-2.000700 -6.437034 22.741686 206 206 206 0
-1.915007 -6.441388 22.757067 206 206 206 0
-1.829194 -6.445732 22.772414 207 207 207 0
-1.741165 -6.442309 22.760323 206 206 206 0
-1.652549 -6.436243 22.738891 206 206 206 0
-1.563621 -6.428219 22.710543 206 206 206 0
-1.476941 -6.429038 22.713435 206 206 206 0
-1.390155 -6.429468 22.714956 206 206 206 0
-1.303242 -6.429327 22.714457 207 207 207 0
-1.215515 -6.424863 22.698687 207 207 207 0
-1.129099 -6.427179 22.706866 207 207 207 0
-1.040160 -6.414317 22.661427 207 207 207 0
-0.954273 -6.419656 22.680290 207 207 207 0
-0.866707 -6.413628 22.658994 207 207 207 0
-0.780893 -6.420679 22.683904 208 208 208 0
-0.693322 -6.413229 22.657582 207 207 207 0
-0.606521 -6.411794 22.652515 208 208 208 0
-0.519361 -6.405458 22.630128 207 207 207 0
-0.432601 -6.402500 22.619677 207 207 207 0
-0.345747 -6.396322 22.597851 207 207 207 0
-0.259457 -6.399941 22.610639 207 207 207 0
-0.172763 -6.392238 22.583425 207 207 207 0
-0.086343 -6.389401 22.573401 208 208 208 0
0.000000 -6.383571 22.552804 207 207 207 0
0.086288 -6.385342 22.559061 208 208 208 0
0.172623 -6.387052 22.565102 208 208 208 0
0.258638 -6.379744 22.539284 208 208 208 0
0.344755 -6.377959 22.532976 208 208 208 0
0.430478 -6.371077 22.508663 209 209 209 0
0.516793 -6.373778 22.518207 208 208 208 0
0.603257 -6.377293 22.530623 209 209 209 0
0.689297 -6.375997 22.526046 208 208 208 0
0.774416 -6.367420 22.495741 208 208 208 0
0.853929 -6.319077 22.324951 163 163 163 0
-7.119738 -6.496761 23.267116 200 200 200 0
-7.035394 -6.501061 23.282516 201 201 201 0
-6.917503 -6.474073 23.185865 201 201 201 0
-6.859251 -6.502926 23.289197 201 201 201 0
-6.749754 -6.483316 23.218968 201 201 201 0
-6.655755 -6.478268 23.200888 202 202 202 0
-6.566869 -6.478127 23.200384 201 201 201 0
-6.473802 -6.473802 23.184894 201 201 201 0
-6.386784 -6.475489 23.190936 201 201 201 0
-6.295793 -6.473140 23.182522 202 202 202 0
-6.210870 -6.477050 23.196526 202 202 202 0
-6.123486 -6.478470 23.201613 201 201 201 0
-6.018306 -6.460829 23.138432 201 201 201 0
-5.933515 -6.464875 23.152922 203 203 203 0
-5.836070 -6.455047 23.117727 203 203 203 0
-5.747172 -6.454516 23.115824 202 202 202 0
-5.667430 -6.464413 23.151268 202 202 202 0
-5.576896 -6.462118 23.143050 202 202 202 0
-5.478369 -6.450337 23.100859 203 203 203 0
-5.389439 -6.449656 23.098420 203 203 203 0
-5.303432 -6.452509 23.108637 203 203 203 0
-5.213701 -6.450851 23.102697 203 203 203 0
-5.133774 -6.461474 23.140742 203 203 203 0
-5.026810 -6.437844 23.056116 203 203 203 0
-4.933023 -6.430548 23.029986 203 203 203 0
-4.844816 -6.430392 23.029429 204 204 204 0
-4.762793 -6.438590 23.058788 204 204 204 0
-4.675189 -6.439411 23.061728 203 203 203 0
-4.583201 -6.434109 23.042740 204 204 204 0
-4.486725 -6.422175 23.000000 204 204 204 0
-4.394886 -6.416533 22.979794 204 204 204 0
-4.310775 -6.422175 23.000000 205 205 205 0
-4.220856 -6.419218 22.989411 203 203 203 0
-4.133163 -6.419594 22.990756 204 204 204 0
-4.044072 -6.417767 22.984214 204 204 204 0
-3.951791 -6.410684 22.958846 205 205 205 0
-3.866772 -6.415326 22.975470 204 204 204 0
-3.776953 -6.412036 22.963691 204 204 204 0
-3.684110 -6.403334 22.932523 204 204 204 0
-3.598341 -6.406803 22.944947 204 204 204 0
-3.509038 -6.403994 22.934887 205 205 205 0
-3.418820 -6.399330 22.918185 205 205 205 0
-3.327015 -6.391371 22.889681 205 205 205 0
-3.244109 -6.400540 22.922518 206 206 206 0
-3.155432 -6.398514 22.915263 206 206 206 0
-3.066704 -6.396268 22.907217 205 205 205 0
-2.978508 -6.395033 22.902794 205 205 205 0
-2.887279 -6.387010 22.874063 205 205 205 0
-2.797019 -6.380700 22.851464 205 205 205 0
-2.713062 -6.388823 22.880555 205 205 205 0
-2.622265 -6.380845 22.851982 206 206 206 0
-2.534020 -6.378740 22.844445 205 205 205 0
-2.443218 -6.369818 22.812491 206 206 206 0
-2.356960 -6.372522 22.822177 206 206 206 0
-2.270609 -6.375171 22.831662 206 206 206 0
-2.183346 -6.375369 22.832372 205 205 205 0
-2.092745 -6.365432 22.796783 207 207 207 0
-2.004772 -6.362972 22.787973 205 205 205 0
-1.917386 -6.362234 22.785331 207 207 207 0
-1.828759 -6.357113 22.766991 207 207 207 0
-1.743712 -6.364550 22.793624 206 206 206 0
-1.653950 -6.354651 22.758172 207 207 207 0
-1.564888 -6.346490 22.728947 207 207 207 0
-1.478892 -6.350534 22.743430 206 206 206 0
-1.390231 -6.342929 22.716193 207 207 207 0
-1.304881 -6.350423 22.743030 206 206 206 0
-1.216043 -6.340798 22.708561 207 207 207 0
-1.128046 -6.334415 22.685700 206 206 206 0
-1.040633 -6.330516 22.671738 207 207 207 0
-0.954273 -6.332904 22.680290 207 207 207 0
-0.867151 -6.330204 22.670622 206 206 206 0
-0.781176 -6.336202 22.692101 207 207 207 0
-0.693680 -6.329830 22.669282 207 207 207 0
-0.606523 -6.325173 22.652602 207 207 207 0
-0.519276 -6.317858 22.626407 208 208 208 0
-0.432616 -6.316187 22.620419 207 207 207 0
-0.346236 -6.318810 22.629816 208 208 208 0
-0.259647 -6.318085 22.627217 207 207 207 0
-0.173020 -6.315235 22.617013 208 208 208 0
-0.086465 -6.311931 22.605178 208 208 208 0
0.000000 -6.305001 22.580360 207 207 207 0
0.086406 -6.307636 22.589797 208 208 208 0
0.172674 -6.302618 22.571825 207 207 207 0
0.259005 -6.302463 22.571271 208 208 208 0
0.344901 -6.294436 22.542522 208 208 208 0
0.431043 -6.293229 22.538201 208 208 208 0
0.517255 -6.293268 22.538339 208 208 208 0
0.603103 -6.289505 22.524865 208 208 208 0
0.689276 -6.289645 22.525363 208 208 208 0
0.774654 -6.283302 22.502647 207 207 207 0
0.855364 -6.244160 22.362466 160 160 160 0
0.943955 -6.264431 22.435065 76 76 76 0
-7.126924 -6.414232 23.290602 201 201 201 0
-7.027416 -6.404734 23.256114 201 201 201 0
-6.942486 -6.408449 23.269603 201 201 201 0
-6.855724 -6.410547 23.277222 201 201 201 0
-6.754565 -6.399062 23.235518 202 202 202 0
-6.666936 -6.400259 23.239866 202 202 202 0
-6.567354 -6.389858 23.202099 202 202 202 0
-6.472267 -6.383606 23.179397 201 201 201 0
-6.378788 -6.378788 23.161904 201 201 201 0
-6.300226 -6.388962 23.198845 202 202 202 0
-6.212436 -6.389934 23.202375 202 202 202 0
-6.127248 -6.393650 23.215868 202 202 202 0
-6.030521 -6.385257 23.185393 202 202 202 0
-5.931067 -6.373683 23.143368 201 201 201 0
-5.844318 -6.375620 23.150399 202 202 202 0
-5.762605 -6.383193 23.177899 202 202 202 0
-5.671424 -6.380352 23.167583 202 202 202 0
-5.584807 -6.382636 23.175877 203 203 203 0
-5.486913 -6.371899 23.136887 203 203 203 0
-5.396971 -6.370195 23.130701 203 203 203 0
-5.315391 -6.378469 23.160743 203 203 203 0
-5.217592 -6.367231 23.119938 203 203 203 0
-5.129262 -6.367360 23.120407 203 203 203 0
-5.026894 -6.349761 23.056503 203 203 203 0
-4.946802 -6.360175 23.094316 204 204 204 0
-4.855744 -6.356610 23.081373 204 204 204 0
-4.767526 -6.356702 23.081705 204 204 204 0
-4.681278 -6.359472 23.091765 204 204 204 0
-4.584977 -6.348430 23.051672 203 203 203 0
-4.493900 -6.344329 23.036779 204 204 204 0
-4.397131 -6.331869 22.991534 204 204 204 0
-4.310775 -6.334200 23.000000 203 203 203 0
-4.223634 -6.335451 23.004541 204 204 204 0
-4.133212 -6.331729 22.991029 204 204 204 0
-4.046742 -6.334030 22.999384 204 204 204 0
-3.959951 -6.335922 23.006253 205 205 205 0
-3.870900 -6.334200 23.000000 204 204 204 0
-3.783087 -6.334472 23.000987 205 205 205 0
-3.689752 -6.325288 22.967641 204 204 204 0
-3.604653 -6.330122 22.985193 204 204 204 0
-3.510644 -6.319160 22.945387 205 205 205 0
-3.417836 -6.309852 22.911589 205 205 205 0
-3.331103 -6.311564 22.917808 205 205 205 0
-3.244579 -6.313776 22.925840 205 205 205 0
-3.157680 -6.315361 22.931593 205 205 205 0
-3.067469 -6.310221 22.912931 206 206 206 0
-2.978211 -6.306799 22.900506 206 206 206 0
-2.888371 -6.301901 22.882720 205 205 205 0
-2.801816 -6.304086 22.890652 206 206 206 0
-2.711448 -6.297557 22.866946 205 205 205 0
-2.625013 -6.300031 22.875929 205 205 205 0
-2.535697 -6.295524 22.859563 206 206 206 0
-2.444024 -6.284634 22.820023 206 206 206 0
-2.357020 -6.285386 22.822754 206 206 206 0
-2.271186 -6.289440 22.837471 206 206 206 0
-2.184677 -6.291869 22.846291 206 206 206 0
-2.094418 -6.283255 22.815015 206 206 206 0
-2.005311 -6.277495 22.794099 206 206 206 0
-1.917322 -6.274873 22.784579 206 206 206 0
-1.829351 -6.272062 22.774371 206 206 206 0
-1.743271 -6.275775 22.787853 207 207 207 0
-1.654584 -6.270004 22.766899 206 206 206 0
-1.567075 -6.268301 22.760716 206 206 206 0
-1.478751 -6.262945 22.741266 207 207 207 0
-1.391582 -6.262117 22.738262 207 207 207 0
-1.306140 -6.269471 22.764964 207 207 207 0
-1.218462 -6.266375 22.753722 207 207 207 0
-1.129793 -6.257315 22.720825 207 207 207 0
-1.041347 -6.248082 22.687297 207 207 207 0
-0.955136 -6.251802 22.700808 207 207 207 0
-0.868211 -6.251116 22.698314 207 207 207 0
-0.780669 -6.245350 22.677380 207 207 207 0
-0.694379 -6.249413 22.692133 207 207 207 0
-0.606724 -6.240594 22.660111 208 208 208 0
-0.520244 -6.242934 22.668605 207 207 207 0
-0.433236 -6.238598 22.652863 208 208 208 0
-0.346513 -6.237228 22.647888 207 207 207 0
-0.259911 -6.237864 22.650195 207 207 207 0
-0.172956 -6.226401 22.608574 208 208 208 0
-0.086547 -6.231391 22.626694 207 207 207 0
0.000000 -6.223381 22.597608 208 208 208 0
0.086455 -6.224745 22.602558 208 208 208 0
0.172851 -6.222644 22.594930 207 207 207 0
0.259089 -6.218125 22.578523 209 209 209 0
0.345296 -6.215327 22.568363 208 208 208 0
0.431549 -6.214303 22.564643 209 209 209 0
0.517737 -6.212842 22.559338 208 208 208 0
0.604164 -6.214262 22.564496 209 209 209 0
0.689960 -6.209638 22.547706 208 208 208 0
0.775912 -6.207297 22.539204 207 207 207 0
0.855421 -6.159030 22.363945 158 158 158 0
1.220404 -7.988097 29.005437 77 77 77 0
-7.136663 -6.333789 23.322429 201 201 201 0
-7.044034 -6.330714 23.311108 201 201 201 0
-6.938993 -6.316263 23.257896 201 201 201 0
-6.854396 -6.320288 23.272715 201 201 201 0
-6.758618 -6.313972 23.249458 201 201 201 0
-6.673551 -6.317628 23.262922 201 201 201 0
-6.582785 -6.315915 23.256616 201 201 201 0
-6.495009 -6.317064 23.260845 201 201 201 0
-6.400704 -6.311805 23.241481 202 202 202 0
-6.307811 -6.307811 23.226775 202 202 202 0
-6.222099 -6.310986 23.238466 202 202 202 0
-6.127248 -6.304849 23.215868 202 202 202 0
-6.021306 -6.286952 23.149965 202 202 202 0
-5.944647 -6.299551 23.196358 202 202 202 0
-5.845954 -6.288829 23.156877 202 202 202 0
-5.761243 -6.293050 23.172421 203 203 203 0
-5.673733 -6.294298 23.177015 203 203 203 0
-5.598165 -6.309043 23.231311 203 203 203 0
-5.483012 -6.278934 23.120441 203 203 203 0
-5.400560 -6.285897 23.146082 203 203 203 0
-5.316115 -6.290736 23.163899 202 202 202 0
-5.226290 -6.289264 23.158481 203 203 203 0
-5.138669 -6.290439 23.162806 203 203 203 0
-5.043245 -6.281936 23.131497 203 203 203 0
-4.944204 -6.268544 23.082185 203 203 203 0
-4.857956 -6.271180 23.091891 203 203 203 0
-4.776129 -6.279725 23.123354 203 203 203 0
-4.686114 -6.277624 23.115619 203 203 203 0
-4.591331 -6.268933 23.083617 204 204 204 0
-4.500046 -6.264769 23.068285 203 203 203 0
-4.407702 -6.258937 23.046810 204 204 204 0
-4.317936 -6.256600 23.038205 203 203 203 0
-4.231169 -6.258604 23.045584 204 204 204 0
-4.145141 -6.261809 23.057383 204 204 204 0
-4.056893 -6.261725 23.057076 204 204 204 0
-3.961594 -6.250514 23.015794 204 204 204 0
-3.873702 -6.250747 23.016651 205 205 205 0
-3.786039 -6.251367 23.018933 204 204 204 0
-3.699980 -6.254728 23.031309 205 205 205 0
-3.605816 -6.244218 22.992609 204 204 204 0
-3.512909 -6.235413 22.960188 204 204 204 0
-3.422007 -6.229807 22.939545 205 205 205 0
-3.333259 -6.227931 22.932637 205 205 205 0
-3.250714 -6.237856 22.969184 204 204 204 0
-3.162941 -6.238023 22.969800 205 205 205 0
-3.069094 -6.225876 22.925071 205 205 205 0
-2.976998 -6.216672 22.891179 206 206 206 0
-2.887014 -6.211454 22.871965 205 205 205 0
-2.804321 -6.222086 22.911116 205 205 205 0
-2.717534 -6.224030 22.918273 206 206 206 0
-2.628699 -6.221254 22.908050 206 206 206 0
-2.534958 -6.206275 22.852896 206 206 206 0
-2.449613 -6.211518 22.872201 206 206 206 0
-2.360669 -6.207686 22.858089 206 206 206 0
-2.275366 -6.213498 22.879493 206 206 206 0
-2.184363 -6.203590 22.843010 206 206 206 0
-2.096322 -6.201618 22.835749 206 206 206 0
-2.006280 -6.193300 22.805119 206 206 206 0
-1.920833 -6.199051 22.826296 207 207 207 0
-1.831834 -6.193343 22.805278 206 206 206 0
-1.745860 -6.197804 22.821702 206 206 206 0
-1.656961 -6.191802 22.799603 206 206 206 0
-1.569541 -6.190965 22.796522 206 206 206 0
-1.480592 -6.183649 22.769579 207 207 207 0
-1.394437 -6.187813 22.784915 206 206 206 0
-1.306103 -6.182223 22.764331 207 207 207 0
-1.219755 -6.185898 22.777864 207 207 207 0
-1.131212 -6.178159 22.749367 207 207 207 0
-1.043186 -6.172185 22.727367 206 206 206 0
-0.956327 -6.172656 22.729104 207 207 207 0
-0.868643 -6.167364 22.709616 207 207 207 0
-0.781735 -6.167022 22.708359 207 207 207 0
-0.694686 -6.165336 22.702150 207 207 207 0
-0.607532 -6.162110 22.690269 207 207 207 0
-0.520515 -6.159431 22.680405 208 208 208 0
-0.433639 -6.157669 22.673919 207 207 207 0
-0.346992 -6.159113 22.679234 208 208 208 0
-0.259945 -6.152035 22.653171 208 208 208 0
-0.173343 -6.153680 22.659227 208 208 208 0
-0.086582 -6.147349 22.635915 208 208 208 0
0.000000 -6.148772 22.641158 208 208 208 0
0.086626 -6.150436 22.647283 207 207 207 0
0.172970 -6.140429 22.610435 208 208 208 0
0.259523 -6.142050 22.616404 208 208 208 0
0.345404 -6.130928 22.575452 208 208 208 0
0.431751 -6.130867 22.575226 207 207 207 0
0.517992 -6.129567 22.570437 208 208 208 0
0.604344 -6.129775 22.571204 208 208 208 0
0.690486 -6.128065 22.564910 208 208 208 0
0.776605 -6.126551 22.559333 207 207 207 0
0.855531 -6.074273 22.366835 160 160 160 0
-7.149051 -6.255420 23.362912 200 200 200 0
-7.054180 -6.250539 23.344684 201 201 201 0
-6.949391 -6.236633 23.292747 202 202 202 0
-6.849918 -6.227198 23.257510 201 201 201 0
-6.761022 -6.227257 23.257728 201 201 201 0
-6.684212 -6.238598 23.300085 201 201 201 0
-6.591411 -6.235119 23.287091 201 201 201 0
-6.492493 -6.225679 23.251834 202 202 202 0
-6.407252 -6.229273 23.265258 202 202 202 0
-6.312579 -6.223669 23.244329 202 202 202 0
-6.231152 -6.231152 23.272275 202 202 202 0
-6.138935 -6.227905 23.260150 202 202 202 0
-6.036882 -6.214437 23.209850 202 202 202 0
-5.948841 -6.215207 23.212726 202 202 202 0
-5.859821 -6.214961 23.211807 202 202 202 0
-5.782058 -6.226832 23.256141 202 202 202 0
-5.682748 -6.215506 23.213841 202 202 202 0
-5.588935 -6.209927 23.193006 203 203 203 0
-5.493260 -6.202068 23.163652 203 203 203 0
-5.409491 -6.207613 23.184362 202 202 202 0
-5.312329 -6.197717 23.147403 202 202 202 0
-5.225483 -6.199725 23.154903 203 203 203 0
-5.139098 -6.202360 23.164742 203 203 203 0
-5.045841 -6.196647 23.143407 203 203 203 0
-4.958376 -6.197970 23.148349 204 204 204 0
-4.860116 -6.185602 23.102156 203 203 203 0
-4.782767 -6.199884 23.155494 203 203 203 0
-4.689147 -6.193214 23.130583 204 204 204 0
-4.587564 -6.175567 23.064677 203 203 203 0
-4.506376 -6.185222 23.100736 204 204 204 0
-4.409141 -6.172798 23.054334 204 204 204 0
-4.325325 -6.179036 23.077633 204 204 204 0
-4.232108 -6.171824 23.050698 204 204 204 0
-4.141573 -6.168301 23.037537 203 203 203 0
-4.052534 -6.166899 23.032302 204 204 204 0
-3.966183 -6.169618 23.042458 205 205 205 0
-3.867080 -6.152172 22.977301 205 205 205 0
-3.785689 -6.162750 23.016805 205 205 205 0
-3.699030 -6.165051 23.025399 204 204 204 0
-3.606441 -6.157338 22.996594 204 204 204 0
-3.516592 -6.154036 22.984260 204 204 204 0
-3.425772 -6.148822 22.964789 205 205 205 0
-3.340480 -6.153515 22.982315 205 205 205 0
-3.250001 -6.148650 22.964145 205 205 205 0
-3.163017 -6.150310 22.970347 205 205 205 0
-3.075510 -6.151019 22.972994 205 205 205 0
-2.985823 -6.147282 22.959036 205 205 205 0
-2.894120 -6.139042 22.928263 206 206 206 0
-2.806150 -6.138453 22.926061 206 206 206 0
-2.720813 -6.143771 22.945923 205 205 205 0
-2.629853 -6.136323 22.918107 205 205 205 0
-2.537597 -6.125233 22.876687 206 206 206 0
-2.450008 -6.125019 22.875888 206 206 206 0
-2.362267 -6.124397 22.873564 206 206 206 0
-2.275625 -6.126682 22.882099 206 206 206 0
-2.187810 -6.125868 22.879059 206 206 206 0
-2.099329 -6.123043 22.868510 206 206 206 0
-2.008584 -6.113082 22.831303 206 206 206 0
-1.921303 -6.113235 22.831878 206 206 206 0
-1.833529 -6.111762 22.826375 206 206 206 0
-1.746802 -6.113807 22.834014 207 207 207 0
-1.658250 -6.109343 22.817339 207 207 207 0
-1.569429 -6.103335 22.794903 206 206 206 0
-1.481983 -6.102282 22.790970 206 206 206 0
-1.394811 -6.102299 22.791033 207 207 207 0
-1.306996 -6.099313 22.779880 206 206 206 0
-1.220461 -6.102306 22.791059 206 206 206 0
-1.132199 -6.096456 22.769209 207 207 207 0
-1.042962 -6.083942 22.722474 207 207 207 0
-0.957947 -6.096023 22.767594 207 207 207 0
-0.869565 -6.086952 22.733714 207 207 207 0
-0.782943 -6.089558 22.743447 207 207 207 0
-0.695147 -6.082535 22.717216 207 207 207 0
-0.607796 -6.077955 22.700112 207 207 207 0
-0.520675 -6.074543 22.687369 207 207 207 0
-0.433660 -6.071237 22.675023 208 208 208 0
-0.347269 -6.077207 22.697319 208 208 208 0
-0.260405 -6.076115 22.693239 207 207 207 0
-0.173397 -6.068878 22.666212 208 208 208 0
-0.086618 -6.063277 22.645293 207 207 207 0
0.000000 -6.064845 22.651149 208 208 208 0
0.086627 -6.063889 22.647578 209 209 209 0
0.173132 -6.059636 22.631694 208 208 208 0
0.259616 -6.057697 22.624450 208 208 208 0
0.345910 -6.053421 22.608483 208 208 208 0
0.432350 -6.052903 22.606546 208 208 208 0
0.518440 -6.048472 22.589999 209 209 209 0
0.604896 -6.048961 22.591824 208 208 208 0
0.690888 -6.045274 22.578055 208 208 208 0
0.776919 -6.042704 22.568454 207 207 207 0
0.856145 -5.993017 22.382885 159 159 159 0
-7.138467 -6.156928 23.328324 201 201 201 0
-7.041925 -6.150542 23.304128 201 201 201 0
-6.951284 -6.149213 23.299091 201 201 201 0
-6.872850 -6.158788 23.335371 201 201 201 0
-6.795000 -6.169145 23.374614 201 201 201 0
-6.694964 -6.159367 23.337567 201 201 201 0
-6.593759 -6.148235 23.295386 202 202 202 0
-6.494990 -6.139101 23.260777 202 202 202 0
-6.409222 -6.142171 23.272410 201 201 201 0
-6.312262 -6.134451 23.243161 202 202 202 0
-6.224612 -6.135689 23.247850 201 201 201 0
-6.145235 -6.145235 23.284021 202 202 202 0
-6.042451 -6.131311 23.231261 202 202 202 0
-5.950134 -6.127750 23.217770 202 202 202 0
-5.864349 -6.130910 23.229743 202 202 202 0
-5.779786 -6.135465 23.247003 203 203 203 0
-5.695166 -6.140101 23.264567 203 203 203 0
-5.593497 -6.126211 23.211941 203 203 203 0
-5.495930 -6.116438 23.174909 203 203 203 0
-5.406660 -6.115730 23.172226 203 203 203 0
-5.316029 -6.113433 23.163524 202 202 202 0
-5.227183 -6.113146 23.162436 203 203 203 0
-5.142250 -6.117504 23.178948 204 204 204 0
-5.051567 -6.115054 23.169667 204 204 204 0
-4.962077 -6.113987 23.165624 204 204 204 0
-4.862399 -6.100100 23.113006 203 203 203 0
-4.780756 -6.108744 23.145757 204 204 204 0
-4.689921 -6.105746 23.134398 204 204 204 0
-4.592236 -6.093543 23.088163 204 204 204 0
-4.506385 -6.096873 23.100780 204 204 204 0
-4.417635 -6.096336 23.098744 204 204 204 0
-4.329253 -6.096295 23.098587 204 204 204 0
-4.238986 -6.093542 23.088158 203 203 203 0
-4.145681 -6.086213 23.060388 204 204 204 0
-4.054647 -6.081971 23.044315 204 204 204 0
-3.973516 -6.092724 23.085059 204 204 204 0
-3.877207 -6.080165 23.037473 204 204 204 0
-3.794205 -6.088375 23.068582 204 204 204 0
-3.698023 -6.075323 23.019127 205 205 205 0
-3.611751 -6.078313 23.030456 205 205 205 0
-3.519489 -6.071119 23.003196 205 205 205 0
-3.428480 -6.065772 22.982938 205 205 205 0
-3.340507 -6.065657 22.982501 205 205 205 0
-3.252813 -6.066057 22.984020 205 205 205 0
-3.162039 -6.060576 22.963249 205 205 205 0
-3.075781 -6.063683 22.975025 205 205 205 0
-2.984239 -6.056251 22.946862 205 205 205 0
-2.895098 -6.053387 22.936012 205 205 205 0
-2.806027 -6.050496 22.925059 205 205 205 0
-2.719868 -6.053900 22.937957 205 205 205 0
-2.632731 -6.055282 22.943193 205 205 205 0
-2.541417 -6.046821 22.911133 206 206 206 0
-2.453334 -6.045717 22.906951 206 206 206 0
-2.365391 -6.044889 22.903814 205 205 205 0
-2.278214 -6.046030 22.908137 206 206 206 0
-2.188438 -6.040089 22.885627 206 206 206 0
-2.101309 -6.041262 22.890072 207 207 207 0
-2.009754 -6.029261 22.844599 206 206 206 0
-1.921656 -6.027013 22.836083 207 207 207 0
-1.835672 -6.031493 22.853056 206 206 206 0
-1.748159 -6.031149 22.851752 206 206 206 0
-1.659719 -6.027399 22.837545 207 207 207 0
-1.571947 -6.025796 22.831471 207 207 207 0
-1.482834 -6.018561 22.804057 207 207 207 0
-1.395908 -6.019853 22.808954 207 207 207 0
-1.309090 -6.021816 22.816392 207 207 207 0
-1.220621 -6.015919 22.794048 207 207 207 0
-1.131935 -6.007962 22.763899 207 207 207 0
-1.044233 -6.004341 22.750178 207 207 207 0
-0.957776 -6.007870 22.763552 207 207 207 0
-0.870763 -6.008264 22.765043 207 207 207 0
-0.783595 -6.007562 22.762383 207 207 207 0
-0.695562 -5.999223 22.730787 207 207 207 0
-0.607996 -5.993103 22.707598 207 207 207 0
-0.521255 -5.994434 22.712643 207 207 207 0
-0.434508 -5.996204 22.719347 207 207 207 0
-0.347421 -5.993009 22.707242 208 208 208 0
-0.260590 -5.993559 22.709325 208 208 208 0
-0.173600 -5.989199 22.692806 208 208 208 0
-0.086760 -5.986467 22.682454 208 208 208 0
0.000000 -5.986600 22.682959 208 208 208 0
0.086655 -5.979215 22.654978 209 209 209 0
0.173461 -5.984421 22.674703 207 207 207 0
0.259798 -5.975363 22.640384 208 208 208 0
0.346130 -5.970750 22.622904 208 208 208 0
0.432540 -5.969052 22.616470 209 209 209 0
0.519386 -5.972944 22.631217 208 208 208 0
0.605318 -5.966706 22.607583 209 209 209 0
0.692483 -5.972668 22.630172 208 208 208 0
0.777485 -5.960717 22.584889 207 207 207 0
0.857340 -5.915647 22.414122 156 156 156 0
-7.149400 -6.076990 23.364051 201 201 201 0
-7.042433 -6.061841 23.305808 201 201 201 0
-6.953910 -6.062383 23.307894 201 201 201 0
-6.871052 -6.067942 23.329267 202 202 202 0
-6.785314 -6.071071 23.341295 201 201 201 0
-6.698482 -6.073290 23.349828 201 201 201 0
-6.595365 -6.060606 23.301061 201 201 201 0
-6.503947 -6.058471 23.292854 202 202 202 0
-6.407777 -6.051789 23.267164 202 202 202 0
-6.329365 -6.061927 23.306139 202 202 202 0
-6.244629 -6.066211 23.322611 202 202 202 0
-6.156498 -6.067274 23.326697 201 201 201 0
-6.056148 -6.056148 23.283921 202 202 202 0
-5.956098 -6.044995 23.241043 202 202 202 0
-5.878500 -6.056636 23.285798 202 202 202 0
-5.788273 -6.055425 23.281140 202 202 202 0
-5.690666 -6.046332 23.246184 203 203 203 0
-5.598216 -6.042519 23.231523 203 203 203 0
-5.507897 -6.040920 23.225373 203 203 203 0
-5.403240 -6.023284 23.157569 203 203 203 0
-5.324268 -6.034170 23.199424 203 203 203 0
-5.232669 -6.030873 23.186746 203 203 203 0
-5.145220 -6.032327 23.192337 203 203 203 0
-5.053921 -6.029239 23.180463 204 204 204 0
-4.962114 -6.025424 23.165796 203 203 203 0
-4.868684 -6.019464 23.142882 203 203 203 0
-4.782720 -6.022685 23.155266 204 204 204 0
-4.694776 -6.023487 23.158349 204 204 204 0
-4.602839 -6.019097 23.141473 204 204 204 0
-4.508462 -6.011283 23.111430 204 204 204 0
-4.416412 -6.006321 23.092352 204 204 204 0
-4.328680 -6.007148 23.095532 204 204 204 0
-4.246541 -6.015933 23.129308 203 203 203 0
-4.153485 -6.009297 23.103795 204 204 204 0
-4.057721 -5.998370 23.061782 205 205 205 0
-3.971614 -6.001550 23.074009 204 204 204 0
-3.879470 -5.995545 23.050923 204 204 204 0
-3.794396 -6.000440 23.069741 204 204 204 0
-3.703993 -5.996941 23.056291 205 205 205 0
-3.613905 -5.993794 23.044192 205 205 205 0
-3.523050 -5.989185 23.026471 205 205 205 0
-3.432376 -5.984656 23.009059 205 205 205 0
