ply
format ascii 1.0
element vertex 1104
property float x
property float y
property float z
property uchar red
property uchar green
property uchar blue
property uchar alpha
end_header
1.466307 -4.476096 20.176227 207 207 207 0
1.543108 -4.475014 20.171351 207 207 207 0
1.621089 -4.477293 20.181625 207 207 207 0
1.698967 -4.479095 20.189745 208 208 208 0
1.775556 -4.477488 20.182503 208 208 208 0
1.852831 -4.477675 20.183342 208 208 208 0
1.929132 -4.475586 20.173929 208 208 208 0
2.009696 -4.483168 20.208104 209 209 209 0
2.086200 -4.481467 20.200439 209 209 209 0
2.163737 -4.482027 20.202961 209 209 209 0
2.242091 -4.484181 20.212672 209 209 209 0
2.319856 -4.485056 20.216613 209 209 209 0
2.397725 -4.486065 20.221164 210 210 210 0
2.478625 -4.492508 20.250206 209 209 209 0
2.558597 -4.496928 20.270129 209 209 209 0
2.636148 -4.496958 20.270262 210 210 210 0
2.714895 -4.498969 20.279327 210 210 210 0
2.796264 -4.505093 20.306932 210 210 210 0
2.877815 -4.511169 20.334319 210 210 210 0
2.961607 -4.520347 20.375690 209 209 209 0
3.040620 -4.521947 20.382905 209 209 209 0
3.121536 -4.526227 20.402197 209 209 209 0
3.204571 -4.533295 20.434056 209 209 209 0
3.292340 -4.546565 20.493871 209 209 209 0
3.374878 -4.552161 20.519093 210 210 210 0
3.458751 -4.559263 20.551105 209 209 209 0
3.542489 -4.565875 20.580910 209 209 209 0
3.630776 -4.577935 20.635271 209 209 209 0
3.717430 -4.587467 20.678239 209 209 209 0
3.799412 -4.590956 20.693964 209 209 209 0
3.888862 -4.603143 20.748898 208 208 208 0
3.977508 -4.613909 20.797425 207 207 207 0
4.075680 -4.635087 20.892888 208 208 208 0
4.163383 -4.643774 20.932043 208 208 208 0
4.254258 -4.655603 20.985364 208 208 208 0
4.347083 -4.669090 21.046155 207 207 207 0
4.445047 -4.687504 21.129158 207 207 207 0
4.541664 -4.703866 21.202911 207 207 207 0
4.634472 -4.715779 21.256609 205 205 205 0
4.736547 -4.736547 21.350224 204 204 204 0
4.842554 -4.760477 21.458090 205 205 205 0
4.945021 -4.780187 21.546930 206 206 206 0
5.048294 -4.800017 21.636318 205 205 205 0
5.160620 -4.827676 21.760993 203 203 203 0
5.275082 -4.856425 21.890577 202 202 202 0
5.390711 -4.885332 22.020878 202 202 202 0
5.515294 -4.921339 22.183184 201 201 201 0
5.646188 -4.961801 22.365569 199 199 199 0
5.786917 -5.009570 22.580886 197 197 197 0
5.939828 -5.066324 22.836709 196 196 196 0
6.113953 -5.139264 23.165492 192 192 192 0
6.312948 -5.230729 23.577771 178 178 178 0
6.472282 -5.287216 23.832393 109 109 109 0
-3.241884 -5.279640 24.215753 96 96 96 0
-3.091146 -5.182215 23.768905 117 117 117 0
-2.958245 -5.109696 23.436286 138 138 138 0
-2.838450 -5.055989 23.189949 142 142 142 0
-2.725664 -5.011705 22.986838 150 150 150 0
-2.615586 -4.969613 22.793776 159 159 159 0
-2.504918 -4.923460 22.582087 160 160 160 0
-2.396819 -4.879238 22.379260 161 161 161 0
-2.294166 -4.843240 22.214150 169 169 169 0
-2.195833 -4.813942 22.079771 174 174 174 0
-2.102178 -4.792965 21.983559 174 174 174 0
-2.013793 -4.782758 21.936742 175 175 175 0
-1.921314 -4.761516 21.839314 176 176 176 0
-1.829243 -4.739401 21.737879 181 181 181 0
-1.735945 -4.711852 21.611521 184 184 184 0
-1.641907 -4.679434 21.462832 184 184 184 0
-1.552730 -4.658189 21.365390 185 185 185 0
-1.467097 -4.645808 21.308603 185 185 185 0
-1.384103 -4.640815 21.285700 186 186 186 0
-1.298791 -4.626945 21.222083 189 189 189 0
-1.214188 -4.613916 21.162323 192 192 192 0
-1.128846 -4.596015 21.080222 193 193 193 0
-1.043095 -4.573571 20.977276 193 193 193 0
-0.960060 -4.560283 20.916333 193 193 193 0
-0.878161 -4.550472 20.871329 193 193 193 0
-0.796798 -4.541751 20.831333 193 193 193 0
-0.716746 -4.539392 20.820511 194 194 194 0
-0.635182 -4.525675 20.757597 196 196 196 0
-0.553669 -4.508444 20.678564 198 198 198 0
-0.473454 -4.497817 20.629824 199 199 199 0
-0.394010 -4.491710 20.601812 199 199 199 0
-0.314559 -4.482471 20.559435 199 199 199 0
-0.235982 -4.483665 20.564914 199 199 199 0
-0.157086 -4.476940 20.534068 200 200 200 0
-0.078401 -4.468835 20.496893 201 201 201 0
0.000000 -4.453359 20.425910 200 200 200 0
0.077980 -4.444841 20.386839 200 200 200 0
0.155640 -4.435726 20.345034 201 201 201 0
0.233512 -4.436724 20.349611 202 202 202 0
0.311520 -4.439167 20.360817 203 203 203 0
0.388639 -4.430488 20.321011 204 204 204 0
0.465387 -4.421179 20.278314 205 205 205 0
0.542531 -4.417749 20.262578 205 205 205 0
0.618940 -4.409950 20.226807 205 205 205 0
0.696382 -4.410417 20.228951 206 206 206 0
0.773553 -4.409254 20.223615 206 206 206 0
0.850474 -4.407004 20.213296 205 205 205 0
0.926622 -4.401453 20.187838 206 206 206 0
1.002677 -4.396355 20.164453 206 206 206 0
1.078866 -4.392526 20.146893 206 206 206 0
1.156144 -4.393346 20.150651 206 206 206 0
1.233248 -4.393446 20.151110 206 206 206 0
1.311615 -4.397768 20.170936 207 207 207 0
1.385803 -4.388376 20.127856 208 208 208 0
1.461334 -4.384003 20.107801 207 207 207 0
1.538745 -4.385423 20.114311 208 208 208 0
1.617266 -4.389721 20.134028 207 207 207 0
1.694378 -4.389979 20.135209 207 207 207 0
1.772327 -4.392288 20.145799 208 208 208 0
1.848273 -4.389648 20.133692 208 208 208 0
1.923311 -4.385149 20.113057 209 209 209 0
2.003289 -4.391827 20.143685 209 209 209 0
2.082112 -4.395570 20.160853 209 209 209 0
2.161028 -4.399235 20.177663 208 208 208 0
2.236540 -4.395958 20.162632 210 210 210 0
2.314094 -4.396778 20.166395 209 209 209 0
2.391767 -4.397764 20.170918 210 210 210 0
2.472480 -4.404105 20.200000 210 210 210 0
2.553832 -4.411165 20.232381 210 210 210 0
2.630475 -4.409914 20.226646 209 209 209 0
2.708490 -4.410969 20.231482 210 210 210 0
2.789521 -4.416742 20.257960 210 210 210 0
2.871286 -4.423333 20.288190 210 210 210 0
2.954198 -4.431297 20.324722 211 211 211 0
3.029741 -4.428084 20.309981 210 210 210 0
3.112518 -4.435339 20.343257 209 209 209 0
3.193698 -4.440020 20.364728 209 209 209 0
3.281450 -4.453396 20.426080 210 210 210 0
3.367129 -4.463403 20.471980 209 209 209 0
3.449927 -4.469224 20.498676 209 209 209 0
3.531375 -4.473075 20.516342 210 210 210 0
3.617054 -4.482002 20.557283 210 210 210 0
3.705049 -4.493357 20.609366 210 210 210 0
3.790020 -4.500649 20.642810 210 210 210 0
3.876636 -4.509556 20.683663 209 209 209 0
3.964440 -4.519461 20.729097 209 209 209 0
4.057898 -4.535297 20.801731 208 208 208 0
4.150053 -4.549096 20.865020 208 208 208 0
4.240699 -4.560752 20.918481 208 208 208 0
4.331691 -4.572341 20.971636 208 208 208 0
4.427246 -4.588237 21.044546 208 208 208 0
4.523735 -4.604516 21.119211 208 208 208 0
4.615289 -4.615289 21.168621 207 207 207 0
4.713412 -4.632146 21.245941 207 207 207 0
4.819613 -4.656236 21.356431 206 206 206 0
4.921382 -4.675313 21.443931 206 206 206 0
5.026466 -4.696861 21.542764 205 205 205 0
5.136695 -4.722445 21.660108 205 205 205 0
5.247113 -4.747388 21.774513 204 204 204 0
5.362154 -4.775668 21.904224 202 202 202 0
5.482278 -4.807536 22.050389 202 202 202 0
5.608012 -4.843283 22.214349 202 202 202 0
5.738566 -4.882064 22.392221 199 199 199 0
5.888693 -4.936110 22.640110 198 198 198 0
6.043588 -4.992529 22.898883 196 196 196 0
6.233315 -5.075699 23.280353 192 192 192 0
6.424061 -5.157345 23.654832 167 167 167 0
6.561389 -5.194433 23.824943 89 89 89 0
-3.339160 -5.194249 24.249526 86 86 86 0
-3.203459 -5.125535 23.928736 114 114 114 0
-3.057207 -5.035400 23.507938 134 134 134 0
-2.933052 -4.977300 23.236694 142 142 142 0
-2.818339 -4.932094 23.025649 147 147 147 0
-2.707312 -4.890629 22.832067 158 158 158 0
-2.600112 -4.853542 22.658924 160 160 160 0
-2.493955 -4.815913 22.483254 161 161 161 0
-2.385850 -4.771701 22.276848 167 167 167 0
-2.283010 -4.735131 22.106121 173 173 173 0
-2.187305 -4.711117 21.994013 173 173 173 0
-2.089831 -4.681222 21.854445 174 174 174 0
-2.000753 -4.668424 21.794696 175 175 175 0
-1.913246 -4.658339 21.747614 180 180 180 0
-1.823056 -4.640507 21.664365 183 183 183 0
-1.731732 -4.617953 21.559070 184 184 184 0
-1.639665 -4.591063 21.433532 185 185 185 0
-1.548816 -4.564931 21.311536 184 184 184 0
-1.462186 -4.549023 21.237270 185 185 185 0
-1.377040 -4.536131 21.177083 187 187 187 0
-1.294051 -4.529178 21.144621 191 191 191 0
-1.212090 -4.525135 21.125746 192 192 192 0
-1.126466 -4.505863 21.035775 193 193 193 0
-1.040535 -4.482306 20.925799 193 193 193 0
-0.957004 -4.466019 20.849762 193 193 193 0
-0.874526 -4.452131 20.784926 193 193 193 0
-0.794751 -4.450607 20.777811 194 194 194 0
-0.715187 -4.450053 20.775224 196 196 196 0
-0.633481 -4.434365 20.701985 198 198 198 0
-0.552544 -4.420352 20.636565 198 198 198 0
-0.472527 -4.410254 20.589422 199 199 199 0
-0.392543 -4.396483 20.525131 199 199 199 0
-0.313683 -4.391567 20.502180 199 199 199 0
-0.235244 -4.391229 20.500601 200 200 200 0
-0.156663 -4.386565 20.478830 199 199 199 0
-0.078233 -4.381027 20.452974 201 201 201 0
0.000000 -4.361954 20.363933 200 200 200 0
0.077818 -4.357801 20.344543 201 201 201 0
0.155328 -4.349175 20.304271 202 202 202 0
0.232898 -4.347437 20.296157 203 203 203 0
0.310666 -4.349320 20.304949 204 204 204 0
0.387995 -4.345547 20.287332 204 204 204 0
0.464564 -4.335930 20.242435 205 205 205 0
0.541311 -4.330490 20.217041 204 204 204 0
0.618038 -4.326266 20.197321 205 205 205 0
0.695044 -4.324721 20.190106 205 205 205 0
0.771871 -4.322479 20.179639 205 205 205 0
0.848760 -4.320960 20.172550 206 206 206 0
0.924751 -4.315503 20.147071 206 206 206 0
1.000197 -4.308541 20.114570 207 207 207 0
1.076346 -4.305384 20.099833 206 206 206 0
1.152674 -4.303316 20.090179 206 206 206 0
1.230088 -4.305309 20.099482 207 207 207 0
1.307714 -4.307764 20.110942 207 207 207 0
1.383975 -4.305700 20.101306 207 207 207 0
1.458834 -4.299721 20.073394 208 208 208 0
1.535766 -4.300144 20.075367 207 207 207 0
1.613716 -4.303243 20.089835 208 208 208 0
1.691126 -4.304685 20.096569 208 208 208 0
1.767606 -4.303737 20.092143 208 208 208 0
1.842840 -4.299961 20.074514 208 208 208 0
1.917703 -4.295655 20.054412 209 209 209 0
1.998478 -4.304414 20.095303 209 209 209 0
2.076646 -4.307118 20.107927 208 208 208 0
2.154710 -4.309419 20.118670 209 209 209 0
2.232367 -4.310777 20.125008 210 210 210 0
2.308781 -4.309724 20.120096 209 209 209 0
2.386189 -4.310534 20.123877 210 210 210 0
2.466702 -4.316728 20.152791 210 210 210 0
2.547180 -4.322487 20.179680 210 210 210 0
2.624959 -4.323461 20.184226 210 210 210 0
2.703149 -4.325038 20.191589 210 210 210 0
2.783782 -4.330327 20.216281 210 210 210 0
2.864999 -4.336215 20.243769 210 210 210 0
2.946070 -4.341577 20.268801 210 210 210 0
3.024526 -4.342909 20.275020 210 210 210 0
3.108106 -4.351348 20.314416 211 211 211 0
3.186851 -4.352772 20.321063 210 210 210 0
3.270579 -4.360773 20.358415 209 209 209 0
3.358382 -4.373707 20.418802 209 209 209 0
3.439868 -4.378014 20.438906 209 209 209 0
3.520537 -4.381113 20.453375 209 209 209 0
3.606952 -4.391072 20.499868 209 209 209 0
3.695984 -4.403725 20.558942 209 209 209 0
3.781174 -4.411370 20.594629 210 210 210 0
3.868221 -4.420824 20.638767 210 210 210 0
3.950546 -4.424612 20.656452 210 210 210 0
4.043146 -4.439533 20.726113 210 210 210 0
4.135653 -4.453780 20.792626 208 208 208 0
4.225493 -4.464672 20.843473 208 208 208 0
4.315137 -4.474957 20.891489 208 208 208 0
4.414017 -4.494272 20.981664 208 208 208 0
4.507930 -4.507930 21.045423 208 208 208 0
4.601032 -4.520312 21.103232 208 208 208 0
4.697488 -4.535505 21.174162 208 208 208 0
4.799366 -4.555330 21.266714 206 206 206 0
4.906238 -4.579155 21.377943 206 206 206 0
5.006653 -4.596272 21.457851 206 206 206 0
5.111879 -4.617181 21.555467 205 205 205 0
5.226289 -4.645590 21.688095 205 205 205 0
5.334096 -4.667334 21.789607 203 203 203 0
5.451421 -4.696609 21.926279 203 203 203 0
5.578199 -4.733017 22.096251 202 202 202 0
5.701109 -4.765106 22.246059 201 201 201 0
5.838525 -4.808197 22.447230 198 198 198 0
5.992882 -4.863788 22.706760 197 197 197 0
6.150640 -4.920512 22.971577 195 195 195 0
6.360233 -5.016522 23.419803 189 189 189 0
6.531178 -5.079805 23.715242 151 151 151 0
-4.947704 -7.354695 34.959927 77 77 77 0
-3.305045 -5.049375 24.001781 108 108 108 0
-3.159827 -4.965443 23.602817 128 128 128 0
-3.025627 -4.894397 23.265105 141 141 141 0
-2.908998 -4.848330 23.046133 145 145 145 0
-2.795192 -4.804236 22.836533 156 156 156 0
-2.689570 -4.771818 22.682440 160 160 160 0
-2.587906 -4.744494 22.552555 161 161 161 0
-2.479444 -4.702394 22.352435 164 164 164 0
-2.378337 -4.671734 22.206696 172 172 172 0
-2.276178 -4.636659 22.039973 173 173 173 0
-2.174772 -4.600479 21.867994 174 174 174 0
-2.080741 -4.577630 21.759382 174 174 174 0
-1.991887 -4.564741 21.698114 178 178 178 0
-1.903478 -4.551794 21.636574 183 183 183 0
-1.815086 -4.537715 21.569651 184 184 184 0
-1.725782 -4.519905 21.484993 185 185 185 0
-1.633806 -4.492965 21.356936 184 184 184 0
-1.543420 -4.467794 21.237287 185 185 185 0
-1.456317 -4.449857 21.152022 187 187 187 0
-1.373314 -4.443074 21.119784 191 191 191 0
-1.289922 -4.434106 21.077154 192 192 192 0
-1.207870 -4.428858 21.052209 193 193 193 0
-1.122548 -4.410011 20.962621 192 192 192 0
-1.038405 -4.393253 20.882962 194 194 194 0
-0.953666 -4.370971 20.777046 193 193 193 0
-0.872012 -4.360060 20.725181 194 194 194 0
-0.792431 -4.358373 20.717161 195 195 195 0
-0.712377 -4.353416 20.693601 198 198 198 0
-0.632071 -4.345490 20.655925 199 199 199 0
-0.551167 -4.330594 20.585118 198 198 198 0
-0.471975 -4.326440 20.565370 199 199 199 0
-0.391681 -4.308495 20.480073 199 199 199 0
-0.313013 -4.303926 20.458353 200 200 200 0
-0.234724 -4.303272 20.455243 199 199 199 0
-0.156323 -4.298894 20.434433 199 199 199 0
-0.077967 -4.288174 20.383479 201 201 201 0
0.000000 -4.273837 20.315328 202 202 202 0
0.077606 -4.268342 20.289208 203 203 203 0
0.154997 -4.262407 20.260994 204 204 204 0
0.232498 -4.262458 20.261240 204 204 204 0
0.309889 -4.260975 20.254190 205 205 205 0
0.387019 -4.257209 20.236289 204 204 204 0
0.463239 -4.246354 20.184690 204 204 204 0
0.539832 -4.241537 20.161792 205 205 205 0
0.616459 -4.238155 20.145715 205 205 205 0
0.692833 -4.233980 20.125870 206 206 206 0
0.770110 -4.235605 20.133593 206 206 206 0
0.847033 -4.235164 20.131498 206 206 206 0
0.922769 -4.229358 20.103900 206 206 206 0
0.997884 -4.221815 20.068047 206 206 206 0
1.073858 -4.218728 20.053369 207 207 207 0
1.150494 -4.218479 20.052188 206 206 206 0
1.228067 -4.221479 20.066446 207 207 207 0
1.305132 -4.222486 20.071237 207 207 207 0
1.381164 -4.220224 20.060485 207 207 207 0
1.454963 -4.211735 20.020133 207 207 207 0
1.531354 -4.211223 20.017697 207 207 207 0
1.609305 -4.214847 20.034922 208 208 208 0
1.686555 -4.216388 20.042250 208 208 208 0
1.763726 -4.217605 20.048033 208 208 208 0
1.840620 -4.218088 20.050331 209 209 209 0
1.914557 -4.212026 20.021514 209 209 209 0
1.992814 -4.215568 20.038350 209 209 209 0
2.070069 -4.216807 20.044240 209 209 209 0
2.150021 -4.223255 20.074890 209 209 209 0
2.227912 -4.225349 20.084846 209 209 209 0
2.303058 -4.222273 20.070221 210 210 210 0
2.381679 -4.225559 20.085841 210 210 210 0
2.460441 -4.228883 20.101641 210 210 210 0
2.539140 -4.231900 20.115981 210 210 210 0
2.621218 -4.240206 20.155465 210 210 210 0
2.697782 -4.239371 20.151497 210 210 210 0
2.776060 -4.241203 20.160202 210 210 210 0
2.857739 -4.247991 20.192471 211 211 211 0
2.938519 -4.253119 20.216848 211 211 211 0
3.018627 -4.257038 20.235476 210 210 210 0
3.097860 -4.259557 20.247451 210 210 210 0
3.178939 -4.264431 20.270617 211 211 211 0
3.262998 -4.272973 20.311222 210 210 210 0
3.346714 -4.280681 20.347861 211 211 211 0
3.429991 -4.287488 20.380218 210 210 210 0
3.510264 -4.290322 20.393688 210 210 210 0
3.596056 -4.299632 20.437942 210 210 210 0
3.686005 -4.313410 20.503435 210 210 210 0
3.769971 -4.319759 20.533613 210 210 210 0
3.856536 -4.328765 20.576423 211 211 211 0
3.942156 -4.336371 20.612579 210 210 210 0
4.033874 -4.350256 20.678580 211 211 211 0
4.123255 -4.361136 20.730294 209 209 209 0
4.212825 -4.371799 20.780982 209 209 209 0
4.302593 -4.382271 20.830759 208 208 208 0
4.397171 -4.397171 20.901583 208 208 208 0
4.493412 -4.413173 20.977648 209 209 209 0
4.586581 -4.425648 21.036948 208 208 208 0
4.681873 -4.439708 21.103779 208 208 208 0
4.781706 -4.457523 21.188462 208 208 208 0
4.885435 -4.478315 21.287299 207 207 207 0
4.986500 -4.496024 21.371476 205 205 205 0
5.091324 -4.516497 21.468793 205 205 205 0
5.202937 -4.542246 21.591189 206 206 206 0
5.310306 -4.563544 21.692425 205 205 205 0
5.421916 -4.587775 21.807605 203 203 203 0
5.547602 -4.623002 21.975052 203 203 203 0
5.674087 -4.657833 22.140619 203 203 203 0
5.794756 -4.686935 22.278954 201 201 201 0
5.944741 -4.738562 22.524358 198 198 198 0
6.094182 -4.788286 22.760718 197 197 197 0
6.270582 -4.857493 23.089688 194 194 194 0
6.471679 -4.943644 23.499197 185 185 185 0
6.646761 -5.007833 23.804318 130 130 130 0
-3.405829 -4.970669 24.065211 98 98 98 0
-3.258157 -4.887236 23.661271 119 119 119 0
-3.118828 -4.811905 23.296564 138 138 138 0
-3.004943 -4.772557 23.106060 142 142 142 0
-2.883517 -4.718482 22.844262 153 153 153 0
-2.778766 -4.689168 22.702340 159 159 159 0
-2.673192 -4.656528 22.544314 161 161 161 0
-2.573056 -4.631502 22.423150 163 163 163 0
-2.472144 -4.603303 22.286629 170 170 170 0
-2.369230 -4.569230 22.121664 174 174 174 0
-2.268314 -4.536628 21.963824 174 174 174 0
-2.171598 -4.510242 21.836078 174 174 174 0
-2.073448 -4.478647 21.683111 177 177 177 0
-1.984782 -4.465760 21.620722 182 182 182 0
-1.898084 -4.456372 21.575269 184 184 184 0
-1.809313 -4.441042 21.501051 184 184 184 0
-1.718612 -4.419289 21.395734 184 184 184 0
-1.628414 -4.396717 21.286452 185 185 185 0
-1.537399 -4.369451 21.154446 187 187 187 0
-1.453641 -4.360922 21.113155 191 191 191 0
-1.368511 -4.347034 21.045918 192 192 192 0
-1.285969 -4.340146 21.012569 192 192 192 0
-1.203868 -4.333924 20.982443 191 191 191 0
-1.121005 -4.323876 20.933797 192 192 192 0
-1.035521 -4.301396 20.824960 193 193 193 0
-0.952435 -4.285957 20.750215 193 193 193 0
-0.870107 -4.271434 20.679904 197 197 197 0
-0.790588 -4.269175 20.668966 197 197 197 0
-0.710488 -4.262930 20.638730 199 199 199 0
-0.630416 -4.255305 20.601816 198 198 198 0
-0.550417 -4.246073 20.557120 198 198 198 0
-0.470234 -4.232107 20.489505 199 199 199 0
-0.390618 -4.218676 20.424480 199 199 199 0
-0.312027 -4.212359 20.393894 200 200 200 0
-0.233930 -4.210736 20.386039 199 199 199 0
-0.155878 -4.208715 20.376253 200 200 200 0
-0.077840 -4.203346 20.350261 202 202 202 0
0.000000 -4.187659 20.274310 203 203 203 0
0.077458 -4.182724 20.250420 204 204 204 0
0.154647 -4.175479 20.215340 204 204 204 0
0.231953 -4.175146 20.213730 204 204 204 0
0.309090 -4.172712 20.201949 205 205 205 0
0.386164 -4.170566 20.191559 204 204 204 0
0.462432 -4.161885 20.149527 205 205 205 0
0.538921 -4.157387 20.127752 205 205 205 0
0.614710 -4.149293 20.088562 205 205 205 0
0.691171 -4.147025 20.077582 205 205 205 0
0.768537 -4.150101 20.092476 206 206 206 0
0.844432 -4.145394 20.069689 206 206 206 0
0.920611 -4.142750 20.056889 206 206 206 0
0.995586 -4.135511 20.021839 206 206 206 0
1.071364 -4.132405 20.006801 206 206 206 0
1.147397 -4.130630 19.998207 207 207 207 0
1.224403 -4.132359 20.006580 208 208 208 0
1.301928 -4.135536 20.021962 208 208 208 0
1.377125 -4.131376 20.001819 209 209 209 0
1.452907 -4.129314 19.991837 209 209 209 0
1.527231 -4.123524 19.963806 209 209 209 0
1.604767 -4.126544 19.978428 210 210 210 0
1.682414 -4.129561 19.993031 210 210 210 0
1.758549 -4.128768 19.989194 211 211 211 0
1.834951 -4.128641 19.988578 210 210 210 0
1.910285 -4.126216 19.976839 210 210 210 0
1.987259 -4.127383 19.982489 210 210 210 0
2.065596 -4.131192 20.000931 209 209 209 0
2.146170 -4.139043 20.038940 210 210 210 0
2.221418 -4.136434 20.026308 210 210 210 0
2.298443 -4.137198 20.030007 210 210 210 0
2.375297 -4.137615 20.032025 210 210 210 0
2.454028 -4.141173 20.049252 210 210 210 0
2.534524 -4.147402 20.079412 211 211 211 0
2.612347 -4.149022 20.087253 210 210 210 0
2.693272 -4.155334 20.117810 210 210 210 0
2.769655 -4.154483 20.113692 211 211 211 0
2.851404 -4.161509 20.147707 211 211 211 0
2.931452 -4.165747 20.168228 210 210 210 0
3.011955 -4.170399 20.190747 211 211 211 0
3.092115 -4.174356 20.209903 211 211 211 0
3.173575 -4.179830 20.236408 212 212 212 0
3.255955 -4.186227 20.267381 211 211 211 0
3.339331 -4.193579 20.302973 211 211 211 0
3.421338 -4.198915 20.328808 211 211 211 0
3.502968 -4.203562 20.351304 211 211 211 0
3.586832 -4.210629 20.385521 210 210 210 0
3.674799 -4.222109 20.441101 210 210 210 0
3.760717 -4.230806 20.483206 210 210 210 0
3.846610 -4.239121 20.523461 210 210 210 0
3.930024 -4.244426 20.549147 210 210 210 0
4.022078 -4.258671 20.618111 211 211 211 0
4.112033 -4.270188 20.673869 210 210 210 0
4.200792 -4.280052 20.721629 211 211 211 0
4.286807 -4.286807 20.754330 208 208 208 0
4.381637 -4.301971 20.827747 209 209 209 0
4.478885 -4.318925 20.909828 208 208 208 0
4.574836 -4.334055 20.983079 208 208 208 0
4.667347 -4.345461 21.038301 208 208 208 0
4.764962 -4.361151 21.114264 208 208 208 0
4.865744 -4.379170 21.201500 208 208 208 0
4.967049 -4.397060 21.288113 205 205 205 0
5.071192 -4.416844 21.383899 206 206 206 0
5.177933 -4.438228 21.487427 206 206 206 0
5.288454 -4.462133 21.603160 206 206 206 0
5.398118 -4.484591 21.711889 205 205 205 0
5.517772 -4.514541 21.856892 203 203 203 0
5.644683 -4.549446 22.025883 202 202 202 0
5.763642 -4.577010 22.159330 203 203 203 0
5.900918 -4.618110 22.358314 200 200 200 0
6.046820 -4.664689 22.583827 198 198 198 0
6.198648 -4.714465 22.824812 197 197 197 0
6.384803 -4.788602 23.183743 193 193 193 0
6.596709 -4.879757 23.625064 178 178 178 0
6.758928 -4.932191 23.878918 101 101 101 0
-3.526374 -4.918363 24.261258 86 86 86 0
-3.377621 -4.838214 23.865895 110 110 110 0
-3.236579 -4.764963 23.504564 132 132 132 0
-3.102730 -4.698420 23.176324 140 140 140 0
-2.981353 -4.647403 22.924665 146 146 146 0
-2.866807 -4.604266 22.711883 158 158 158 0
-2.758512 -4.568785 22.536862 159 159 159 0
-2.657532 -4.543522 22.412244 161 161 161 0
-2.558739 -4.520439 22.298382 169 169 169 0
-2.459660 -4.495240 22.174078 174 174 174 0
-2.359032 -4.465311 22.026443 174 174 174 0
-2.259154 -4.434636 21.875132 174 174 174 0
-2.159958 -4.402991 21.719031 176 176 176 0
-2.064843 -4.377466 21.593124 181 181 181 0
-1.977972 -4.368021 21.546532 184 184 184 0
-1.891237 -4.358069 21.497440 183 183 183 0
-1.803414 -4.344589 21.430949 184 184 184 0
-1.714805 -4.327841 21.348334 184 184 184 0
-1.626528 -4.310298 21.261798 186 186 186 0
-1.535643 -4.283636 21.130280 190 190 190 0
-1.448710 -4.265647 21.041546 191 191 191 0
-1.364367 -4.253615 20.982191 191 191 191 0
-1.282016 -4.246678 20.947976 192 192 192 0
-1.199668 -4.238827 20.909247 192 192 192 0
-1.118166 -4.233059 20.880792 192 192 192 0
-1.032807 -4.210676 20.770381 193 193 193 0
-0.949396 -4.193166 20.684011 196 196 196 0
-0.868716 -4.185632 20.646848 198 198 198 0
-0.788067 -4.176758 20.603072 198 198 198 0
-0.708383 -4.171589 20.577575 199 199 199 0
-0.629021 -4.167267 20.556256 199 199 199 0
-0.549064 -4.157197 20.506583 199 199 199 0
-0.469782 -4.149742 20.469809 200 200 200 0
-0.389779 -4.131656 20.380593 199 199 199 0
-0.311349 -4.125370 20.349589 200 200 200 0
-0.233267 -4.121042 20.328237 201 201 201 0
-0.155514 -4.121114 20.328592 203 203 203 0
-0.077607 -4.113165 20.289383 203 203 203 0
0.000000 -4.102468 20.236618 204 204 204 0
0.077309 -4.097355 20.211395 203 203 203 0
0.154447 -4.092841 20.189131 204 204 204 0
0.231334 -4.086903 20.159838 205 205 205 0
0.308209 -4.083776 20.144411 205 205 205 0
0.385429 -4.085547 20.153148 205 205 205 0
0.461698 -4.078330 20.117548 205 205 205 0
0.537816 -4.072036 20.086499 205 205 205 0
0.613303 -4.063133 20.042585 205 205 205 0
0.689577 -4.060845 20.031298 206 206 206 0
0.766336 -4.061580 20.034924 206 206 206 0
0.842519 -4.059410 20.024222 207 207 207 0
0.919068 -4.059216 20.023262 207 207 207 0
0.993703 -4.051252 19.983980 207 207 207 0
1.069298 -4.048057 19.968218 208 208 208 0
1.146318 -4.050323 19.979393 208 208 208 0
1.221806 -4.047234 19.964156 208 208 208 0
1.298908 -4.049538 19.975522 209 209 209 0
1.374205 -4.046269 19.959399 209 209 209 0
1.449800 -4.044180 19.949093 210 210 210 0
1.525288 -4.042013 19.938406 210 210 210 0
1.601469 -4.041803 19.937367 210 210 210 0
1.679463 -4.045979 19.957966 211 211 211 0
1.756866 -4.048431 19.970061 210 210 210 0
1.831275 -4.044065 19.948528 210 210 210 0
1.906468 -4.041713 19.936925 211 211 211 0
1.984168 -4.044650 19.951412 211 211 211 0
2.060835 -4.045342 19.954825 211 211 211 0
2.140557 -4.051769 19.986527 211 211 211 0
2.217837 -4.053289 19.994026 211 211 211 0
2.292632 -4.050316 19.979360 211 211 211 0
2.368901 -4.050056 19.978080 211 211 211 0
2.446779 -4.052477 19.990020 211 211 211 0
2.529856 -4.063101 20.042429 210 210 210 0
2.607086 -4.063987 20.046799 211 211 211 0
2.685955 -4.067303 20.063155 211 211 211 0
2.762457 -4.066950 20.061414 211 211 211 0
2.843242 -4.072752 20.090033 211 211 211 0
2.926522 -4.081728 20.134308 211 211 211 0
3.006077 -4.085181 20.151345 211 211 211 0
3.087532 -4.090980 20.179949 212 212 212 0
3.165765 -4.092331 20.186610 211 211 211 0
3.249339 -4.100357 20.226203 212 212 212 0
3.332792 -4.107860 20.263215 211 211 211 0
3.414439 -4.112847 20.287812 211 211 211 0
3.494588 -4.115848 20.302615 211 211 211 0
3.575659 -4.119781 20.322016 211 211 211 0
3.663699 -4.131406 20.379359 210 210 210 0
3.751528 -4.142312 20.433159 210 210 210 0
3.839077 -4.152471 20.483268 210 210 210 0
3.922392 -4.157736 20.509240 210 210 210 0
4.010937 -4.168229 20.561002 211 211 211 0
4.101977 -4.180862 20.623315 211 211 211 0
4.188688 -4.188688 20.661920 210 210 210 0
4.274671 -4.195510 20.695573 210 210 210 0
4.367928 -4.209094 20.762582 210 210 210 0
4.464616 -4.225440 20.843212 209 209 209 0
4.561079 -4.241003 20.919982 209 209 209 0
4.654182 -4.252959 20.978959 209 209 209 0
4.750573 -4.267464 21.050508 209 209 209 0
4.853271 -4.287056 21.147151 209 209 209 0
4.950337 -4.301112 21.216486 208 208 208 0
5.051214 -4.317973 21.299658 207 207 207 0
5.159747 -4.340740 21.411961 206 206 206 0
5.271919 -4.365808 21.535616 206 206 206 0
5.374962 -4.382661 21.618750 206 206 206 0
5.486388 -4.405736 21.732572 205 205 205 0
5.614236 -4.441112 21.907075 204 204 204 0
5.735861 -4.470597 22.052521 203 203 203 0
5.862692 -4.503227 22.213478 202 202 202 0
6.002476 -4.544732 22.418212 199 199 199 0
6.152590 -4.592778 22.655215 198 198 198 0
6.318668 -4.651242 22.943602 197 197 197 0
6.524190 -4.736741 23.365351 192 192 192 0
6.712176 -4.807370 23.713748 155 155 155 0
6.815317 -4.816157 23.757095 78 78 78 0
-3.689014 -4.918686 24.729440 74 74 74 0
-3.492707 -4.779494 24.029633 103 103 103 0
-3.348036 -4.705348 23.656852 123 123 123 0
-3.213113 -4.641164 23.334157 138 138 138 0
-3.081422 -4.578113 23.017159 141 141 141 0
-2.966187 -4.536521 22.808052 155 155 155 0
-2.853534 -4.496477 22.606722 159 159 159 0
-2.742834 -4.457105 22.408771 159 159 159 0
-2.646472 -4.439244 22.318975 165 165 165 0
-2.546029 -4.413117 22.187615 172 172 172 0
-2.446390 -4.386631 22.054453 173 173 173 0
-2.352649 -4.369205 21.966844 173 173 173 0
-2.252134 -4.337443 21.807154 175 175 175 0
-2.153744 -4.307488 21.656552 180 180 180 0
-2.058749 -4.282199 21.529405 183 183 183 0
-1.970003 -4.268339 21.459724 183 183 183 0
-1.881815 -4.254538 21.390336 183 183 183 0
-1.797867 -4.249503 21.365022 184 184 184 0
-1.708905 -4.231574 21.274880 185 185 185 0
-1.620588 -4.213530 21.184162 189 189 189 0
-1.531072 -4.190302 21.067380 191 191 191 0
-1.444375 -4.172638 20.978573 192 192 192 0
-1.361303 -4.163985 20.935067 192 192 192 0
-1.278555 -4.155302 20.891415 192 192 192 0
-1.196980 -4.149532 20.862404 192 192 192 0
-1.115393 -4.142889 20.829007 192 192 192 0
-1.031171 -4.124685 20.737481 196 196 196 0
-0.948291 -4.109262 20.659941 197 197 197 0
-0.866935 -4.098237 20.604511 197 197 197 0
-0.786246 -4.088480 20.555456 198 198 198 0
-0.706898 -4.084299 20.534435 198 198 198 0
-0.627484 -4.078646 20.506013 198 198 198 0
-0.548158 -4.072028 20.472742 200 200 200 0
-0.468110 -4.056949 20.396930 199 199 199 0
-0.389008 -4.045678 20.340264 199 199 199 0
-0.310633 -4.038226 20.302794 201 201 201 0
-0.232887 -4.036714 20.295194 202 202 202 0
-0.155144 -4.033753 20.280307 203 203 203 0
-0.077493 -4.029651 20.259684 204 204 204 0
0.000000 -4.022644 20.224454 204 204 204 0
0.077170 -4.012847 20.175199 205 205 205 0
0.154022 -4.004581 20.133638 204 204 204 0
0.230748 -3.999637 20.108781 205 205 205 0
0.307465 -3.997046 20.095759 205 205 205 0
0.384464 -3.998424 20.102685 204 204 204 0
0.460758 -3.993239 20.076616 205 205 205 0
0.536610 -3.986248 20.041467 205 205 205 0
0.612175 -3.979136 20.005713 205 205 205 0
0.688033 -3.975299 19.986422 206 206 206 0
0.765142 -3.978741 20.003724 208 208 208 0
0.840670 -3.974077 19.980275 207 207 207 0
0.917029 -3.973792 19.978841 209 209 209 0
0.991139 -3.964554 19.932400 208 208 208 0
1.067166 -3.963760 19.928405 208 208 208 0
1.143861 -3.965386 19.936581 208 208 208 0
1.219881 -3.964613 19.932694 209 209 209 0
1.296900 -3.966987 19.944631 209 209 209 0
1.371653 -3.962554 19.922342 209 209 209 0
1.447086 -3.960447 19.911749 210 210 210 0
1.522573 -3.958689 19.902912 210 210 210 0
1.598145 -3.957312 19.895987 210 210 210 0
1.675843 -3.961082 19.914944 210 210 210 0
1.752274 -3.961663 19.917866 210 210 210 0
1.829451 -3.963810 19.928656 211 211 211 0
1.903506 -3.959292 19.905944 211 211 211 0
1.980933 -3.961867 19.918887 210 210 210 0
2.057987 -3.963531 19.927253 211 211 211 0
2.136792 -3.968328 19.951371 211 211 211 0
2.212901 -3.967960 19.949522 211 211 211 0
2.288846 -3.967333 19.946368 211 211 211 0
2.365159 -3.967363 19.946520 212 212 212 0
2.442401 -3.968902 19.954260 212 212 212 0
2.523898 -3.977052 19.995234 212 212 212 0
2.602701 -3.980602 20.013083 211 211 211 0
2.679413 -3.980842 20.014286 211 211 211 0
2.756699 -3.981899 20.019602 210 210 210 0
2.837864 -3.988350 20.052035 211 211 211 0
2.918258 -3.993405 20.077452 211 211 211 0
3.000871 -4.001162 20.116450 211 211 211 0
3.080627 -4.004815 20.134815 211 211 211 0
3.158736 -4.006202 20.141792 211 211 211 0
3.240270 -4.011763 20.169747 211 211 211 0
3.323950 -4.019660 20.209453 212 212 212 0
3.407588 -4.027150 20.247108 211 211 211 0
3.488213 -4.030823 20.265578 211 211 211 0
3.570945 -4.036721 20.295227 212 212 212 0
3.654620 -4.043409 20.328856 211 211 211 0
3.741519 -4.053312 20.378645 210 210 210 0
3.829856 -4.064337 20.434073 210 210 210 0
3.913627 -4.070172 20.463411 210 210 210 0
4.003303 -4.081799 20.521866 211 211 211 0
4.090199 -4.090199 20.564099 210 210 210 0
4.178781 -4.099936 20.613052 210 210 210 0
4.266504 -4.108485 20.656036 211 211 211 0
4.357024 -4.119368 20.710750 210 210 210 0
4.451856 -4.133866 20.783642 209 209 209 0
4.547607 -4.148694 20.858192 210 210 210 0
4.641320 -4.161183 20.920981 208 208 208 0
4.737010 -4.174992 20.990406 209 209 209 0
4.839355 -4.194108 21.086515 209 209 209 0
4.935034 -4.206914 21.150902 208 208 208 0
5.033144 -4.221347 21.223464 208 208 208 0
5.138299 -4.241136 21.322955 207 207 207 0
5.248827 -4.264672 21.441285 206 206 206 0
5.357129 -4.285703 21.547023 207 207 207 0
5.463900 -4.304891 21.643494 206 206 206 0
5.583083 -4.333139 21.785515 204 204 204 0
5.706184 -4.363552 21.938424 203 203 203 0
5.828094 -4.392187 22.082388 203 203 203 0
5.961714 -4.428702 22.265973 202 202 202 0
6.107461 -4.473070 22.489039 199 199 199 0
6.267389 -4.526448 22.757404 198 198 198 0
6.448566 -4.593499 23.094514 195 195 195 0
6.659427 -4.679597 23.527388 185 185 185 0
6.834195 -4.738375 23.822901 118 118 118 0
-3.613352 -4.725153 24.222237 92 92 92 0
-3.461278 -4.645399 23.813401 114 114 114 0
-3.317569 -4.572865 23.441574 135 135 135 0
-3.197290 -4.529494 23.219245 139 139 139 0
-3.068315 -4.470973 22.919253 149 149 149 0
-2.949061 -4.423591 22.676362 158 158 158 0
-2.841547 -4.391482 22.511760 159 159 159 0
-2.730175 -4.351216 22.305348 161 161 161 0
-2.631777 -4.329697 22.195039 170 170 170 0
-2.534761 -4.309095 22.089425 172 172 172 0
-2.437561 -4.286746 21.974861 172 172 172 0
-2.346124 -4.273297 21.905920 174 174 174 0
-2.244514 -4.239638 21.733374 177 177 177 0
-2.147018 -4.211458 21.588919 182 182 182 0
-2.054627 -4.191440 21.486300 184 184 184 0
-1.965474 -4.176632 21.410389 184 184 184 0
-1.876267 -4.160419 21.327279 184 184 184 0
-1.792438 -4.155197 21.300508 184 184 184 0
-1.705973 -4.143078 21.238386 188 188 188 0
-1.616310 -4.121591 21.128236 191 191 191 0
-1.528077 -4.101679 21.026165 191 191 191 0
-1.442066 -4.085854 20.945042 191 191 191 0
-1.357581 -4.072744 20.877835 192 192 192 0
-1.274455 -4.062325 20.824429 192 192 192 0
-1.193286 -4.057172 20.798011 193 193 193 0
-1.111676 -4.049675 20.759580 195 195 195 0
-1.028637 -4.035422 20.686517 198 198 198 0
-0.945407 -4.017981 20.597109 197 197 197 0
-0.864477 -4.008030 20.546098 198 198 198 0
-0.784405 -4.000464 20.507310 198 198 198 0
-0.704510 -3.992222 20.465062 198 198 198 0
-0.626595 -3.994545 20.476968 198 198 198 0
-0.546988 -3.985202 20.429074 199 199 199 0
-0.467428 -3.973135 20.367218 200 200 200 0
-0.388066 -3.958274 20.291036 201 201 201 0
-0.310037 -3.952970 20.263849 203 203 203 0
-0.232392 -3.950659 20.252000 203 203 203 0
-0.154771 -3.946661 20.231506 204 204 204 0
-0.077389 -3.946833 20.232388 203 203 203 0
0.000000 -3.936592 20.179892 204 204 204 0
0.077076 -3.930861 20.150510 204 204 204 0
0.153760 -3.920871 20.099301 203 203 203 0
0.230423 -3.917194 20.080451 205 205 205 0
0.306924 -3.913276 20.060367 205 205 205 0
0.383833 -3.915094 20.069688 205 205 205 0
0.459711 -3.907546 20.030991 205 205 205 0
0.535763 -3.903416 20.009820 206 206 206 0
0.611218 -3.896515 19.974446 207 207 207 0
0.686937 -3.892644 19.954602 208 208 208 0
0.763504 -3.893872 19.960898 207 207 207 0
0.839400 -3.891763 19.950086 208 208 208 0
0.915093 -3.889147 19.936675 208 208 208 0
0.990399 -3.885413 19.917536 208 208 208 0
1.065015 -3.879699 19.888241 209 209 209 0
1.141283 -3.880363 19.891649 209 209 209 0
1.217679 -3.881352 19.896716 209 209 209 0
1.294089 -3.882266 19.901404 209 209 209 0
1.368773 -3.878190 19.880507 210 210 210 0
1.444882 -3.878366 19.881411 210 210 210 0
1.520265 -3.876675 19.872743 210 210 210 0
1.595770 -3.875441 19.866416 209 209 209 0
1.673100 -3.878549 19.882349 211 211 211 0
1.749234 -3.878735 19.883304 211 211 211 0
1.825121 -3.878381 19.881488 210 210 210 0
1.900281 -3.876574 19.872223 210 210 210 0
1.977871 -3.879669 19.888091 211 211 211 0
2.054145 -3.880053 19.890055 211 211 211 0
2.131418 -3.882226 19.901199 211 211 211 0
2.208741 -3.884337 19.912018 211 211 211 0
2.285598 -3.885517 19.918067 211 211 211 0
2.361350 -3.884802 19.914401 211 211 211 0
2.439221 -3.887509 19.928278 212 212 212 0
2.519652 -3.894008 19.961595 212 212 212 0
2.597148 -3.895722 19.970381 212 212 212 0
2.676105 -3.899468 19.989582 212 212 212 0
2.752284 -3.899069 19.987541 212 212 212 0
2.831257 -3.902543 20.005347 211 211 211 0
2.910991 -3.906856 20.027458 211 211 211 0
2.993244 -3.914242 20.065320 212 212 212 0
3.073646 -3.918899 20.089192 211 211 211 0
3.152057 -3.920852 20.099200 212 212 212 0
3.233268 -3.926111 20.126163 211 211 211 0
3.316992 -3.934107 20.167149 212 212 212 0
3.401284 -3.942398 20.209651 212 212 212 0
3.479497 -3.943430 20.214943 212 212 212 0
3.565422 -3.952968 20.263839 212 212 212 0
3.647640 -3.958078 20.290031 212 212 212 0
3.734104 -3.967485 20.338256 212 212 212 0
3.818967 -3.974843 20.375976 211 211 211 0
3.903523 -3.981594 20.410579 211 211 211 0
3.989838 -3.989838 20.452841 211 211 211 0
4.079410 -4.000960 20.509855 210 210 210 0
4.170428 -4.013053 20.571846 211 211 211 0
4.258827 -4.022226 20.618868 211 211 211 0
4.346596 -4.030480 20.661180 210 210 210 0
4.436705 -4.040571 20.712909 210 210 210 0
4.532507 -4.055401 20.788932 209 209 209 0
4.627275 -4.068811 20.857675 209 209 209 0
4.719000 -4.079136 20.910602 210 210 210 0
4.820996 -4.097846 21.006517 209 209 209 0
4.923644 -4.116489 21.102083 209 209 209 0
5.017621 -4.127398 21.158007 209 209 209 0
5.117929 -4.143085 21.238422 207 207 207 0
5.230270 -4.167872 21.365483 207 207 207 0
5.337814 -4.188131 21.469339 206 206 206 0
5.442573 -4.205625 21.559015 206 206 206 0
5.555919 -4.229132 21.679520 206 206 206 0
5.678238 -4.258678 21.830979 204 204 204 0
5.803564 -4.289591 21.989446 204 204 204 0
5.931885 -4.321802 22.154565 203 203 203 0
6.069918 -4.360082 22.350800 201 201 201 0
6.223817 -4.408537 22.599190 199 199 199 0
6.384629 -4.460495 22.865536 198 198 198 0
6.586741 -4.539511 23.270591 192 192 192 0
6.794610 -4.620335 23.684914 169 169 169 0
6.986308 -4.688180 24.032706 92 92 92 0
-3.745804 -4.682255 24.482377 78 78 78 0
-3.577112 -4.586042 23.979302 106 106 106 0
-3.424508 -4.505932 23.560427 129 129 129 0
-3.294435 -4.451939 23.278113 139 139 139 0
-3.172911 -4.406821 23.042203 144 144 144 0
-3.055538 -4.365054 22.823811 156 156 156 0
-2.935795 -4.317345 22.574353 159 159 159 0
-2.824693 -4.279838 22.378237 160 160 160 0
-2.722475 -4.253867 22.242442 167 167 167 0
-2.622150 -4.229274 22.113851 172 172 172 0
-2.524584 -4.207641 22.000735 172 172 172 0
-2.431077 -4.191512 21.916401 173 173 173 0
-2.334844 -4.169365 21.800599 175 175 175 0
-2.239968 -4.148090 21.689358 180 180 180 0
-2.141280 -4.117847 21.531225 183 183 183 0
-2.047776 -4.095552 21.414650 183 183 183 0
-1.956906 -4.076888 21.317061 184 184 184 0
-1.869862 -4.064918 21.254473 184 184 184 0
-1.787205 -4.061830 21.238325 186 186 186 0
-1.700268 -4.048258 21.167363 190 190 190 0
-1.613067 -4.032667 21.085841 191 191 191 0
-1.524396 -4.011567 20.975516 192 192 192 0
-1.439482 -3.998562 20.907515 191 191 191 0
-1.353578 -3.981111 20.816267 192 192 192 0
-1.271191 -3.972472 20.771094 191 191 191 0
-1.190053 -3.966842 20.741659 194 194 194 0
-1.109362 -3.962006 20.716371 198 198 198 0
-1.026255 -3.947136 20.638618 197 197 197 0
-0.945300 -3.938751 20.594774 198 198 198 0
-0.862413 -3.920060 20.497048 198 198 198 0
-0.782724 -3.913618 20.463363 199 199 199 0
-0.703282 -3.907122 20.429397 198 198 198 0
-0.625336 -3.908353 20.435833 199 199 199 0
-0.545503 -3.896448 20.373584 199 199 199 0
-0.466585 -3.888212 20.330519 201 201 201 0
-0.387733 -3.877334 20.273644 203 203 203 0
-0.309533 -3.869162 20.230911 203 203 203 0
-0.231778 -3.862967 20.198519 203 203 203 0
-0.154500 -3.862497 20.196060 203 203 203 0
-0.077196 -3.859787 20.181893 203 203 203 0
0.000000 -3.855354 20.158713 203 203 203 0
0.076870 -3.843495 20.096707 203 203 203 0
0.153500 -3.837511 20.065414 204 204 204 0
0.229967 -3.832778 20.040670 205 205 205 0
0.306253 -3.828162 20.016532 205 205 205 0
0.382970 -3.829702 20.024583 205 205 205 0
0.458785 -3.823210 19.990641 207 207 207 0
0.534876 -3.820541 19.976685 207 207 207 0
0.610171 -3.813569 19.940232 208 208 208 0
0.685902 -3.810565 19.924525 208 208 208 0
0.762272 -3.811359 19.928672 208 208 208 0
0.837996 -3.809075 19.916732 208 208 208 0
0.913461 -3.806087 19.901109 209 209 209 0
0.989062 -3.804084 19.890635 208 208 208 0
1.064475 -3.801695 19.878143 209 209 209 0
1.139483 -3.798276 19.860269 209 209 209 0
1.215603 -3.798758 19.862786 210 210 210 0
1.291949 -3.799851 19.868503 209 209 209 0
1.366811 -3.796696 19.852005 210 210 210 0
1.441678 -3.793891 19.837337 209 209 209 0
1.517090 -3.792725 19.831243 209 209 209 0
1.592981 -3.792812 19.831696 210 210 210 0
1.670428 -3.796428 19.850604 210 210 210 0
1.746222 -3.796134 19.849068 211 211 211 0
1.822489 -3.796853 19.852824 210 210 210 0
1.896583 -3.793166 19.833546 210 210 210 0
1.972499 -3.793267 19.834074 211 211 211 0
2.049974 -3.796248 19.849665 211 211 211 0
2.127695 -3.799456 19.866436 212 212 212 0
2.204854 -3.801472 19.876978 211 211 211 0
2.281118 -3.801864 19.879025 212 212 212 0
2.355630 -3.799404 19.866164 212 212 212 0
2.435447 -3.805386 19.897443 212 212 212 0
2.514799 -3.810301 19.923144 212 212 212 0
2.592995 -3.813228 19.938449 212 212 212 0
2.671116 -3.815881 19.952317 212 212 212 0
2.746020 -3.813916 19.942046 212 212 212 0
2.824435 -3.816804 19.957148 212 212 212 0
2.906149 -3.823880 19.994143 212 212 212 0
2.987145 -3.829673 20.024432 212 212 212 0
3.067319 -3.834149 20.047837 212 212 212 0
3.145573 -3.836065 20.057856 211 211 211 0
3.225447 -3.839818 20.077482 212 212 212 0
3.309088 -3.847777 20.119095 211 211 211 0
3.394726 -3.857643 20.170683 212 212 212 0
3.476789 -3.863099 20.199211 212 212 212 0
3.558231 -3.867642 20.222965 212 212 212 0
3.641353 -3.873780 20.255057 213 213 213 0
3.724992 -3.880200 20.288626 212 212 212 0
3.811203 -3.888983 20.334551 212 212 212 0
3.892806 -3.892806 20.354542 212 212 212 0
3.981945 -3.903867 20.412378 211 211 211 0
4.067904 -3.911446 20.452004 211 211 211 0
4.160915 -3.925392 20.524925 211 211 211 0
4.245574 -3.931087 20.554704 212 212 212 0
4.337469 -3.943154 20.617797 211 211 211 0
4.427549 -3.953168 20.670161 211 211 211 0
4.519731 -3.964676 20.730332 210 210 210 0
4.615318 -3.978722 20.803777 210 210 210 0
4.708017 -3.989845 20.861933 209 209 209 0
4.807169 -4.005974 20.946271 210 210 210 0
4.904423 -4.020019 21.019707 209 209 209 0
5.003359 -4.034967 21.097865 209 209 209 0
5.100853 -4.048296 21.167562 208 208 208 0
5.210946 -4.071051 21.286544 206 206 206 0
5.318638 -4.091260 21.392208 206 206 206 0
5.422840 -4.108212 21.480849 207 207 207 0
5.537324 -4.132331 21.606961 207 207 207 0
5.654510 -4.157728 21.739754 206 206 206 0
5.778562 -4.187364 21.894713 204 204 204 0
5.907082 -4.219344 22.061931 204 204 204 0
6.034922 -4.249945 22.221936 202 202 202 0
6.176365 -4.289142 22.426887 200 200 200 0
6.337551 -4.340788 22.696931 198 198 198 0
6.514644 -4.401787 23.015879 196 196 196 0
6.725598 -4.483732 23.444351 189 189 189 0
6.891364 -4.533792 23.706101 136 136 136 0
-3.691931 -4.522616 24.130269 97 97 97 0
-3.535499 -4.442037 23.700346 117 117 117 0
-3.400515 -4.384875 23.395356 137 137 137 0
-3.278610 -4.341943 23.166297 140 140 140 0
-3.158507 -4.299080 22.937600 152 152 152 0
-3.038745 -4.254243 22.698376 158 158 158 0
-2.922961 -4.212502 22.475669 159 159 159 0
-2.811883 -4.175220 22.276752 162 162 162 0
-2.708732 -4.147745 22.130159 171 171 171 0
-2.611470 -4.127808 22.023786 172 172 172 0
-2.514255 -4.106616 21.910717 173 173 173 0
-2.420960 -4.090588 21.825201 174 174 174 0
-2.328517 -4.074904 21.741517 178 178 178 0
-2.233385 -4.053181 21.625614 182 182 182 0
-2.136445 -4.026377 21.482606 183 183 183 0
-2.044061 -4.006360 21.375806 184 184 184 0
-1.949816 -3.980874 21.239826 183 183 183 0
-1.864991 -3.973241 21.199097 184 184 184 0
-1.781540 -3.967976 21.171006 190 190 190 0
-1.694646 -3.954174 21.097370 192 192 192 0
-1.609581 -3.943472 21.040268 191 191 191 0
-1.522648 -3.926828 20.951463 191 191 191 0
-1.433761 -3.903016 20.824415 192 192 192 0
-1.350475 -3.892544 20.768543 193 193 193 0
-1.267846 -3.882777 20.716431 193 193 193 0
-1.186365 -3.875461 20.677394 196 196 196 0
-1.107247 -3.875364 20.676878 198 198 198 0
-1.024361 -3.861054 20.600528 197 197 197 0
-0.942495 -3.848523 20.533671 197 197 197 0
-0.860972 -3.835237 20.462783 198 198 198 0
-0.780209 -3.823022 20.397612 198 198 198 0
-0.701700 -3.820365 20.383433 198 198 198 0
-0.623472 -3.818766 20.374903 199 199 199 0
-0.544858 -3.814008 20.349514 201 201 201 0
-0.465522 -3.801764 20.284187 202 202 202 0
-0.386826 -3.790894 20.226194 202 202 202 0
-0.308968 -3.784863 20.194014 203 203 203 0
-0.231408 -3.779663 20.166270 204 204 204 0
-0.154129 -3.776153 20.147540 203 203 203 0
-0.077025 -3.774213 20.137192 203 203 203 0
0.000000 -3.771748 20.124039 204 204 204 0
0.076769 -3.761682 20.070333 204 204 204 0
0.153174 -3.752773 20.022800 204 204 204 0
0.229397 -3.746819 19.991029 205 205 205 0
0.305654 -3.744265 19.977405 206 206 206 0
0.382004 -3.743636 19.974048 207 207 207 0
0.458125 -3.741356 19.961884 208 208 208 0
0.534111 -3.738777 19.948124 207 207 207 0
0.609048 -3.730417 19.903517 208 208 208 0
0.684865 -3.728710 19.894410 207 207 207 0
0.760594 -3.726910 19.884809 208 208 208 0
0.836514 -3.726291 19.881505 209 209 209 0
0.912839 -3.727428 19.887570 208 208 208 0
0.987455 -3.721946 19.858324 208 208 208 0
1.062192 -3.717672 19.835516 209 209 209 0
1.137999 -3.717463 19.834406 209 209 209 0
1.212611 -3.713621 19.813905 209 209 209 0
1.290189 -3.718779 19.841425 209 209 209 0
1.365242 -3.716493 19.829226 210 210 210 0
1.439407 -3.712154 19.806080 210 210 210 0
1.515362 -3.712636 19.808649 209 209 209 0
1.591422 -3.713318 19.812289 211 211 211 0
1.666852 -3.712534 19.808103 210 210 210 0
1.743766 -3.714980 19.821155 211 211 211 0
1.818504 -3.712780 19.809416 211 211 211 0
1.894424 -3.713071 19.810970 211 211 211 0
1.970439 -3.713520 19.813366 211 211 211 0
2.046934 -3.714806 19.820229 211 211 211 0
2.123911 -3.716844 19.831100 211 211 211 0
2.200959 -3.718863 19.841870 212 212 212 0
2.277869 -3.720519 19.850710 212 212 212 0
2.352008 -3.717690 19.835615 212 212 212 0
2.431212 -3.722793 19.862840 212 212 212 0
2.511136 -3.728657 19.894128 212 212 212 0
2.587894 -3.729612 19.899225 212 212 212 0
2.666762 -3.733467 19.919790 213 213 213 0
2.741713 -3.731776 19.910769 212 212 212 0
2.821511 -3.736596 19.936488 212 212 212 0
2.901830 -3.741833 19.964430 213 213 213 0
2.980925 -3.745265 19.982737 213 213 213 0
3.061584 -3.750441 20.010355 213 213 213 0
3.140262 -3.752997 20.023992 212 212 212 0
3.220621 -3.757391 20.047440 212 212 212 0
3.301404 -3.762065 20.072378 213 213 213 0
3.387314 -3.772236 20.126644 212 212 212 0
3.469208 -3.777582 20.155166 212 212 212 0
3.551331 -3.782940 20.183753 212 212 212 0
3.635510 -3.790213 20.222556 213 213 213 0
3.718864 -3.796341 20.255252 212 212 212 0
3.804443 -3.804443 20.298479 212 212 212 0
3.884376 -3.806688 20.310462 212 212 212 0
3.970899 -3.815178 20.355756 211 211 211 0
4.059114 -3.824935 20.407814 211 211 211 0
4.150437 -3.837197 20.473239 211 211 211 0
4.240457 -3.847822 20.529931 211 211 211 0
4.329273 -3.856989 20.578838 211 211 211 0
4.418570 -3.866249 20.628246 211 211 211 0
4.510961 -3.877843 20.690108 211 211 211 0
4.603578 -3.889230 20.750859 210 210 210 0
4.692964 -3.897547 20.795233 209 209 209 0
4.792080 -3.913532 20.880522 209 209 209 0
4.892831 -3.930307 20.970025 210 210 210 0
4.991452 -3.944857 21.047657 209 209 209 0
5.087109 -3.956640 21.110525 209 209 209 0
5.191154 -3.974477 21.205695 209 209 209 0
5.301882 -3.996804 21.324816 208 208 208 0
5.410751 -4.017072 21.432959 207 207 207 0
5.518389 -4.035836 21.533074 207 207 207 0
5.637465 -4.062291 21.674222 206 206 206 0
5.751821 -4.084627 21.793394 205 205 205 0
5.880095 -4.116066 21.961138 204 204 204 0
6.010961 -4.148410 22.133707 203 203 203 0
6.140278 -4.178801 22.295855 202 202 202 0
6.296668 -4.226531 22.550518 199 199 199 0
6.455260 -4.274429 22.806077 198 198 198 0
6.649188 -4.344136 23.177996 195 195 195 0
6.866239 -4.426917 23.619674 179 179 179 0
7.024987 -4.470446 23.851919 99 99 99 0
-3.820536 -4.472823 24.361780 79 79 79 0
-3.659292 -4.391151 23.916943 106 106 106 0
-3.510036 -4.320044 23.529653 128 128 128 0
-3.376789 -4.265418 23.232124 137 137 137 0
-3.255165 -4.222917 23.000638 144 144 144 0
-3.142181 -4.189574 22.819033 156 156 156 0
-3.029479 -4.154714 22.629163 158 158 158 0
-2.918710 -4.120532 22.442984 159 159 159 0
-2.807054 -4.082988 22.238497 169 169 169 0
-2.696508 -4.044762 22.030296 172 172 172 0
-2.598405 -4.023337 21.913600 172 172 172 0
-2.504730 -4.007568 21.827711 173 173 173 0
-2.412505 -3.993112 21.748978 175 175 175 0
-2.321819 -3.980260 21.678978 181 181 181 0
-2.225714 -3.956826 21.551338 182 182 182 0
-2.132970 -3.937790 21.447660 183 183 183 0
-2.037818 -3.912610 21.310513 183 183 183 0
-1.945253 -3.890507 21.190124 183 183 183 0
-1.859764 -3.881248 21.139692 187 187 187 0
-1.774540 -3.871723 21.087817 191 191 191 0
-1.690143 -3.863184 21.041306 191 191 191 0
-1.604001 -3.849604 20.967339 191 191 191 0
-1.518137 -3.835294 20.889402 191 191 191 0
-1.431906 -3.818416 20.797473 192 192 192 0
-1.348075 -3.806329 20.731640 192 192 192 0
-1.265885 -3.797655 20.684395 195 195 195 0
-1.185587 -3.793879 20.663831 197 197 197 0
-1.103902 -3.784808 20.614423 198 198 198 0
-1.022464 -3.775250 20.562363 197 197 197 0
-0.940872 -3.763488 20.498299 198 198 198 0
-0.859573 -3.750864 20.429541 198 198 198 0
