ply
format ascii 1.0
element vertex 1119
property float x
property float y
property float z
property uchar red
property uchar green
property uchar blue
property uchar alpha
end_header
6.152122 5.678881 30.930727 161 161 161 0
6.306792 5.711811 31.110083 135 135 135 0
6.418018 5.704905 31.072466 91 91 91 0
-7.894800 4.835565 25.800000 202 202 202 0
-7.808076 4.842984 25.839582 202 202 202 0
-7.733593 4.858283 25.921210 202 202 202 0
-7.634629 4.858400 25.921837 202 202 202 0
-7.536353 4.858965 25.924848 202 202 202 0
-7.449228 4.866829 25.966806 202 202 202 0
-7.320975 4.847673 25.864600 203 203 203 0
-7.240024 4.859742 25.928998 202 202 202 0
-7.156185 4.870182 25.984696 202 202 202 0
-7.073103 4.881437 26.044751 203 203 203 0
-6.948156 4.863709 25.950162 202 202 202 0
-6.874991 4.882240 26.049032 203 203 203 0
-6.791631 4.893970 26.111616 203 203 203 0
-6.680609 4.885818 26.068126 203 203 203 0
-6.575946 4.882142 26.048510 203 203 203 0
-6.493703 4.895253 26.118462 204 204 204 0
-6.367351 4.875003 26.010421 204 204 204 0
-6.299643 4.899723 26.142311 204 204 204 0
-6.207421 4.905865 26.175084 203 203 203 0
-6.090828 4.892632 26.104481 203 203 203 0
-6.015932 4.913011 26.213212 204 204 204 0
-5.912685 4.910535 26.200000 203 203 203 0
-5.822276 4.918819 26.244201 204 204 204 0
-5.727010 4.923219 26.267677 204 204 204 0
-5.640314 4.935275 26.332000 204 204 204 0
-5.513360 4.911903 26.207297 204 204 204 0
-5.425508 4.923146 26.267285 204 204 204 0
-5.333987 4.931422 26.311443 204 204 204 0
-5.235307 4.933270 26.321301 204 204 204 0
-5.111296 4.910853 26.201699 204 204 204 0
-5.043723 4.942849 26.372408 204 204 204 0
-4.941526 4.941526 26.365352 204 204 204 0
-4.847804 4.948800 26.404164 204 204 204 0
-4.752714 4.954957 26.437014 204 204 204 0
-4.642111 4.944857 26.383124 205 205 205 0
-4.546254 4.950365 26.412514 204 204 204 0
-4.452677 4.958663 26.456784 204 204 204 0
-4.348937 4.955765 26.441323 204 204 204 0
-4.256331 4.965720 26.494436 204 204 204 0
-4.147289 4.956516 26.445332 204 204 204 0
-4.054496 4.966758 26.499974 205 205 205 0
-3.957088 4.971726 26.526482 205 205 205 0
-3.869772 4.989969 26.623819 205 205 205 0
-3.762695 4.983029 26.586789 204 204 204 0
-3.662007 4.984398 26.594096 204 204 204 0
-3.564889 4.990845 26.628489 204 204 204 0
-3.466292 4.995538 26.653531 204 204 204 0
-3.361134 4.990774 26.628113 205 205 205 0
-3.264639 4.998979 26.671888 205 205 205 0
-3.161044 4.996489 26.658604 205 205 205 0
-3.063299 5.003389 26.695417 205 205 205 0
-2.962328 5.005313 26.705685 205 205 205 0
-2.867092 5.017411 26.770231 205 205 205 0
-2.768502 5.024318 26.807087 205 205 205 0
-2.661150 5.015244 26.758674 205 205 205 0
-2.562345 5.022196 26.795762 205 205 205 0
-2.461312 5.025178 26.811674 206 206 206 0
-2.361843 5.031753 26.846752 205 205 205 0
-2.255603 5.023843 26.804551 205 205 205 0
-2.157996 5.035324 26.865808 206 206 206 0
-2.057776 5.041552 26.899035 205 205 205 0
-1.952856 5.036313 26.871086 205 205 205 0
-1.850874 5.038489 26.882697 206 206 206 0
-1.753479 5.054146 26.966233 206 206 206 0
-1.648647 5.048982 26.938681 206 206 206 0
-1.535865 5.017160 26.768894 174 174 174 0
0.736688 6.016285 32.099693 75 75 75 0
0.850600 5.954198 31.768432 97 97 97 0
0.965212 5.911922 31.542870 115 115 115 0
1.077735 5.867669 31.306758 128 128 128 0
1.186261 5.812678 31.013353 139 139 139 0
1.292672 5.758265 30.723035 146 146 146 0
1.404676 5.735759 30.602956 149 149 149 0
1.514807 5.709658 30.463694 157 157 157 0
1.628839 5.700938 30.417169 159 159 159 0
1.736433 5.672346 30.264619 161 161 161 0
1.846417 5.654652 30.170214 161 161 161 0
1.948387 5.615939 29.963662 164 164 164 0
2.060074 5.607980 29.921193 167 167 167 0
2.169810 5.595825 29.856344 171 171 171 0
2.281174 5.588875 29.819264 172 172 172 0
2.390271 5.577299 29.757496 173 173 173 0
2.495982 5.559232 29.661102 173 173 173 0
2.603355 5.546277 29.591982 173 173 173 0
2.715628 5.544408 29.582008 175 175 175 0
2.826470 5.539881 29.557856 175 175 175 0
2.935696 5.532657 29.519313 176 176 176 0
3.040896 5.518664 29.444650 176 176 176 0
3.151321 5.514811 29.424094 178 178 178 0
3.265757 5.518003 29.441124 178 178 178 0
3.378481 5.518185 29.442097 179 179 179 0
3.486105 5.510295 29.400000 179 179 179 0
3.598767 5.510612 29.401692 181 181 181 0
3.712461 5.512442 29.411456 180 180 180 0
3.832407 5.523175 29.468723 181 181 181 0
3.943402 5.520763 29.455850 180 180 180 0
4.051622 5.514708 29.423546 181 181 181 0
4.173574 5.527165 29.490010 180 180 180 0
4.296311 5.539980 29.558385 180 180 180 0
4.412819 5.544311 29.581490 180 180 180 0
4.528749 5.547718 29.599668 180 180 180 0
4.654674 5.562903 29.680686 181 181 181 0
4.785324 5.582878 29.787265 180 180 180 0
4.900316 5.584081 29.793682 180 180 180 0
5.028814 5.600270 29.880058 179 179 179 0
5.168341 5.627749 30.026674 177 177 177 0
5.304520 5.650467 30.147881 176 176 176 0
5.444244 5.675914 30.283656 175 175 175 0
5.595766 5.712344 30.478028 173 173 173 0
5.748026 5.748026 30.668408 169 169 169 0
5.915888 5.797570 30.932748 160 160 160 0
6.074724 5.836500 31.140456 138 138 138 0
6.205043 5.847060 31.196798 100 100 100 0
6.382236 5.900558 31.482237 77 77 77 0
-7.899948 4.937467 25.816823 202 202 202 0
-7.795405 4.933800 25.797649 202 202 202 0
-7.705059 4.939141 25.825572 202 202 202 0
-7.652369 4.969071 25.982070 203 203 203 0
-7.539683 4.960318 25.936301 202 202 202 0
-7.417190 4.944794 25.855130 202 202 202 0
-7.329811 4.952575 25.895819 203 203 203 0
-7.206118 4.935698 25.807569 203 203 203 0
-7.160854 4.972816 26.001650 203 203 203 0
-7.067909 4.977400 26.025624 202 202 202 0
-6.974571 4.981836 26.048818 202 202 202 0
-6.856479 4.968463 25.978892 203 203 203 0
-6.767859 4.976367 26.020218 203 203 203 0
-6.669376 4.977146 26.024295 204 204 204 0
-6.578593 4.983783 26.058995 203 203 203 0
-6.455009 4.965392 25.962833 203 203 203 0
-6.375133 4.980573 26.042210 204 204 204 0
-6.291759 4.993460 26.109594 204 204 204 0
-6.196804 4.997422 26.130312 203 203 203 0
-6.096740 4.997328 26.129817 204 204 204 0
-6.000463 5.000386 26.145809 203 203 203 0
-5.914190 5.012026 26.206670 203 203 203 0
-5.815473 5.013339 26.213535 203 203 203 0
-5.727550 5.024167 26.270152 204 204 204 0
-5.621299 5.019017 26.243224 203 203 203 0
-5.527039 5.024581 26.272317 204 204 204 0
-5.426301 5.024353 26.271125 204 204 204 0
-5.316446 5.015515 26.224913 205 205 205 0
-5.231307 5.030103 26.301193 204 204 204 0
-5.130683 5.030081 26.301077 204 204 204 0
-5.028471 5.028471 26.292659 204 204 204 0
-4.942493 5.043361 26.370513 205 205 205 0
-4.846058 5.047977 26.394650 204 204 204 0
-4.752523 5.055875 26.435948 204 204 204 0
-4.649455 5.053755 26.424865 204 204 204 0
-4.543206 5.048006 26.394804 204 204 204 0
-4.449874 5.056675 26.440129 204 204 204 0
-4.346841 5.054466 26.428580 204 204 204 0
-4.256746 5.067554 26.497015 204 204 204 0
-4.148416 5.059043 26.452515 205 205 205 0
-4.057759 5.072199 26.521300 204 204 204 0
-3.953744 5.068903 26.504065 204 204 204 0
-3.856740 5.074658 26.534159 205 205 205 0
-3.759477 5.080374 26.564048 205 205 205 0
-3.654804 5.076117 26.541789 204 204 204 0
-3.553173 5.075961 26.540974 205 205 205 0
-3.455007 5.080892 26.566755 205 205 205 0
-3.366541 5.100820 26.670956 205 205 205 0
-3.259217 5.092526 26.627587 205 205 205 0
-3.161653 5.099440 26.663737 205 205 205 0
-3.058939 5.098231 26.657418 205 205 205 0
-2.962492 5.107745 26.707163 204 204 204 0
-2.862460 5.111537 26.726988 205 205 205 0
-2.758811 5.108909 26.713250 205 205 205 0
-2.660824 5.116969 26.755396 206 206 206 0
-2.558104 5.116208 26.751417 205 205 205 0
-2.459533 5.124027 26.792300 205 205 205 0
-2.356706 5.123275 26.788366 205 205 205 0
-2.254587 5.124062 26.792481 205 205 205 0
-2.153051 5.126312 26.804244 206 206 206 0
-2.053174 5.132935 26.838877 205 205 205 0
-1.955493 5.146033 26.907362 206 206 206 0
-1.853366 5.148240 26.918900 206 206 206 0
-1.748586 5.142901 26.890984 206 206 206 0
-1.646125 5.144141 26.897469 205 205 205 0
-1.535820 5.119400 26.768103 174 174 174 0
-1.873076 6.689557 34.978077 76 76 76 0
0.995238 6.220240 32.524133 79 79 79 0
1.097096 6.094978 31.869168 93 93 93 0
1.207225 6.036126 31.561442 113 113 113 0
1.317920 5.990548 31.323125 129 129 129 0
1.427134 5.946394 31.092255 138 138 138 0
1.537184 5.912245 30.913700 145 145 145 0
1.648877 5.888847 30.791358 149 149 149 0
1.755927 5.853090 30.604394 153 153 153 0
1.860614 5.814417 30.402182 157 157 157 0
1.972274 5.800804 30.331004 159 159 159 0
2.082588 5.784967 30.248196 163 163 163 0
2.193661 5.772793 30.184539 163 163 163 0
2.301685 5.754214 30.087392 165 165 165 0
2.408871 5.735408 29.989059 167 167 167 0
2.514605 5.715012 29.882414 169 169 169 0
2.626479 5.709737 29.854834 172 172 172 0
2.741281 5.711002 29.861446 173 173 173 0
2.852973 5.705945 29.835009 174 174 174 0
2.956525 5.685625 29.728757 175 175 175 0
3.066988 5.679607 29.697291 175 175 175 0
3.180707 5.679835 29.698482 175 175 175 0
3.296269 5.683222 29.716192 176 176 176 0
3.406224 5.677039 29.683866 176 176 176 0
3.512201 5.664840 29.620080 177 177 177 0
3.628280 5.669187 29.642807 177 177 177 0
3.747595 5.678174 29.689799 178 178 178 0
3.863715 5.681934 29.709460 178 178 178 0
3.974412 5.677731 29.687483 177 177 177 0
4.091738 5.682970 29.714874 179 179 179 0
4.217044 5.698708 29.797166 178 178 178 0
4.335729 5.704906 29.829574 179 179 179 0
4.451945 5.707621 29.843771 178 178 178 0
4.570962 5.713702 29.875569 178 178 178 0
4.705989 5.739011 30.007900 177 177 177 0
4.831927 5.752293 30.077351 175 175 175 0
4.956612 5.763503 30.135962 174 174 174 0
5.098469 5.793715 30.293934 173 173 173 0
5.236655 5.818505 30.423556 173 173 173 0
5.379163 5.846916 30.572109 170 170 170 0
5.533799 5.887020 30.781803 166 166 166 0
5.681790 5.918531 30.946569 157 157 157 0
5.836459 5.955571 31.140238 135 135 135 0
5.972100 5.972100 31.226666 96 96 96 0
6.143931 6.023462 31.495226 77 77 77 0
-7.875776 5.020807 25.737829 203 203 203 0
-7.784112 5.025186 25.760277 203 203 203 0
-7.690692 5.028529 25.777415 202 202 202 0
-7.627263 5.051824 25.896828 202 202 202 0
-7.501405 5.033838 25.804628 203 203 203 0
-7.406563 5.036463 25.818086 202 202 202 0
-7.338395 5.057542 25.926143 203 203 203 0
-7.217997 5.042711 25.850112 203 203 203 0
-7.152945 5.066670 25.972932 203 203 203 0
-7.068500 5.077373 26.027800 203 203 203 0
-6.965069 5.074551 26.013331 203 203 203 0
-6.855451 5.067073 25.974997 203 203 203 0
-6.758985 5.069239 25.986102 204 204 204 0
-6.667021 5.074897 26.015106 202 202 202 0
-6.582914 5.086797 26.076109 203 203 203 0
-6.477084 5.082020 26.051621 204 204 204 0
-6.369654 5.075818 26.019828 203 203 203 0
-6.292797 5.094169 26.113901 204 204 204 0
-6.183113 5.086109 26.072583 203 203 203 0
-6.107043 5.105889 26.173977 203 203 203 0
-6.000175 5.100148 26.144552 204 204 204 0
-5.907389 5.106387 26.176534 203 203 203 0
-5.803428 5.103014 26.159243 203 203 203 0
-5.725587 5.122894 26.261150 204 204 204 0
-5.612040 5.110965 26.200000 203 203 203 0
-5.520809 5.119296 26.242705 203 203 203 0
-5.425402 5.123991 26.266772 203 203 203 0
-5.324257 5.123342 26.263448 204 204 204 0
-5.226927 5.126409 26.279169 204 204 204 0
-5.131387 5.131387 26.304690 204 204 204 0
-5.023169 5.123632 26.264936 203 203 203 0
-4.932506 5.133833 26.317226 204 204 204 0
-4.836547 5.138832 26.342851 205 205 205 0
-4.752919 5.157422 26.438151 205 205 205 0
-4.646560 5.151621 26.408411 204 204 204 0
-4.541098 5.146578 26.382558 205 205 205 0
-4.441379 5.147962 26.389656 204 204 204 0
-4.342027 5.149846 26.399311 204 204 204 0
-4.251056 5.161996 26.461598 205 205 205 0
-4.155399 5.168911 26.497042 204 204 204 0
-4.041071 5.152366 26.412230 205 205 205 0
-3.953744 5.170281 26.504065 204 204 204 0
-3.851323 5.168881 26.496892 205 205 205 0
-3.748457 5.166792 26.486183 205 205 205 0
-3.651068 5.172346 26.514654 204 204 204 0
-3.561257 5.189260 26.601357 205 205 205 0
-3.459520 5.189280 26.601461 204 204 204 0
-3.358370 5.190208 26.606219 206 206 206 0
-3.254021 5.186097 26.585143 205 205 205 0
-3.153586 5.188158 26.595708 205 205 205 0
-3.057643 5.197994 26.646131 206 206 206 0
-2.958291 5.202512 26.669291 205 205 205 0
-2.863702 5.216029 26.738585 205 205 205 0
-2.755553 5.204934 26.681707 205 205 205 0
-2.660340 5.218359 26.750529 205 205 205 0
-2.555373 5.212961 26.722856 205 205 205 0
-2.455217 5.217337 26.745286 206 206 206 0
-2.349613 5.210011 26.707733 206 206 206 0
-2.258823 5.236363 26.842820 205 205 205 0
-2.152437 5.227347 26.796602 205 205 205 0
-2.050200 5.228010 26.800000 205 205 205 0
-1.953068 5.242445 26.873996 205 205 205 0
-1.848443 5.237256 26.847397 206 206 206 0
-1.750662 5.251986 26.922907 206 206 206 0
-1.646005 5.246641 26.895506 205 205 205 0
-1.532227 5.209571 26.705477 170 170 170 0
1.223232 6.238484 31.979927 75 75 75 0
1.339410 6.209994 31.833877 91 91 91 0
1.451976 6.170900 31.633472 111 111 111 0
1.562236 6.128771 31.417510 123 123 123 0
1.671945 6.090656 31.222126 134 134 134 0
1.779965 6.051882 31.023362 141 141 141 0
1.889610 6.023133 30.875985 147 147 147 0
1.996520 5.989560 30.703881 152 152 152 0
2.110079 5.978558 30.647485 155 155 155 0
2.217876 5.953246 30.517731 159 159 159 0
2.324682 5.927940 30.388006 160 160 160 0
2.435549 5.914905 30.321186 163 163 163 0
2.545419 5.900743 30.248587 164 164 164 0
2.659158 5.896394 30.226294 165 165 165 0
2.768051 5.882109 30.153062 166 166 166 0
2.877531 5.870163 30.091829 168 168 168 0
2.984247 5.853716 30.007516 168 168 168 0
3.097238 5.850338 29.990197 170 170 170 0
3.213093 5.852420 30.000873 171 171 171 0
3.326628 5.850277 29.989886 172 172 172 0
3.432535 5.835309 29.913156 172 172 172 0
3.547122 5.835587 29.914584 173 173 173 0
3.666500 5.843484 29.955063 174 174 174 0
3.784586 5.848906 29.982859 174 174 174 0
3.897217 5.845825 29.967065 173 173 173 0
4.009317 5.842148 29.948215 173 173 173 0
4.136437 5.859952 30.039482 173 173 173 0
4.259085 5.870631 30.094224 172 172 172 0
4.380339 5.878876 30.136490 172 172 172 0
4.502760 5.888224 30.184412 171 171 171 0
4.630049 5.903312 30.261756 173 173 173 0
4.763935 5.925871 30.377397 171 171 171 0
4.891576 5.939771 30.448655 169 169 169 0
5.035018 5.971766 30.612667 167 167 167 0
5.178350 6.002178 30.768566 164 164 164 0
5.326028 6.036165 30.942793 158 158 158 0
5.477691 6.073092 31.132090 145 145 145 0
5.625722 6.104507 31.293127 121 121 121 0
5.769694 6.130300 31.425348 93 93 93 0
-7.851151 5.103248 25.657355 202 202 202 0
-7.808001 5.139443 25.839333 202 202 202 0
-7.694367 5.129578 25.789733 202 202 202 0
-7.595577 5.129480 25.789242 202 202 202 0
-7.518298 5.144098 25.862737 202 202 202 0
-7.393011 5.125821 25.770843 202 202 202 0
-7.329811 5.150678 25.895819 203 203 203 0
-7.260801 5.172078 26.003407 202 202 202 0
-7.130344 5.149693 25.890862 203 203 203 0
-7.047250 5.161366 25.949555 203 203 203 0
-6.923121 5.142890 25.856661 203 203 203 0
-6.862700 5.171890 26.002462 203 203 203 0
-6.748914 5.160934 25.947382 203 203 203 0
-6.658729 5.167969 25.982749 203 203 203 0
-6.582914 5.186538 26.076109 204 204 204 0
-6.461432 5.169146 25.988665 204 204 204 0
-6.362642 5.169647 25.991187 203 203 203 0
-6.281178 5.184465 26.065684 203 203 203 0
-6.186420 5.188611 26.086529 204 204 204 0
-6.087405 5.189263 26.089808 204 204 204 0
-5.993856 5.194675 26.117019 203 203 203 0
-5.896604 5.197007 26.128742 204 204 204 0
-5.811806 5.210584 26.197006 204 204 204 0
-5.701856 5.201693 26.152302 203 203 203 0
-5.603319 5.203082 26.159284 204 204 204 0
-5.491123 5.191607 26.101595 204 204 204 0
-5.421864 5.221054 26.249642 204 204 204 0
-5.313504 5.213249 26.210404 204 204 204 0
-5.214108 5.214108 26.214722 204 204 204 0
-5.111077 5.211294 26.200574 204 204 204 0
-5.024788 5.225780 26.273403 205 205 205 0
-4.929468 5.231272 26.301016 204 204 204 0
-4.830977 5.233558 26.312509 204 204 204 0
-4.723343 5.225827 26.273638 204 204 204 0
-4.642506 5.248051 26.385373 204 204 204 0
-4.537102 5.242874 26.359345 204 204 204 0
-4.446497 5.254951 26.420067 205 205 205 0
-4.347446 5.257376 26.432257 205 205 205 0
-4.240153 5.249713 26.393732 204 204 204 0
-4.141858 5.253089 26.410702 204 204 204 0
-4.044305 5.257597 26.433366 204 204 204 0
-3.951545 5.268727 26.489327 204 204 204 0
-3.850065 5.268510 26.488235 205 205 205 0
-3.754828 5.277055 26.531196 204 204 204 0
-3.649124 5.270956 26.500535 204 204 204 0
-3.547045 5.269895 26.495199 205 205 205 0
-3.457697 5.288242 26.587440 205 205 205 0
-3.356627 5.289231 26.592412 204 204 204 0
-3.259218 5.296229 26.627597 205 205 205 0
-3.150815 5.285238 26.572338 205 205 205 0
-3.053697 5.293075 26.611741 205 205 205 0
-2.957838 5.303709 26.665206 205 205 205 0
-2.860177 5.311757 26.705666 205 205 205 0
-2.749899 5.296102 26.626958 206 206 206 0
-2.656338 5.312676 26.710287 205 205 205 0
-2.555274 5.314970 26.721822 206 206 206 0
-2.453724 5.316403 26.729025 205 205 205 0
-2.351915 5.317373 26.733903 205 205 205 0
-2.254097 5.327865 26.786650 205 205 205 0
-2.150392 5.324780 26.771143 206 206 206 0
-2.049549 5.328828 26.791496 205 205 205 0
-1.949385 5.335158 26.823317 206 206 206 0
-1.848800 5.340977 26.852572 206 206 206 0
-1.744493 5.336096 26.828033 206 206 206 0
-1.642833 5.339206 26.843670 205 205 205 0
-1.529507 5.302293 26.658082 171 171 171 0
1.591644 6.366576 32.008929 81 81 81 0
1.704600 6.331371 31.831931 95 95 95 0
1.815249 6.292864 31.638333 113 113 113 0
1.926038 6.259624 31.471213 127 127 127 0
2.034431 6.222965 31.286904 137 137 137 0
2.141589 6.186814 31.105146 144 144 144 0
2.250058 6.158052 30.960544 146 146 146 0
2.357281 6.128931 30.814131 150 150 150 0
2.466673 6.107951 30.708654 153 153 153 0
2.579315 6.096564 30.651402 157 157 157 0
2.692106 6.086501 30.600811 159 159 159 0
2.797878 6.062069 30.477976 160 160 160 0
2.907648 6.047909 30.406782 162 162 162 0
3.019770 6.039540 30.364706 163 163 163 0
3.138434 6.044391 30.389096 165 165 165 0
3.252464 6.040291 30.368481 166 166 166 0
3.362615 6.029516 30.314310 167 167 167 0
3.475084 6.023479 30.283957 167 167 167 0
3.592955 6.026893 30.301120 167 167 167 0
3.712748 6.033215 30.332907 168 168 168 0
3.826629 6.029840 30.315939 168 168 168 0
3.941582 6.028302 30.308207 168 168 168 0
4.067208 6.042709 30.380637 168 168 168 0
4.192210 6.055415 30.444520 169 169 169 0
4.309475 6.056560 30.450276 168 168 168 0
4.437783 6.072755 30.531700 166 166 166 0
4.567055 6.089407 30.615420 165 165 165 0
4.702880 6.113744 30.737775 164 164 164 0
4.843991 6.143598 30.887876 160 160 160 0
4.987108 6.174515 31.043311 154 154 154 0
5.128082 6.201401 31.178486 145 145 145 0
5.259685 6.215992 31.251843 127 127 127 0
5.402883 6.243331 31.389296 100 100 100 0
5.541294 6.264071 31.493570 78 78 78 0
-7.873908 5.216464 25.731725 202 202 202 0
-7.808569 5.238660 25.841214 202 202 202 0
-7.682645 5.220259 25.750445 202 202 202 0
-7.617167 5.242985 25.862547 203 203 203 0
-7.498971 5.229545 25.796253 203 203 203 0
-7.407004 5.234283 25.819622 203 203 203 0
-7.301406 5.229386 25.795465 202 202 202 0
-7.228850 5.248343 25.888979 202 202 202 0
-7.155745 5.267423 25.983097 203 203 203 0
-7.006426 5.230149 25.799232 203 203 203 0
-6.965103 5.273578 26.013457 203 203 203 0
-6.850845 5.262243 25.957545 204 204 204 0
-6.741836 5.254666 25.920168 202 202 202 0
-6.651096 5.261315 25.952964 203 203 203 0
-6.563763 5.270900 26.000248 203 203 203 0
-6.456897 5.264855 25.970427 204 204 204 0
-6.378222 5.281965 26.054829 204 204 204 0
-6.287159 5.289198 26.090505 204 204 204 0
-6.192459 5.293554 26.111993 204 204 204 0
-6.071796 5.275495 26.022912 203 203 203 0
-6.009508 5.308398 26.185219 203 203 203 0
-5.896233 5.296616 26.127101 203 203 203 0
-5.793069 5.293666 26.112548 204 204 204 0
-5.713987 5.313006 26.207946 203 203 203 0
-5.593379 5.293733 26.112878 204 204 204 0
-5.506663 5.306420 26.175461 204 204 204 0
-5.400215 5.300211 26.144830 204 204 204 0
-5.313137 5.313137 26.208591 204 204 204 0
-5.209492 5.309674 26.191513 204 204 204 0
-5.118340 5.319059 26.237805 204 204 204 0
-5.017070 5.318094 26.233044 204 204 204 0
-4.923844 5.325790 26.271008 204 204 204 0
-4.829603 5.332686 26.305026 204 204 204 0
-4.731176 5.335156 26.317207 204 204 204 0
-4.633210 5.338264 26.332538 204 204 204 0
-4.531065 5.336587 26.324268 204 204 204 0
-4.437797 5.345529 26.368374 204 204 204 0
-4.334988 5.343125 26.356515 204 204 204 0
-4.246601 5.358806 26.433869 205 205 205 0
-4.132374 5.341849 26.350222 205 205 205 0
-4.039553 5.352408 26.402307 205 205 205 0
-3.946355 5.362996 26.454535 205 205 205 0
-3.848326 5.367402 26.476270 205 205 205 0
-3.751042 5.373114 26.504449 205 205 205 0
-3.651883 5.376383 26.520574 204 204 204 0
-3.552404 5.379355 26.535233 205 205 205 0
-3.450832 5.379238 26.534656 205 205 205 0
-3.350819 5.381618 26.546394 205 205 205 0
-3.257236 5.394798 26.611409 205 205 205 0
-3.149272 5.384240 26.559328 205 205 205 0
-3.052777 5.393240 26.603723 206 206 206 0
-2.951728 5.394538 26.610128 205 205 205 0
-2.856240 5.406455 26.668909 206 206 206 0
-2.749899 5.397950 26.626958 205 205 205 0
-2.651924 5.405846 26.665906 206 206 206 0
-2.553331 5.413061 26.701497 206 206 206 0
-2.449379 5.409045 26.681688 205 205 205 0
-2.350660 5.416738 26.719636 205 205 205 0
-2.256252 5.435517 26.812267 205 205 205 0
-2.146367 5.417021 26.721031 206 206 206 0
-2.048762 5.429218 26.781197 206 206 206 0
-1.948875 5.436336 26.816309 205 205 205 0
-1.847360 5.439447 26.831656 205 205 205 0
-1.743593 5.435908 26.814196 206 206 206 0
-1.642606 5.441134 26.839974 206 206 206 0
-1.528276 5.399908 26.636614 169 169 169 0
1.948429 6.454171 31.837076 80 80 80 0
2.069479 6.451904 31.825891 92 92 92 0
2.184557 6.432307 31.729223 108 108 108 0
2.292794 6.395689 31.548596 119 119 119 0
2.401740 6.364610 31.395291 129 129 129 0
2.512595 6.341310 31.280357 138 138 138 0
2.624432 6.322496 31.187551 144 144 144 0
2.735223 6.302906 31.090915 147 147 147 0
2.842387 6.276939 30.962825 149 149 149 0
2.957867 6.270679 30.931947 151 151 151 0
3.071390 6.260911 30.883763 156 156 156 0
3.184458 6.250974 30.834745 155 155 155 0
3.296557 6.239912 30.780182 156 156 156 0
3.410793 6.233519 30.748642 157 157 157 0
3.528133 6.233035 30.746256 158 158 158 0
3.647393 6.235866 30.760220 159 159 159 0
3.761709 6.230331 30.732919 159 159 159 0
3.887203 6.243084 30.795828 158 158 158 0
4.012270 6.254421 30.851749 159 159 159 0
4.135479 6.262297 30.890600 157 157 157 0
4.260721 6.272728 30.942057 157 157 157 0
4.390674 6.289343 31.024014 152 152 152 0
4.524910 6.311059 31.131133 149 149 149 0
4.654826 6.325789 31.203795 143 143 143 0
4.790998 6.348072 31.313712 129 129 129 0
4.929871 6.372760 31.435490 110 110 110 0
5.056100 6.380316 31.472765 90 90 90 0
5.172859 6.375850 31.450733 77 77 77 0
-7.894800 5.328990 25.800000 202 202 202 0
-7.797347 5.329832 25.804078 203 203 203 0
-7.674022 5.312785 25.721543 203 203 203 0
-7.606549 5.334463 25.826496 202 202 202 0
-7.517073 5.341078 25.858523 202 202 202 0
-7.406865 5.332943 25.819137 202 202 202 0
-7.319205 5.341041 25.858345 203 203 203 0
-7.233363 5.350707 25.905140 203 203 203 0
-7.117475 5.338106 25.844136 203 203 203 0
-7.057487 5.367666 25.987247 203 203 203 0
-6.965103 5.373080 26.013457 203 203 203 0
-6.830437 5.345559 25.880220 203 203 203 0
-6.745041 5.356356 25.932490 203 203 203 0
-6.651375 5.360810 25.954054 203 203 203 0
-6.553063 5.361597 25.957865 203 203 203 0
-6.450036 5.358492 25.942831 203 203 203 0
-6.358138 5.364679 25.972786 203 203 203 0
-6.254915 5.361356 25.956697 204 204 204 0
-6.196640 5.397074 26.129623 204 204 204 0
-6.091063 5.392088 26.105487 204 204 204 0
-5.958715 5.362844 25.963900 204 204 204 0
-5.874082 5.376278 26.028944 204 204 204 0
-5.784386 5.385462 26.073408 204 204 204 0
-5.694636 5.394919 26.119189 204 204 204 0
-5.603279 5.403162 26.159099 203 203 203 0
-5.495717 5.395795 26.123430 203 203 203 0
-5.409995 5.409995 26.192182 204 204 204 0
-5.310450 5.410647 26.195338 204 204 204 0
-5.211180 5.411610 26.200000 203 203 203 0
-5.114900 5.415776 26.220171 204 204 204 0
-5.022626 5.424436 26.262097 204 204 204 0
-4.919787 5.421806 26.249364 204 204 204 0
-4.824055 5.427061 26.274807 204 204 204 0
-4.724808 5.428503 26.281785 204 204 204 0
-4.622425 5.426325 26.271242 204 204 204 0
-4.537636 5.445163 26.362446 205 205 205 0
-4.428416 5.434874 26.312633 204 204 204 0
-4.335811 5.444972 26.361519 205 205 205 0
-4.239295 5.450523 26.388393 205 205 205 0
-4.143898 5.457817 26.423709 205 205 205 0
-4.040786 5.455061 26.410368 205 205 205 0
-3.941167 5.457001 26.419758 204 204 204 0
-3.846467 5.466033 26.463484 205 205 205 0
-3.740453 5.459040 26.429629 204 204 204 0
-3.642461 5.463691 26.452146 204 204 204 0
-3.541942 5.464710 26.457080 205 205 205 0
-3.441885 5.466523 26.465857 205 205 205 0
-3.356968 5.493220 26.595111 205 205 205 0
-3.253550 5.490366 26.581292 205 205 205 0
-3.149383 5.486023 26.560265 205 205 205 0
-3.051265 5.492278 26.590547 205 205 205 0
-2.952178 5.497159 26.614183 205 205 205 0
-2.856421 5.508812 26.670597 205 205 205 0
-2.744251 5.488502 26.572267 205 205 205 0
-2.651522 5.507008 26.661863 205 205 205 0
-2.547393 5.502369 26.639402 205 205 205 0
-2.447620 5.507146 26.662531 205 205 205 0
-2.346659 5.509547 26.674158 206 206 206 0
-2.243396 5.506518 26.659491 205 205 205 0
-2.148561 5.524871 26.748346 205 205 205 0
-2.044926 5.521300 26.731056 205 205 205 0
-1.945008 5.527917 26.763094 206 206 206 0
-1.843730 5.531191 26.778942 205 205 205 0
-1.742322 5.534434 26.794647 205 205 205 0
-1.641794 5.541055 26.826700 205 205 205 0
-1.527403 5.498652 26.621410 167 167 167 0
2.451935 6.620225 32.051440 80 80 80 0
2.549670 6.556294 31.741922 87 87 87 0
2.669343 6.552024 31.721249 95 95 95 0
2.780228 6.527491 31.602476 105 105 105 0
2.899481 6.523831 31.584756 113 113 113 0
3.007939 6.497148 31.455570 120 120 120 0
3.126179 6.492834 31.434684 126 126 126 0
3.243053 6.486106 31.402110 129 129 129 0
3.357752 6.475664 31.351558 130 130 130 0
3.482376 6.484424 31.393966 134 134 134 0
3.594064 6.469316 31.320823 135 135 135 0
3.712303 6.466593 31.307641 133 133 133 0
3.834914 6.471417 31.330995 131 131 131 0
3.958163 6.476994 31.357996 128 128 128 0
4.081677 6.482663 31.385441 124 124 124 0
4.201936 6.482986 31.387007 117 117 117 0
4.327254 6.490880 31.425225 104 104 104 0
4.447783 6.491358 31.427540 95 95 95 0
4.588309 6.520229 31.567315 86 86 86 0
4.734623 6.555632 31.738716 75 75 75 0
-7.832245 5.384668 25.595571 203 203 203 0
-7.781742 5.417669 25.752436 203 203 203 0
-7.712302 5.438162 25.849848 203 203 203 0
-7.577186 5.412276 25.726801 203 203 203 0
-7.482172 5.414730 25.738466 203 203 203 0
-7.396765 5.424295 25.783931 202 202 202 0
-7.321384 5.441569 25.866043 203 203 203 0
-7.210679 5.432704 25.823903 202 202 202 0
-7.132223 5.448226 25.897688 203 203 203 0
-7.037384 5.451494 25.913223 202 202 202 0
-6.903533 5.424204 25.783502 203 203 203 0
-6.834608 5.447876 25.896024 203 203 203 0
-6.729603 5.443062 25.873139 203 203 203 0
-6.646776 5.456309 25.936108 203 203 203 0
-6.544829 5.454024 25.925247 203 203 203 0
-6.471278 5.475696 26.028266 203 203 203 0
-6.351930 5.458690 25.947428 203 203 203 0
-6.264630 5.469121 25.997010 202 202 202 0
-6.177269 5.479836 26.047942 204 204 204 0
-6.082156 5.483911 26.067312 203 203 203 0
-5.983901 5.485243 26.073643 203 203 203 0
-5.889113 5.489851 26.095549 204 204 204 0
-5.786283 5.486992 26.081960 204 204 204 0
-5.687327 5.487772 26.085665 204 204 204 0
-5.602742 5.502693 26.156592 204 204 204 0
-5.501095 5.501095 26.148994 204 204 204 0
-5.402608 5.502656 26.156415 204 204 204 0
-5.302931 5.503042 26.158249 203 203 203 0
-5.198445 5.498355 26.135972 204 204 204 0
-5.103636 5.503921 26.162431 204 204 204 0
-5.002017 5.502219 26.154338 204 204 204 0
-4.910535 5.511825 26.200000 204 204 204 0
-4.818270 5.520934 26.243301 204 204 204 0
-4.713993 5.516374 26.221625 204 204 204 0
-4.639103 5.546754 26.366031 205 205 205 0
-4.528283 5.534568 26.308106 205 205 205 0
-4.425258 5.531573 26.293869 204 204 204 0
-4.339556 5.550595 26.384292 205 205 205 0
-4.246209 5.560512 26.431430 204 204 204 0
-4.129637 5.539757 26.332775 205 205 205 0
-4.032459 5.544632 26.355944 205 205 205 0
-3.934814 5.549096 26.377165 205 205 205 0
-3.840949 5.559269 26.425520 204 204 204 0
-3.735448 5.552693 26.394263 204 204 204 0
-3.645017 5.568775 26.470709 204 204 204 0
-3.537695 5.559235 26.425359 205 205 205 0
-3.444035 5.571233 26.482390 205 205 205 0
-3.346253 5.577088 26.510221 205 205 205 0
-3.255566 5.595505 26.597765 204 204 204 0
-3.142090 5.574675 26.498755 205 205 205 0
-3.046686 5.585590 26.550637 205 205 205 0
-2.946545 5.588276 26.563403 205 205 205 0
-2.847344 5.592997 26.585845 205 205 205 0
-2.751437 5.604780 26.641852 205 205 205 0
-2.651732 5.609433 26.663970 205 205 205 0
-2.547911 5.605404 26.644818 206 206 206 0
-2.449379 5.613160 26.681688 205 205 205 0
-2.342949 5.602703 26.631983 206 206 206 0
-2.247240 5.618099 26.705165 205 205 205 0
-2.142566 5.611483 26.673716 205 205 205 0
-2.044940 5.623585 26.731240 206 206 206 0
-1.946067 5.633351 26.777665 206 206 206 0
-1.842650 5.630319 26.763251 206 206 206 0
-1.736903 5.619391 26.711307 206 206 206 0
-1.638166 5.631197 26.767423 204 204 204 0
-1.526212 5.596110 26.600641 168 168 168 0
3.509794 6.656506 31.641144 76 76 76 0
2.852925 5.230362 24.862090 75 75 75 0
-7.882646 5.517853 25.760282 203 203 203 0
-7.772563 5.509665 25.722060 202 202 202 0
-7.671341 5.507630 25.712556 203 203 203 0
-7.576632 5.510278 25.724921 203 203 203 0
-7.451444 5.490538 25.632763 203 203 203 0
-7.385120 5.514223 25.743337 203 203 203 0
-7.293927 5.519729 25.769042 202 202 202 0
-7.192746 5.517723 25.759677 203 203 203 0
-7.143036 5.555694 25.936948 203 203 203 0
-7.036883 5.550218 25.911381 203 203 203 0
-6.930323 5.544258 25.883558 204 204 204 0
-6.841447 5.552479 25.921936 202 202 202 0
-6.740286 5.550823 25.914209 204 204 204 0
-6.623028 5.535665 25.843442 203 203 203 0
-6.570955 5.575355 26.028737 203 203 203 0
-6.439728 5.548073 25.901370 203 203 203 0
-6.360602 5.565527 25.982852 204 204 204 0
-6.252053 5.557380 25.944819 203 203 203 0
-6.148683 5.553650 25.927402 204 204 204 0
-6.060228 5.563488 25.973331 204 204 204 0
-5.989500 5.590200 26.098039 203 203 203 0
-5.872375 5.573780 26.021380 204 204 204 0
-5.786493 5.586959 26.082906 204 204 204 0
-5.685291 5.585549 26.076328 204 204 204 0
-5.612598 5.612598 26.202606 204 204 204 0
-5.498010 5.597974 26.134333 204 204 204 0
-5.402858 5.602964 26.157628 204 204 204 0
-5.299018 5.598962 26.138946 204 204 204 0
-5.209392 5.610115 26.191011 203 203 203 0
-5.117915 5.619672 26.235628 204 204 204 0
-5.013226 5.614813 26.212945 204 204 204 0
-4.917863 5.620414 26.239097 204 204 204 0
-4.817637 5.620576 26.239851 204 204 204 0
-4.714189 5.616906 26.222719 204 204 204 0
-4.628013 5.634103 26.303001 204 204 204 0
-4.523973 5.629833 26.283067 205 205 205 0
-4.427626 5.635160 26.307939 204 204 204 0
-4.324387 5.631760 26.292062 204 204 204 0
-4.225075 5.633434 26.299878 205 205 205 0
-4.129026 5.639646 26.328878 204 204 204 0
-4.031255 5.643757 26.348072 204 204 204 0
-3.931775 5.645625 26.356795 205 205 205 0
-3.833506 5.649377 26.374310 204 204 204 0
-3.748027 5.672690 26.483148 205 205 205 0
-3.639078 5.660787 26.427578 205 205 205 0
-3.541672 5.666675 26.455066 204 204 204 0
-3.444133 5.672690 26.483145 205 205 205 0
-3.339223 5.666561 26.454532 205 205 205 0
-3.247368 5.682894 26.530783 205 205 205 0
-3.140340 5.672872 26.483998 205 205 205 0
-3.041495 5.677457 26.505403 205 205 205 0
-2.943487 5.683976 26.535834 205 205 205 0
-2.845571 5.691141 26.569288 204 204 204 0
-2.745343 5.694046 26.582846 206 206 206 0
-2.644735 5.696353 26.593618 205 205 205 0
-2.543404 5.697225 26.597691 205 205 205 0
-2.446504 5.708509 26.650367 205 205 205 0
-2.346340 5.712827 26.670528 206 206 206 0
-2.241736 5.706237 26.639763 206 206 206 0
-2.142750 5.713999 26.675998 205 205 205 0
-2.041001 5.714802 26.679749 206 206 206 0
-1.942434 5.725068 26.727674 205 205 205 0
-1.840499 5.725998 26.732017 205 205 205 0
-1.737205 5.722559 26.715961 206 206 206 0
-1.637555 5.731443 26.757439 205 205 205 0
-1.526698 5.699671 26.609110 167 167 167 0
-7.843608 5.588571 25.632707 202 202 202 0
-7.769037 5.605508 25.710389 203 203 203 0
-7.664989 5.601338 25.691267 202 202 202 0
-7.574563 5.607144 25.717894 203 203 203 0
-7.448525 5.586393 25.622720 202 202 202 0
-7.416485 5.636529 25.852671 203 203 203 0
-7.302690 5.625045 25.800000 202 202 202 0
-7.189164 5.613457 25.746848 203 203 203 0
-7.089172 5.612261 25.741366 203 203 203 0
-7.035500 5.648218 25.906286 203 203 203 0
-6.920780 5.635492 25.847916 204 204 204 0
-6.830437 5.642535 25.880220 203 203 203 0
-6.736164 5.646491 25.898363 203 203 203 0
-6.611463 5.624677 25.798313 203 203 203 0
-6.549050 5.655998 25.941970 203 203 203 0
-6.413563 5.624201 25.796131 203 203 203 0
-6.337679 5.644496 25.889213 204 204 204 0
-6.258358 5.662324 25.970985 203 203 203 0
-6.168258 5.670818 26.009942 204 204 204 0
-6.055875 5.658768 25.954675 203 203 203 0
-5.970863 5.672320 26.016833 203 203 203 0
-5.874931 5.675781 26.032708 204 204 204 0
-5.775805 5.676222 26.034732 204 204 204 0
-5.691833 5.691833 26.106330 204 204 204 0
-5.593392 5.693274 26.112941 204 204 204 0
-5.471642 5.670611 26.008994 204 204 204 0
-5.382744 5.681785 26.060245 204 204 204 0
-5.288613 5.687754 26.087622 204 204 204 0
-5.188619 5.687525 26.086571 204 204 204 0
-5.095370 5.694826 26.120058 204 204 204 0
-5.000743 5.700847 26.147677 204 204 204 0
-4.904950 5.705758 26.170202 204 204 204 0
-4.811929 5.714166 26.208765 203 203 203 0
-4.710105 5.712255 26.200000 204 204 204 0
-4.609890 5.712255 26.200000 204 204 204 0
-4.519800 5.725079 26.258821 205 205 205 0
-4.422508 5.729158 26.277526 205 205 205 0
-4.325173 5.733368 26.296838 204 204 204 0
-4.233175 5.745023 26.350295 205 205 205 0
-4.126344 5.736625 26.311776 205 205 205 0
-4.029244 5.741673 26.334930 204 204 204 0
-3.933999 5.749690 26.371702 204 204 204 0
-3.830353 5.745530 26.352620 205 205 205 0
-3.737487 5.757751 26.408671 205 205 205 0
-3.638644 5.761186 26.424428 205 205 205 0
-3.538093 5.762037 26.428333 204 204 204 0
-3.435232 5.759066 26.414705 205 205 205 0
-3.341401 5.771510 26.471783 205 205 205 0
-3.248696 5.786740 26.541637 205 205 205 0
-3.138884 5.771496 26.471717 205 205 205 0
-3.040215 5.776409 26.494253 205 205 205 0
-2.941635 5.781835 26.519137 205 205 205 0
-2.848020 5.797755 26.592156 205 205 205 0
-2.750016 5.805590 26.628092 206 206 206 0
-2.637461 5.782126 26.520474 206 206 206 0
-2.545106 5.802841 26.615485 205 205 205 0
-2.443643 5.803651 26.619201 205 205 205 0
-2.341670 5.803270 26.617451 205 205 205 0
-2.240573 5.805121 26.625944 205 205 205 0
-2.139972 5.808496 26.641423 205 205 205 0
-2.041548 5.818413 26.686907 205 205 205 0
-1.941225 5.823675 26.711042 206 206 206 0
-1.839091 5.823788 26.711562 206 206 206 0
-1.737880 5.827011 26.726341 205 205 205 0
-1.636385 5.829623 26.738322 204 204 204 0
-1.524943 5.794782 26.578520 165 165 165 0
-1.406671 5.727161 26.268368 76 76 76 0
-7.851582 5.692397 25.658764 202 202 202 0
-7.762439 5.699006 25.688554 203 203 203 0
-7.674570 5.706732 25.723380 202 202 202 0
-7.555563 5.691203 25.653385 202 202 202 0
-7.468162 5.699387 25.690272 202 202 202 0
-7.391193 5.715856 25.764507 203 203 203 0
-7.292664 5.715872 25.764580 203 203 203 0
-7.191275 5.713616 25.754409 203 203 203 0
-7.107257 5.725290 25.807033 203 203 203 0
-6.990808 5.710801 25.741722 204 204 204 0
-6.891581 5.710167 25.738864 203 203 203 0
-6.818761 5.731712 25.835978 203 203 203 0
-6.721143 5.732739 25.840610 204 204 204 0
-6.611895 5.723730 25.800000 204 204 204 0
-6.538571 5.746017 25.900458 203 203 203 0
-6.435241 5.742215 25.883323 203 203 203 0
-6.337831 5.743659 25.889831 203 203 203 0
-6.249212 5.753243 25.933030 204 204 204 0
-6.156362 5.759178 25.959781 204 204 204 0
-6.066576 5.768220 26.000542 204 204 204 0
-5.968185 5.769246 26.005164 204 204 204 0
-5.871050 5.771541 26.015510 204 204 204 0
-5.771376 5.771376 26.014769 204 204 204 0
-5.696615 5.796555 26.128264 204 204 204 0
-5.596971 5.796863 26.129651 203 203 203 0
-5.475524 5.774189 26.027448 204 204 204 0
-5.386583 5.785589 26.078835 204 204 204 0
-5.287270 5.786069 26.080996 204 204 204 0
-5.198132 5.797917 26.134400 203 203 203 0
-5.103222 5.803664 26.160308 204 204 204 0
-5.004547 5.805274 26.167565 204 204 204 0
-4.906964 5.808244 26.180949 204 204 204 0
-4.803736 5.804514 26.164139 204 204 204 0
-4.708559 5.810562 26.191399 204 204 204 0
-4.625899 5.832655 26.290987 205 205 205 0
-4.517833 5.822985 26.247397 205 205 205 0
-4.422105 5.829139 26.275137 204 204 204 0
-4.312886 5.817382 26.222139 204 204 204 0
-4.220271 5.827993 26.269972 205 205 205 0
-4.126630 5.837671 26.313595 204 204 204 0
-4.019848 5.828779 26.273514 204 204 204 0
-3.923859 5.835483 26.303732 205 205 205 0
-3.827630 5.842172 26.333883 205 205 205 0
-3.739206 5.861458 26.420814 205 205 205 0
-3.631840 5.851298 26.375020 205 205 205 0
-3.528696 5.847554 26.358142 205 205 205 0
-3.434259 5.858442 26.407222 205 205 205 0
-3.334924 5.861382 26.420472 205 205 205 0
-3.232110 5.858200 26.406129 206 206 206 0
-3.141254 5.877185 26.491707 205 205 205 0
-3.039537 5.876438 26.488339 205 205 205 0
-2.937979 5.875959 26.486179 206 206 206 0
-2.843883 5.890900 26.553529 206 206 206 0
-2.745506 5.897753 26.584419 205 205 205 0
-2.644407 5.899062 26.590316 205 205 205 0
-2.539161 5.890853 26.553314 205 205 205 0
-2.444742 5.908126 26.631175 206 206 206 0
-2.346119 5.916299 26.668014 206 206 206 0
-2.240662 5.907200 26.627000 205 205 205 0
-2.138265 5.905685 26.620170 206 206 206 0
-2.040398 5.917155 26.671874 205 205 205 0
-1.940198 5.922710 26.696913 206 206 206 0
-1.835097 5.913092 26.653557 206 206 206 0
-1.735126 5.919843 26.683987 206 206 206 0
-1.635075 5.927146 26.716908 205 205 205 0
-1.522914 5.888601 26.543164 164 164 164 0
-7.836162 5.779169 25.608372 202 202 202 0
-7.732764 5.775102 25.590349 202 202 202 0
-7.662964 5.796345 25.684479 202 202 202 0
-7.565182 5.796698 25.686044 202 202 202 0
-7.500060 5.822415 25.800000 203 203 203 0
-7.376660 5.802973 25.713849 203 203 203 0
-7.275951 5.801096 25.705534 202 202 202 0
-7.192102 5.812795 25.757372 203 203 203 0
-7.111936 5.827836 25.824023 203 203 203 0
-6.956112 5.780431 25.613964 204 204 204 0
-6.895969 5.812317 25.755254 203 203 203 0
-6.799408 5.813986 25.762651 203 203 203 0
-6.709337 5.821337 25.795223 203 203 203 0
-6.627587 5.836233 25.861231 203 203 203 0
-6.526110 5.833947 25.851101 203 203 203 0
-6.408410 5.816864 25.775403 203 203 203 0
-6.343927 5.848307 25.914733 203 203 203 0
-6.244213 5.847755 25.912286 203 203 203 0
-6.150846 5.853224 25.936520 204 204 204 0
-6.048244 5.849941 25.921972 204 204 204 0
-5.954803 5.855556 25.946852 204 204 204 0
-5.863350 5.863350 25.981390 203 203 203 0
-5.767407 5.866845 25.996878 203 203 203 0
-5.665602 5.864395 25.986021 204 204 204 0
-5.585101 5.884303 26.074236 204 204 204 0
-5.486851 5.885894 26.081286 204 204 204 0
-5.375568 5.873306 26.025506 204 204 204 0
-5.294494 5.893871 26.116633 204 204 204 0
-5.187858 5.886223 26.082745 204 204 204 0
-5.085188 5.882865 26.067861 204 204 204 0
-4.988897 5.886899 26.085738 204 204 204 0
-4.898027 5.897624 26.133263 204 204 204 0
-4.809237 5.911353 26.194099 204 204 204 0
-4.706228 5.907818 26.178432 204 204 204 0
-4.609935 5.912742 26.200255 205 205 205 0
-4.514316 5.918770 26.226963 203 203 203 0
-4.418923 5.925374 26.256227 205 205 205 0
-4.320957 5.928754 26.271206 204 204 204 0
-4.218433 5.925894 26.258531 204 204 204 0
-4.116315 5.923477 26.247822 204 204 204 0
-4.025166 5.937120 26.308275 205 205 205 0
-3.925375 5.938388 26.313893 205 205 205 0
-3.822498 5.934932 26.298579 205 205 205 0
-3.729674 5.947318 26.353466 205 205 205 0
-3.633763 5.955334 26.388985 205 205 205 0
-3.525696 5.943317 26.335735 205 205 205 0
-3.434351 5.959609 26.407929 205 205 205 0
-3.338286 5.968451 26.447109 205 205 205 0
-3.235418 5.965303 26.433157 204 204 204 0
-3.134787 5.966208 26.437169 205 205 205 0
-3.032959 5.964820 26.431016 205 205 205 0
-2.940194 5.981775 26.506148 206 206 206 0
-2.835433 5.974662 26.474630 205 205 205 0
-2.736156 5.979008 26.493887 205 205 205 0
-2.641010 5.993062 26.556162 205 205 205 0
-2.540679 5.996004 26.569197 205 205 205 0
-2.438226 5.993973 26.560200 206 206 206 0
-2.337681 5.996660 26.572108 206 206 206 0
-2.236339 5.997454 26.575625 205 205 205 0
-2.141440 6.016428 26.659699 206 206 206 0
-2.039387 6.016191 26.658651 205 205 205 0
-1.939538 6.022777 26.687835 206 206 206 0
-1.841846 6.037163 26.751579 205 205 205 0
-1.732917 6.014240 26.650008 206 206 206 0
-1.632958 6.021534 26.682324 205 205 205 0
-1.520182 5.979383 26.495548 162 162 162 0
-7.835207 5.876405 25.605253 202 202 202 0
-7.720127 5.863387 25.548528 202 202 202 0
-7.669318 5.899475 25.705775 202 202 202 0
-7.550948 5.883855 25.637714 203 203 203 0
-7.428184 5.864356 25.552749 203 203 203 0
-7.371959 5.897567 25.697462 203 203 203 0
-7.270646 5.895118 25.686790 203 203 203 0
-7.180633 5.901890 25.716297 202 202 202 0
-7.068910 5.890758 25.667791 203 203 203 0
-6.992205 5.908906 25.746867 203 203 203 0
-6.889896 5.905625 25.732572 203 203 203 0
-6.800448 5.913433 25.766592 203 203 203 0
-6.703762 5.915085 25.773789 202 202 202 0
-6.608213 5.917802 25.785632 203 203 203 0
-6.519664 5.926967 25.825564 203 203 203 0
-6.444604 5.948865 25.920981 204 204 204 0
-6.326943 5.931509 25.845356 203 203 203 0
-6.231459 5.934723 25.859360 203 203 203 0
-6.148874 5.950523 25.928206 204 204 204 0
-6.053516 5.954278 25.944566 203 203 203 0
-5.955924 5.955924 25.951741 204 204 204 0
-5.846921 5.946022 25.908591 204 204 204 0
-5.756962 5.955477 25.949793 204 204 204 0
-5.666267 5.964492 25.989070 203 203 203 0
-5.578881 5.977372 26.045196 203 203 203 0
-5.458358 5.954572 25.945847 204 204 204 0
-5.376853 5.974281 26.031725 204 204 204 0
-5.282911 5.980654 26.059494 204 204 204 0
-5.188009 5.986164 26.083502 204 204 204 0
-5.077799 5.973882 26.029986 204 204 204 0
-4.992981 5.991577 26.107091 204 204 204 0
-4.893910 5.992543 26.111296 204 204 204 0
-4.795551 5.994439 26.119561 204 204 204 0
-4.693485 5.991683 26.107551 204 204 204 0
-4.606538 6.008527 26.180946 205 205 205 0
-4.505979 6.007972 26.178525 204 204 204 0
-4.408473 6.011555 26.194138 205 205 205 0
-4.308668 6.012095 26.196493 204 204 204 0
-4.207416 6.010594 26.189952 204 204 204 0
-4.127774 6.040645 26.320892 205 205 205 0
-4.018400 6.027601 26.264055 204 204 204 0
-3.920910 6.032169 26.283960 205 205 205 0
-3.822755 6.035929 26.300345 204 204 204 0
-3.724626 6.039935 26.317798 205 205 205 0
-3.633460 6.055767 26.386784 204 204 204 0
-3.525829 6.044279 26.336728 205 205 205 0
-3.435499 6.062646 26.416759 204 204 204 0
-3.326095 6.047445 26.350522 205 205 205 0
-3.238253 6.071724 26.456316 205 205 205 0
-3.135073 6.067884 26.439582 205 205 205 0
-3.034809 6.069617 26.447134 204 204 204 0
-2.935623 6.073703 26.464938 205 205 205 0
-2.833129 6.070990 26.453116 205 205 205 0
-2.744212 6.098248 26.571887 205 205 205 0
-2.632703 6.075469 26.472633 205 205 205 0
-2.536477 6.087546 26.525254 205 205 205 0
-2.434412 6.086029 26.518647 205 205 205 0
-2.337733 6.098434 26.572696 205 205 205 0
-2.233227 6.090619 26.538646 205 205 205 0
-2.139324 6.112355 26.633355 205 205 205 0
-2.035720 6.107161 26.610724 205 205 205 0
-1.936917 6.116581 26.651768 205 205 205 0
-1.837626 6.125418 26.690276 206 206 206 0
-1.734793 6.122799 26.678862 205 205 205 0
-1.632395 6.121481 26.673118 205 205 205 0
-1.515586 6.062342 26.415434 160 160 160 0
-7.820455 5.963097 25.557042 203 203 203 0
-7.732764 5.970868 25.590349 202 202 202 0
-7.647322 5.980598 25.632048 202 202 202 0
-7.558051 5.987547 25.661830 202 202 202 0
-7.457310 5.985472 25.652941 202 202 202 0
-7.337332 5.967697 25.576757 202 202 202 0
-7.267689 5.990933 25.676345 202 202 202 0
-7.184220 6.003253 25.729145 202 202 202 0
-7.068789 5.988836 25.667355 203 203 203 0
-6.975374 5.992927 25.684891 204 204 204 0
-6.903214 6.015658 25.782312 203 203 203 0
-6.802612 6.013903 25.774792 202 202 202 0
-6.717783 6.026247 25.827694 203 203 203 0
-6.641460 6.046702 25.915364 203 203 203 0
-6.507293 6.014316 25.776560 203 203 203 0
-6.407376 6.013076 25.771246 204 204 204 0
-6.324213 6.027765 25.834202 204 204 204 0
-6.238708 6.040653 25.889439 203 203 203 0
-6.125415 6.026618 25.829285 203 203 203 0
-6.035973 6.035973 25.869379 203 203 203 0
-5.928414 6.027221 25.831869 203 203 203 0
-5.851248 6.049595 25.927761 203 203 203 0
-5.760538 6.058497 25.965915 203 203 203 0
-5.655624 6.052510 25.940257 203 203 203 0
-5.573960 6.071635 26.022222 204 204 204 0
-5.463231 6.059220 25.969012 204 204 204 0
-5.368479 6.064393 25.991184 203 203 203 0
-5.280949 6.078073 26.049814 204 204 204 0
-5.168853 6.063462 25.987195 204 204 204 0
-5.079105 6.075008 26.036677 204 204 204 0
-4.992969 6.091422 26.107029 204 204 204 0
-4.892022 6.090069 26.101226 205 205 205 0
-4.792734 6.090766 26.104216 204 204 204 0
-4.694198 6.092469 26.111516 205 205 205 0
-4.589969 6.086699 26.086783 205 205 205 0
-4.504321 6.105857 26.168892 204 204 204 0
-4.403015 6.104180 26.161705 204 204 204 0
-4.313665 6.119386 26.226875 205 205 205 0
-4.210732 6.115587 26.210593 205 205 205 0
-4.108815 6.113115 26.200000 204 204 204 0
-4.012383 6.118884 26.224723 204 204 204 0
-3.918234 6.128519 26.266021 204 204 204 0
-3.821325 6.134233 26.290509 205 205 205 0
-3.717200 6.128357 26.265325 204 204 204 0
-3.623661 6.140093 26.315623 204 204 204 0
-3.511048 6.119255 26.226315 205 205 205 0
-3.424907 6.144687 26.335312 204 204 204 0
-3.327055 6.150010 26.358129 205 205 205 0
-3.234896 6.166520 26.428886 205 205 205 0
-3.134415 6.167720 26.434029 205 205 205 0
-3.029066 6.159101 26.397092 204 204 204 0
-2.935766 6.175232 26.466226 206 206 206 0
-2.836665 6.179877 26.486134 205 205 205 0
-2.735906 6.181120 26.491462 205 205 205 0
-2.637683 6.188410 26.522703 206 206 206 0
-2.535218 6.185932 26.512083 205 205 205 0
-2.434644 6.188055 26.521181 205 205 205 0
-2.336926 6.197934 26.563522 205 205 205 0
-2.232998 6.191494 26.535921 205 205 205 0
-2.131389 6.191178 26.534567 206 206 206 0
-2.032756 6.199907 26.571980 205 205 205 0
-1.934391 6.210414 26.617010 205 205 205 0
-1.831827 6.207857 26.606050 205 205 205 0
-1.730409 6.209115 26.611443 206 206 206 0
-1.631647 6.220654 26.660898 205 205 205 0
-1.517373 6.170649 26.446581 160 160 160 0
-7.831873 6.069702 25.594357 202 202 202 0
-7.724620 6.062360 25.563398 203 203 203 0
-7.628055 6.063326 25.567470 203 203 203 0
-7.533030 6.065556 25.576877 202 202 202 0
-7.441991 6.071098 25.600244 202 202 202 0
-7.335984 6.064413 25.572057 202 202 202 0
-7.255461 6.078900 25.633143 203 203 203 0
-7.160351 6.081394 25.643660 203 203 203 0
-7.088909 6.104338 25.740409 203 203 203 0
-6.984723 6.099335 25.719315 203 203 203 0
-6.888300 6.101065 25.726609 203 203 203 0
-6.810889 6.119929 25.806154 203 203 203 0
-6.693007 6.102448 25.732438 203 203 203 0
-6.587391 6.095795 25.704384 204 204 204 0
-6.526618 6.131066 25.853113 203 203 203 0
-6.421208 6.124845 25.826880 203 203 203 0
-6.324255 6.126622 25.834375 203 203 203 0
-6.219509 6.120787 25.809770 204 204 204 0
-6.137286 6.137286 25.879342 203 203 203 0
-6.036472 6.135430 25.871517 202 202 202 0
-5.935177 6.133016 25.861338 204 204 204 0
-5.844260 6.141426 25.896799 203 203 203 0
-5.756164 6.153141 25.946198 203 203 203 0
-5.651647 6.147405 25.922012 204 204 204 0
-5.558205 6.153727 25.948668 204 204 204 0
-5.456100 6.150513 25.935116 204 204 204 0
-5.362851 6.157347 25.963934 204 204 204 0
-5.269381 6.164181 25.992752 204 204 204 0
-5.167956 6.161793 25.982683 204 204 204 0
-5.067202 6.160128 25.975662 204 204 204 0
-4.991484 6.189441 26.099264 205 205 205 0
-4.888677 6.185673 26.083377 204 204 204 0
-4.796973 6.196091 26.127306 205 205 205 0
-4.683435 6.178148 26.051648 204 204 204 0
-4.593409 6.191117 26.106332 204 204 204 0
-4.510145 6.213977 26.202729 205 205 205 0
-4.401232 6.201737 26.151114 204 204 204 0
-4.308706 6.212553 26.196725 205 205 205 0
-4.207677 6.211333 26.191580 205 205 205 0
-4.103685 6.205572 26.167288 204 204 204 0
-4.007034 6.210902 26.189764 205 205 205 0
