ply
format ascii 1.0
element vertex 1126
property float x
property float y
property float z
property uchar red
property uchar green
property uchar blue
property uchar alpha
end_header
7.403449 4.902284 26.155975 209 209 209 0
7.523642 4.915446 26.226204 209 209 209 0
7.637512 4.924185 26.272830 209 209 209 0
7.750470 4.932117 26.315152 209 209 209 0
7.864483 4.940508 26.359922 208 208 208 0
7.982866 4.951398 26.418022 209 209 209 0
-6.075194 4.602419 24.064938 92 92 92 0
-5.865602 4.512002 23.592166 125 125 125 0
-5.696635 4.450496 23.270566 139 139 139 0
-5.542630 4.398913 23.000850 151 151 151 0
-5.392833 4.349059 22.740177 153 153 153 0
-5.251468 4.304482 22.507096 161 161 161 0
-5.115278 4.262732 22.288794 166 166 166 0
-5.004710 4.241279 22.176624 167 167 167 0
-4.900217 4.224325 22.087975 168 168 168 0
-4.802467 4.212690 22.027137 175 175 175 0
-4.692837 4.190033 21.908671 178 178 178 0
-4.574593 4.158721 21.744945 179 179 179 0
-4.469146 4.138098 21.637114 180 180 180 0
-4.364939 4.117867 21.531331 181 181 181 0
-4.265237 4.101189 21.444126 185 185 185 0
-4.172796 4.090977 21.390728 187 187 187 0
-4.089183 4.089183 21.381348 188 188 188 0
-3.989967 4.071395 21.288340 188 188 188 0
-3.894915 4.057204 21.214136 189 189 189 0
-3.786464 4.028153 21.062238 189 189 189 0
-3.702283 4.024220 21.041675 187 187 187 0
-3.610050 4.011166 20.973418 178 178 178 0
-3.520987 4.001122 20.920897 169 169 169 0
-3.418010 3.974430 20.781334 172 172 172 0
-3.325970 3.959489 20.703208 176 176 176 0
-3.227797 3.936338 20.582161 178 178 178 0
-3.124810 3.906012 20.423593 179 179 179 0
-3.033088 3.888574 20.332414 180 180 180 0
-2.946916 3.877520 20.274617 181 181 181 0
-2.867663 3.875220 20.262587 182 182 182 0
-2.782784 3.864978 20.209034 185 185 185 0
-2.697891 3.854130 20.152312 188 188 188 0
-2.608751 3.836398 20.059597 189 189 189 0
-2.520765 3.819341 19.970413 190 190 190 0
-2.437981 3.809345 19.918144 190 190 190 0
-2.358513 3.804052 19.890470 190 190 190 0
-2.280445 3.800742 19.873161 191 191 191 0
-2.201640 3.795931 19.848007 190 190 190 0
-2.119558 3.784926 19.790461 191 191 191 0
-2.036455 3.771212 19.718757 192 192 192 0
-1.955763 3.761083 19.665796 195 195 195 0
-1.879028 3.758056 19.649967 196 196 196 0
-1.803465 3.757219 19.645591 197 197 197 0
-1.728222 3.757005 19.644470 197 197 197 0
-1.652109 3.754794 19.632910 198 198 198 0
-1.571948 3.742734 19.569852 199 199 199 0
-1.495227 3.738068 19.545456 199 199 199 0
-1.416275 3.727039 19.487785 199 199 199 0
-1.341700 3.726945 19.487296 200 200 200 0
-1.268281 3.730239 19.504518 200 200 200 0
-1.192999 3.728123 19.493451 200 200 200 0
-1.117882 3.726272 19.483775 201 201 201 0
-1.040949 3.717676 19.438829 200 200 200 0
-0.965270 3.712577 19.412170 201 201 201 0
-0.891280 3.713666 19.417862 201 201 201 0
-0.817406 3.715482 19.427358 202 202 202 0
-0.743923 3.719615 19.448968 202 202 202 0
-0.668842 3.715787 19.428953 202 202 202 0
-0.593711 3.710692 19.402311 202 202 202 0
-0.519646 3.711760 19.407897 202 202 202 0
-0.445056 3.708800 19.392421 203 203 203 0
-0.371575 3.715752 19.428768 203 203 203 0
-0.297385 3.717312 19.436926 203 203 203 0
-0.223076 3.717931 19.440160 203 203 203 0
-0.148604 3.715090 19.425306 204 204 204 0
-0.074374 3.718722 19.444298 204 204 204 0
0.000000 3.717921 19.440111 205 205 205 0
0.074470 3.723483 19.469195 204 204 204 0
0.149247 3.731173 19.509403 204 204 204 0
0.223781 3.729682 19.501604 205 205 205 0
0.298451 3.730638 19.506606 206 206 206 0
0.373422 3.734222 19.525341 205 205 205 0
0.448821 3.740179 19.556491 206 206 206 0
0.524668 3.747626 19.595432 206 206 206 0
0.600585 3.753655 19.626952 205 205 205 0
0.674864 3.749247 19.603906 206 206 206 0
0.750675 3.753373 19.625482 206 206 206 0
0.828066 3.763934 19.680702 206 206 206 0
0.905060 3.771081 19.718072 205 205 205 0
0.981013 3.773125 19.728759 205 205 205 0
1.058728 3.781172 19.770833 204 204 204 0
1.136648 3.788828 19.810866 205 205 205 0
1.216133 3.800415 19.871451 205 205 205 0
1.295822 3.811240 19.928052 204 204 204 0
1.374965 3.819347 19.970440 205 205 205 0
1.452826 3.823225 19.990721 204 204 204 0
1.532118 3.830296 20.027692 205 205 205 0
1.615512 3.846456 20.112188 205 205 205 0
1.697153 3.857167 20.168192 205 205 205 0
1.779197 3.867819 20.223893 204 204 204 0
1.859511 3.873980 20.256107 202 202 202 0
1.947164 3.894328 20.362499 202 202 202 0
2.033477 3.910532 20.447228 203 203 203 0
2.118557 3.923254 20.513745 203 203 203 0
2.205609 3.938587 20.593921 202 202 202 0
2.293784 3.954800 20.678691 202 202 202 0
2.388444 3.980740 20.814326 201 201 201 0
2.479641 3.999421 20.912003 200 200 200 0
2.570254 4.016022 20.998807 200 200 200 0
2.666855 4.040689 21.127784 199 199 199 0
2.767349 4.069630 21.279112 199 199 199 0
2.869406 4.099151 21.433468 197 197 197 0
2.977602 4.135559 21.623838 197 197 197 0
3.089078 4.174430 21.827087 195 195 195 0
3.201213 4.212123 22.024172 194 194 194 0
3.347902 4.292182 22.442782 192 192 192 0
3.693048 4.616310 24.137570 201 201 201 0
3.870599 4.720243 24.681010 211 211 211 0
3.977845 4.735530 24.760939 212 212 212 0
4.073889 4.737081 24.769049 212 212 212 0
4.184547 4.755167 24.863620 212 212 212 0
4.275487 4.750541 24.839429 212 212 212 0
4.383328 4.764487 24.912348 212 212 212 0
4.494442 4.781321 25.000371 212 212 212 0
4.597163 4.788711 25.039013 211 211 211 0
4.698545 4.794434 25.068935 211 211 211 0
4.797547 4.797547 25.085215 211 211 211 0
4.905753 4.809562 25.148038 211 211 211 0
5.016426 4.823486 25.220843 211 211 211 0
5.120917 4.831054 25.260413 211 211 211 0
5.221203 4.834448 25.278158 211 211 211 0
5.324352 4.840320 25.308862 211 211 211 0
5.438002 4.855359 25.387500 211 211 211 0
5.543152 4.862414 25.424388 210 210 210 0
5.642767 4.864454 25.435055 210 210 210 0
5.755425 4.877479 25.503156 210 210 210 0
5.864337 4.886948 25.552667 210 210 210 0
5.978190 4.900156 25.621729 210 210 210 0
6.077853 4.901494 25.628728 210 210 210 0
6.187622 4.910811 25.677445 210 210 210 0
6.300233 4.922057 25.736248 210 210 210 0
6.409016 4.930012 25.777843 210 210 210 0
6.515353 4.935873 25.808488 209 209 209 0
6.625940 4.944731 25.854804 210 210 210 0
6.741880 4.957265 25.920339 210 210 210 0
6.850446 4.964091 25.956032 210 210 210 0
6.958019 4.970013 25.986998 210 210 210 0
7.070291 4.979078 26.034396 210 210 210 0
7.185791 4.990133 26.092197 209 209 209 0
7.295094 4.996639 26.126219 209 209 209 0
7.404913 5.003319 26.161147 209 209 209 0
7.521778 5.014519 26.219707 209 209 209 0
7.638719 5.025473 26.276985 209 209 209 0
7.745187 5.029342 26.297214 210 210 210 0
7.861681 5.039539 26.350531 208 208 208 0
7.986130 5.054513 26.428824 209 209 209 0
-6.125240 4.733140 24.263183 75 75 75 0
-5.959390 4.675829 23.969390 105 105 105 0
-5.754612 4.585707 23.507404 129 129 129 0
-5.592959 4.527634 23.209707 143 143 143 0
-5.420751 4.459005 22.857899 151 151 151 0
-5.273971 4.409386 22.603542 154 154 154 0
-5.147880 4.375698 22.430851 164 164 164 0
-5.038776 4.355552 22.327577 167 167 167 0
-4.931187 4.336044 22.227572 167 167 167 0
-4.821149 4.313659 22.112824 170 170 170 0
-4.712260 4.291522 21.999346 177 177 177 0
-4.599328 4.264831 21.862521 179 179 179 0
-4.479629 4.230761 21.687869 179 179 179 0
-4.374227 4.209162 21.577148 180 180 180 0
-4.283491 4.201116 21.535904 181 181 181 0
-4.195520 4.195520 21.507214 185 185 185 0
-4.102476 4.184525 21.450855 187 187 187 0
-4.010394 4.174083 21.397325 188 188 188 0
-3.901711 4.145568 21.251147 189 189 189 0
-3.807819 4.131889 21.181027 190 190 190 0
-3.711201 4.114593 21.092363 189 189 189 0
-3.626205 4.109699 21.067277 190 190 190 0
-3.537714 4.100532 21.020287 184 184 184 0
-3.446524 4.087738 20.954699 171 171 171 0
-3.346985 4.064196 20.834019 170 170 170 0
-3.240665 4.031071 20.664209 176 176 176 0
-3.143622 4.008119 20.546552 179 179 179 0
-3.054495 3.994339 20.475915 180 180 180 0
-2.962964 3.976610 20.385029 181 181 181 0
-2.887370 3.979888 20.401834 180 180 180 0
-2.800926 3.967979 20.340785 180 180 180 0
-2.713278 3.953633 20.267247 183 183 183 0
-2.624552 3.936828 20.181101 187 187 187 0
-2.532951 3.914561 20.066954 190 190 190 0
-2.449385 3.903708 20.011317 190 190 190 0
-2.373181 3.904266 20.014180 190 190 190 0
-2.294110 3.899987 19.992243 191 191 191 0
-2.214076 3.893720 19.960116 190 190 190 0
-2.132569 3.884322 19.911943 191 191 191 0
-2.045915 3.864506 19.810362 192 192 192 0
-1.965927 3.856242 19.767999 192 192 192 0
-1.887258 3.850007 19.736036 192 192 192 0
-1.809541 3.845276 19.711780 194 194 194 0
-1.735265 3.847761 19.724520 196 196 196 0
-1.658128 3.843843 19.704434 197 197 197 0
-1.578587 3.833712 19.652505 198 198 198 0
-1.499875 3.824681 19.606207 198 198 198 0
-1.421364 3.815239 19.557806 198 198 198 0
-1.347564 3.818099 19.572467 199 199 199 0
-1.274425 3.823276 19.599007 200 200 200 0
-1.199057 3.821996 19.592442 200 200 200 0
-1.122230 3.815581 19.559561 200 200 200 0
-1.045216 3.807572 19.518503 201 201 201 0
-0.969280 3.802561 19.492818 200 200 200 0
-0.894421 3.801287 19.486287 201 201 201 0
-0.821543 3.808974 19.525689 201 201 201 0
-0.747855 3.814061 19.551767 202 202 202 0
-0.671715 3.806384 19.512415 201 201 201 0
-0.596243 3.801048 19.485059 202 202 202 0
-0.521096 3.796559 19.462047 203 203 203 0
-0.446998 3.799484 19.477043 202 202 202 0
-0.373455 3.809240 19.527055 203 203 203 0
-0.298623 3.807445 19.517852 202 202 202 0
-0.223942 3.807019 19.515667 203 203 203 0
-0.149121 3.802590 19.492967 203 203 203 0
-0.074603 3.804742 19.503995 204 204 204 0
0.000000 3.811534 19.538815 204 204 204 0
0.074860 3.817865 19.571270 203 203 203 0
0.149701 3.817373 19.568747 204 204 204 0
0.224673 3.819449 19.579388 204 204 204 0
0.299642 3.820437 19.584453 205 205 205 0
0.374698 3.821921 19.592059 205 205 205 0
0.450632 3.830370 19.635372 205 205 205 0
0.526976 3.839397 19.681646 205 205 205 0
0.602200 3.839023 19.679727 204 204 204 0
0.677252 3.837761 19.673260 205 205 205 0
0.754000 3.845402 19.712429 204 204 204 0
0.831221 3.853843 19.755701 203 203 203 0
0.908260 3.860105 19.787802 204 204 204 0
0.986580 3.870430 19.840727 203 203 203 0
1.062617 3.870961 19.843450 204 204 204 0
1.141925 3.882545 19.902832 204 204 204 0
1.221356 3.893072 19.956794 205 205 205 0
1.301829 3.905486 20.020435 205 205 205 0
1.381089 3.913085 20.059387 204 204 204 0
1.460443 3.920137 20.095539 204 204 204 0
1.540037 3.927095 20.131205 204 204 204 0
1.624469 3.945140 20.223706 204 204 204 0
1.703073 3.948033 20.238538 203 203 203 0
1.787036 3.962559 20.313003 202 202 202 0
1.873476 3.981136 20.408233 202 202 202 0
1.957401 3.993098 20.469551 202 202 202 0
2.045549 4.012423 20.568619 203 203 203 0
2.130172 4.023658 20.626208 202 202 202 0
2.213649 4.032003 20.668988 201 201 201 0
2.311447 4.064959 20.837929 200 200 200 0
2.403003 4.085105 20.941201 199 199 199 0
2.499254 4.111677 21.077415 200 200 200 0
2.592054 4.131086 21.176913 199 199 199 0
2.689413 4.156365 21.306500 198 198 198 0
2.796619 4.194928 21.504183 196 196 196 0
2.898213 4.223110 21.648649 195 195 195 0
3.011794 4.266709 21.872145 195 195 195 0
3.128382 4.312094 22.104798 194 194 194 0
3.277433 4.398660 22.548561 193 193 193 0
3.610461 4.721372 24.202857 202 202 202 0
3.772738 4.810240 24.658416 212 212 212 0
3.870385 4.814381 24.679642 213 213 213 0
3.976355 4.828431 24.751665 212 212 212 0
4.080337 4.839470 24.808252 211 211 211 0
4.178742 4.843542 24.829127 211 211 211 0
4.284297 4.855537 24.890614 211 211 211 0
4.389605 4.866736 24.948027 211 211 211 0
4.488852 4.870881 24.969276 212 212 212 0
4.591918 4.878913 25.010446 210 210 210 0
4.690128 4.881562 25.024026 211 211 211 0
4.800845 4.896862 25.102459 212 212 212 0
4.902857 4.902857 25.133189 211 211 211 0
5.015512 4.919060 25.216252 210 210 210 0
5.114833 4.921820 25.230398 210 210 210 0
5.221095 4.931034 25.277632 211 211 211 0
5.323421 4.936263 25.304435 211 211 211 0
5.433887 4.948719 25.368288 211 211 211 0
5.535133 4.952488 25.387609 211 211 211 0
5.646530 4.965052 25.452015 210 210 210 0
5.754937 4.974607 25.500996 210 210 210 0
5.866703 4.986698 25.562977 210 210 210 0
5.973316 4.994084 25.600839 209 209 209 0
6.073941 4.996307 25.612235 210 210 210 0
6.181861 5.004364 25.653539 210 210 210 0
6.298608 5.019203 25.729609 211 211 211 0
6.408771 5.028420 25.776857 209 209 209 0
6.510462 5.030812 25.789116 210 210 210 0
6.626228 5.043845 25.855927 210 210 210 0
6.735029 5.051272 25.893998 209 209 209 0
6.842033 5.057155 25.924156 209 209 209 0
6.956810 5.068533 25.982484 210 210 210 0
7.064930 5.074809 26.014656 210 210 210 0
7.185064 5.089420 26.089557 209 209 209 0
7.294623 5.096243 26.124532 209 209 209 0
7.399987 5.099991 26.143744 209 209 209 0
7.518254 5.112413 26.207422 209 209 209 0
7.633663 5.122590 26.259592 209 209 209 0
7.741184 5.127278 26.283624 208 208 208 0
7.860612 5.139631 26.346950 209 209 209 0
7.980936 5.152250 26.411636 209 209 209 0
-6.023555 4.818844 24.227470 81 81 81 0
-5.823410 4.731521 23.788440 114 114 114 0
-5.639106 4.654500 23.401207 132 132 132 0
-5.459271 4.578743 23.020328 147 147 147 0
-5.299535 4.517637 22.713105 153 153 153 0
-5.178239 4.487808 22.563135 156 156 156 0
-5.065822 4.464792 22.447423 165 165 165 0
-4.950277 4.438179 22.313620 168 168 168 0
-4.846372 4.421251 22.228513 169 169 169 0
-4.728957 4.391174 22.077296 172 172 172 0
-4.614767 4.363053 21.935911 178 178 178 0
-4.491688 4.325330 21.746252 179 179 179 0
-4.394241 4.311331 21.675870 179 179 179 0
-4.303939 4.303939 21.638707 180 180 180 0
-4.210742 4.293305 21.585245 182 182 182 0
-4.111114 4.275559 21.496022 187 187 187 0
-4.015977 4.261853 21.427114 188 188 188 0
-3.916208 4.242559 21.330108 188 188 188 0
-3.813942 4.219680 21.215083 189 189 189 0
-3.730619 4.217222 21.202725 189 189 189 0
-3.639000 4.205067 21.141614 189 189 189 0
-3.557246 4.204018 21.136340 191 191 191 0
-3.466932 4.192569 21.078780 189 189 189 0
-3.366939 4.168592 20.958228 176 176 176 0
-3.266934 4.143429 20.831719 170 170 170 0
-3.159683 4.107588 20.651522 176 176 176 0
-3.074972 4.099963 20.613187 179 179 179 0
-2.987852 4.088639 20.556254 180 180 180 0
-2.902976 4.079858 20.512106 180 180 180 0
-2.817486 4.069702 20.461046 180 180 180 0
-2.721933 4.044015 20.331901 181 181 181 0
-2.635685 4.031047 20.266702 183 183 183 0
-2.546315 4.012375 20.172824 185 185 185 0
-2.464114 4.004184 20.131646 188 188 188 0
-2.384969 4.000593 20.113590 190 190 190 0
-2.304200 3.993946 20.080171 190 190 190 0
-2.227423 3.994001 20.080446 191 191 191 0
-2.139437 3.973240 19.976068 192 192 192 0
-2.053856 3.955575 19.887257 192 192 192 0
-1.973764 3.947528 19.846799 192 192 192 0
-1.895918 3.943509 19.826593 193 193 193 0
-1.821355 3.946270 19.840472 192 192 192 0
-1.743549 3.941937 19.818687 193 193 193 0
-1.664396 3.934027 19.778917 194 194 194 0
-1.584554 3.923658 19.726787 195 195 195 0
-1.504562 3.911862 19.667482 196 196 196 0
-1.428541 3.909690 19.656563 198 198 198 0
-1.353425 3.909895 19.657592 198 198 198 0
-1.279689 3.914342 19.679948 200 200 200 0
-1.202850 3.909263 19.654413 200 200 200 0
-1.126896 3.906574 19.640896 200 200 200 0
-1.049519 3.898214 19.598862 200 200 200 0
-0.973302 3.893209 19.573698 200 200 200 0
-0.898911 3.895280 19.584113 201 201 201 0
-0.824443 3.897369 19.594615 202 202 202 0
-0.749762 3.898762 19.601620 201 201 201 0
-0.673886 3.893564 19.575485 202 202 202 0
-0.598601 3.890907 19.562128 201 201 201 0
-0.523349 3.887736 19.546184 202 202 202 0
-0.449194 3.893010 19.572702 202 202 202 0
-0.375054 3.900559 19.610654 203 203 203 0
-0.300121 3.901572 19.615745 203 203 203 0
-0.224956 3.899234 19.603991 203 203 203 0
-0.149674 3.891534 19.565280 203 203 203 0
-0.074952 3.897489 19.595218 203 203 203 0
0.000000 3.905290 19.634441 203 203 203 0
0.075138 3.907167 19.643874 204 204 204 0
0.150476 3.912387 19.670119 204 204 204 0
0.225328 3.905684 19.636419 204 204 204 0
0.300697 3.909056 19.653372 204 204 204 0
0.376465 3.915234 19.684433 205 205 205 0
0.452898 3.925115 19.734110 203 203 203 0
0.528989 3.929634 19.756834 203 203 203 0
0.604708 3.930603 19.761704 203 203 203 0
0.680628 3.932515 19.771317 203 203 203 0
0.757987 3.941534 19.816663 204 204 204 0
0.836150 3.952709 19.872847 203 203 203 0
0.914364 3.962242 19.920774 203 203 203 0
0.990544 3.962176 19.920445 203 203 203 0
1.067945 3.966651 19.942943 203 203 203 0
1.146673 3.975134 19.985589 204 204 204 0
1.227962 3.990877 20.064739 204 204 204 0
1.307799 4.000327 20.112255 204 204 204 0
1.385872 4.003631 20.128863 204 204 204 0
1.466309 4.013057 20.176257 203 203 203 0
1.549354 4.028322 20.252999 203 203 203 0
1.632299 4.041883 20.321181 201 201 201 0
1.714599 4.052688 20.375507 202 202 202 0
1.799153 4.067650 20.450728 201 201 201 0
1.883618 4.081172 20.518711 202 202 202 0
1.970665 4.098983 20.608260 202 202 202 0
2.059697 4.119394 20.710879 202 202 202 0
2.139529 4.120574 20.716814 200 200 200 0
2.229318 4.140161 20.815291 199 199 199 0
2.328701 4.175602 20.993474 200 200 200 0
2.422975 4.199823 21.115249 200 200 200 0
2.510397 4.210988 21.171381 198 198 198 0
2.611636 4.243909 21.336897 198 198 198 0
2.718785 4.284146 21.539198 196 196 196 0
2.824340 4.319578 21.717337 195 195 195 0
2.933123 4.357782 21.909414 193 193 193 0
3.051160 4.407232 22.158028 191 191 191 0
3.195741 4.491312 22.580756 194 194 194 0
3.523173 4.821185 24.239239 204 204 204 0
3.670777 4.894370 24.607188 212 212 212 0
3.771275 4.902657 24.648854 212 212 212 0
3.874332 4.913787 24.704810 214 214 214 0
3.975978 4.922639 24.749316 211 211 211 0
4.075973 4.929084 24.781719 212 212 212 0
4.185457 4.946449 24.869024 212 212 212 0
4.290406 4.957803 24.926107 212 212 212 0
4.379231 4.950435 24.889063 212 212 212 0
4.485781 4.962991 24.952193 212 212 212 0
4.595322 4.978266 25.028989 211 211 211 0
4.695003 4.982452 25.050034 211 211 211 0
4.797753 4.989664 25.086292 211 211 211 0
4.902632 4.998762 25.132038 210 210 210 0
5.015109 5.015109 25.214224 211 211 211 0
5.117456 5.020901 25.243341 211 211 211 0
5.218969 5.025674 25.267342 210 210 210 0
5.328248 5.037617 25.327384 211 211 211 0
5.433993 5.045851 25.368781 210 210 210 0
5.541221 5.055149 25.415531 210 210 210 0
5.643152 5.059377 25.436789 210 210 210 0
5.755444 5.072595 25.503243 210 210 210 0
5.861394 5.079875 25.539843 210 210 210 0
5.966458 5.086161 25.571448 210 210 210 0
6.070218 5.091150 25.596533 209 209 209 0
6.177644 5.099008 25.636037 210 210 210 0
6.296895 5.116228 25.722612 209 209 209 0
6.402922 5.122338 25.753333 210 210 210 0
6.513926 5.132184 25.802835 209 209 209 0
6.623490 5.140619 25.845244 210 210 210 0
6.733285 5.148983 25.887294 209 209 209 0
6.843179 5.157178 25.928498 210 210 210 0
6.951497 5.163970 25.962642 209 209 209 0
7.065462 5.174705 26.016615 209 209 209 0
7.178819 5.184703 26.066881 209 209 209 0
7.291059 5.193631 26.111770 209 209 209 0
7.399612 5.199727 26.142420 209 209 209 0
7.521359 5.214809 26.218244 209 209 209 0
7.637521 5.225672 26.272862 209 209 209 0
7.735562 5.224016 26.264535 209 209 209 0
7.860131 5.240088 26.345337 208 208 208 0
7.979380 5.252250 26.406488 209 209 209 0
-5.891823 4.879166 24.067904 88 88 88 0
-5.715777 4.808511 23.719379 122 122 122 0
-5.516252 4.715506 23.260603 136 136 136 0
-5.345961 4.644852 22.912081 149 149 149 0
-5.220510 4.611451 22.747320 153 153 153 0
-5.100255 4.581585 22.600000 160 160 160 0
-4.977824 4.548702 22.437793 167 167 167 0
-4.872215 4.530305 22.347049 168 168 168 0
-4.748381 4.494003 22.167977 170 170 170 0
-4.627394 4.459126 21.995933 173 173 173 0
-4.512260 4.428700 21.845851 179 179 179 0
-4.408834 4.408834 21.747854 179 179 179 0
-4.319691 4.402762 21.717902 180 180 180 0
-4.229842 4.395718 21.683157 181 181 181 0
-4.122718 4.370081 21.556695 183 183 183 0
-4.032142 4.361296 21.513361 187 187 187 0
-3.922270 4.330840 21.363127 188 188 188 0
-3.832386 4.321627 21.317681 188 188 188 0
-3.745577 4.315556 21.287734 189 189 189 0
-3.656373 4.306395 21.242544 189 189 189 0
-3.567036 4.296657 21.194508 190 190 190 0
-3.476240 4.284668 21.135372 191 191 191 0
-3.384777 4.271266 21.069264 191 191 191 0
-3.281329 4.241718 20.923509 184 184 184 0
-3.188795 4.225153 20.841797 175 175 175 0
-3.099031 4.211503 20.774465 172 172 172 0
-3.011403 4.200115 20.718287 178 178 178 0
-2.926883 4.192562 20.681031 180 180 180 0
-2.834562 4.173105 20.585052 180 180 180 0
-2.743290 4.154125 20.491428 181 181 181 0
-2.648549 4.128621 20.365623 183 183 183 0
-2.557295 4.107171 20.259813 182 182 182 0
-2.480934 4.109047 20.269067 184 184 184 0
-2.397973 4.099760 20.223259 185 185 185 0
-2.317990 4.095115 20.200347 189 189 189 0
-2.232043 4.079251 20.122091 190 190 190 0
-2.148618 4.067027 20.061795 192 192 192 0
-2.063161 4.049909 19.977356 191 191 191 0
-1.985832 4.048043 19.968150 192 192 192 0
-1.908056 4.045079 19.953531 192 192 192 0
-1.830567 4.042502 19.940818 192 192 192 0
-1.754124 4.042113 19.938896 192 192 192 0
-1.674172 4.033233 19.895092 194 194 194 0
-1.592765 4.019836 19.829008 194 194 194 0
-1.514644 4.013808 19.799272 194 194 194 0
-1.436903 4.008202 19.771621 194 194 194 0
-1.361179 4.007917 19.770216 194 194 194 0
-1.285865 4.008872 19.774927 196 196 196 0
-1.208595 4.003472 19.748288 197 197 197 0
-1.131358 3.997465 19.718658 198 198 198 0
-1.052603 3.984853 19.656445 198 198 198 0
-0.978322 3.988543 19.674646 199 199 199 0
-0.902964 3.988093 19.672427 200 200 200 0
-0.828237 3.990598 19.684786 201 201 201 0
-0.752850 3.990104 19.682348 201 201 201 0
-0.676775 3.985452 19.659403 201 201 201 0
-0.600959 3.981356 19.639196 201 201 201 0
-0.525400 3.978028 19.622780 201 201 201 0
-0.451451 3.987816 19.671060 202 202 202 0
-0.376722 3.993255 19.697893 202 202 202 0
-0.301181 3.990643 19.685005 202 202 202 0
-0.225654 3.986546 19.664798 202 202 202 0
-0.150279 3.982392 19.644308 202 202 202 0
-0.075209 3.986063 19.662413 202 202 202 0
0.000000 3.997401 19.718341 203 203 203 0
0.075448 3.998747 19.724983 202 202 202 0
0.150960 4.000428 19.733276 201 201 201 0
0.226339 3.998656 19.724535 201 201 201 0
0.302424 4.007121 19.766290 202 202 202 0
0.378145 4.008335 19.772280 203 203 203 0
0.455196 4.020899 19.834255 202 202 202 0
0.531588 4.024878 19.853881 202 202 202 0
0.607504 4.024714 19.853073 202 202 202 0
0.684132 4.028777 19.873112 202 202 202 0
0.762339 4.040398 19.930439 203 203 203 0
0.840971 4.051951 19.987427 203 203 203 0
0.918348 4.056036 20.007575 203 203 203 0
0.995975 4.060515 20.029670 203 203 203 0
1.074308 4.067024 20.061777 202 202 202 0
1.152692 4.072847 20.090500 203 203 203 0
1.234427 4.089039 20.170373 203 203 203 0
1.313467 4.094927 20.199416 203 203 203 0
1.392352 4.099704 20.222981 202 202 202 0
1.473658 4.110730 20.277372 201 201 201 0
1.559993 4.133980 20.392059 200 200 200 0
1.643129 4.146944 20.456005 201 201 201 0
1.726049 4.158210 20.511578 202 202 202 0
1.809193 4.169010 20.564852 202 202 202 0
1.896500 4.188105 20.659044 201 201 201 0
1.987466 4.213428 20.783959 201 201 201 0
2.074488 4.228763 20.859605 200 200 200 0
2.160179 4.240351 20.916765 198 198 198 0
2.253236 4.265053 21.038616 197 197 197 0
2.347478 4.290218 21.162747 198 198 198 0
2.436480 4.304449 21.232945 199 199 199 0
2.538458 4.339945 21.408039 197 197 197 0
2.644549 4.380034 21.605792 196 196 196 0
2.750669 4.417741 21.791791 194 194 194 0
2.852744 4.446924 21.935744 194 194 194 0
2.981191 4.514374 22.268464 190 190 190 0
3.152591 4.641314 22.894630 194 194 194 0
3.441170 4.929243 24.314926 204 204 204 0
3.566292 4.974039 24.535896 213 213 213 0
3.668998 4.986075 24.595262 213 213 213 0
3.772695 4.998821 24.658138 212 212 212 0
3.874596 5.008624 24.706492 212 212 212 0
3.971670 5.011869 24.722500 212 212 212 0
4.077445 5.025688 24.790668 212 212 212 0
4.182427 5.037924 24.851023 211 211 211 0
4.285093 5.046887 24.895239 211 211 211 0
4.379864 5.046365 24.892664 210 210 210 0
4.485361 5.057961 24.949861 212 212 212 0
4.595818 5.074549 25.031686 212 212 212 0
4.697908 5.081411 25.065536 211 211 211 0
4.796471 5.084259 25.079588 211 211 211 0
4.899988 5.092145 25.118484 211 211 211 0
5.014447 5.110878 25.210893 211 211 211 0
5.118253 5.118253 25.247270 211 211 211 0
5.212403 5.115877 25.235549 210 210 210 0
5.318662 5.125256 25.281814 210 210 210 0
5.433570 5.142486 25.366806 210 210 210 0
5.540791 5.151963 25.413556 210 210 210 0
5.637550 5.151554 25.411539 210 210 210 0
5.749136 5.164478 25.475288 210 210 210 0
5.856313 5.173076 25.517702 210 210 210 0
5.967034 5.184472 25.573916 209 209 209 0
6.068161 5.187299 25.587860 210 210 210 0
6.177363 5.196829 25.634872 210 210 210 0
6.296298 5.214122 25.720170 211 211 211 0
6.400705 5.219037 25.744416 210 210 210 0
6.508227 5.226304 25.780263 210 210 210 0
6.622170 5.238433 25.840094 209 209 209 0
6.738166 5.251806 25.906058 209 209 209 0
6.845089 5.257822 25.935736 210 210 210 0
6.949783 5.261978 25.956239 208 208 208 0
7.062434 5.271958 26.005466 209 209 209 0
7.180332 5.285522 26.072373 209 209 209 0
7.289206 5.292163 26.105132 209 209 209 0
7.398255 5.298750 26.137627 209 209 209 0
7.514615 5.310328 26.194735 209 209 209 0
7.631291 5.321821 26.251430 209 209 209 0
7.743151 5.329701 26.290302 209 209 209 0
7.853675 5.336471 26.323697 208 208 208 0
7.979275 5.353184 26.406139 209 209 209 0
-5.813734 4.983201 24.125881 98 98 98 0
-5.584730 4.864120 23.549359 127 127 127 0
-5.410502 4.789625 23.188696 141 141 141 0
-5.262225 4.736003 22.929087 153 153 153 0
-5.130524 4.695733 22.734124 155 155 155 0
-5.021851 4.675517 22.636246 161 161 161 0
-4.894520 4.636914 22.449351 168 168 168 0
-4.768841 4.598525 22.263496 168 168 168 0
-4.647674 4.563171 22.092330 169 169 169 0
-4.541216 4.541216 21.986039 174 174 174 0
-4.431034 4.514638 21.857361 179 179 179 0
-4.342167 4.509173 21.830903 180 180 180 0
-4.245672 4.495417 21.764306 181 181 181 0
-4.154276 4.486618 21.721705 181 181 181 0
-4.044181 4.456853 21.577597 182 182 182 0
-3.936942 4.429060 21.443041 185 185 185 0
-3.835172 4.406368 21.333179 188 188 188 0
-3.750418 4.402664 21.315247 189 189 189 0
-3.666230 4.399476 21.299813 190 190 190 0
-3.584959 4.399722 21.301002 190 190 190 0
-3.490349 4.383229 21.221151 190 190 190 0
-3.392031 4.361182 21.114414 191 191 191 0
-3.300574 4.347097 21.046222 192 192 192 0
-3.212880 4.337389 20.999219 192 192 192 0
-3.124833 4.326691 20.947428 183 183 183 0
-3.035798 4.314029 20.886126 173 173 173 0
-2.947785 4.302173 20.828725 174 174 174 0
-2.849843 4.274764 20.696025 178 178 178 0
-2.756295 4.252570 20.588573 182 182 182 0
-2.660401 4.225343 20.456755 182 182 182 0
-2.579106 4.220355 20.432608 183 183 183 0
-2.496025 4.212043 20.392364 182 182 182 0
-2.416889 4.210065 20.382787 183 183 183 0
-2.333571 4.200428 20.336132 183 183 183 0
-2.246265 4.182701 20.250307 186 186 186 0
-2.156862 4.159663 20.138772 189 189 189 0
-2.075296 4.150592 20.094853 190 190 190 0
-1.998248 4.150207 20.092989 192 192 192 0
-1.918582 4.144137 20.063600 192 192 192 0
-1.841262 4.142839 20.057318 191 191 191 0
-1.762160 4.137244 20.030232 193 193 193 0
-1.679313 4.121950 19.956185 193 193 193 0
-1.600853 4.116478 19.929695 194 194 194 0
-1.520888 4.106398 19.880892 194 194 194 0
-1.445045 4.106969 19.883654 194 194 194 0
-1.369344 4.108033 19.888807 194 194 194 0
-1.292182 4.104577 19.872076 195 195 195 0
-1.215402 4.101980 19.859504 196 196 196 0
-1.136721 4.092194 19.812122 195 195 195 0
-1.058635 4.083308 19.769102 195 195 195 0
-0.983612 4.085773 19.781034 196 196 196 0
-0.908039 4.086173 19.782974 197 197 197 0
-0.833190 4.090204 19.802488 198 198 198 0
-0.756446 4.084807 19.776361 197 197 197 0
-0.679185 4.075113 19.729426 198 198 198 0
-0.603551 4.073967 19.723879 198 198 198 0
-0.528847 4.079680 19.751535 199 199 199 0
-0.453696 4.083267 19.768906 200 200 200 0
-0.378361 4.086300 19.783589 199 199 199 0
-0.302637 4.085594 19.780167 199 199 199 0
-0.226427 4.075679 19.732168 200 200 200 0
-0.151187 4.082060 19.763060 199 199 199 0
-0.075602 4.082527 19.765323 201 201 201 0
0.000000 4.091505 19.808786 201 201 201 0
0.075833 4.094985 19.825637 200 200 200 0
0.151757 4.097452 19.837578 201 201 201 0
0.227507 4.095131 19.826341 200 200 200 0
0.303900 4.102655 19.862767 201 201 201 0
0.380814 4.112788 19.911826 202 202 202 0
0.457806 4.120256 19.947984 201 201 201 0
0.534467 4.123031 19.961418 202 202 202 0
0.610400 4.120199 19.947707 202 202 202 0
0.687781 4.126686 19.979114 201 201 201 0
0.766437 4.138762 20.037578 203 203 203 0
0.844920 4.147789 20.081284 203 203 203 0
0.922807 4.152631 20.104727 203 203 203 0
1.000441 4.155677 20.119474 203 203 203 0
1.078398 4.159535 20.138151 203 203 203 0
1.159992 4.175970 20.217719 201 201 201 0
1.240287 4.185968 20.266126 201 201 201 0
1.321136 4.196550 20.317356 201 201 201 0
1.401332 4.203995 20.353401 200 200 200 0
1.485974 4.223294 20.446835 201 201 201 0
1.569888 4.238697 20.521410 200 200 200 0
1.652908 4.250334 20.577749 201 201 201 0
1.736423 4.262128 20.634851 201 201 201 0
1.820516 4.274255 20.693563 201 201 201 0
1.909841 4.297142 20.804367 199 199 199 0
2.001071 4.322314 20.926237 198 198 198 0
2.088784 4.338244 21.003358 198 198 198 0
2.179821 4.359642 21.106955 198 198 198 0
2.275637 4.388729 21.247780 197 197 197 0
2.364927 4.403657 21.320054 196 196 196 0
2.461001 4.429802 21.446632 195 195 195 0
2.567167 4.471839 21.650151 195 195 195 0
2.670223 4.506002 21.815550 194 194 194 0
2.780993 4.550715 22.032027 191 191 191 0
2.922121 4.641015 22.469210 191 191 191 0
3.123946 4.819803 23.334799 197 197 197 0
3.363356 5.045034 24.425245 209 209 209 0
3.469409 5.063461 24.514458 212 212 212 0
3.568519 5.071053 24.551214 213 213 213 0
3.674187 5.087336 24.630046 213 213 213 0
3.773256 5.093896 24.661805 211 211 211 0
3.873561 5.101763 24.699892 212 212 212 0
3.969320 5.103411 24.707872 211 211 211 0
4.076932 5.119868 24.787547 211 211 211 0
4.177811 5.127314 24.823595 212 212 212 0
4.289490 5.147387 24.920782 212 212 212 0
4.375751 5.136751 24.869287 211 211 211 0
4.483425 5.151170 24.939092 211 211 211 0
4.589150 5.162794 24.995371 211 211 211 0
4.696702 5.175958 25.059103 211 211 211 0
4.790363 5.173592 25.047651 210 210 210 0
4.899277 5.187469 25.114837 210 210 210 0
5.010713 5.203432 25.192120 210 210 210 0
5.114414 5.210912 25.228332 211 211 211 0
5.217423 5.217423 25.259854 210 210 210 0
5.323926 5.227127 25.306837 211 211 211 0
5.431729 5.237739 25.358212 210 210 210 0
5.536851 5.245438 25.395486 210 210 210 0
5.633542 5.245022 25.393472 210 210 210 0
5.745544 5.258634 25.459374 210 210 210 0
5.861273 5.275146 25.539317 210 210 210 0
5.962413 5.278201 25.554110 210 210 210 0
6.068942 5.285853 25.591154 210 210 210 0
6.179462 5.296682 25.643581 210 210 210 0
6.291831 5.308732 25.701923 210 210 210 0
6.403253 5.319626 25.754664 209 209 209 0
6.506294 5.323332 25.772605 210 210 210 0
6.618610 5.334402 25.826202 209 209 209 0
6.732833 5.346662 25.885557 210 210 210 0
6.840575 5.353494 25.918634 210 210 210 0
6.947287 5.359336 25.946917 208 208 208 0
7.062706 5.371636 26.006468 209 209 209 0
7.181118 5.385838 26.075228 209 209 209 0
7.287219 5.390546 26.098019 209 209 209 0
7.395540 5.396745 26.128032 209 209 209 0
7.512766 5.409191 26.188291 209 209 209 0
7.625878 5.418387 26.232811 209 209 209 0
7.739061 5.427394 26.276416 209 209 209 0
7.853386 5.436960 26.322728 209 209 209 0
7.972270 5.449400 26.382957 209 209 209 0
-6.011662 5.248276 24.947244 75 75 75 0
-5.677065 5.036106 23.938711 109 109 109 0
-5.477941 4.939128 23.477730 132 132 132 0
-5.319373 4.876092 23.178096 144 144 144 0
-5.184199 4.832728 22.971969 154 154 154 0
-5.054168 4.792745 22.781915 155 155 155 0
-4.928611 4.755677 22.605715 162 162 162 0
-4.795868 4.710227 22.389673 168 168 168 0
-4.671275 4.671275 22.204515 169 169 169 0
-4.559530 4.643966 22.074705 170 170 170 0
-4.458722 4.626976 21.993942 174 174 174 0
-4.361590 4.613220 21.928556 179 179 179 0
-4.266081 4.600676 21.868929 180 180 180 0
-4.161160 4.577276 21.757700 181 181 181 0
-4.060092 4.557246 21.662487 182 182 182 0
-3.954207 4.530862 21.537073 182 182 182 0
-3.857634 4.514253 21.458123 186 186 186 0
-3.770619 4.508349 21.430062 189 189 189 0
-3.683997 4.502663 21.403034 190 190 190 0
-3.596420 4.495525 21.369103 190 190 190 0
-3.500897 4.477891 21.285283 190 190 190 0
-3.403958 4.457564 21.188658 190 190 190 0
-3.308767 4.438589 21.098465 191 191 191 0
-3.226735 4.436761 21.089773 192 192 192 0
-3.140611 4.429067 21.053198 194 194 194 0
-3.060060 4.429034 21.053044 190 190 190 0
-2.971693 4.417382 20.997655 177 177 177 0
-2.869350 4.383730 20.837693 173 173 173 0
-2.773220 4.357917 20.714993 177 177 177 0
-2.684500 4.342574 20.642063 180 180 180 0
-2.598692 4.331153 20.587774 181 181 181 0
-2.516744 4.325653 20.561630 182 182 182 0
-2.431996 4.314832 20.510193 182 182 182 0
-2.348059 4.304774 20.462386 183 183 183 0
-2.260515 4.287184 20.378770 184 184 184 0
-2.172528 4.267466 20.285046 185 185 185 0
-2.088578 4.254512 20.223465 186 186 186 0
-2.009088 4.249994 20.201993 187 187 187 0
-1.929916 4.245815 20.182128 190 190 190 0
-1.850595 4.240947 20.158990 191 191 191 0
-1.770308 4.233345 20.122852 193 193 193 0
-1.688747 4.221868 20.068298 193 193 193 0
-1.608509 4.212762 20.025012 193 193 193 0
-1.528288 4.202791 19.977618 193 193 193 0
-1.453117 4.206391 19.994730 194 194 194 0
-1.377407 4.208744 20.005911 195 195 195 0
-1.299861 4.205433 19.990174 195 195 195 0
-1.221410 4.198597 19.957681 195 195 195 0
-1.141226 4.184495 19.890648 196 196 196 0
-1.064883 4.183470 19.885774 195 195 195 0
-0.988980 4.184144 19.888979 195 195 195 0
-0.913222 4.185599 19.895895 196 196 196 0
-0.836498 4.182489 19.881114 198 198 198 0
-0.758639 4.172513 19.833691 198 198 198 0
-0.683007 4.173933 19.840444 197 197 197 0
-0.606662 4.170799 19.825543 197 197 197 0
-0.531701 4.177647 19.858096 198 198 198 0
-0.455860 4.178713 19.863162 200 200 200 0
-0.380335 4.183689 19.886815 199 199 199 0
-0.304014 4.180187 19.870170 199 199 199 0
-0.227672 4.173994 19.840731 199 199 199 0
-0.151920 4.177797 19.858810 199 199 199 0
-0.076171 4.189413 19.914027 200 200 200 0
0.000000 4.193735 19.934571 201 201 201 0
0.076202 4.191128 19.922178 200 200 200 0
0.152402 4.191058 19.921846 200 200 200 0
0.228648 4.191874 19.925724 200 200 200 0
0.305505 4.200687 19.967615 201 201 201 0
0.382849 4.211342 20.018261 201 201 201 0
0.459944 4.216149 20.041112 201 201 201 0
0.536591 4.216074 20.040758 201 201 201 0
0.613482 4.217688 20.048430 202 202 202 0
0.691442 4.225478 20.085458 201 201 201 0
0.771001 4.240507 20.156896 202 202 202 0
0.849001 4.245003 20.178268 202 202 202 0
0.927608 4.251537 20.209327 201 201 201 0
1.006232 4.257134 20.235931 200 200 200 0
1.085828 4.265755 20.276909 200 200 200 0
1.168120 4.283107 20.359390 200 200 200 0
1.248837 4.292878 20.405837 200 200 200 0
1.329363 4.300879 20.443872 201 201 201 0
1.410895 4.311067 20.492298 201 201 201 0
1.497199 4.333996 20.601288 201 201 201 0
1.581026 4.347822 20.667011 200 200 200 0
1.664000 4.358096 20.715843 200 200 200 0
1.743492 4.358731 20.718865 198 198 198 0
1.836007 4.390451 20.869643 198 198 198 0
1.930348 4.423714 21.027754 197 197 197 0
2.016848 4.437065 21.091217 198 198 198 0
2.102210 4.446984 21.138366 197 197 197 0
2.200471 4.482440 21.306907 196 196 196 0
2.294106 4.506280 21.420226 194 194 194 0
2.391751 4.536079 21.561872 193 193 193 0
2.492843 4.570212 21.724120 194 194 194 0
2.597784 4.608971 21.908360 192 192 192 0
2.710686 4.658991 22.146124 190 190 190 0
2.850329 4.750549 22.581336 189 189 189 0
3.095969 5.008185 23.805989 200 200 200 0
3.268703 5.136534 24.416085 211 211 211 0
3.374329 5.155226 24.504934 212 212 212 0
3.466836 5.153406 24.496283 213 213 213 0
3.569328 5.166133 24.556783 211 211 211 0
3.671304 5.177480 24.610719 212 212 212 0
3.773991 5.189237 24.666605 211 211 211 0
3.861947 5.180660 24.625837 212 212 212 0
3.973504 5.203399 24.733921 211 211 211 0
4.073787 5.210658 24.768428 211 211 211 0
4.179821 5.224776 24.835537 211 211 211 0
4.279829 5.230902 24.864657 211 211 211 0
4.378624 5.235311 24.885613 212 212 212 0
4.486168 5.249771 24.954350 211 211 211 0
4.585380 5.254081 24.974835 211 211 211 0
4.694121 5.268912 25.045331 211 211 211 0
4.796448 5.276093 25.079467 210 210 210 0
4.901519 5.285952 25.126329 210 210 210 0
5.006256 5.295078 25.169712 210 210 210 0
5.110380 5.303225 25.208436 211 211 211 0
5.215875 5.312465 25.252360 211 211 211 0
5.318373 5.318373 25.280442 210 210 210 0
5.429235 5.332285 25.346570 210 210 210 0
5.537171 5.342884 25.396953 210 210 210 0
5.634344 5.342913 25.397089 211 211 211 0
5.746330 5.356748 25.462856 210 210 210 0
5.857972 5.369807 25.524930 210 210 210 0
5.960444 5.374171 25.545672 210 210 210 0
6.072060 5.386504 25.604299 210 210 210 0
6.174120 5.390105 25.621412 210 210 210 0
6.287131 5.403003 25.682725 210 210 210 0
6.397698 5.413437 25.732319 209 209 209 0
6.502187 5.418489 25.756334 209 209 209 0
6.613525 5.429013 25.806360 209 209 209 0
6.731928 5.444942 25.882077 210 210 210 0
6.837456 5.450146 25.906815 209 209 209 0
6.947098 5.458435 25.946213 209 209 209 0
7.055588 5.465597 25.980258 209 209 209 0
7.175338 5.481161 26.054242 209 209 209 0
7.282197 5.486587 26.080031 209 209 209 0
7.392197 5.494200 26.116222 209 209 209 0
7.511388 5.508351 26.183486 209 209 209 0
7.617441 5.512622 26.203786 209 209 209 0
7.732104 5.522931 26.252792 209 209 209 0
7.849696 5.535042 26.310361 209 209 209 0
7.969020 5.548052 26.372200 209 209 209 0
-5.814864 5.252135 24.519773 82 82 82 0
-5.581254 5.123774 23.920513 113 113 113 0
-5.390873 5.031481 23.489641 133 133 133 0
-5.237243 4.970943 23.207015 146 146 146 0
-5.096662 4.920915 22.973461 154 154 154 0
-4.954014 4.867102 22.722231 156 156 156 0
-4.825961 4.825961 22.530163 163 163 163 0
-4.699315 4.784757 22.337803 169 169 169 0
-4.583942 4.753718 22.192893 170 170 170 0
-4.486160 4.740094 22.129291 172 172 172 0
-4.385923 4.723302 22.050895 174 174 174 0
-4.290502 4.711140 21.994116 180 180 180 0
-4.186196 4.688540 21.888607 181 181 181 0
-4.076575 4.658942 21.750431 180 180 180 0
-3.964533 4.625288 21.593316 181 181 181 0
-3.870238 4.611347 21.528231 183 183 183 0
-3.781502 4.603567 21.491911 186 186 186 0
-3.696472 4.600055 21.475512 189 189 189 0
-3.609403 4.593786 21.446244 189 189 189 0
-3.511033 4.572508 21.346910 190 190 190 0
-3.416507 4.555343 21.266774 191 191 191 0
-3.321435 4.536595 21.179247 191 191 191 0
-3.238265 4.533572 21.165134 191 191 191 0
-3.155339 4.530743 21.151928 192 192 192 0
-3.070787 4.525371 21.126847 192 192 192 0
-2.981756 4.512928 21.068759 194 194 194 0
-2.891297 4.497574 20.997077 188 188 188 0
-2.796153 4.473845 20.886297 179 179 179 0
-2.705235 4.455681 20.801497 175 175 175 0
-2.613654 4.435292 20.706312 178 178 178 0
-2.536948 4.439659 20.726701 180 180 180 0
-2.450850 4.427342 20.669199 182 182 182 0
-2.361839 4.408767 20.582478 183 183 183 0
-2.274188 4.391535 20.502031 185 185 185 0
-2.182947 4.365894 20.382324 184 184 184 0
-2.102320 4.360367 20.356523 186 186 186 0
-2.023037 4.357312 20.342257 185 185 185 0
-1.943810 4.354134 20.327421 185 185 185 0
-1.863443 4.348034 20.298943 186 186 186 0
-1.782144 4.339134 20.257395 190 190 190 0
-1.698921 4.324525 20.189192 191 191 191 0
-1.614340 4.304906 20.097601 192 192 192 0
-1.536911 4.303351 20.090341 193 193 193 0
-1.461940 4.308875 20.116128 193 193 193 0
-1.384117 4.306143 20.103375 194 194 194 0
-1.305952 4.301959 20.083840 195 195 195 0
-1.225874 4.290560 20.030626 195 195 195 0
-1.147542 4.284158 20.000735 196 196 196 0
-1.070312 4.281247 19.987147 195 195 195 0
-0.994170 4.282580 19.993373 195 195 195 0
-0.919380 4.290438 20.030056 196 196 196 0
-0.841481 4.283903 19.999548 197 197 197 0
-0.763717 4.276818 19.966470 197 197 197 0
-0.686676 4.272649 19.947010 197 197 197 0
-0.609758 4.268306 19.926733 197 197 197 0
-0.534686 4.277487 19.969592 197 197 197 0
-0.458769 4.281848 19.989956 198 198 198 0
-0.382369 4.282537 19.993172 199 199 199 0
-0.305586 4.278208 19.972961 199 199 199 0
-0.229060 4.275784 19.961643 199 199 199 0
-0.152837 4.279442 19.978723 198 198 198 0
-0.076586 4.288821 20.022507 200 200 200 0
0.000000 4.291671 20.035814 200 200 200 0
0.076627 4.291115 20.033217 200 200 200 0
0.153110 4.287085 20.014405 200 200 200 0
0.229948 4.292371 20.039079 201 201 201 0
0.307292 4.302089 20.084450 200 200 200 0
0.384380 4.305054 20.098293 201 201 201 0
0.462312 4.314913 20.144319 201 201 201 0
0.539686 4.317491 20.156355 201 201 201 0
0.616616 4.316313 20.150854 201 201 201 0
0.695385 4.326840 20.200000 199 199 199 0
0.775293 4.341642 20.269104 199 199 199 0
0.853896 4.347107 20.294617 199 199 199 0
0.933136 4.354634 20.329755 199 199 199 0
1.012697 4.362385 20.365943 199 199 199 0
1.093650 4.374600 20.422968 200 200 200 0
1.176330 4.391633 20.502488 199 199 199 0
1.256996 4.399484 20.539143 199 199 199 0
1.338772 4.410071 20.588568 200 200 200 0
1.420080 4.418027 20.625708 200 200 200 0
1.505951 4.438591 20.721715 199 199 199 0
1.592674 4.459487 20.819269 198 198 198 0
1.674356 4.464948 20.844763 196 196 196 0
1.762711 4.486901 20.947251 197 197 197 0
1.853307 4.512399 21.066290 196 196 196 0
1.947214 4.543499 21.211482 197 197 197 0
2.031111 4.549688 21.240375 197 197 197 0
2.123920 4.574596 21.356658 195 195 195 0
2.221910 4.608407 21.514505 194 194 194 0
2.325614 4.651229 21.714419 193 193 193 0
2.423593 4.680042 21.848934 192 192 192 0
2.528665 4.720176 22.036301 190 190 190 0
2.639487 4.768106 22.260065 189 189 189 0
2.806976 4.912207 22.932808 191 191 191 0
3.039549 5.158022 24.080403 201 201 201 0
3.172978 5.226082 24.398142 212 212 212 0
3.274237 5.238779 24.457419 212 212 212 0
3.375172 5.250267 24.511050 212 212 212 0
3.465794 5.245526 24.488919 213 213 213 0
3.566319 5.255628 24.536080 212 212 212 0
3.672389 5.273173 24.617990 212 212 212 0
3.769940 5.277916 24.640131 212 212 212 0
3.879703 5.299106 24.739057 212 212 212 0
3.966508 5.288677 24.690368 212 212 212 0
4.072786 5.304094 24.762342 211 211 211 0
4.178246 5.317767 24.826179 211 211 211 0
4.281650 5.328276 24.875238 210 210 210 0
4.378718 5.330614 24.886152 211 211 211 0
4.482193 5.340485 24.932237 211 211 211 0
4.589165 5.354026 24.995452 211 211 211 0
4.691426 5.361629 25.030949 211 211 211 0
4.794766 5.370138 25.070673 210 210 210 0
4.896566 5.376621 25.100940 211 211 211 0
5.003911 5.388827 25.157923 210 210 210 0
5.109430 5.398643 25.203748 211 211 211 0
5.216566 5.409772 25.255707 211 211 211 0
5.316821 5.413490 25.273064 211 211 211 0
5.426075 5.426075 25.331817 210 210 210 0
5.541173 5.443960 25.415311 210 210 210 0
5.636920 5.442543 25.408699 210 210 210 0
5.744946 5.452830 25.456722 210 210 210 0
5.857743 5.467227 25.523936 210 210 210 0
5.966444 5.477391 25.571387 210 210 210 0
6.068676 5.481385 25.590033 210 210 210 0
6.176840 5.490524 25.632699 210 210 210 0
6.286271 5.500487 25.679212 210 210 210 0
6.394504 5.509112 25.719475 209 209 209 0
6.506097 5.520324 25.771822 210 210 210 0
6.615539 5.529406 25.814220 210 210 210 0
6.720260 5.534332 25.837216 209 209 209 0
6.839564 5.550951 25.914803 209 209 209 0
6.944381 5.555505 25.936065 210 210 210 0
7.058198 5.567029 25.989866 209 209 209 0
7.167589 5.574791 26.026102 209 209 209 0
7.283985 5.587715 26.086436 209 209 209 0
7.391420 5.593507 26.113479 209 209 209 0
7.506743 5.605035 26.167296 209 209 209 0
7.623384 5.617230 26.224230 209 209 209 0
7.733437 5.624318 26.257318 209 209 209 0
7.849109 5.635258 26.308394 209 209 209 0
7.965289 5.646281 26.359853 208 208 208 0
-5.688715 5.315684 24.381076 84 84 84 0
-5.484139 5.209932 23.896028 116 116 116 0
-5.302229 5.122492 23.494977 135 135 135 0
-5.153862 5.065003 23.231293 147 147 147 0
-5.001000 5.001000 22.937736 155 155 155 0
-4.866507 4.953409 22.719455 157 157 157 0
-4.733449 4.905575 22.500056 165 165 165 0
-4.615426 4.871839 22.345321 170 170 170 0
-4.511794 4.852307 22.255736 171 171 171 0
-4.414677 4.839165 22.195461 171 171 171 0
-4.309137 4.816095 22.089644 174 174 174 0
-4.200279 4.788318 21.962242 179 179 179 0
-4.087961 4.755383 21.811182 181 181 181 0
-3.989881 4.737983 21.731377 181 181 181 0
-3.891402 4.719360 21.645958 182 182 182 0
-3.799597 4.708196 21.594752 183 183 183 0
-3.709531 4.698739 21.551379 185 185 185 0
-3.621472 4.691452 21.517956 189 189 189 0
-3.529315 4.678394 21.458061 189 189 189 0
-3.429457 4.654264 21.347385 191 191 191 0
-3.333478 4.634347 21.256036 191 191 191 0
-3.253481 4.636210 21.264579 190 190 190 0
-3.167081 4.628810 21.230639 191 191 191 0
-3.086304 4.629456 21.233602 192 192 192 0
-2.998082 4.618667 21.184117 193 193 193 0
-2.903241 4.596799 21.083816 195 195 195 0
-2.813433 4.581876 21.015371 194 194 194 0
-2.727611 4.572760 20.973557 190 190 190 0
-2.643823 4.566603 20.945316 181 181 181 0
-2.559751 4.559556 20.912995 175 175 175 0
-2.469073 4.539908 20.822877 177 177 177 0
-2.375502 4.513453 20.701539 181 181 181 0
-2.289520 4.500091 20.640251 183 183 183 0
-2.200538 4.479667 20.546574 184 184 184 0
-2.118741 4.472899 20.515531 185 185 185 0
-2.036268 4.464126 20.475294 185 185 185 0
-1.959349 4.467315 20.489923 184 184 184 0
-1.874879 4.452838 20.423522 186 186 186 0
-1.790415 4.437116 20.351409 187 187 187 0
-1.708447 4.426431 20.302402 187 187 187 0
-1.625761 4.412779 20.239787 187 187 187 0
-1.549723 4.416709 20.257812 188 188 188 0
-1.470829 4.412486 20.238441 190 190 190 0
-1.390829 4.404292 20.200856 192 192 192 0
-1.312254 4.399911 20.180764 193 193 193 0
-1.232318 4.390134 20.135921 194 194 194 0
-1.153717 4.384125 20.108360 195 195 195 0
-1.076516 4.382959 20.103012 195 195 195 0
-1.000562 4.387078 20.121902 195 195 195 0
-0.924166 4.389787 20.134326 196 196 196 0
-0.846399 4.385884 20.116428 197 197 197 0
-0.767906 4.377067 20.075986 197 197 197 0
-0.690139 4.370878 20.047598 197 197 197 0
-0.613691 4.372547 20.055256 196 196 196 0
-0.537706 4.378460 20.082378 197 197 197 0
-0.461605 4.385245 20.113496 198 198 198 0
-0.384036 4.378013 20.080325 198 198 198 0
-0.306648 4.369731 20.042340 198 198 198 0
-0.230170 4.373237 20.058421 198 198 198 0
-0.153806 4.383468 20.105346 198 198 198 0
-0.076965 4.386981 20.121460 199 199 199 0
0.000000 4.391951 20.144252 199 199 199 0
0.077079 4.393517 20.151437 200 200 200 0
0.154054 4.390550 20.137828 199 199 199 0
0.231327 4.395204 20.159175 199 199 199 0
0.308998 4.403219 20.195934 199 199 199 0
0.386655 4.407869 20.217262 199 199 199 0
0.464214 4.410032 20.227186 198 198 198 0
0.542340 4.416201 20.255480 198 198 198 0
0.621234 4.426290 20.301753 197 197 197 0
0.701146 4.440589 20.367341 197 197 197 0
0.781055 4.452013 20.419737 197 197 197 0
0.858973 4.451044 20.415291 198 198 198 0
0.937584 4.453522 20.426656 199 199 199 0
1.020562 4.474773 20.524126 198 198 198 0
1.101672 4.485378 20.572769 199 199 199 0
1.184133 4.499704 20.638478 199 199 199 0
1.263501 4.501224 20.645449 198 198 198 0
1.344321 4.507430 20.673916 198 198 198 0
1.432684 4.536834 20.808778 197 197 197 0
1.522373 4.567119 20.947686 197 197 197 0
1.606426 4.578315 20.999035 197 197 197 0
1.690846 4.589438 21.050053 196 196 196 0
1.780222 4.612393 21.155341 196 196 196 0
1.871772 4.638740 21.276185 196 196 196 0
1.960295 4.655701 21.353976 194 194 194 0
2.052916 4.680649 21.468404 193 193 193 0
2.154691 4.723746 21.666074 192 192 192 0
2.252583 4.755453 21.811502 192 192 192 0
2.352133 4.788270 21.962023 192 192 192 0
2.465461 4.845905 22.226374 187 187 187 0
2.583858 4.909330 22.517279 187 187 187 0
2.773726 5.100077 23.392167 188 188 188 0
2.968517 5.287671 24.252591 200 200 200 0
3.074388 5.310307 24.356413 213 213 213 0
3.171477 5.316888 24.386600 212 212 212 0
3.271904 5.328530 24.439994 212 212 212 0
3.368309 5.333157 24.461215 213 213 213 0
3.477176 5.356731 24.569344 213 213 213 0
3.564975 5.347462 24.526830 212 212 212 0
3.667326 5.359938 24.584050 212 212 212 0
3.766487 5.367245 24.617565 212 212 212 0
3.873633 5.385294 24.700352 211 211 211 0
3.968433 5.385731 24.702353 211 211 211 0
4.074082 5.400527 24.770220 211 211 211 0
4.175349 5.408975 24.808968 211 211 211 0
4.274287 5.414097 24.832460 211 211 211 0
4.377654 5.424484 24.880100 211 211 211 0
4.482193 5.435851 24.932237 211 211 211 0
4.587873 5.448099 24.988413 211 211 211 0
4.694008 5.460376 25.044725 212 212 212 0
