ply
format ascii 1.0
element vertex 1119
property float x
property float y
property float z
property uchar red
property uchar green
property uchar blue
property uchar alpha
end_header
-3.329497 2.242314 17.764422 211 211 211 0
-3.261953 2.242593 17.766630 213 213 213 0
-3.196082 2.244057 17.778233 212 212 212 0
-3.121029 2.238999 17.738156 212 212 212 0
-3.062526 2.245853 17.792455 213 213 213 0
-2.993633 2.245225 17.787481 213 213 213 0
-2.925288 2.244988 17.785606 213 213 213 0
-2.862754 2.249306 17.819817 212 212 212 0
-2.794233 2.249017 17.817523 213 213 213 0
-2.726666 2.249499 17.821347 214 214 214 0
-2.660832 2.251473 17.836984 214 214 214 0
-2.593255 2.252037 17.841453 214 214 214 0
-2.524911 2.251948 17.840742 214 214 214 0
-2.462176 2.256994 17.880723 214 214 214 0
-2.394691 2.257852 17.887516 213 213 213 0
-2.328509 2.260023 17.904718 214 214 214 0
-2.258997 2.258997 17.896590 214 214 214 0
-2.195756 2.264373 17.939182 214 214 214 0
-2.124967 2.262061 17.920866 214 214 214 0
-2.059749 2.265724 17.949882 214 214 214 0
-1.994462 2.269560 17.980275 215 215 215 0
-1.925967 2.269889 17.982883 215 215 215 0
-1.860351 2.273763 18.013567 214 214 214 0
-1.793745 2.276676 18.036647 215 215 215 0
-1.726626 2.279147 18.056224 215 215 215 0
-1.659856 2.282302 18.081219 215 215 215 0
-1.592448 2.284816 18.101140 215 215 215 0
-1.527092 2.290638 18.147264 215 215 215 0
-1.456395 2.288621 18.131280 215 215 215 0
-1.391078 2.295278 18.184024 215 215 215 0
-1.323415 2.298563 18.210045 216 216 216 0
-1.256298 2.303212 18.246877 215 215 215 0
-1.187071 2.304315 18.255615 215 215 215 0
-1.120117 2.310241 18.302564 215 215 215 0
-1.051987 2.314371 18.335279 215 215 215 0
-0.983195 2.317531 18.360316 215 215 215 0
-0.915170 2.323125 18.404635 215 215 215 0
-0.846551 2.328016 18.443382 215 215 215 0
-0.777661 2.332982 18.482723 215 215 215 0
-0.707935 2.336185 18.508104 215 215 215 0
-0.638207 2.340091 18.539049 215 215 215 0
-0.568526 2.345168 18.579266 215 215 215 0
-0.498075 2.348068 18.602238 214 214 214 0
-0.428592 2.357259 18.675053 215 215 215 0
-0.357789 2.361410 18.707942 214 214 214 0
-0.287015 2.367875 18.759158 214 214 214 0
-0.215893 2.374823 18.814207 215 215 215 0
-0.144259 2.380280 18.857434 215 215 215 0
-0.072306 2.386090 18.903466 214 214 214 0
0.000000 2.391384 18.945404 215 215 215 0
0.072652 2.397509 18.993929 214 214 214 0
0.145773 2.405248 19.055244 214 214 214 0
0.219587 2.415456 19.136113 213 213 213 0
0.293624 2.422402 19.191144 213 213 213 0
0.368046 2.429106 19.244253 214 214 214 0
0.443323 2.438277 19.316908 212 212 212 0
0.518968 2.446561 19.382541 214 214 214 0
0.594432 2.452031 19.425875 213 213 213 0
0.671299 2.461428 19.500321 212 212 212 0
0.748586 2.470334 19.570875 212 212 212 0
0.827519 2.482557 19.667709 212 212 212 0
0.907000 2.494251 19.760356 211 211 211 0
0.986471 2.504119 19.838537 212 212 212 0
1.066463 2.513806 19.915277 211 211 211 0
1.147476 2.524448 19.999589 210 210 210 0
1.231498 2.539964 20.122513 210 210 210 0
1.315082 2.552805 20.224245 209 209 209 0
1.398892 2.564635 20.317960 209 209 209 0
1.485188 2.579538 20.436030 209 209 209 0
1.572111 2.593983 20.550471 208 208 208 0
1.661051 2.610222 20.679124 206 206 206 0
1.751660 2.627490 20.815927 206 206 206 0
1.844992 2.647163 20.971781 206 206 206 0
1.937949 2.664679 21.110552 206 206 206 0
2.032374 2.682734 21.253584 203 203 203 0
2.135353 2.710255 21.471621 202 202 202 0
2.237651 2.734907 21.666917 202 202 202 0
2.340146 2.758029 21.850105 200 200 200 0
2.454829 2.793427 22.130533 197 197 197 0
2.570544 2.827598 22.401252 197 197 197 0
2.701377 2.875660 22.782014 191 191 191 0
2.849767 2.938822 23.282408 187 187 187 0
2.989000 2.989000 23.679936 143 143 143 0
-5.557157 2.361792 18.160642 201 201 201 0
-5.435347 2.339263 17.987414 202 202 202 0
-5.361071 2.336877 17.969067 202 202 202 0
-5.288696 2.335268 17.956696 202 202 202 0
-5.238035 2.343332 18.018698 203 203 203 0
-5.150487 2.334888 17.953769 203 203 203 0
-5.089258 2.338308 17.980067 205 205 205 0
-5.000907 2.329190 17.909955 206 206 206 0
-4.916205 2.321541 17.851145 206 206 206 0
-4.852471 2.323719 17.867886 206 206 206 0
-4.780573 2.321993 17.854615 207 207 207 0
-4.717880 2.324753 17.875837 207 207 207 0
-4.645191 2.322596 17.859251 207 207 207 0
-4.569927 2.319067 17.832121 207 207 207 0
-4.498170 2.317239 17.818065 208 208 208 0
-4.423975 2.314079 17.793765 208 208 208 0
-4.355643 2.313936 17.792661 208 208 208 0
-4.283788 2.311886 17.776899 208 208 208 0
-4.219532 2.313937 17.792670 210 210 210 0
-4.151163 2.313763 17.791336 210 210 210 0
-4.075586 2.309499 17.758546 210 210 210 0
-4.006317 2.308725 17.752595 210 210 210 0
-3.932905 2.305496 17.727769 211 211 211 0
-3.871962 2.309592 17.759258 211 211 211 0
-3.805254 2.310333 17.764957 210 210 210 0
-3.734328 2.308494 17.750815 211 211 211 0
-3.669455 2.310397 17.765454 211 211 211 0
-3.595612 2.306619 17.736401 211 211 211 0
-3.534050 2.310725 17.767973 212 212 212 0
-3.464989 2.309993 17.762343 212 212 212 0
-3.395078 2.308653 17.752044 212 212 212 0
-3.327299 2.308738 17.752697 212 212 212 0
-3.261997 2.310581 17.766869 212 212 212 0
-3.194249 2.310733 17.768035 212 212 212 0
-3.123477 2.308657 17.752070 212 212 212 0
-3.058774 2.311074 17.770654 213 213 213 0
-2.993186 2.312917 17.784827 213 213 213 0
-2.923110 2.311296 17.772367 213 213 213 0
-2.860338 2.315512 17.804781 213 213 213 0
-2.790216 2.313838 17.791908 213 213 213 0
-2.725033 2.316278 17.810673 214 214 214 0
-2.656008 2.315494 17.804647 214 214 214 0
-2.590890 2.318165 17.825183 214 214 214 0
-2.524907 2.320184 17.840710 214 214 214 0
-2.459557 2.322915 17.861706 214 214 214 0
-2.394150 2.325746 17.883475 214 214 214 0
-2.325179 2.325179 17.879114 214 214 214 0
-2.259392 2.327859 17.899722 214 214 214 0
-2.191857 2.328848 17.907330 214 214 214 0
-2.126287 2.332056 17.931999 215 215 215 0
-2.059299 2.333873 17.945963 214 214 214 0
-1.991520 2.334886 17.953753 215 215 215 0
-1.925102 2.337624 17.974809 215 215 215 0
-1.860938 2.343403 18.019248 215 215 215 0
-1.790804 2.341820 18.007074 215 215 215 0
-1.725069 2.346094 18.039940 215 215 215 0
-1.659177 2.350500 18.073821 215 215 215 0
-1.590978 2.351881 18.084437 215 215 215 0
-1.525033 2.356869 18.122792 216 216 216 0
-1.457208 2.359289 18.141398 215 215 215 0
-1.389853 2.362749 18.168008 214 214 214 0
-1.321882 2.365473 18.188950 216 216 216 0
-1.254073 2.368805 18.214573 216 216 216 0
-1.187012 2.374024 18.254706 215 215 215 0
-1.119162 2.378219 18.286962 215 215 215 0
-1.050296 2.380670 18.305808 216 216 216 0
-0.983099 2.387527 18.358530 215 215 215 0
-0.914347 2.391368 18.388067 215 215 215 0
-0.845711 2.396181 18.425076 215 215 215 0
-0.776780 2.400957 18.461801 216 216 216 0
-0.707308 2.404846 18.491704 214 214 214 0
-0.637465 2.408201 18.517499 215 215 215 0
-0.567933 2.413714 18.559890 214 214 214 0
-0.497838 2.418071 18.593396 215 215 215 0
-0.428159 2.426236 18.656178 214 214 214 0
-0.357612 2.431760 18.698652 215 215 215 0
-0.286682 2.436795 18.737367 215 215 215 0
-0.215626 2.443762 18.790941 215 215 215 0
-0.144210 2.451578 18.851043 214 214 214 0
-0.072230 2.455806 18.883555 214 214 214 0
0.000000 2.463088 18.939546 214 214 214 0
0.072595 2.468219 18.979001 214 214 214 0
0.145692 2.476765 19.044715 214 214 214 0
0.219358 2.486055 19.116148 213 213 213 0
0.293262 2.492726 19.167445 213 213 213 0
0.367789 2.500965 19.230793 213 213 213 0
0.442805 2.509230 19.294348 213 213 213 0
0.518504 2.518446 19.365215 213 213 213 0
0.593774 2.523539 19.404377 213 213 213 0
0.671033 2.535012 19.492597 213 213 213 0
0.748396 2.544547 19.565912 212 212 212 0
0.827074 2.556411 19.657140 212 212 212 0
0.905827 2.566509 19.734787 212 212 212 0
0.985818 2.578294 19.825407 211 211 211 0
1.065421 2.587450 19.895809 211 211 211 0
1.147141 2.600186 19.993740 211 211 211 0
1.230837 2.615529 20.111721 209 209 209 0
1.313769 2.627538 20.204059 209 209 209 0
1.398361 2.641348 20.310253 209 209 209 0
1.483966 2.655519 20.419213 209 209 209 0
1.570930 2.670581 20.535030 209 209 209 0
1.657597 2.683728 20.636124 206 206 206 0
1.749280 2.703432 20.787639 206 206 206 0
1.842723 2.724026 20.945987 206 206 206 0
1.935965 2.742616 21.088938 206 206 206 0
2.030526 2.761515 21.234254 204 204 204 0
2.131180 2.786927 21.429660 203 203 203 0
2.235594 2.815192 21.646997 202 202 202 0
2.338326 2.839396 21.833113 200 200 200 0
2.452770 2.875661 22.111968 197 197 197 0
2.570198 2.912891 22.398236 196 196 196 0
2.699103 2.960307 22.762838 192 192 192 0
2.846533 3.024442 23.255992 187 187 187 0
2.990640 3.081265 23.692928 148 148 148 0
-5.535255 2.421674 18.089068 202 202 202 0
-5.443560 2.411704 18.014594 202 202 202 0
-5.365470 2.407583 17.983812 202 202 202 0
-5.290090 2.404586 17.961429 202 202 202 0
-5.221922 2.404833 17.963269 203 203 203 0
-5.160211 2.408098 17.987663 204 204 204 0
-5.071868 2.398857 17.918631 206 206 206 0
-5.008321 2.401250 17.936505 206 206 206 0
-4.917013 2.390215 17.854079 206 206 206 0
-4.846365 2.389053 17.845402 206 206 206 0
-4.780573 2.390287 17.854615 206 206 206 0
-4.710989 2.389632 17.849728 206 206 206 0
-4.642017 2.389273 17.847046 206 206 206 0
-4.555546 2.379763 17.776007 207 207 207 0
-4.493610 2.382975 17.800000 207 207 207 0
-4.428611 2.384637 17.812413 207 207 207 0
-4.347057 2.377297 17.757586 208 208 208 0
-4.278809 2.377116 17.756236 209 209 209 0
-4.216621 2.380351 17.780398 209 209 209 0
-4.151066 2.381759 17.790919 210 210 210 0
-4.074897 2.377023 17.755542 209 209 209 0
-4.007227 2.377169 17.756630 211 211 211 0
-3.933048 2.373391 17.728409 211 211 211 0
-3.865061 2.373283 17.727602 211 211 211 0
-3.798532 2.374082 17.733574 211 211 211 0
-3.730812 2.374153 17.734103 211 211 211 0
-3.659133 2.371660 17.715482 211 211 211 0
-3.595087 2.374114 17.733812 211 211 211 0
-3.525635 2.373023 17.725666 211 211 211 0
-3.459474 2.374149 17.734070 211 211 211 0
-3.395506 2.376854 17.754278 211 211 211 0
-3.324841 2.374886 17.739581 212 212 212 0
-3.259443 2.376677 17.752959 212 212 212 0
-3.192174 2.377151 17.756494 213 213 213 0
-3.121639 2.375160 17.741627 212 212 212 0
-3.056462 2.377248 17.757221 213 213 213 0
-2.988688 2.377365 17.758098 213 213 213 0
-2.925018 2.380828 17.783966 213 213 213 0
-2.854251 2.378543 17.766892 213 213 213 0
-2.788379 2.380324 17.780197 213 213 213 0
-2.721735 2.381518 17.789120 213 213 213 0
-2.658058 2.385437 17.818390 214 214 214 0
-2.588987 2.384593 17.812086 214 214 214 0
-2.520984 2.384714 17.812991 214 214 214 0
-2.457721 2.389451 17.848374 214 214 214 0
-2.391233 2.391233 17.861683 214 214 214 0
-2.323929 2.392280 17.869504 214 214 214 0
-2.258997 2.395906 17.896590 215 215 215 0
-2.190940 2.396340 17.899834 215 215 215 0
-2.123482 2.397480 17.908344 214 214 214 0
-2.058118 2.401138 17.935671 215 215 215 0
-1.990971 2.402896 17.948803 214 214 214 0
-1.923626 2.404532 17.961025 214 214 214 0
-1.858339 2.408958 17.994080 215 215 215 0
-1.791253 2.411302 18.011593 215 215 215 0
-1.723387 2.412742 18.022349 215 215 215 0
-1.657785 2.417603 18.058662 215 215 215 0
-1.589906 2.419422 18.072249 215 215 215 0
-1.524916 2.426003 18.121403 215 215 215 0
-1.456809 2.428015 18.136434 215 215 215 0
-1.389188 2.431079 18.159324 215 215 215 0
-1.321074 2.433558 18.177836 215 215 215 0
-1.254613 2.439526 18.222417 215 215 215 0
-1.184899 2.439498 18.222207 215 215 215 0
-1.117685 2.444935 18.262819 215 215 215 0
-1.050193 2.450451 18.304026 215 215 215 0
-0.981887 2.454718 18.335895 215 215 215 0
-0.914089 2.461009 18.382888 215 215 215 0
-0.845014 2.464625 18.409898 214 214 214 0
-0.776289 2.470009 18.450115 215 215 215 0
-0.706499 2.472745 18.470554 215 215 215 0
-0.637190 2.477961 18.509511 215 215 215 0
-0.567300 2.481937 18.539211 214 214 214 0
-0.497862 2.489308 18.594274 214 214 214 0
-0.427752 2.495222 18.638446 215 215 215 0
-0.357209 2.500464 18.677605 215 215 215 0
-0.286266 2.504827 18.710194 215 215 215 0
-0.215580 2.515095 18.786892 215 215 215 0
-0.144118 2.522072 18.839005 214 214 214 0
-0.072215 2.527512 18.879645 215 215 215 0
0.000000 2.533787 18.926511 214 214 214 0
0.072582 2.540384 18.975792 214 214 214 0
0.145563 2.547353 19.027848 214 214 214 0
0.219255 2.557972 19.107170 213 213 213 0
0.293304 2.566408 19.170178 214 214 214 0
0.367550 2.572850 19.218299 214 214 214 0
0.442398 2.580653 19.276586 212 212 212 0
0.517837 2.589187 19.340333 213 213 213 0
0.593763 2.597713 19.404021 214 214 214 0
0.671152 2.610035 19.496060 212 212 212 0
0.747358 2.615752 19.538763 212 212 212 0
0.826319 2.629197 19.639190 211 211 211 0
0.904967 2.639486 19.716049 212 212 212 0
0.985715 2.653849 19.823337 211 211 211 0
1.064539 2.661347 19.879344 211 211 211 0
1.145762 2.673445 19.969708 210 210 210 0
1.229902 2.690410 20.096437 209 209 209 0
1.312563 2.702336 20.185519 210 210 210 0
1.396194 2.714822 20.278785 209 209 209 0
1.482697 2.731284 20.401749 209 209 209 0
1.570057 2.747599 20.523615 209 209 209 0
1.658391 2.763985 20.646016 207 207 207 0
1.748169 2.781178 20.774439 206 206 206 0
1.839859 2.799786 20.913431 206 206 206 0
1.934788 2.821566 21.076126 205 205 205 0
2.027035 2.837850 21.197757 204 204 204 0
2.129445 2.866561 21.412217 202 202 202 0
2.233652 2.895475 21.628199 202 202 202 0
2.337245 2.921557 21.823018 201 201 201 0
2.451759 2.959019 22.102850 197 197 197 0
2.569399 2.997632 22.391279 196 196 196 0
2.697111 3.045125 22.746030 193 193 193 0
2.843346 3.109909 23.229949 188 188 188 0
2.990401 3.171637 23.691036 152 152 152 0
-5.543170 2.494426 18.114934 202 202 202 0
-5.428011 2.473524 17.963139 202 202 202 0
-5.344860 2.466858 17.914731 202 202 202 0
-5.277326 2.467321 17.918091 202 202 202 0
-5.222052 2.473604 17.963716 203 203 203 0
-5.156281 2.475015 17.973966 206 206 206 0
-5.080220 2.471458 17.948135 206 206 206 0
-4.991857 2.461737 17.877541 206 206 206 0
-4.921262 2.460631 17.869507 206 206 206 0
-4.835108 2.451604 17.803952 205 205 205 0
-4.780347 2.458464 17.853771 206 206 206 0
-4.711444 2.458145 17.851450 206 206 206 0
-4.645991 2.459642 17.862326 206 206 206 0
-4.568816 2.454886 17.827786 207 207 207 0
-4.485720 2.446757 17.768747 207 207 207 0
-4.412296 2.443733 17.746790 208 208 208 0
-4.350568 2.447195 17.771929 209 209 209 0
-4.279123 2.445213 17.757541 209 209 209 0
-4.214365 2.447051 17.770884 209 209 209 0
-4.141266 2.444026 17.748918 209 209 209 0
-4.074406 2.444644 17.753403 210 210 210 0
-3.999924 2.440631 17.724265 210 210 210 0
-3.928367 2.438296 17.707309 210 210 210 0
-3.860956 2.438498 17.708775 210 210 210 0
-3.794733 2.439472 17.715843 211 211 211 0
-3.730787 2.441970 17.733986 211 211 211 0
-3.659568 2.439712 17.717588 212 212 212 0
-3.592934 2.440484 17.723194 211 211 211 0
-3.523975 2.439675 17.717321 212 212 212 0
-3.459471 2.441980 17.734058 212 212 212 0
-3.388666 2.439840 17.718515 212 212 212 0
-3.324358 2.442386 17.737005 213 213 213 0
-3.260310 2.445233 17.757681 212 212 212 0
-3.184656 2.439311 17.714676 212 212 212 0
-3.120991 2.442515 17.737945 212 212 212 0
-3.056043 2.444834 17.754789 213 213 213 0
-2.986366 2.443390 17.744301 213 213 213 0
-2.921001 2.445489 17.759544 213 213 213 0
-2.855414 2.447497 17.774128 214 214 214 0
-2.788348 2.448305 17.779995 213 213 213 0
-2.721779 2.449601 17.789407 213 213 213 0
-2.655764 2.451474 17.803010 213 213 213 0
-2.586523 2.450390 17.795135 214 214 214 0
-2.519145 2.451060 17.800000 215 215 215 0
-2.454738 2.454738 17.826707 214 214 214 0
-2.393301 2.461681 17.877129 215 215 215 0
-2.322645 2.459271 17.859631 215 215 215 0
-2.257492 2.462719 17.884666 215 215 215 0
-2.190386 2.464184 17.895312 214 214 214 0
-2.125049 2.467799 17.921561 215 215 215 0
-2.056627 2.467952 17.922674 215 215 215 0
-1.988354 2.468301 17.925207 214 214 214 0
-1.923089 2.472543 17.956015 214 214 214 0
-1.856969 2.475958 17.980815 214 214 214 0
-1.787529 2.475039 17.974143 215 215 215 0
-1.723501 2.481841 18.023535 215 215 215 0
-1.655564 2.483346 18.034469 215 215 215 0
-1.588852 2.486898 18.060264 215 215 215 0
-1.523699 2.493326 18.106942 215 215 215 0
-1.456187 2.496320 18.128686 215 215 215 0
-1.388558 2.499405 18.151086 215 215 215 0
-1.321840 2.504538 18.188366 215 215 215 0
-1.253584 2.507169 18.207470 216 216 216 0
-1.184310 2.507952 18.213156 215 215 215 0
-1.117139 2.513562 18.253903 215 215 215 0
-1.049285 2.518284 18.288190 215 215 215 0
-0.980684 2.521759 18.313430 215 215 215 0
-0.912991 2.528284 18.360813 215 215 215 0
-0.844725 2.534174 18.403586 216 216 216 0
-0.776005 2.539652 18.443371 215 215 215 0
-0.706758 2.544330 18.477343 214 214 214 0
-0.636894 2.547575 18.500908 215 215 215 0
-0.567665 2.554491 18.551136 216 216 216 0
-0.497392 2.558018 18.576747 215 215 215 0
-0.427379 2.564276 18.622191 215 215 215 0
-0.357058 2.570820 18.669714 215 215 215 0
-0.286225 2.576024 18.707512 214 214 214 0
-0.215304 2.583652 18.762908 214 214 214 0
-0.144043 2.592771 18.829127 215 215 215 0
-0.072188 2.598765 18.872659 214 214 214 0
0.000000 2.604282 18.912724 215 215 215 0
0.072521 2.610765 18.959807 214 214 214 0
0.145492 2.618865 19.018625 214 214 214 0
0.218934 2.627204 19.079183 214 214 214 0
0.292745 2.634703 19.133647 214 214 214 0
0.367278 2.644401 19.204073 214 214 214 0
0.442364 2.654182 19.275102 213 213 213 0
0.517810 2.663022 19.339305 213 213 213 0
0.594020 2.673088 19.412403 213 213 213 0
0.670352 2.681409 19.472834 213 213 213 0
0.746906 2.688863 19.526966 211 211 211 0
0.825885 2.702896 19.628871 212 212 212 0
0.905200 2.715600 19.721133 211 211 211 0
0.984828 2.727215 19.805485 212 212 212 0
1.064070 2.736180 19.870585 212 212 212 0
1.144557 2.746936 19.948703 212 212 212 0
1.228236 2.763531 20.069219 209 209 209 0
1.312552 2.779522 20.185348 209 209 209 0
1.396115 2.792230 20.277633 209 209 209 0
1.480584 2.805317 20.372672 210 210 210 0
1.568153 2.822675 20.498732 208 208 208 0
1.656392 2.839529 20.621127 207 207 207 0
1.746177 2.857380 20.750766 207 207 207 0
1.839103 2.878596 20.904836 206 206 206 0
1.933914 2.900871 21.066603 205 205 205 0
2.027331 2.919357 21.200851 204 204 204 0
2.128598 2.947290 21.403703 202 202 202 0
2.232721 2.976961 21.619181 203 203 203 0
2.334694 3.001750 21.799201 201 201 201 0
2.448954 3.040081 22.077568 198 198 198 0
2.568788 3.082545 22.385950 197 197 197 0
2.694793 3.129437 22.726486 193 193 193 0
2.840620 3.195697 23.207677 188 188 188 0
2.983602 3.254839 23.637172 155 155 155 0
-5.526658 2.556079 18.060974 201 201 201 0
-5.423247 2.540002 17.947372 201 201 201 0
-5.346100 2.535970 17.918887 202 202 202 0
-5.268194 2.531470 17.887084 202 202 202 0
-5.213162 2.537987 17.933133 204 204 204 0
-5.148712 2.540031 17.947580 205 205 205 0
-5.068484 2.534242 17.906674 206 206 206 0
-4.997789 2.533126 17.898786 206 206 206 0
-4.908464 2.522405 17.823034 206 206 206 0
-4.831879 2.518022 17.792062 205 205 205 0
-4.763810 2.518014 17.792008 207 207 207 0
-4.699113 2.519814 17.804730 207 207 207 0
-4.639996 2.524704 17.839278 207 207 207 0
-4.560029 2.518225 17.793500 206 206 206 0
-4.497892 2.521545 17.816961 207 207 207 0
-4.416846 2.514205 17.765091 209 209 209 0
-4.343207 2.510916 17.741858 210 210 210 0
-4.269625 2.507558 17.718126 210 210 210 0
-4.212759 2.514066 17.764113 209 209 209 0
-4.137892 2.509869 17.734454 209 209 209 0
-4.069294 2.509398 17.731127 210 210 210 0
-4.004501 2.511297 17.744549 210 210 210 0
-3.928162 2.505897 17.706389 210 210 210 0
-3.861583 2.506641 17.711651 211 211 211 0
-3.791172 2.504881 17.699214 211 211 211 0
-3.726309 2.506790 17.712700 211 211 211 0
-3.663980 2.510505 17.738948 211 211 211 0
-3.594601 2.509439 17.731416 212 212 212 0
-3.522548 2.506428 17.710143 212 212 212 0
-3.453001 2.505118 17.700890 211 211 211 0
-3.382822 2.503288 17.687956 211 211 211 0
-3.317603 2.505129 17.700964 212 212 212 0
-3.256927 2.510548 17.739256 212 212 212 0
-3.186053 2.508170 17.722450 212 212 212 0
-3.122435 2.511524 17.746148 213 213 213 0
-3.049523 2.507385 17.716907 212 212 212 0
-2.988851 2.513352 17.759069 213 213 213 0
-2.916433 2.509489 17.731773 213 213 213 0
-2.854566 2.514737 17.768852 213 213 213 0
-2.784193 2.512564 17.753500 213 213 213 0
-2.720241 2.516223 17.779354 213 213 213 0
-2.650415 2.514496 17.767150 213 213 213 0
-2.585915 2.517865 17.790953 214 214 214 0
-2.521097 2.521097 17.813792 214 214 214 0
-2.450247 2.518309 17.794096 214 214 214 0
-2.386982 2.523381 17.829930 214 214 214 0
-2.320135 2.524853 17.840331 215 215 215 0
-2.253504 2.526656 17.853072 215 215 215 0
-2.187528 2.529329 17.871959 214 214 214 0
-2.121021 2.531541 17.887586 215 215 215 0
-2.056067 2.535816 17.917797 215 215 215 0
-1.989700 2.538583 17.937344 214 214 214 0
-1.919990 2.537129 17.927073 215 215 215 0
-1.856518 2.544117 17.976450 215 215 215 0
-1.788138 2.544658 17.980270 215 215 215 0
-1.722407 2.549162 18.012099 215 215 215 0
-1.656382 2.553588 18.043372 215 215 215 0
-1.588822 2.555930 18.059921 216 216 216 0
-1.523036 2.561470 18.099063 215 215 215 0
-1.453950 2.561722 18.100843 215 215 215 0
-1.387205 2.566330 18.133405 215 215 215 0
-1.320246 2.571006 18.166443 215 215 215 0
-1.252392 2.574361 18.190149 216 216 216 0
-1.183902 2.576728 18.206874 215 215 215 0
-1.117139 2.583384 18.253903 216 216 216 0
-1.048317 2.585847 18.271312 216 216 216 0
-0.981128 2.592981 18.321719 215 215 215 0
-0.911755 2.594995 18.335946 215 215 215 0
-0.843890 2.601996 18.385414 215 215 215 0
-0.775257 2.607683 18.425601 215 215 215 0
-0.705415 2.610034 18.442211 214 214 214 0
-0.637160 2.619437 18.508654 215 215 215 0
-0.567060 2.622650 18.531357 215 215 215 0
-0.497014 2.627075 18.562621 216 216 216 0
-0.427072 2.633610 18.608794 214 214 214 0
-0.357092 2.642480 18.671474 215 215 215 0
-0.286179 2.647160 18.704542 215 215 215 0
-0.215205 2.654195 18.754245 214 214 214 0
-0.143844 2.661116 18.803153 214 214 214 0
-0.072148 2.669470 18.862182 215 215 215 0
0.000000 2.677088 18.916004 215 215 215 0
0.072501 2.682522 18.954402 214 214 214 0
0.145347 2.688923 18.999630 214 214 214 0
0.218895 2.699707 19.075832 213 213 213 0
0.292782 2.708230 19.136051 213 213 213 0
0.367237 2.717553 19.201927 213 213 213 0
0.441877 2.724905 19.253879 214 214 214 0
0.517518 2.735452 19.328404 213 213 213 0
0.593306 2.744042 19.389095 213 213 213 0
0.670157 2.755089 19.467151 213 213 213 0
0.746579 2.762341 19.518396 211 211 211 0
0.825487 2.776639 19.619428 211 211 211 0
0.904106 2.787661 19.697306 212 212 212 0
0.983984 2.800570 19.788517 211 211 211 0
1.063451 2.810548 19.859022 212 212 212 0
1.144327 2.822672 19.944690 211 211 211 0
1.227419 2.838406 20.055862 210 210 210 0
1.311185 2.853756 20.164326 209 209 209 0
1.394879 2.867252 20.259685 209 209 209 0
1.479641 2.881406 20.359696 209 209 209 0
1.567715 2.900273 20.493010 209 209 209 0
1.656046 2.917795 20.616819 207 207 207 0
1.745496 2.935607 20.742675 206 206 206 0
1.838979 2.958358 20.903432 206 206 206 0
1.932462 2.979212 21.050779 206 206 206 0
2.026747 2.999585 21.194736 204 204 204 0
2.128463 3.028967 21.402344 202 202 202 0
2.232386 3.059196 21.615942 202 202 202 0
2.334139 3.084398 21.794012 201 201 201 0
2.448440 3.123872 22.072935 198 198 198 0
2.566697 3.165593 22.367727 197 197 197 0
2.691778 3.212767 22.701058 193 193 193 0
2.837852 3.281267 23.185068 188 188 188 0
2.982285 3.343774 23.626740 156 156 156 0
-5.529421 2.626475 18.070004 201 201 201 0
-5.421975 2.608039 17.943162 201 201 201 0
-5.346100 2.604510 17.918887 202 202 202 0
-5.282944 2.607167 17.937167 203 203 203 0
-5.206110 2.603055 17.908874 205 205 205 0
-5.147652 2.608144 17.943884 206 206 206 0
-5.062526 2.599675 17.885623 205 205 205 0
-4.990180 2.597628 17.871539 206 206 206 0
-4.922561 2.598019 17.874225 206 206 206 0
-4.842739 2.591889 17.832051 206 206 206 0
-4.769835 2.589339 17.814510 205 205 205 0
-4.706454 2.591960 17.832545 207 207 207 0
-4.633959 2.589565 17.816067 206 206 206 0
-4.558212 2.585254 17.786408 207 207 207 0
-4.476536 2.577399 17.732366 208 208 208 0
-4.410451 2.578418 17.739372 209 209 209 0
-4.342856 2.578571 17.740423 209 209 209 0
-4.274407 2.578214 17.737967 210 210 210 0
-4.207987 2.579089 17.743990 210 210 210 0
-4.137112 2.577217 17.731114 209 209 209 0
-4.074002 2.580201 17.751642 210 210 210 0
-4.001085 2.576970 17.729413 210 210 210 0
-3.927248 2.573024 17.702266 210 210 210 0
-3.860083 2.573389 17.704774 210 210 210 0
-3.794128 2.574587 17.713016 210 210 210 0
-3.727200 2.575156 17.716934 210 210 210 0
-3.654222 2.571489 17.691704 211 211 211 0
-3.587473 2.572150 17.696254 212 212 212 0
-3.520331 2.572549 17.698998 211 211 211 0
-3.453600 2.573271 17.703960 212 212 212 0
-3.382829 2.570950 17.687993 212 212 212 0
-3.313733 2.569834 17.680314 213 213 213 0
-3.251703 2.574265 17.710803 212 212 212 0
-3.186057 2.575961 17.722469 212 212 212 0
-3.116086 2.574158 17.710064 212 212 212 0
-3.051363 2.576707 17.727602 213 213 213 0
-2.985766 2.578616 17.740739 213 213 213 0
-2.915987 2.576919 17.729059 213 213 213 0
-2.849055 2.577716 17.734546 213 213 213 0
-2.784193 2.580471 17.753500 214 214 214 0
-2.718482 2.582558 17.767859 214 214 214 0
-2.646757 2.578892 17.742632 214 214 214 0
-2.582176 2.582176 17.765227 214 214 214 0
-2.517338 2.585374 17.787232 214 214 214 0
-2.449347 2.585422 17.787558 214 214 214 0
-2.385452 2.589919 17.818500 214 214 214 0
-2.321377 2.594480 17.849879 215 215 215 0
-2.253378 2.594799 17.852076 215 215 215 0
-2.187049 2.597121 17.868048 214 214 214 0
-2.120359 2.599149 17.882005 215 215 215 0
-2.056910 2.605419 17.925141 215 215 215 0
-1.988494 2.605613 17.926472 215 215 215 0
-1.922185 2.608679 17.947569 214 214 214 0
-1.854268 2.609710 17.954664 214 214 214 0
-1.787395 2.612347 17.972802 215 215 215 0
-1.721835 2.617189 18.006114 215 215 215 0
-1.654583 2.619757 18.023783 216 216 216 0
-1.586487 2.621152 18.033380 215 215 215 0
-1.522840 2.630361 18.096736 215 215 215 0
-1.452039 2.627498 18.077045 215 215 215 0
-1.387500 2.636249 18.137250 215 215 215 0
-1.318707 2.637413 18.145259 215 215 215 0
-1.251291 2.641614 18.174156 215 215 215 0
-1.183305 2.645034 18.197686 215 215 215 0
-1.114854 2.647778 18.216569 215 215 215 0
-1.047538 2.653764 18.257750 215 215 215 0
-0.979864 2.659631 18.298112 216 216 216 0
-0.911598 2.664672 18.332797 215 215 215 0
-0.843121 2.669883 18.368650 216 216 216 0
-0.774593 2.675867 18.409819 216 216 216 0
-0.704965 2.678868 18.430467 214 214 214 0
-0.636429 2.687145 18.487411 215 215 215 0
-0.567057 2.693520 18.531270 215 215 215 0
-0.497124 2.698672 18.566712 215 215 215 0
-0.426870 2.703510 18.600000 215 215 215 0
-0.356794 2.711631 18.655875 214 214 214 0
-0.286035 2.717331 18.695086 214 214 214 0
-0.215033 2.723752 18.739265 214 214 214 0
-0.143817 2.732522 18.799601 215 215 215 0
-0.072101 2.739822 18.849822 215 215 215 0
0.000000 2.747665 18.903782 214 214 214 0
0.072466 2.753720 18.945445 214 214 214 0
0.145280 2.760316 18.990819 214 214 214 0
0.218698 2.770177 19.058664 213 213 213 0
0.292592 2.779628 19.123689 214 214 214 0
0.366767 2.787428 19.177352 213 213 213 0
0.441724 2.797584 19.247227 213 213 213 0
0.516951 2.806307 19.307236 214 214 214 0
0.593179 2.817600 19.384936 213 213 213 0
0.668781 2.823743 19.427199 213 213 213 0
0.746617 2.837146 19.519411 212 212 212 0
0.825295 2.851019 19.614852 211 211 211 0
0.903727 2.861801 19.689035 212 212 212 0
0.983571 2.875055 19.780218 212 212 212 0
1.063116 2.885600 19.852768 212 212 212 0
1.143627 2.897189 19.932501 212 212 212 0
1.226601 2.913177 20.042497 209 209 209 0
1.310386 2.929098 20.152035 209 209 209 0
1.394773 2.944521 20.258145 209 209 209 0
1.480505 2.961010 20.371587 209 209 209 0
1.567126 2.977539 20.485304 209 209 209 0
1.654282 2.993462 20.594855 207 207 207 0
1.744678 3.013535 20.732952 206 206 206 0
1.837381 3.035673 20.885266 206 206 206 0
1.932424 3.059672 21.050374 206 206 206 0
2.025601 3.078913 21.182753 205 205 205 0
2.127633 3.109617 21.393995 202 202 202 0
2.230762 3.139591 21.600214 202 202 202 0
2.332771 3.165904 21.781242 201 201 201 0
2.443901 3.202352 22.032009 197 197 197 0
2.561773 3.244913 22.324823 197 197 197 0
2.690021 3.297445 22.686237 193 193 193 0
2.836429 3.368259 23.173437 188 188 188 0
2.977032 3.428097 23.585119 152 152 152 0
-5.514605 2.688370 18.021584 202 202 202 0
-5.423697 2.677521 17.948862 201 201 201 0
-5.334876 2.667438 17.881268 202 202 202 0
-5.264524 2.666447 17.874624 204 204 204 0
-5.205409 2.671197 17.906465 205 205 205 0
-5.146565 2.676214 17.940096 205 205 205 0
-5.065648 2.669734 17.896656 206 206 206 0
-4.992458 2.667204 17.879697 206 206 206 0
-4.898742 2.653485 17.787734 206 206 206 0
-4.837917 2.657447 17.814294 206 206 206 0
-4.768506 2.656739 17.809545 206 206 206 0
-4.698928 2.655916 17.804027 206 206 206 0
-4.633801 2.657621 17.815458 207 207 207 0
-4.563109 2.656138 17.805517 208 208 208 0
-4.481270 2.648023 17.751119 208 208 208 0
-4.408198 2.644919 17.730310 208 208 208 0
-4.334624 2.641412 17.706798 209 209 209 0
-4.273440 2.645463 17.733958 209 209 209 0
-4.205025 2.645096 17.731498 210 210 210 0
-4.140564 2.647246 17.745907 209 209 209 0
-4.065188 2.642372 17.713239 209 209 209 0
-4.001037 2.644753 17.729200 210 210 210 0
-3.924341 2.638781 17.689164 211 211 211 0
-3.855448 2.637938 17.683514 210 210 210 0
-3.791341 2.640399 17.700007 210 210 210 0
-3.722787 2.639795 17.695959 211 211 211 0
-3.655635 2.640181 17.698546 211 211 211 0
-3.587772 2.640058 17.697726 211 211 211 0
-3.522574 2.641931 17.710279 211 211 211 0
-3.447109 2.636024 17.670684 212 212 212 0
-3.382689 2.638497 17.687262 213 213 213 0
-3.315403 2.638790 17.689225 212 212 212 0
-3.249929 2.640567 17.701137 212 212 212 0
-3.182506 2.640803 17.702720 213 213 213 0
-3.112248 2.638645 17.688253 213 213 213 0
-3.051172 2.644349 17.726489 213 213 213 0
-2.982872 2.643910 17.723543 213 213 213 0
-2.916139 2.644871 17.729985 213 213 213 0
-2.851213 2.647555 17.747983 213 213 213 0
-2.780724 2.645079 17.731383 214 214 214 0
-2.718589 2.650625 17.768559 214 214 214 0
-2.649649 2.649649 17.762015 214 214 214 0
-2.582898 2.650869 17.770196 213 213 213 0
-2.515525 2.651500 17.774425 214 214 214 0
-2.448492 2.652533 17.781351 213 213 213 0
-2.384581 2.657104 17.811995 215 215 215 0
-2.317531 2.658344 17.820306 214 214 214 0
-2.252653 2.662227 17.846333 215 215 215 0
-2.185789 2.663930 17.857750 214 214 214 0
-2.120482 2.667703 17.883044 215 215 215 0
-2.052545 2.668309 17.887105 215 215 215 0
-1.985871 2.670654 17.902827 215 215 215 0
-1.920554 2.675058 17.932347 215 215 215 0
-1.852250 2.675473 17.935128 214 214 214 0
-1.785919 2.678878 17.957958 215 215 215 0
-1.719744 2.682801 17.984255 215 215 215 0
-1.653889 2.687570 18.016223 215 215 215 0
-1.587017 2.691028 18.039405 216 216 216 0
-1.521351 2.696941 18.079039 215 215 215 0
-1.453792 2.699900 18.098877 215 215 215 0
-1.386931 2.704515 18.129814 215 215 215 0
-1.317958 2.705283 18.134962 215 215 215 0
-1.249934 2.708190 18.154452 215 215 215 0
-1.182393 2.712550 18.183674 215 215 215 0
-1.115752 2.719646 18.231247 215 215 215 0
-1.047535 2.723591 18.257691 215 215 215 0
-0.978619 2.726152 18.274857 215 215 215 0
-0.911754 2.735262 18.335928 215 215 215 0
-0.843518 2.741432 18.377289 215 215 215 0
-0.774538 2.746088 18.408503 215 215 215 0
-0.705187 2.750229 18.436259 215 215 215 0
-0.635522 2.753928 18.461055 215 215 215 0
-0.566689 2.762609 18.519246 215 215 215 0
-0.496475 2.766073 18.542467 215 215 215 0
-0.426698 2.773539 18.592522 214 214 214 0
-0.356407 2.779972 18.635644 215 215 215 0
-0.286059 2.789078 18.696687 214 214 214 0
-0.214993 2.794914 18.735804 215 215 215 0
-0.143789 2.803878 18.795900 214 214 214 0
-0.072045 2.809755 18.835295 214 214 214 0
0.000000 2.819027 18.897452 215 215 215 0
0.072414 2.824150 18.931790 214 214 214 0
0.145207 2.831534 18.981290 214 214 214 0
0.218674 2.842761 19.056548 213 213 213 0
0.292374 2.850647 19.109418 213 213 213 0
0.366905 2.861859 19.184572 213 213 213 0
0.441591 2.870340 19.241425 214 214 214 0
0.516656 2.878512 19.296209 213 213 213 0
0.592517 2.888518 19.363285 213 213 213 0
0.669006 2.899027 19.433735 213 213 213 0
0.746190 2.910141 19.508233 212 212 212 0
0.824098 2.921801 19.586399 212 212 212 0
0.903375 2.935970 19.681382 212 212 212 0
0.982997 2.948990 19.768658 212 212 212 0
1.062136 2.958807 19.834467 212 212 212 0
1.142773 2.971209 19.917608 211 211 211 0
1.226262 2.989013 20.036956 210 210 210 0
1.310174 3.005693 20.148769 210 210 210 0
1.393136 3.018461 20.234363 209 209 209 0
1.480059 3.038017 20.365454 209 209 209 0
1.566326 3.054335 20.474844 209 209 209 0
1.654911 3.073405 20.602684 207 207 207 0
1.743897 3.091455 20.723677 206 206 206 0
1.836883 3.114715 20.879601 206 206 206 0
1.930811 3.137568 21.032798 206 206 206 0
2.024003 3.157444 21.166040 205 205 205 0
2.125105 3.187658 21.368580 202 202 202 0
2.230082 3.221230 21.593633 202 202 202 0
2.333631 3.250415 21.789272 200 200 200 0
2.444476 3.287399 22.037195 198 198 198 0
2.562623 3.331410 22.332226 197 197 197 0
2.688135 3.381847 22.670332 193 193 193 0
2.833972 3.453903 23.153366 187 187 187 0
2.978437 3.519971 23.596253 148 148 148 0
-5.523717 2.761859 18.051363 201 201 201 0
-5.432242 2.750502 17.977139 202 202 202 0
-5.354186 2.745737 17.945990 202 202 202 0
-5.279723 2.742713 17.926232 204 204 204 0
-5.207605 2.740845 17.914017 205 205 205 0
-5.137419 2.739957 17.908215 204 204 204 0
-5.062565 2.736522 17.885763 205 205 205 0
-4.989057 2.733730 17.867517 206 206 206 0
-4.893832 2.718796 17.769906 205 205 205 0
-4.819684 2.715315 17.747156 206 206 206 0
-4.760868 2.720496 17.781021 206 206 206 0
-4.692909 2.720527 17.781222 206 206 206 0
-4.633606 2.725650 17.814709 207 207 207 0
-4.551228 2.717151 17.759157 209 209 209 0
-4.473122 2.710983 17.718845 208 208 208 0
-4.410078 2.713894 17.737872 209 209 209 0
-4.339367 2.712105 17.726174 209 209 209 0
-4.279078 2.716875 17.757352 209 209 209 0
-4.204217 2.712398 17.728090 210 210 210 0
-4.133309 2.710366 17.714813 209 209 209 0
-4.063639 2.709092 17.706486 210 210 210 0
-3.986280 2.702563 17.663809 210 210 210 0
-3.919049 2.702792 17.665309 210 210 210 0
-3.855122 2.705349 17.682018 210 210 210 0
-3.787606 2.705433 17.682569 210 210 210 0
-3.722787 2.707482 17.695959 211 211 211 0
-3.652116 2.705271 17.681513 211 211 211 0
-3.589030 2.708702 17.703932 211 211 211 0
-3.515829 2.704484 17.676364 211 211 211 0
-3.445435 2.702302 17.662105 212 212 212 0
-3.382342 2.705873 17.685447 211 211 211 0
-3.313310 2.704743 17.678056 213 213 213 0
-3.248332 2.706943 17.692438 213 213 213 0
-3.181181 2.707388 17.695344 213 213 213 0
-3.113811 2.707662 17.697136 212 212 212 0
-3.045942 2.707504 17.696102 213 213 213 0
-2.978110 2.707373 17.695249 213 213 213 0
-2.912119 2.708948 17.705541 213 213 213 0
-2.850560 2.714819 17.743915 213 213 213 0
-2.781559 2.713716 17.736704 213 213 213 0
-2.718580 2.718580 17.768497 213 213 213 0
-2.646748 2.714614 17.742573 214 214 214 0
-2.581991 2.717885 17.763956 214 214 214 0
-2.515455 2.719411 17.773929 213 213 213 0
-2.451442 2.723824 17.802774 214 214 214 0
-2.380669 2.720765 17.782776 214 214 214 0
-2.315293 2.723874 17.803100 214 214 214 0
-2.251382 2.728947 17.836258 215 215 215 0
-2.184690 2.730863 17.848775 215 215 215 0
-2.117797 2.732641 17.860399 214 214 214 0
-2.053519 2.738025 17.895587 214 214 214 0
-1.985642 2.738816 17.900761 215 215 215 0
-1.919152 2.741646 17.919253 214 214 214 0
-1.853143 2.745397 17.943773 215 215 215 0
-1.784108 2.744782 17.939752 215 215 215 0
-1.718722 2.749955 17.973564 215 215 215 0
-1.652871 2.754784 18.005126 215 215 215 0
-1.585669 2.757686 18.024091 216 216 216 0
-1.519896 2.763447 18.061748 215 215 215 0
-1.450536 2.762926 18.058340 215 215 215 0
-1.385867 2.771734 18.115910 215 215 215 0
-1.317958 2.774649 18.134962 215 215 215 0
-1.249543 2.776763 18.148777 215 215 215 0
-1.182742 2.782922 18.189030 216 216 216 0
-1.115300 2.788249 18.223851 215 215 215 0
-1.046632 2.791020 18.241959 215 215 215 0
-0.979446 2.798416 18.290303 215 215 215 0
-0.910260 2.800800 18.305879 215 215 215 0
-0.842171 2.807236 18.347950 215 215 215 0
-0.774013 2.814593 18.396030 216 216 216 0
-0.704509 2.818035 18.418529 215 215 215 0
-0.635911 2.826273 18.472372 215 215 215 0
-0.566489 2.832444 18.512704 216 216 216 0
-0.496236 2.835637 18.533575 215 215 215 0
-0.426237 2.841579 18.572409 214 214 214 0
-0.356646 2.853171 18.648178 215 215 215 0
-0.285891 2.858914 18.685712 215 215 215 0
-0.214860 2.864806 18.724223 214 214 214 0
-0.143786 2.875715 18.795524 214 214 214 0
-0.072052 2.882062 18.837005 214 214 214 0
0.000000 2.889156 18.883372 214 214 214 0
0.072428 2.897137 18.935535 214 214 214 0
0.145152 2.903036 18.974089 214 214 214 0
0.218365 2.911530 19.029608 214 214 214 0
0.292166 2.921657 19.095800 213 213 213 0
0.366507 2.932052 19.163740 213 213 213 0
0.441198 2.941319 19.224306 213 213 213 0
0.516432 2.951042 19.287854 213 213 213 0
0.592709 2.963547 19.369590 213 213 213 0
0.668958 2.973145 19.432317 213 213 213 0
0.745750 2.982998 19.496721 212 212 212 0
0.823862 2.995860 19.580785 212 212 212 0
0.902964 3.009880 19.672420 212 212 212 0
0.982547 3.023220 19.759608 211 211 211 0
1.061892 3.033977 19.829914 211 211 211 0
1.143071 3.048188 19.922798 211 211 211 0
1.225507 3.063767 20.024622 210 210 210 0
1.309524 3.081234 20.138783 209 209 209 0
1.393584 3.096853 20.240867 209 209 209 0
1.479047 3.113783 20.351523 209 209 209 0
1.564894 3.129787 20.456127 209 209 209 0
1.652997 3.148565 20.578855 207 207 207 0
1.743218 3.169487 20.715601 206 206 206 0
1.835591 3.192333 20.864922 205 205 205 0
1.930436 3.217393 21.028711 206 206 206 0
2.023966 3.238345 21.165653 205 205 205 0
2.124708 3.268781 21.364582 203 203 203 0
2.227687 3.300278 21.570442 201 201 201 0
2.330631 3.329473 21.761264 201 201 201 0
2.443349 3.370136 22.027034 197 197 197 0
2.561924 3.415899 22.326139 196 196 196 0
2.689676 3.470549 22.683328 193 193 193 0
2.837747 3.547184 23.184206 188 188 188 0
2.979371 3.611359 23.603652 143 143 143 0
-5.508065 2.822883 18.000212 201 201 201 0
-5.427044 2.816567 17.959936 201 201 201 0
-5.344896 2.809497 17.914852 203 203 203 0
-5.263895 2.802853 17.872491 205 205 205 0
-5.197810 2.804082 17.880324 206 206 206 0
-5.142870 2.811436 17.927217 205 205 205 0
-5.065648 2.806643 17.896656 206 206 206 0
-4.980263 2.797134 17.836022 205 205 205 0
-4.903593 2.792324 17.805347 205 205 205 0
-4.840498 2.795217 17.823799 206 206 206 0
-4.761833 2.789073 17.784622 206 206 206 0
-4.699764 2.792614 17.807197 207 207 207 0
-4.633801 2.793909 17.815458 208 208 208 0
-4.550653 2.784728 17.756913 208 208 208 0
-4.475612 2.780305 17.728709 209 209 209 0
-4.420092 2.788058 17.778148 209 209 209 0
-4.334624 2.776869 17.706798 209 209 209 0
-4.265075 2.775684 17.699244 209 209 209 0
-4.199044 2.776787 17.706280 209 209 209 0
-4.131262 2.776750 17.706041 209 209 209 0
-4.061456 2.775328 17.696974 209 209 209 0
-3.992470 2.774428 17.691237 209 209 209 0
-3.925102 2.774641 17.692594 209 209 209 0
-3.851683 2.770509 17.666247 210 210 210 0
-3.784905 2.771091 17.669958 210 210 210 0
-3.719259 2.772539 17.679189 211 211 211 0
-3.647609 2.769481 17.659692 212 212 212 0
-3.579804 2.769283 17.658425 212 212 212 0
-3.509972 2.767478 17.646916 212 212 212 0
-3.444868 2.769404 17.659197 212 212 212 0
-3.375302 2.767748 17.648639 213 213 213 0
-3.311104 2.770515 17.666286 212 212 212 0
-3.248319 2.774606 17.692368 213 213 213 0
-3.178734 2.772938 17.681734 212 212 212 0
-3.108633 2.770739 17.667709 213 213 213 0
-3.047100 2.776247 17.702834 213 213 213 0
-2.976327 2.773395 17.684652 214 214 214 0
-2.911593 2.776170 17.702342 213 213 213 0
-2.845209 2.777466 17.710605 214 214 214 0
-2.779879 2.779879 17.725996 213 213 213 0
-2.712538 2.780352 17.729008 214 214 214 0
-2.646166 2.781867 17.738672 214 214 214 0
-2.580396 2.784112 17.752984 214 214 214 0
-2.515383 2.787316 17.773416 214 214 214 0
-2.448912 2.789038 17.784399 213 213 213 0
-2.382975 2.791485 17.800000 214 214 214 0
-2.315080 2.791714 17.801461 214 214 214 0
-2.250027 2.795488 17.825526 215 215 215 0
-2.185042 2.799585 17.851649 215 215 215 0
-2.117878 2.801065 17.861085 214 214 214 0
-2.053389 2.806299 17.894460 215 215 215 0
-1.983910 2.804838 17.885145 215 215 215 0
-1.920455 2.812095 17.931418 215 215 215 0
-1.852092 2.812436 17.933595 215 215 215 0
-1.785207 2.815134 17.950797 215 215 215 0
-1.718216 2.817873 17.968267 215 215 215 0
-1.651125 2.820671 17.986108 215 215 215 0
-1.584163 2.823942 18.006962 215 215 215 0
-1.519084 2.831020 18.052095 215 215 215 0
-1.451434 2.833753 18.069522 215 215 215 0
-1.384789 2.838818 18.101818 215 215 215 0
-1.317859 2.843802 18.133600 215 215 215 0
-1.250324 2.847961 18.160120 215 215 215 0
-1.182178 2.851136 18.180369 215 215 215 0
-1.114790 2.856650 18.215529 216 216 216 0
-1.046990 2.861773 18.248192 216 216 216 0
-0.978745 2.866326 18.277226 216 216 216 0
-0.910415 2.871309 18.309000 215 215 215 0
-0.842088 2.877136 18.346154 215 215 215 0
-0.774183 2.885592 18.400076 215 215 215 0
-0.704542 2.888620 18.419387 215 215 215 0
-0.635203 2.893703 18.451797 215 215 215 0
-0.565896 2.900218 18.493340 215 215 215 0
-0.496078 2.905600 18.527661 214 214 214 0
-0.426283 2.912935 18.574430 215 215 215 0
-0.356377 2.922289 18.634074 214 214 214 0
-0.285630 2.927709 18.668638 215 215 215 0
-0.214696 2.934180 18.709901 214 214 214 0
-0.143686 2.945559 18.782458 215 215 215 0
-0.071999 2.951941 18.823151 214 214 214 0
0.000000 2.959881 18.873784 215 215 215 0
0.072340 2.965937 18.912399 214 214 214 0
0.145208 2.976758 18.981401 214 214 214 0
0.218478 2.985862 19.039449 214 214 214 0
0.292076 2.993775 19.089909 213 213 213 0
0.366398 3.004464 19.158070 214 214 214 0
0.441328 3.015741 19.229975 213 213 213 0
0.516188 3.023390 19.278748 213 213 213 0
0.592517 3.036649 19.363298 213 213 213 0
0.668752 3.046539 19.426361 213 213 213 0
0.745217 3.055389 19.482795 212 212 212 0
0.823726 3.070250 19.577553 212 212 212 0
0.902562 3.083752 19.663652 211 211 211 0
0.982279 3.097957 19.754232 212 212 212 0
1.062112 3.110470 19.834019 212 212 212 0
1.143335 3.125117 19.927414 211 211 211 0
1.224750 3.138422 20.012254 211 211 211 0
1.309707 3.158704 20.141587 209 209 209 0
1.393419 3.173899 20.238478 209 209 209 0
1.479389 3.192366 20.356230 209 209 209 0
1.565872 3.210038 20.468919 209 209 209 0
1.653822 3.228891 20.589137 208 208 208 0
1.743479 3.249211 20.718704 206 206 206 0
1.835915 3.272718 20.868598 206 206 206 0
1.929009 3.295391 21.013172 206 206 206 0
2.022730 3.317277 21.152730 205 205 205 0
2.124014 3.349407 21.357606 202 202 202 0
2.228386 3.383845 21.577206 202 202 202 0
2.332103 3.414865 21.775001 200 200 200 0
2.443718 3.454912 22.030365 198 198 198 0
2.563024 3.502799 22.335721 196 196 196 0
2.692843 3.561502 22.710043 192 192 192 0
2.842806 3.642345 23.225539 187 187 187 0
2.979567 3.701886 23.605203 138 138 138 0
-5.530214 2.903362 18.072595 201 201 201 0
-5.418846 2.880906 17.932807 201 201 201 0
-5.344671 2.877900 17.914098 204 204 204 0
-5.274733 2.877127 17.909288 204 204 204 0
-5.205078 2.876490 17.905324 204 204 204 0
-5.133800 2.874928 17.895599 205 205 205 0
-5.050971 2.866767 17.844802 205 205 205 0
-4.979281 2.864792 17.832503 206 206 206 0
-4.898900 2.857691 17.788306 206 206 206 0
-4.834453 2.859817 17.801538 206 206 206 0
-4.750520 2.850312 17.742371 205 205 205 0
-4.693354 2.856824 17.782907 206 206 206 0
-4.625977 2.857221 17.785380 208 208 208 0
-4.545976 2.849716 17.738664 209 209 209 0
-4.475612 2.848117 17.728709 209 209 209 0
-4.415599 2.853156 17.760075 209 209 209 0
-4.324975 2.838265 17.667384 209 209 209 0
-4.267472 2.844981 17.709190 209 209 209 0
-4.202575 2.846906 17.721169 209 209 209 0
-4.130052 2.843642 17.700855 210 210 210 0
-4.065115 2.845580 17.712918 209 209 209 0
-3.993315 2.842699 17.694982 209 209 209 0
-3.919292 2.838108 17.666406 210 210 210 0
-3.848450 2.835700 17.651414 210 210 210 0
-3.780479 2.835359 17.649295 211 211 211 0
-3.719259 2.840162 17.679189 212 212 212 0
-3.650774 2.839491 17.675013 212 212 212 0
-3.580513 2.837388 17.661923 211 211 211 0
-3.512889 2.837334 17.661586 212 212 212 0
-3.444174 2.836379 17.655640 211 211 211 0
-3.378241 2.837722 17.664004 212 212 212 0
-3.312405 2.839204 17.673228 212 212 212 0
-3.246446 2.840640 17.682169 213 213 213 0
-3.177090 2.839102 17.672592 213 213 213 0
-3.111414 2.840856 17.683512 213 213 213 0
-3.047483 2.844317 17.705056 213 213 213 0
-2.979160 2.843744 17.701485 214 214 214 0
-2.909192 2.841537 17.687748 214 214 214 0
-2.846259 2.846259 17.717140 213 213 213 0
-2.779449 2.847241 17.723253 213 213 213 0
-2.713526 2.849202 17.735462 214 214 214 0
-2.645693 2.849208 17.735497 213 213 213 0
-2.582129 2.853932 17.764907 214 214 214 0
-2.511782 2.851211 17.747970 214 214 214 0
-2.448901 2.857051 17.784318 214 214 214 0
-2.381394 2.857673 17.788190 214 214 214 0
-2.314890 2.859570 17.800000 215 215 215 0
-2.247820 2.860862 17.808040 215 215 215 0
-2.184150 2.866697 17.844365 215 215 215 0
-2.116466 2.867470 17.849174 215 215 215 0
-2.050867 2.871214 17.872478 215 215 215 0
-1.984726 2.874430 17.892501 215 215 215 0
-1.918609 2.877913 17.914179 215 215 215 0
-1.852507 2.881677 17.937609 214 214 214 0
-1.782774 2.879865 17.926332 215 215 215 0
-1.717066 2.884672 17.956250 214 214 214 0
-1.651372 2.889902 17.988806 215 215 215 0
-1.584939 2.894236 18.015783 215 215 215 0
-1.518648 2.899237 18.046913 215 215 215 0
-1.451985 2.903970 18.076377 216 216 216 0
-1.384023 2.906449 18.091806 215 215 215 0
-1.316314 2.909747 18.112336 216 216 216 0
-1.249940 2.916527 18.154543 215 215 215 0
-1.181881 2.919941 18.175789 215 215 215 0
-1.114304 2.925047 18.207575 215 215 215 0
-1.047453 2.932870 18.256269 216 216 216 0
-0.978318 2.934955 18.269248 216 216 216 0
-0.910038 2.940124 18.301423 215 215 215 0
-0.842230 2.947806 18.349242 215 215 215 0
-0.773756 2.954339 18.389912 215 215 215 0
-0.703793 2.955932 18.399825 215 215 215 0
-0.635147 2.964019 18.450166 215 215 215 0
-0.566179 2.972442 18.502594 215 215 215 0
-0.496150 2.976900 18.530346 214 214 214 0
-0.426628 2.986396 18.589454 215 215 215 0
-0.356120 2.991405 18.620635 215 215 215 0
-0.285490 2.997640 18.659447 215 215 215 0
-0.214650 3.005106 18.705921 215 215 215 0
-0.143519 3.013890 18.760599 214 214 214 0
-0.071895 3.019596 18.796116 214 214 214 0
0.000000 3.030763 18.865629 215 215 215 0
0.072371 3.039563 18.920403 214 214 214 0
0.145002 3.045047 18.954540 215 215 215 0
0.218343 3.056798 19.027685 214 214 214 0
0.292016 3.066172 19.086041 213 213 213 0
0.366215 3.076208 19.148508 214 214 214 0
0.441195 3.088363 19.224169 214 214 214 0
0.516526 3.099158 19.291369 213 213 213 0
0.592613 3.111216 19.366427 213 213 213 0
0.668743 3.120800 19.426081 213 213 213 0
0.745042 3.129177 19.478226 212 212 212 0
0.823657 3.144873 19.575929 211 211 211 0
0.902001 3.157003 19.651436 212 212 212 0
0.982310 3.173615 19.754842 211 211 211 0
1.061243 3.183730 19.817802 211 211 211 0
1.143025 3.200470 19.922005 211 211 211 0
1.225128 3.215960 20.018427 210 210 210 0
1.308595 3.233000 20.124491 209 209 209 0
1.394110 3.252923 20.248510 209 209 209 0
1.477495 3.266041 20.330163 208 208 208 0
1.566254 3.289134 20.473913 209 209 209 0
1.652970 3.305940 20.578523 208 208 208 0
1.742876 3.327309 20.711541 206 206 206 0
1.834812 3.350526 20.856063 206 206 206 0
1.929648 3.376885 21.020135 206 206 206 0
2.022730 3.398186 21.152730 204 204 204 0
2.122156 3.428099 21.338927 202 202 202 0
2.228186 3.466067 21.575272 202 202 202 0
2.331723 3.497584 21.771454 201 201 201 0
2.445616 3.541927 22.047476 197 197 197 0
2.566752 3.593453 22.368213 197 197 197 0
2.694598 3.650746 22.724845 192 192 192 0
2.848133 3.738175 23.269061 187 187 187 0
2.984112 3.797961 23.641215 135 135 135 0
-5.510288 2.961780 18.007476 201 201 201 0
-5.425857 2.953315 17.956010 201 201 201 0
-5.348838 2.948718 17.928065 204 204 204 0
-5.261528 2.938256 17.864453 204 204 204 0
-5.197810 2.940866 17.880324 204 204 204 0
-5.130689 2.941595 17.884756 206 206 206 0
-5.055571 2.937697 17.861053 205 205 205 0
-4.979139 2.932917 17.831995 205 205 205 0
-4.892965 2.922187 17.766758 205 205 205 0
-4.837106 2.929515 17.811307 205 205 205 0
