ply
format ascii 1.0
element vertex 1095
property float x
property float y
property float z
property uchar red
property uchar green
property uchar blue
property uchar alpha
end_header
2.820273 -6.786282 23.041448 196 196 196 0
2.938991 -6.857645 23.283743 192 192 192 0
3.073428 -6.960410 23.632663 188 188 188 0
3.206026 -7.053257 23.947907 169 169 169 0
3.326571 -7.115167 24.158108 99 99 99 0
-6.435158 -6.113400 21.029928 205 205 205 0
-6.378944 -6.136705 21.110098 205 205 205 0
-6.291999 -6.130666 21.089322 206 206 206 0
-6.240628 -6.159581 21.188788 205 205 205 0
-6.152896 -6.152896 21.165792 205 205 205 0
-6.083316 -6.164426 21.205457 205 205 205 0
-6.029909 -6.192879 21.303334 206 206 206 0
-5.956440 -6.201226 21.332045 205 205 205 0
-5.896955 -6.224564 21.412329 205 205 205 0
-5.818321 -6.228062 21.424363 205 205 205 0
-5.739931 -6.231925 21.437651 206 206 206 0
-5.659390 -6.233531 21.443174 206 206 206 0
-5.606293 -6.265857 21.554375 206 206 206 0
-5.529284 -6.272024 21.575591 205 205 205 0
-5.422040 -6.243561 21.477679 206 206 206 0
-5.374541 -6.284079 21.617058 206 206 206 0
-5.297487 -6.290765 21.640060 206 206 206 0
-5.228591 -6.307507 21.697649 205 205 205 0
-5.166147 -6.332696 21.784299 205 205 205 0
-5.061332 -6.305922 21.692197 205 205 205 0
-5.003668 -6.337980 21.802477 206 206 206 0
-4.933195 -6.354624 21.859733 206 206 206 0
-4.881974 -6.397069 22.005743 205 205 205 0
-4.811427 -6.415236 22.068235 205 205 205 0
-4.751767 -6.448827 22.183787 206 206 206 0
-4.664805 -6.445913 22.173763 206 206 206 0
-4.600429 -6.474678 22.272715 206 206 206 0
-4.503683 -6.458112 22.215727 206 206 206 0
-4.439967 -6.489183 22.322610 207 207 207 0
-4.344666 -6.474404 22.271770 206 206 206 0
-4.185637 -6.362168 21.885682 196 196 196 0
-4.055176 -6.289661 21.636262 184 184 184 0
-3.968537 -6.283517 21.615125 186 186 186 0
-3.899461 -6.305511 21.690783 187 187 187 0
-3.819299 -6.310147 21.706732 187 187 187 0
-3.727877 -6.295970 21.657964 186 186 186 0
-3.644299 -6.294698 21.653589 187 187 187 0
-3.536456 -6.250481 21.501482 190 190 190 0
-3.434028 -6.213955 21.375834 192 192 192 0
-3.338165 -6.187818 21.285924 191 191 191 0
-3.246160 -6.167705 21.216734 191 191 191 0
-3.169823 -6.177091 21.249023 191 191 191 0
-3.091838 -6.183677 21.271678 194 194 194 0
-2.986986 -6.135431 21.105714 196 196 196 0
-2.902345 -6.127173 21.077306 196 196 196 0
-2.812573 -6.107302 21.008949 196 196 196 0
-2.717705 -6.074869 20.897384 196 196 196 0
-2.637852 -6.075053 20.898016 196 196 196 0
-2.564450 -6.090570 20.951393 195 195 195 0
-2.476303 -6.070935 20.883851 196 196 196 0
-2.393590 -6.063762 20.859174 198 198 198 0
-2.304684 -6.039862 20.776960 200 200 200 0
-2.220691 -6.027589 20.734740 201 201 201 0
-2.138789 -6.020294 20.709647 201 201 201 0
-2.059483 -6.020028 20.708731 201 201 201 0
-1.981072 -6.022459 20.717093 202 202 202 0
-1.891392 -5.989408 20.603397 202 202 202 0
-1.812180 -5.988072 20.598803 202 202 202 0
-1.731475 -5.981460 20.576059 202 202 202 0
-1.656346 -5.994396 20.620559 202 202 202 0
-1.576187 -5.989511 20.603753 202 202 202 0
-1.496873 -5.987491 20.596805 203 203 203 0
-1.416308 -5.979965 20.570916 203 203 203 0
-1.335102 -5.968692 20.532137 204 204 204 0
-1.256906 -5.970302 20.537674 203 203 203 0
-1.178534 -5.971237 20.540890 205 205 205 0
-1.099630 -5.969419 20.534639 205 205 205 0
-1.021938 -5.974409 20.551802 205 205 205 0
-0.942007 -5.966045 20.523029 205 205 205 0
-0.863946 -5.969079 20.533467 206 206 206 0
-0.784876 -5.965056 20.519629 205 205 205 0
-0.707148 -5.971472 20.541698 205 205 205 0
-0.629165 -5.977067 20.560946 206 206 206 0
-0.550626 -5.978221 20.564917 206 206 206 0
-0.472115 -5.980124 20.571461 206 206 206 0
-0.393178 -5.976307 20.558332 207 207 207 0
-0.314824 -5.981654 20.576724 206 206 206 0
-0.236377 -5.988206 20.599262 206 206 206 0
-0.157800 -5.996405 20.627469 207 207 207 0
-0.078967 -6.001487 20.644950 207 207 207 0
0.000000 -6.001124 20.643702 207 207 207 0
0.079061 -6.008611 20.669457 207 207 207 0
0.158464 -6.021649 20.714308 208 208 208 0
0.237910 -6.027046 20.732872 207 207 207 0
0.317280 -6.028318 20.737248 208 208 208 0
0.397028 -6.034822 20.759620 208 208 208 0
0.476904 -6.040783 20.780127 208 208 208 0
0.558041 -6.058734 20.841879 208 208 208 0
0.638591 -6.066610 20.868973 207 207 207 0
0.719831 -6.078569 20.910111 207 207 207 0
0.800555 -6.084219 20.929545 207 207 207 0
0.882298 -6.095876 20.969646 207 207 207 0
0.965475 -6.114676 21.034318 207 207 207 0
1.048899 -6.132023 21.093990 207 207 207 0
1.130555 -6.137296 21.112131 207 207 207 0
1.213355 -6.147664 21.147794 208 208 208 0
1.299577 -6.172989 21.234913 206 206 206 0
1.384660 -6.190245 21.294274 206 206 206 0
1.470566 -6.209056 21.358982 206 206 206 0
1.555808 -6.223233 21.407751 205 205 205 0
1.642115 -6.240038 21.465559 206 206 206 0
1.732332 -6.269391 21.566534 206 206 206 0
1.821550 -6.292628 21.646466 205 205 205 0
1.910322 -6.312369 21.714375 204 204 204 0
2.001928 -6.339438 21.807493 204 204 204 0
2.094807 -6.368213 21.906478 204 204 204 0
2.188780 -6.397973 22.008850 203 203 203 0
2.281393 -6.421700 22.090471 201 201 201 0
2.380617 -6.461675 22.227984 201 201 201 0
2.482765 -6.506556 22.382372 201 201 201 0
2.584123 -6.546444 22.519588 200 200 200 0
2.688749 -6.591772 22.675515 198 198 198 0
2.803238 -6.657691 22.902274 196 196 196 0
2.913879 -6.710752 23.084801 195 195 195 0
3.040100 -6.795517 23.376390 191 191 191 0
3.175714 -6.895836 23.721485 187 187 187 0
3.314705 -6.997711 24.071932 162 162 162 0
3.449772 -7.086019 24.375710 83 83 83 0
-6.425647 -6.024044 20.998847 205 205 205 0
-6.357046 -6.035170 21.037630 205 205 205 0
-6.292598 -6.050575 21.091330 205 205 205 0
-6.246558 -6.084310 21.208922 205 205 205 0
-6.133396 -6.052693 21.098713 204 204 204 0
-6.069549 -6.069549 21.157470 205 205 205 0
-6.012797 -6.094051 21.242879 205 205 205 0
-5.964958 -6.128382 21.362551 205 205 205 0
-5.868034 -6.112536 21.307313 206 206 206 0
-5.787556 -6.113616 21.311079 205 205 205 0
-5.730833 -6.140178 21.403670 205 205 205 0
-5.653871 -6.145511 21.422262 205 205 205 0
-5.578996 -6.153305 21.449429 206 206 206 0
-5.516108 -6.174748 21.524175 205 205 205 0
-5.405748 -6.142896 21.413145 206 206 206 0
-5.367605 -6.193390 21.589160 206 206 206 0
-5.282550 -6.190488 21.579044 206 206 206 0
-5.224449 -6.219582 21.680459 206 206 206 0
-5.145989 -6.224986 21.699299 206 206 206 0
-5.067363 -6.230365 21.718048 205 205 205 0
-5.009131 -6.261413 21.826278 206 206 206 0
-4.928860 -6.265500 21.840524 206 206 206 0
-4.870899 -6.298577 21.955823 206 206 206 0
-4.805190 -6.322619 22.039629 206 206 206 0
-4.737920 -6.345428 22.119140 206 206 206 0
-4.667085 -6.364206 22.184597 206 206 206 0
-4.578142 -6.358531 22.164813 206 206 206 0
-4.506549 -6.377192 22.229864 207 207 207 0
-4.424989 -6.382195 22.247303 206 206 206 0
-4.331312 -6.369577 22.203318 204 204 204 0
-4.178906 -6.268358 21.850487 189 189 189 0
-4.082733 -6.249080 21.783287 184 184 184 0
-3.960869 -6.188857 21.573359 187 187 187 0
-3.894852 -6.215189 21.665146 186 186 186 0
-3.817623 -6.224385 21.697203 187 187 187 0
-3.729990 -6.216651 21.670242 188 188 188 0
-3.652701 -6.226194 21.703509 191 191 191 0
-3.531803 -6.160122 21.473193 191 191 191 0
-3.447235 -6.155777 21.458047 191 191 191 0
-3.327195 -6.086332 21.215972 191 191 191 0
-3.255263 -6.103617 21.276226 191 191 191 0
-3.162336 -6.081415 21.198831 193 193 193 0
-3.083831 -6.086509 21.216590 196 196 196 0
-2.979143 -6.038804 21.050298 195 195 195 0
-2.896279 -6.033915 21.033257 196 196 196 0
-2.793790 -5.986693 20.868648 196 196 196 0
-2.713381 -5.985399 20.864137 196 196 196 0
-2.635041 -5.988729 20.875744 196 196 196 0
-2.553617 -5.985041 20.862887 197 197 197 0
-2.470798 -5.977737 20.837428 200 200 200 0
-2.387286 -5.968216 20.804239 200 200 200 0
-2.293771 -5.932167 20.678578 200 200 200 0
-2.210682 -5.921470 20.641289 201 201 201 0
-2.137415 -5.937263 20.696343 201 201 201 0
-2.055288 -5.928717 20.666550 201 201 201 0
-1.971779 -5.915337 20.619912 201 201 201 0
-1.889982 -5.906192 20.588035 202 202 202 0
-1.811411 -5.906775 20.590066 202 202 202 0
-1.728549 -5.892781 20.541283 202 202 202 0
-1.650364 -5.894156 20.546079 202 202 202 0
-1.572214 -5.895802 20.551817 203 203 203 0
-1.492275 -5.890561 20.533545 204 204 204 0
-1.413309 -5.888786 20.527360 204 204 204 0
-1.332706 -5.879584 20.495281 205 205 205 0
-1.253792 -5.877152 20.486805 205 205 205 0
-1.175545 -5.877724 20.488797 206 206 206 0
-1.097689 -5.880475 20.498389 206 206 206 0
-1.019027 -5.879000 20.493247 206 206 206 0
-0.940425 -5.877653 20.488551 206 206 206 0
-0.861814 -5.876007 20.482813 207 207 207 0
-0.782446 -5.868348 20.456116 207 207 207 0
-0.706342 -5.886187 20.518297 207 207 207 0
-0.627666 -5.884372 20.511972 208 208 208 0
-0.549301 -5.885369 20.515446 208 208 208 0
-0.470732 -5.884148 20.511191 208 208 208 0
-0.392491 -5.887365 20.522404 207 207 207 0
-0.314045 -5.888345 20.525820 208 208 208 0
-0.235831 -5.895780 20.551737 207 207 207 0
-0.157299 -5.898697 20.561905 208 208 208 0
-0.078792 -5.909397 20.599204 207 207 207 0
0.000000 -5.909039 20.597959 208 208 208 0
0.078881 -5.916050 20.622397 207 207 207 0
0.157982 -5.924334 20.651274 208 208 208 0
0.237171 -5.929265 20.668461 208 208 208 0
0.316731 -5.938703 20.701361 208 208 208 0
0.396388 -5.945824 20.726184 209 209 209 0
0.476267 -5.953339 20.752379 208 208 208 0
0.556631 -5.963900 20.789192 209 209 209 0
0.637528 -5.976823 20.834240 208 208 208 0
0.718073 -5.983942 20.859059 208 208 208 0
0.798099 -5.985739 20.865321 207 207 207 0
0.880353 -6.002409 20.923432 207 207 207 0
0.963213 -6.020084 20.985043 208 208 208 0
1.046303 -6.036366 21.041798 208 208 208 0
1.127267 -6.038928 21.050728 208 208 208 0
1.210153 -6.050764 21.091987 207 207 207 0
1.295013 -6.070374 21.160345 207 207 207 0
1.380621 -6.090977 21.232163 206 206 206 0
1.466311 -6.109631 21.297188 207 207 207 0
1.551876 -6.125826 21.353643 207 207 207 0
1.637384 -6.140191 21.403715 207 207 207 0
1.726877 -6.167418 21.498624 206 206 206 0
1.815059 -6.187702 21.569332 206 206 206 0
1.901927 -6.201937 21.618951 205 205 205 0
1.992768 -6.227401 21.707717 204 204 204 0
2.087010 -6.261031 21.824945 203 203 203 0
2.181145 -6.291766 21.932080 204 204 204 0
2.270685 -6.307460 21.986787 203 203 203 0
2.370082 -6.348433 22.129613 202 202 202 0
2.471078 -6.390720 22.277019 201 201 201 0
2.570215 -6.425538 22.398391 201 201 201 0
2.671260 -6.462726 22.528020 200 200 200 0
2.783684 -6.524258 22.742512 197 197 197 0
2.894797 -6.579085 22.933630 197 197 197 0
3.008634 -6.636692 23.134438 194 194 194 0
3.141719 -6.732256 23.467559 191 191 191 0
3.283772 -6.841191 23.847288 185 185 185 0
3.413076 -6.918398 24.116418 144 144 144 0
3.588764 -7.083087 24.690500 76 76 76 0
-6.402738 -5.922533 20.923980 205 205 205 0
-6.324369 -5.924093 20.929492 206 206 206 0
-6.301991 -5.978812 21.122811 205 205 205 0
-6.207799 -5.965936 21.077323 205 205 205 0
-6.140032 -5.978452 21.121540 205 205 205 0
-6.064937 -5.984071 21.141392 205 205 205 0
-5.985825 -5.985825 21.147590 205 205 205 0
-5.902434 -5.983289 21.138629 206 206 206 0
-5.856214 -6.018887 21.264393 206 206 206 0
-5.792301 -6.037046 21.328550 205 205 205 0
-5.716275 -6.042919 21.349299 206 206 206 0
-5.647206 -6.056424 21.397012 205 205 205 0
-5.585714 -6.078572 21.475257 205 205 205 0
-5.491339 -6.065061 21.427524 205 205 205 0
-5.450094 -6.110712 21.588807 206 206 206 0
-5.340447 -6.079893 21.479927 205 205 205 0
-5.279237 -6.104118 21.565510 206 206 206 0
-5.217773 -6.128812 21.652755 206 206 206 0
-5.143806 -6.139381 21.690094 205 205 205 0
-5.067159 -6.147046 21.717173 207 207 207 0
-4.977288 -6.138655 21.687529 206 206 206 0
-4.912211 -6.161078 21.766747 206 206 206 0
-4.853628 -6.192560 21.877974 206 206 206 0
-4.802720 -6.235110 22.028300 207 207 207 0
-4.738943 -6.262175 22.123916 206 206 206 0
-4.676089 -6.291465 22.227399 206 206 206 0
-4.573107 -6.266850 22.140434 208 208 208 0
-4.499482 -6.282296 22.195004 207 207 207 0
-4.413645 -6.280956 22.190269 208 208 208 0
-4.304706 -6.246044 22.066928 200 200 200 0
-4.148430 -6.139677 21.691139 187 187 187 0
-4.036463 -6.095883 21.536418 188 188 188 0
-3.942259 -6.077649 21.471998 188 188 188 0
-3.851985 -6.064828 21.426701 188 188 188 0
-3.806723 -6.123859 21.635256 188 188 188 0
-3.714335 -6.108017 21.579286 191 191 191 0
-3.634957 -6.113336 21.598078 191 191 191 0
-3.507722 -6.036545 21.326781 192 192 192 0
-3.431529 -6.046027 21.360277 191 191 191 0
-3.324130 -5.999649 21.196427 191 191 191 0
-3.237252 -5.988916 21.158509 194 194 194 0
-3.140815 -5.959495 21.054566 196 196 196 0
-3.068633 -5.975758 21.112024 196 196 196 0
-2.984627 -5.969253 21.089042 196 196 196 0
-2.884312 -5.928864 20.946350 197 197 197 0
-2.796613 -5.912839 20.889732 197 197 197 0
-2.703742 -5.884615 20.790019 196 196 196 0
-2.629425 -5.896286 20.831251 198 198 198 0
-2.546290 -5.888296 20.803025 199 199 199 0
-2.467006 -5.888981 20.805446 201 201 201 0
-2.384004 -5.880543 20.775632 200 200 200 0
-2.287980 -5.838293 20.626368 200 200 200 0
-2.212880 -5.848326 20.661814 201 201 201 0
-2.127713 -5.831509 20.602400 201 201 201 0
-2.050838 -5.837000 20.621797 201 201 201 0
-1.969773 -5.830528 20.598932 201 201 201 0
-1.888024 -5.821407 20.566709 202 202 202 0
-1.805977 -5.810534 20.528294 202 202 202 0
-1.724338 -5.800046 20.491243 203 203 203 0
-1.646465 -5.801828 20.497537 205 205 205 0
-1.567837 -5.800995 20.494595 205 205 205 0
-1.490393 -5.804689 20.507647 205 205 205 0
-1.410424 -5.798411 20.485465 205 205 205 0
-1.330283 -5.790643 20.458022 205 205 205 0
-1.251802 -5.789586 20.454288 206 206 206 0
-1.174028 -5.791874 20.462370 206 206 206 0
-1.095951 -5.792884 20.465940 206 206 206 0
-1.018328 -5.796635 20.479193 206 206 206 0
-0.938132 -5.785150 20.438616 207 207 207 0
-0.860360 -5.787876 20.448247 207 207 207 0
-0.782094 -5.787494 20.446897 207 207 207 0
-0.704240 -5.790418 20.457228 208 208 208 0
-0.626882 -5.798656 20.486331 208 208 208 0
-0.548513 -5.798563 20.486002 208 208 208 0
-0.470231 -5.799517 20.489374 208 208 208 0
-0.391416 -5.792964 20.466222 208 208 208 0
-0.313219 -5.794556 20.471846 208 208 208 0
-0.235372 -5.805847 20.511737 208 208 208 0
-0.157069 -5.811536 20.531835 208 208 208 0
-0.078595 -5.816014 20.547656 208 208 208 0
0.000000 -5.815844 20.547056 207 207 207 0
0.078651 -5.820181 20.562378 208 208 208 0
0.157670 -5.833783 20.610433 208 208 208 0
0.236698 -5.838542 20.627246 208 208 208 0
0.315948 -5.845044 20.650219 208 208 208 0
0.395149 -5.848202 20.661373 209 209 209 0
0.475307 -5.862120 20.710545 208 208 208 0
0.555762 -5.875201 20.756761 209 209 209 0
0.635821 -5.881347 20.778475 209 209 209 0
0.716626 -5.892254 20.817009 209 209 209 0
0.796432 -5.893594 20.821740 209 209 209 0
0.878156 -5.907593 20.871200 208 208 208 0
0.959462 -5.916681 20.903308 208 208 208 0
1.042731 -5.935547 20.969960 208 208 208 0
1.125215 -5.947566 21.012421 208 208 208 0
1.208104 -5.959981 21.056283 208 208 208 0
1.291102 -5.971346 21.096436 208 208 208 0
1.376250 -5.990736 21.164939 208 208 208 0
1.462733 -6.013457 21.245211 207 207 207 0
1.546260 -6.022275 21.276364 207 207 207 0
1.632786 -6.041307 21.343605 207 207 207 0
1.719757 -6.060097 21.409986 206 206 206 0
1.809014 -6.084865 21.497492 206 206 206 0
1.896723 -6.102501 21.559798 206 206 206 0
1.986565 -6.125242 21.640141 205 205 205 0
2.077763 -6.150178 21.728238 205 205 205 0
2.172129 -6.182214 21.841421 205 205 205 0
2.265977 -6.210456 21.941197 204 204 204 0
2.359449 -6.235685 22.030332 204 204 204 0
2.459331 -6.275535 22.171118 202 202 202 0
2.560996 -6.317124 22.318049 202 202 202 0
2.659519 -6.348530 22.429005 201 201 201 0
2.765209 -6.394546 22.591578 199 199 199 0
2.877142 -6.451773 22.793758 198 198 198 0
2.988028 -6.503356 22.975996 196 196 196 0
3.110980 -6.577500 23.237942 193 193 193 0
3.240392 -6.660805 23.532256 191 191 191 0
3.388869 -6.777737 23.945370 182 182 182 0
3.516900 -6.848700 24.196079 125 125 125 0
-6.404257 -5.843885 20.928946 205 205 205 0
-6.316242 -5.836527 20.902596 206 206 206 0
-6.249640 -5.849022 20.947343 205 205 205 0
-6.238497 -5.914419 21.181552 205 205 205 0
-6.094946 -5.854356 20.966446 206 206 206 0
-6.051368 -5.889998 21.094092 206 206 206 0
-5.995713 -5.914690 21.182522 205 205 205 0
-5.934040 -5.934040 21.251822 205 205 205 0
-5.860325 -5.941719 21.279322 205 205 205 0
-5.788688 -5.951749 21.315245 205 205 205 0
-5.693313 -5.937312 21.263542 205 205 205 0
-5.628355 -5.954637 21.325586 205 205 205 0
-5.557148 -5.965762 21.365428 205 205 205 0
-5.478724 -5.969356 21.378299 206 206 206 0
-5.401875 -5.974801 21.397801 206 206 206 0
-5.338601 -5.995660 21.472504 206 206 206 0
-5.263644 -6.003844 21.501816 205 205 205 0
-5.197738 -6.022776 21.569616 205 205 205 0
-5.139004 -6.050763 21.669846 206 206 206 0
-5.031583 -6.021403 21.564699 207 207 207 0
-4.972475 -6.049845 21.666559 205 205 205 0
-4.909266 -6.074176 21.753698 205 205 205 0
-4.845773 -6.098991 21.842567 206 206 206 0
-4.795493 -6.141597 21.995153 207 207 207 0
-4.735374 -6.172898 22.107255 207 207 207 0
-4.650104 -6.171956 22.103879 207 207 207 0
-4.564300 -6.170257 22.097796 208 208 208 0
-4.485785 -6.178534 22.127438 207 207 207 0
-4.404819 -6.183688 22.145898 208 208 208 0
-4.267031 -6.107711 21.873798 196 196 196 0
-4.114462 -6.007115 21.513528 188 188 188 0
-4.014130 -5.980235 21.417262 188 188 188 0
-3.937150 -5.987748 21.444170 187 187 187 0
-3.872117 -6.014139 21.538684 187 187 187 0
-3.759561 -5.966259 21.367210 191 191 191 0
-3.706218 -6.012309 21.532131 192 192 192 0
-3.643415 -6.044756 21.648334 191 191 191 0
-3.502675 -5.946401 21.296091 191 191 191 0
-3.400312 -5.910067 21.165965 192 192 192 0
-3.298871 -5.873599 21.035364 193 193 193 0
-3.221192 -5.878676 21.053545 196 196 196 0
-3.143666 -5.884299 21.073681 196 196 196 0
-3.061352 -5.881019 21.061935 196 196 196 0
-2.968679 -5.857123 20.976355 196 196 196 0
-2.873905 -5.827641 20.870772 197 197 197 0
-2.789127 -5.817323 20.833818 197 197 197 0
-2.700187 -5.797461 20.762687 198 198 198 0
-2.619864 -5.795456 20.755505 199 199 199 0
-2.542014 -5.798969 20.768088 199 199 199 0
-2.462313 -5.798349 20.765868 199 199 199 0
-2.374080 -5.776927 20.689147 200 200 200 0
-2.292131 -5.769847 20.663792 200 200 200 0
-2.205245 -5.749389 20.590525 201 201 201 0
-2.124542 -5.744131 20.571693 200 200 200 0
-2.045614 -5.743454 20.569268 201 201 201 0
-1.965145 -5.738222 20.550533 201 201 201 0
-1.885128 -5.733931 20.535164 203 203 203 0
-1.801417 -5.717541 20.476465 203 203 203 0
-1.721372 -5.711827 20.456000 205 205 205 0
-1.642888 -5.710992 20.453011 205 205 205 0
-1.566785 -5.718765 20.480849 205 205 205 0
-1.488229 -5.717933 20.477870 206 206 206 0
-1.407968 -5.710092 20.449789 206 206 206 0
-1.327485 -5.700376 20.414992 205 205 205 0
-1.247431 -5.691406 20.382866 206 206 206 0
-1.171010 -5.698915 20.409758 205 205 205 0
-1.093835 -5.703567 20.426419 206 206 206 0
-1.015538 -5.702639 20.423095 206 206 206 0
-0.937045 -5.700359 20.414931 207 207 207 0
-0.859111 -5.701374 20.418564 207 207 207 0
-0.779438 -5.689894 20.377452 207 207 207 0
-0.702606 -5.698912 20.409748 208 208 208 0
-0.625102 -5.704059 20.428180 208 208 208 0
-0.547600 -5.710689 20.451925 208 208 208 0
-0.469216 -5.708789 20.445121 209 209 209 0
-0.390440 -5.700426 20.415172 208 208 208 0
-0.312915 -5.710707 20.451990 209 209 209 0
-0.234983 -5.717917 20.477812 208 208 208 0
-0.156693 -5.719310 20.482802 209 209 209 0
-0.078531 -5.732791 20.531081 209 209 209 0
0.000000 -5.725200 20.503893 209 209 209 0
0.078524 -5.732236 20.529093 209 209 209 0
0.157206 -5.738031 20.549847 208 208 208 0
0.236218 -5.747978 20.585470 209 209 209 0
0.315180 -5.752035 20.600000 208 208 208 0
0.394418 -5.758507 20.623177 209 209 209 0
0.474000 -5.766995 20.653579 209 209 209 0
0.554015 -5.777588 20.691513 209 209 209 0
0.634549 -5.790261 20.736900 209 209 209 0
0.714614 -5.796316 20.758587 209 209 209 0
0.794494 -5.799803 20.771075 209 209 209 0
0.875608 -5.810851 20.810640 209 209 209 0
0.957644 -5.825668 20.863706 208 208 208 0
1.040533 -5.842994 20.925757 209 209 209 0
1.122398 -5.852505 20.959817 208 208 208 0
1.204875 -5.863725 21.000000 209 209 209 0
1.288294 -5.877843 21.050562 208 208 208 0
1.373283 -5.897040 21.119311 208 208 208 0
1.457583 -5.911311 21.170421 208 208 208 0
1.542199 -5.925289 21.220482 208 208 208 0
1.627155 -5.939117 21.270003 206 206 206 0
1.715436 -5.963184 21.356196 207 207 207 0
1.804362 -5.987200 21.442205 207 207 207 0
1.890316 -5.999698 21.486965 207 207 207 0
1.980173 -6.023028 21.570517 206 206 206 0
2.070258 -6.045154 21.649759 205 205 205 0
2.165586 -6.080299 21.775624 205 205 205 0
2.256955 -6.102137 21.853835 205 205 205 0
2.349859 -6.126417 21.940790 205 205 205 0
2.447715 -6.161490 22.066397 203 203 203 0
2.547582 -6.199117 22.201152 201 201 201 0
2.646835 -6.232869 22.322030 201 201 201 0
2.749262 -6.271754 22.461290 200 200 200 0
2.857989 -6.322218 22.642020 198 198 198 0
2.967181 -6.370712 22.815693 197 197 197 0
3.082184 -6.428556 23.022851 196 196 196 0
3.210476 -6.510131 23.315002 193 193 193 0
3.344385 -6.598381 23.631052 190 190 190 0
3.489711 -6.703919 24.009020 172 172 172 0
3.616695 -6.769712 24.244648 105 105 105 0
-6.372819 -5.735537 20.826207 205 205 205 0
-6.313846 -5.754391 20.894666 206 206 206 0
-6.239897 -5.759905 20.914686 205 205 205 0
-6.177131 -5.776018 20.973196 205 205 205 0
-6.100521 -5.779441 20.985623 206 206 206 0
-6.022576 -5.781673 20.993729 206 206 206 0
-5.969034 -5.807709 21.088267 206 206 206 0
-5.913913 -5.832901 21.179741 205 205 205 0
-5.841849 -5.841849 21.212233 206 206 206 0
-5.762684 -5.843848 21.219493 206 206 206 0
-5.687062 -5.849549 21.240193 206 206 206 0
-5.624135 -5.868662 21.309595 206 206 206 0
-5.547134 -5.873436 21.326929 205 205 205 0
-5.492780 -5.902689 21.433148 205 205 205 0
-5.406353 -5.897840 21.415541 205 205 205 0
-5.334882 -5.909407 21.457543 206 206 206 0
-5.261045 -5.918676 21.491199 206 206 206 0
-5.195362 -5.937557 21.559756 206 206 206 0
-5.127447 -5.954454 21.621112 206 206 206 0
-5.062364 -5.975249 21.696621 206 206 206 0
-4.966650 -5.959980 21.641176 207 207 207 0
-4.895111 -5.973695 21.690976 206 206 206 0
-4.834988 -6.002054 21.793949 206 206 206 0
-4.781629 -6.039953 21.931565 206 206 206 0
-4.726597 -6.077054 22.066281 207 207 207 0
-4.635037 -6.067685 22.032262 207 207 207 0
-4.553232 -6.070976 22.044212 208 208 208 0
-4.488336 -6.097362 22.140024 208 208 208 0
-4.384394 -6.070699 22.043206 205 205 205 0
-4.234799 -5.978540 21.708571 193 193 193 0
-4.114462 -5.924826 21.513528 189 189 189 0
-4.038120 -5.933564 21.545258 187 187 187 0
-3.966730 -5.950095 21.605283 188 188 188 0
-3.878241 -5.941135 21.572749 190 190 190 0
-3.761853 -5.888118 21.380238 192 192 192 0
-3.676642 -5.882627 21.360302 191 191 191 0
-3.616986 -5.918705 21.491303 191 191 191 0
-3.497060 -5.855542 21.261955 191 191 191 0
-3.392784 -5.816200 21.119101 193 193 193 0
-3.300704 -5.796359 21.047055 195 195 195 0
-3.214332 -5.785797 21.008704 196 196 196 0
-3.127189 -5.773272 20.963224 196 196 196 0
-3.047591 -5.774383 20.967258 197 197 197 0
-2.953280 -5.746922 20.867546 197 197 197 0
-2.878275 -5.756549 20.902502 196 196 196 0
-2.778854 -5.716500 20.757081 199 199 199 0
-2.694935 -5.706922 20.722301 200 200 200 0
-2.619974 -5.716307 20.756380 200 200 200 0
-2.535108 -5.703992 20.711663 201 201 201 0
-2.454660 -5.701145 20.701325 200 200 200 0
-2.367075 -5.680980 20.628104 201 201 201 0
-2.288424 -5.681604 20.630369 201 201 201 0
-2.201242 -5.660337 20.553149 201 201 201 0
-2.117228 -5.645942 20.500877 201 201 201 0
-2.041471 -5.653305 20.527616 202 202 202 0
-1.961645 -5.649538 20.513936 204 204 204 0
-1.878725 -5.636176 20.465417 204 204 204 0
-1.800689 -5.636940 20.468191 204 204 204 0
-1.719707 -5.628132 20.436209 204 204 204 0
-1.639986 -5.622810 20.416885 204 204 204 0
-1.563341 -5.628028 20.435830 205 205 205 0
-1.484574 -5.625753 20.427570 204 204 204 0
-1.406130 -5.624521 20.423098 205 205 205 0
-1.325107 -5.612217 20.378420 206 206 206 0
-1.246942 -5.611237 20.374861 206 206 206 0
-1.169681 -5.614471 20.386605 206 206 206 0
-1.091517 -5.613516 20.383138 206 206 206 0
-1.013809 -5.614943 20.388319 207 207 207 0
-0.935217 -5.611304 20.375106 207 207 207 0
-0.857276 -5.611263 20.374956 207 207 207 0
-0.779054 -5.609186 20.367416 207 207 207 0
-0.701247 -5.609975 20.370278 208 208 208 0
-0.624300 -5.618702 20.401968 208 208 208 0
-0.546700 -5.623197 20.418290 208 208 208 0
-0.467973 -5.615671 20.390961 208 208 208 0
-0.389897 -5.614512 20.386754 209 209 209 0
-0.312260 -5.620672 20.409122 208 208 208 0
-0.234658 -5.631794 20.449505 208 208 208 0
-0.156550 -5.635809 20.464084 209 209 209 0
-0.078362 -5.642080 20.486857 209 209 209 0
0.000000 -5.636270 20.465759 210 210 210 0
0.078326 -5.639441 20.477272 210 210 210 0
0.156841 -5.646268 20.502063 209 209 209 0
0.235809 -5.659412 20.549788 210 210 210 0
0.314706 -5.664716 20.569048 209 209 209 0
0.393871 -5.671740 20.594553 209 209 209 0
0.472963 -5.675551 20.608393 209 209 209 0
0.553010 -5.688101 20.653961 209 209 209 0
0.632870 -5.695829 20.682024 209 209 209 0
0.713759 -5.710070 20.733732 209 209 209 0
0.793056 -5.710006 20.733502 209 209 209 0
0.873958 -5.720454 20.771437 210 210 210 0
0.955610 -5.733663 20.819400 209 209 209 0
1.037962 -5.748711 20.874042 209 209 209 0
1.120559 -5.762875 20.925471 208 208 208 0
1.202737 -5.773135 20.962728 208 208 208 0
1.285849 -5.786322 21.010612 209 209 209 0
1.369101 -5.798545 21.054993 209 209 209 0
1.454022 -5.816086 21.118687 209 209 209 0
1.538172 -5.828861 21.165071 209 209 209 0
1.622408 -5.840668 21.207943 207 207 207 0
1.711155 -5.866816 21.302890 207 207 207 0
1.800603 -5.892882 21.397538 207 207 207 0
1.885917 -5.903742 21.436970 207 207 207 0
1.975538 -5.926615 21.520026 208 208 208 0
2.063226 -5.942092 21.576224 206 206 206 0
2.158137 -5.976379 21.700722 205 205 205 0
2.250398 -6.001061 21.790343 205 205 205 0
2.342520 -6.023622 21.872267 205 205 205 0
2.439417 -6.056485 21.991593 205 205 205 0
2.536052 -6.086524 22.100670 203 203 203 0
2.635497 -6.121155 22.226415 202 202 202 0
2.737648 -6.159707 22.366403 202 202 202 0
2.843944 -6.204969 22.530752 201 201 201 0
2.953359 -6.254173 22.709415 198 198 198 0
3.065313 -6.305788 22.896833 198 198 198 0
3.185643 -6.371287 23.134666 196 196 196 0
3.314217 -6.449287 23.417889 193 193 193 0
3.457742 -6.551512 23.789077 189 189 189 0
3.600018 -6.646186 24.132848 159 159 159 0
3.713938 -6.685089 24.274106 81 81 81 0
-6.357644 -5.642409 20.776614 206 206 206 0
-6.314215 -5.674801 20.895888 205 205 205 0
-6.269044 -5.706438 21.012383 205 205 205 0
-6.174856 -5.693699 20.965475 205 205 205 0
-6.084705 -5.684396 20.931219 205 205 205 0
-6.028094 -5.706596 21.012965 205 205 205 0
-5.969599 -5.727588 21.090263 205 205 205 0
-5.918989 -5.756825 21.197921 205 205 205 0
-5.828260 -5.747312 21.162890 206 206 206 0
-5.759429 -5.759429 21.207510 206 206 206 0
-5.684328 -5.765533 21.229984 206 206 206 0
-5.619251 -5.782128 21.291092 205 205 205 0
-5.553768 -5.798787 21.352433 206 206 206 0
-5.476443 -5.803395 21.369402 206 206 206 0
-5.390627 -5.799008 21.353245 206 206 206 0
-5.337534 -5.830229 21.468211 207 207 207 0
-5.237417 -5.810260 21.394678 206 206 206 0
-5.191999 -5.851300 21.545799 206 206 206 0
-5.113759 -5.856079 21.563395 206 206 206 0
-5.029520 -5.854032 21.555857 206 206 206 0
-4.961189 -5.870741 21.617383 206 206 206 0
-4.884776 -5.878289 21.645178 206 206 206 0
-4.829092 -5.911475 21.767374 207 207 207 0
-4.781344 -5.955709 21.930255 206 206 206 0
-4.713120 -5.975563 22.003362 206 206 206 0
-4.630157 -5.977111 22.009063 207 207 207 0
-4.551557 -5.984455 22.036105 206 206 206 0
-4.477755 -5.998502 22.087830 208 208 208 0
-4.360729 -5.954073 21.924230 203 203 203 0
-4.210456 -5.861615 21.583778 188 188 188 0
-4.103960 -5.827624 21.458617 188 188 188 0
-4.027457 -5.835703 21.488366 187 187 187 0
-3.932958 -5.817501 21.421342 189 189 189 0
-3.870475 -5.846888 21.529552 192 192 192 0
-3.765578 -5.812088 21.401409 192 192 192 0
-3.675976 -5.799873 21.356431 192 192 192 0
-3.581516 -5.779265 21.280549 192 192 192 0
-3.506841 -5.790366 21.321425 193 193 193 0
-3.399522 -5.746811 21.161045 195 195 195 0
-3.286844 -5.691852 20.958675 196 196 196 0
-3.213032 -5.703132 21.000211 196 196 196 0
-3.125059 -5.689211 20.948948 196 196 196 0
-3.038045 -5.676346 20.901579 196 196 196 0
-2.956084 -5.672485 20.887361 196 196 196 0
-2.866410 -5.653197 20.816339 199 199 199 0
-2.764400 -5.607783 20.649114 200 200 200 0
-2.700805 -5.639916 20.767434 201 201 201 0
-2.609427 -5.614222 20.672825 199 199 199 0
-2.526506 -5.605685 20.641389 200 200 200 0
-2.450163 -5.611663 20.663401 201 201 201 0
-2.362594 -5.591472 20.589053 201 201 201 0
-2.273174 -5.565357 20.492890 201 201 201 0
-2.198314 -5.574296 20.525807 201 201 201 0
-2.118239 -5.570183 20.510663 203 203 203 0
-2.039131 -5.568397 20.504085 204 204 204 0
-1.959911 -5.566148 20.495804 204 204 204 0
-1.879938 -5.561482 20.478624 204 204 204 0
-1.796518 -5.545774 20.420784 205 205 205 0
-1.715639 -5.536834 20.387863 205 205 205 0
-1.636735 -5.533722 20.376404 205 205 205 0
-1.559665 -5.536811 20.387780 205 205 205 0
-1.482842 -5.541148 20.403747 205 205 205 0
-1.403648 -5.536611 20.387041 205 205 205 0
-1.323458 -5.527383 20.353063 206 206 206 0
-1.245297 -5.526005 20.347990 206 206 206 0
-1.166617 -5.521986 20.333191 206 206 206 0
-1.089613 -5.525897 20.347590 207 207 207 0
-1.012230 -5.528333 20.356561 207 207 207 0
-0.934664 -5.530096 20.363054 206 206 206 0
-0.855514 -5.521953 20.333070 207 207 207 0
-0.777615 -5.521067 20.329804 208 208 208 0
-0.699893 -5.521377 20.330947 208 208 208 0
-0.623150 -5.530457 20.364380 208 208 208 0
-0.545477 -5.532692 20.372612 208 208 208 0
-0.467876 -5.536534 20.386759 209 209 209 0
-0.389351 -5.528781 20.358212 208 208 208 0
-0.311803 -5.534511 20.379309 209 209 209 0
-0.234216 -5.543110 20.410972 209 209 209 0
-0.156266 -5.547460 20.426990 209 209 209 0
-0.078200 -5.552228 20.444547 209 209 209 0
0.000000 -5.550579 20.438475 210 210 210 0
0.078245 -5.555419 20.456297 209 209 209 0
0.156677 -5.562029 20.480638 210 210 210 0
0.235392 -5.570933 20.513423 210 210 210 0
0.314095 -5.575178 20.529053 210 210 210 0
0.392924 -5.579522 20.545051 209 209 209 0
0.472019 -5.585561 20.567288 209 209 209 0
0.551494 -5.593725 20.597350 209 209 209 0
0.632140 -5.610238 20.658154 210 210 210 0
0.711814 -5.615419 20.677233 210 210 210 0
0.792062 -5.623641 20.707507 209 209 209 0
0.872393 -5.630899 20.734231 209 209 209 0
0.953730 -5.642903 20.778433 210 210 210 0
1.035646 -5.656222 20.827476 209 209 209 0
1.118181 -5.670775 20.881064 209 209 209 0
1.199653 -5.678359 20.908990 208 208 208 0
1.283654 -5.696214 20.974735 209 209 209 0
1.366708 -5.708017 21.018196 209 209 209 0
1.450886 -5.722938 21.073139 209 209 209 0
1.535238 -5.736943 21.124709 209 209 209 0
1.617781 -5.743124 21.147471 209 209 209 0
1.706139 -5.768373 21.240444 208 208 208 0
1.794797 -5.792298 21.328539 208 208 208 0
1.881950 -5.809498 21.391874 207 207 207 0
1.970557 -5.829563 21.465758 207 207 207 0
2.058888 -5.847243 21.530857 207 207 207 0
2.150803 -5.873347 21.626980 206 206 206 0
2.243353 -5.899187 21.722130 204 204 204 0
2.334982 -5.920848 21.801889 205 205 205 0
2.429869 -5.948990 21.905515 205 205 205 0
2.528348 -5.983758 22.033538 205 205 205 0
2.627346 -6.017471 22.157675 202 202 202 0
2.727756 -6.052208 22.285585 202 202 202 0
2.832875 -6.094973 22.443058 203 203 203 0
2.939272 -6.137892 22.601094 201 201 201 0
3.046888 -6.180829 22.759198 198 198 198 0
3.164830 -6.241748 22.983516 197 197 197 0
3.290833 -6.314842 23.252663 194 194 194 0
3.420737 -6.391377 23.534483 192 192 192 0
3.581968 -6.521019 24.011854 184 184 184 0
3.711431 -6.587790 24.257719 132 132 132 0
-6.350259 -5.556476 20.752479 205 205 205 0
-6.270063 -5.555752 20.749774 206 206 206 0
-6.222069 -5.583908 20.854933 206 206 206 0
-6.149403 -5.590366 20.879051 205 205 205 0
-6.082783 -5.602563 20.924607 205 205 205 0
-6.022307 -5.620820 20.992791 205 205 205 0
-5.944656 -5.623323 21.002139 206 206 206 0
-5.883671 -5.641876 21.071433 206 206 206 0
-5.811347 -5.649921 21.101479 206 206 206 0
-5.765648 -5.684441 21.230406 206 206 206 0
-5.675363 -5.675363 21.196501 206 206 206 0
-5.603301 -5.684509 21.230658 206 206 206 0
-5.523100 -5.685544 21.234525 206 206 206 0
-5.459240 -5.703684 21.302273 206 206 206 0
-5.374599 -5.700332 21.289755 206 206 206 0
-5.323548 -5.733051 21.411957 206 206 206 0
-5.237448 -5.728459 21.394805 206 206 206 0
-5.172502 -5.747224 21.464889 206 206 206 0
-5.092662 -5.749780 21.474436 206 206 206 0
-5.023898 -5.765129 21.531760 206 206 206 0
-4.951129 -5.776317 21.573548 206 206 206 0
-4.875618 -5.784632 21.604600 207 207 207 0
-4.822817 -5.820641 21.739089 206 206 206 0
-4.759721 -5.845272 21.831079 206 206 206 0
-4.715357 -5.894196 22.013804 207 207 207 0
-4.633685 -5.897418 22.025837 207 207 207 0
-4.553996 -5.903328 22.047912 207 207 207 0
-4.446425 -5.872637 21.933285 207 207 207 0
-4.346891 -5.851585 21.854658 201 201 201 0
-4.181486 -5.739294 21.435273 189 189 189 0
-4.085981 -5.720373 21.364606 189 189 189 0
-4.009177 -5.727396 21.390836 189 189 189 0
-3.920547 -5.717464 21.353741 192 192 192 0
-3.833009 -5.708737 21.321146 191 191 191 0
-3.762386 -5.725370 21.383266 192 192 192 0
-3.666834 -5.703963 21.303318 192 192 192 0
-3.570010 -5.679561 21.212179 193 193 193 0
-3.504185 -5.704488 21.305277 195 195 195 0
-3.380077 -5.633461 21.040005 196 196 196 0
-3.290680 -5.618235 20.983137 196 196 196 0
-3.192765 -5.587338 20.867742 196 196 196 0
-3.119144 -5.598463 20.909293 196 196 196 0
-3.038547 -5.597324 20.905037 197 197 197 0
-2.952151 -5.585150 20.859571 198 198 198 0
-2.858878 -5.558929 20.761641 200 200 200 0
-2.768051 -5.536103 20.676387 200 200 200 0
-2.686374 -5.530769 20.656469 200 200 200 0
-2.603823 -5.523262 20.628429 201 201 201 0
-2.523438 -5.520020 20.616322 201 201 201 0
-2.435838 -5.500279 20.542591 200 200 200 0
-2.364026 -5.516060 20.601532 200 200 200 0
-2.270754 -5.481131 20.471076 202 202 202 0
-2.192321 -5.480802 20.469848 203 203 203 0
-2.114093 -5.480981 20.470517 204 204 204 0
-2.032651 -5.472521 20.438921 204 204 204 0
-1.957161 -5.480051 20.467044 204 204 204 0
-1.877511 -5.476072 20.452185 204 204 204 0
-1.794658 -5.462002 20.399633 205 205 205 0
-1.714435 -5.455020 20.373556 205 205 205 0
-1.635249 -5.450831 20.357913 205 205 205 0
-1.556300 -5.447049 20.343789 205 205 205 0
-1.481129 -5.456789 20.380165 206 206 206 0
-1.401148 -5.448908 20.350730 205 205 205 0
-1.321327 -5.440760 20.320298 206 206 206 0
-1.241497 -5.431550 20.285900 207 207 207 0
-1.163763 -5.430895 20.283453 206 206 206 0
-1.087909 -5.439546 20.315764 206 206 206 0
-1.010529 -5.441310 20.322354 207 207 207 0
-0.933064 -5.442874 20.328193 208 208 208 0
-0.855369 -5.443259 20.329632 208 208 208 0
-0.775815 -5.430707 20.282752 207 207 207 0
-0.699438 -5.440070 20.317722 208 208 208 0
-0.621913 -5.441742 20.323965 209 209 209 0
-0.544878 -5.448779 20.350249 208 208 208 0
-0.466909 -5.447277 20.344639 208 208 208 0
-0.388904 -5.444649 20.334825 209 209 209 0
-0.311356 -5.448724 20.350043 209 209 209 0
-0.233743 -5.454008 20.369777 209 209 209 0
-0.156004 -5.460132 20.392650 210 210 210 0
-0.078096 -5.466708 20.417211 209 209 209 0
0.000000 -5.462998 20.403353 210 210 210 0
0.078148 -5.470378 20.430916 211 211 211 0
0.156394 -5.473804 20.443711 210 210 210 0
0.235004 -5.483433 20.479676 210 210 210 0
0.313642 -5.488739 20.499491 210 210 210 0
0.392350 -5.492903 20.515043 210 210 210 0
0.471295 -5.498440 20.535723 210 210 210 0
0.550459 -5.504594 20.558707 210 210 210 0
0.630183 -5.514099 20.594209 210 210 210 0
0.711203 -5.531581 20.659500 210 210 210 0
0.791459 -5.540210 20.691726 210 210 210 0
0.870699 -5.540815 20.693985 210 210 210 0
0.951443 -5.550085 20.728608 210 210 210 0
1.034764 -5.571805 20.809728 210 210 210 0
1.116395 -5.581976 20.847716 210 210 210 0
1.197354 -5.587652 20.868915 209 209 209 0
1.280234 -5.601024 20.918857 209 209 209 0
1.364307 -5.617735 20.981270 208 208 208 0
1.448284 -5.632216 21.035355 209 209 209 0
1.531917 -5.643905 21.079010 210 210 210 0
1.616125 -5.656437 21.125814 210 210 210 0
1.702218 -5.674060 21.191632 209 209 209 0
1.790070 -5.695676 21.272367 207 207 207 0
1.878035 -5.715759 21.347373 207 207 207 0
1.965393 -5.732397 21.409512 207 207 207 0
2.052288 -5.746407 21.461839 207 207 207 0
2.144049 -5.772440 21.559066 208 208 208 0
2.236222 -5.797612 21.653080 206 206 206 0
2.328976 -5.822441 21.745810 206 206 206 0
2.422678 -5.847844 21.840688 205 205 205 0
2.521582 -5.883692 21.974572 205 205 205 0
2.617757 -5.911065 22.076808 205 205 205 0
2.716604 -5.942571 22.194477 203 203 203 0
2.820509 -5.982899 22.345094 202 202 202 0
2.927242 -6.026675 22.508592 201 201 201 0
3.031652 -6.063303 22.645390 199 199 199 0
3.148735 -6.122540 22.866629 198 198 198 0
3.267571 -6.181891 23.088293 197 197 197 0
3.393788 -6.251715 23.349075 193 193 193 0
3.537595 -6.349530 23.714397 190 190 190 0
3.685843 -6.450225 24.090477 172 172 172 0
3.814534 -6.512619 24.323508 97 97 97 0
-6.348359 -5.475459 20.746270 206 206 206 0
-6.279743 -5.484839 20.781810 206 206 206 0
-6.244176 -5.523694 20.929031 205 205 205 0
-6.139403 -5.501543 20.845099 206 206 206 0
-6.080805 -5.520731 20.917801 206 206 206 0
-6.010603 -5.529755 20.951994 206 206 206 0
-5.928868 -5.528269 20.946362 206 206 206 0
-5.879741 -5.557564 21.057359 206 206 206 0
-5.830962 -5.588005 21.172701 206 206 206 0
-5.750889 -5.588892 21.176063 206 206 206 0
-5.653725 -5.572957 21.115685 206 206 206 0
-5.582941 -5.582941 21.153512 206 206 206 0
-5.520893 -5.602082 21.226039 206 206 206 0
-5.458159 -5.621089 21.298056 207 207 207 0
-5.378638 -5.623122 21.305756 206 206 206 0
-5.299964 -5.626116 21.317101 206 206 206 0
-5.229322 -5.637863 21.361610 207 207 207 0
-5.149470 -5.639896 21.369313 206 206 206 0
-5.080465 -5.654066 21.423001 206 206 206 0
-5.021143 -5.679653 21.519952 206 206 206 0
-4.934521 -5.674699 21.501181 206 206 206 0
-4.878367 -5.705209 21.616782 206 206 206 0
-4.817728 -5.731435 21.716149 207 207 207 0
-4.754219 -5.755107 21.805844 207 207 207 0
-4.698839 -5.789641 21.936690 207 207 207 0
-4.620265 -5.796333 21.962046 207 207 207 0
-4.539004 -5.799838 21.975326 208 208 208 0
-4.442009 -5.782993 21.911500 209 209 209 0
-4.320847 -5.733431 21.723714 198 198 198 0
-4.175785 -5.649591 21.406048 189 189 189 0
-4.063858 -5.608125 21.248933 189 189 189 0
-4.031433 -5.676916 21.509581 192 192 192 0
-3.892148 -5.594963 21.199062 192 192 192 0
-3.852899 -5.656383 21.431782 192 192 192 0
-3.732269 -5.598403 21.212099 193 193 193 0
-3.665543 -5.620499 21.295821 193 193 193 0
-3.571702 -5.601078 21.222235 194 194 194 0
-3.496361 -5.610440 21.257705 196 196 196 0
-3.388987 -5.567622 21.095471 197 197 197 0
-3.285997 -5.530093 20.953275 196 196 196 0
-3.180734 -5.486765 20.789109 196 196 196 0
-3.102580 -5.489180 20.798258 196 196 196 0
-3.022569 -5.488349 20.795110 198 198 198 0
-2.937727 -5.478463 20.757651 199 199 199 0
-2.862683 -5.486809 20.789272 200 200 200 0
-2.759381 -5.439923 20.611623 200 200 200 0
-2.683908 -5.446753 20.637505 200 200 200 0
-2.594748 -5.425382 20.556531 200 200 200 0
-2.522178 -5.438446 20.606030 200 200 200 0
-2.439282 -5.429370 20.571638 201 201 201 0
-2.348958 -5.402603 20.470219 202 202 202 0
-2.269675 -5.400261 20.461346 204 204 204 0
-2.189784 -5.396254 20.446164 204 204 204 0
-2.108548 -5.388511 20.416826 203 203 203 0
-2.030105 -5.387588 20.413328 204 204 204 0
-1.953958 -5.392925 20.433552 204 204 204 0
-1.874163 -5.388220 20.415724 205 205 205 0
-1.788622 -5.365865 20.331022 205 205 205 0
-1.709520 -5.361677 20.315152 206 206 206 0
-1.631741 -5.361435 20.314236 205 205 205 0
-1.555094 -5.365076 20.328032 206 206 206 0
-1.478596 -5.369640 20.345324 206 206 206 0
-1.398267 -5.360025 20.308896 207 207 207 0
-1.320315 -5.358926 20.304731 207 207 207 0
-1.240522 -5.349750 20.269961 208 208 208 0
-1.163435 -5.351799 20.277726 208 208 208 0
-1.085838 -5.351632 20.277094 208 208 208 0
-1.008508 -5.352852 20.281717 208 208 208 0
-0.930999 -5.353245 20.283207 208 208 208 0
-0.852967 -5.350430 20.272539 209 209 209 0
-0.774896 -5.346781 20.258714 209 209 209 0
-0.697481 -5.347354 20.260884 209 209 209 0
-0.620765 -5.354100 20.286445 209 209 209 0
-0.543105 -5.353467 20.284045 209 209 209 0
-0.465871 -5.357515 20.299384 209 209 209 0
-0.388431 -5.360347 20.310114 209 209 209 0
-0.310664 -5.358949 20.304818 209 209 209 0
-0.233462 -5.369622 20.345258 210 210 210 0
-0.155678 -5.370897 20.350089 210 210 210 0
-0.077995 -5.381651 20.390834 210 210 210 0
0.000000 -5.377366 20.374597 210 210 210 0
0.078036 -5.384477 20.401542 211 211 211 0
0.156184 -5.388346 20.416203 210 210 210 0
0.234530 -5.394193 20.438356 210 210 210 0
0.313310 -5.404599 20.477783 210 210 210 0
0.391709 -5.405589 20.481533 211 211 211 0
0.470531 -5.411110 20.502452 211 211 211 0
0.549770 -5.419162 20.532961 211 211 211 0
0.629312 -5.427816 20.565753 210 210 210 0
0.709455 -5.439152 20.608705 210 210 210 0
0.789469 -5.447339 20.639724 210 210 210 0
0.869610 -5.454829 20.668104 211 211 211 0
0.950630 -5.466125 20.710902 210 210 210 0
1.031396 -5.474333 20.742001 210 210 210 0
1.114404 -5.492417 20.810523 210 210 210 0
1.194561 -5.494979 20.820231 210 210 210 0
1.277111 -5.507542 20.867830 209 209 209 0
1.360896 -5.523636 20.928808 209 209 209 0
1.445779 -5.542152 20.998966 209 209 209 0
1.529066 -5.552925 21.039786 210 210 210 0
1.612426 -5.562869 21.077461 209 209 209 0
1.698200 -5.579801 21.141615 209 209 209 0
1.785562 -5.600171 21.218797 208 208 208 0
1.873566 -5.620697 21.296568 208 208 208 0
1.960631 -5.636815 21.357640 208 208 208 0
2.049237 -5.655894 21.429927 208 208 208 0
2.138979 -5.676522 21.508088 208 208 208 0
2.230542 -5.700275 21.598087 207 207 207 0
2.322998 -5.724531 21.689991 206 206 206 0
2.417592 -5.752203 21.794838 206 206 206 0
2.513470 -5.780982 21.903880 205 205 205 0
2.609776 -5.808857 22.009497 205 205 205 0
2.704531 -5.831645 22.095843 203 203 203 0
2.809149 -5.873675 22.255090 202 202 202 0
2.915638 -5.917030 22.419360 202 202 202 0
3.018886 -5.951518 22.550035 201 201 201 0
3.131708 -6.002440 22.742976 199 199 199 0
3.247042 -6.055294 22.943238 197 197 197 0
3.365882 -6.111732 23.157080 196 196 196 0
3.505052 -6.201247 23.496246 192 192 192 0
3.654252 -6.303584 23.883997 187 187 187 0
3.807668 -6.408026 24.279723 152 152 152 0
3.966084 -6.515709 24.687730 76 76 76 0
-6.329728 -5.380269 20.685387 206 206 206 0
-6.268998 -5.396100 20.746251 206 206 206 0
-6.193109 -5.399121 20.757865 206 206 206 0
-6.164936 -5.444359 20.931791 207 207 207 0
-6.073889 -5.434532 20.894011 206 206 206 0
-5.973957 -5.416388 20.824252 206 206 206 0
-5.920855 -5.440786 20.918053 205 205 205 0
-5.873878 -5.471557 21.036360 207 207 207 0
-5.809384 -5.486640 21.094349 206 206 206 0
-5.747383 -5.504536 21.163152 206 206 206 0
-5.655547 -5.493960 21.122492 206 206 206 0
-5.581676 -5.500782 21.148721 206 206 206 0
-5.524616 -5.524616 21.240353 206 206 206 0
-5.435652 -5.516781 21.210231 206 206 206 0
-5.359756 -5.522173 21.230961 206 206 206 0
-5.268596 -5.511762 21.190935 206 206 206 0
-5.226263 -5.552904 21.349114 207 207 207 0
-5.146633 -5.555096 21.357538 207 207 207 0
-5.095882 -5.589032 21.488011 207 207 207 0
-5.011385 -5.586462 21.478133 206 206 206 0
-4.920106 -5.576120 21.438369 206 206 206 0
-4.861124 -5.602651 21.540373 206 206 206 0
-4.793166 -5.619574 21.605438 207 207 207 0
-4.748907 -5.665363 21.781480 208 208 208 0
-4.695944 -5.702217 21.923173 207 207 207 0
-4.636281 -5.732129 22.038175 207 207 207 0
-4.521042 -5.693164 21.888364 208 208 208 0
-4.435129 -5.690354 21.877563 208 208 208 0
-4.307574 -5.632981 21.656982 195 195 195 0
-4.167614 -5.556819 21.364164 189 189 189 0
-4.066024 -5.529793 21.260257 190 190 190 0
-3.984188 -5.529077 21.257504 192 192 192 0
-3.916850 -5.548871 21.333607 192 192 192 0
-3.825430 -5.534664 21.278986 193 193 193 0
-3.730775 -5.515059 21.203611 192 192 192 0
-3.650685 -5.516590 21.209498 194 194 194 0
-3.553128 -5.491198 21.111872 196 196 196 0
-3.477011 -5.498528 21.140055 196 196 196 0
-3.376186 -5.466206 21.015787 196 196 196 0
-3.276487 -5.434173 20.892631 196 196 196 0
-3.195299 -5.432008 20.884305 197 197 197 0
-3.102702 -5.409839 20.799074 197 197 197 0
-3.023440 -5.410366 20.801101 199 199 199 0
-2.943330 -5.409364 20.797245 199 199 199 0
-2.837359 -5.359456 20.605368 201 201 201 0
-2.754062 -5.350749 20.571892 199 199 199 0
-2.674406 -5.348811 20.564442 199 199 199 0
-2.589944 -5.336854 20.518471 200 200 200 0
-2.514610 -5.343547 20.544201 201 201 201 0
-2.429321 -5.328833 20.487632 202 202 202 0
-2.354618 -5.337135 20.519550 204 204 204 0
-2.273811 -5.331695 20.498636 203 203 203 0
-2.185970 -5.308784 20.410548 203 203 203 0
-2.106825 -5.306078 20.400146 204 204 204 0
-2.028593 -5.305552 20.398125 204 204 204 0
-1.947910 -5.298314 20.370297 204 204 204 0
-1.869608 -5.297223 20.366103 204 204 204 0
-1.786269 -5.281143 20.304278 204 204 204 0
-1.708746 -5.281577 20.305949 204 204 204 0
-1.627052 -5.268549 20.255860 205 205 205 0
-1.551438 -5.274890 20.280238 206 206 206 0
-1.473065 -5.272021 20.269206 207 207 207 0
-1.396276 -5.274819 20.279964 208 208 208 0
-1.317694 -5.270777 20.264426 207 207 207 0
-1.238894 -5.265302 20.243374 208 208 208 0
-1.160647 -5.261599 20.229139 209 209 209 0
-1.084082 -5.265543 20.244302 209 209 209 0
-1.007567 -5.270352 20.262793 209 209 209 0
-0.930927 -5.275251 20.281628 209 209 209 0
-0.852936 -5.272697 20.271806 210 210 210 0
-0.773952 -5.262873 20.234036 210 210 210 0
-0.697354 -5.268894 20.257185 209 209 209 0
-0.619804 -5.268333 20.255030 210 210 210 0
-0.542735 -5.272286 20.270228 210 210 210 0
-0.465600 -5.276804 20.287596 210 210 210 0
-0.387676 -5.272392 20.270636 210 210 210 0
-0.310204 -5.273473 20.274790 210 210 210 0
-0.232934 -5.279830 20.299232 210 210 210 0
-0.155482 -5.286398 20.324481 211 211 211 0
-0.077855 -5.294124 20.354188 210 210 210 0
0.000000 -5.292769 20.348978 210 210 210 0
0.077825 -5.292072 20.346297 210 210 210 0
0.155899 -5.300563 20.378941 210 210 210 0
0.234294 -5.310654 20.417740 210 210 210 0
0.312803 -5.317648 20.444628 211 211 211 0
0.391234 -5.320779 20.456666 211 211 211 0
0.469930 -5.325873 20.476250 212 212 212 0
0.548983 -5.332982 20.503583 211 211 211 0
0.628252 -5.340139 20.531098 211 211 211 0
0.708015 -5.349449 20.566892 210 210 210 0
0.787698 -5.356345 20.593407 211 211 211 0
0.868550 -5.369217 20.642896 210 210 210 0
0.949227 -5.378953 20.680328 210 210 210 0
1.030131 -5.388380 20.716571 211 211 211 0
1.111916 -5.400736 20.764076 211 211 211 0
1.192974 -5.408150 20.792578 210 210 210 0
1.274781 -5.417821 20.829761 209 209 209 0
1.358288 -5.433154 20.888711 210 210 210 0
1.442248 -5.448494 20.947689 210 210 210 0
1.526945 -5.464855 21.010591 210 210 210 0
1.610790 -5.476685 21.056076 210 210 210 0
1.695596 -5.490500 21.109191 210 210 210 0
1.780586 -5.503630 21.159670 209 209 209 0
1.869776 -5.528033 21.253491 209 209 209 0
1.957568 -5.546443 21.324270 208 208 208 0
2.045773 -5.564502 21.393701 208 208 208 0
2.133864 -5.580876 21.456654 207 207 207 0
2.225307 -5.604477 21.547392 207 207 207 0
2.316826 -5.626578 21.632364 207 207 207 0
2.409097 -5.648918 21.718253 205 205 205 0
2.505532 -5.679205 21.834699 205 205 205 0
2.601187 -5.705830 21.937063 206 206 206 0
2.695487 -5.727909 22.021949 205 205 205 0
2.799387 -5.768435 22.177757 203 203 203 0
2.903779 -5.807559 22.328176 203 203 203 0
3.006215 -5.840646 22.455387 202 202 202 0
3.115156 -5.884184 22.622775 200 200 200 0
3.231191 -5.938406 22.831241 199 199 199 0
3.347841 -5.990874 23.032963 198 198 198 0
3.476877 -6.062247 23.307369 194 194 194 0
3.617612 -6.149941 23.644524 192 192 192 0
3.773424 -6.258361 24.061365 180 180 180 0
3.903445 -6.319864 24.297823 111 111 111 0
-6.319274 -5.292392 20.651222 205 205 205 0
-6.242293 -5.294097 20.657875 205 205 205 0
-6.194042 -5.320523 20.760992 206 206 206 0
-6.134412 -5.337735 20.828155 206 206 206 0
