ply
format ascii 1.0
element vertex 1125
property float x
property float y
property float z
property uchar red
property uchar green
property uchar blue
property uchar alpha
end_header
2.017808 3.684693 22.936151 211 211 211 0
2.100861 3.676506 22.885193 210 210 210 0
2.188272 3.676298 22.883895 210 210 210 0
2.280367 3.683669 22.929781 211 211 211 0
2.368517 3.684360 22.934079 212 212 212 0
2.448039 3.672059 22.857508 211 211 211 0
2.529398 3.663266 22.802779 209 209 209 0
2.614401 3.660161 22.783449 211 211 211 0
2.705765 3.665875 22.819014 211 211 211 0
2.793955 3.667066 22.826428 211 211 211 0
2.874225 3.658105 22.770648 210 210 210 0
2.961835 3.658737 22.774584 211 211 211 0
3.052600 3.663120 22.801870 212 212 212 0
3.136007 3.658675 22.774199 211 211 211 0
3.225601 3.661493 22.791742 211 211 211 0
3.313365 3.662140 22.795766 211 211 211 0
3.402164 3.663869 22.806532 211 211 211 0
3.483274 3.657437 22.766494 211 211 211 0
3.573401 3.660558 22.785917 212 212 212 0
3.666241 3.666241 22.821293 212 212 212 0
3.753912 3.666612 22.823602 212 212 212 0
3.843394 3.668694 22.836567 211 211 211 0
3.934166 3.671889 22.856450 212 212 212 0
4.020350 3.670754 22.849387 211 211 211 0
4.115370 3.677564 22.891779 212 212 212 0
4.204144 3.678626 22.898388 212 212 212 0
4.290575 3.677635 22.892222 212 212 212 0
4.386060 3.684291 22.933648 212 212 212 0
4.479015 3.688601 22.960479 212 212 212 0
4.573662 3.694112 22.994783 211 211 211 0
4.665802 3.697428 23.015427 212 212 212 0
4.758215 3.700834 23.036628 211 211 211 0
4.860265 3.711475 23.102866 212 212 212 0
4.953863 3.715397 23.127280 211 211 211 0
5.054044 3.724032 23.181030 211 211 211 0
5.145874 3.726323 23.195286 211 211 211 0
5.245193 3.733866 23.242241 211 211 211 0
5.356382 3.749468 23.339356 212 212 212 0
5.453706 3.755011 23.373861 211 211 211 0
5.548255 3.758496 23.395553 211 211 211 0
5.656705 3.771137 23.474241 210 210 210 0
5.763833 3.782516 23.545070 210 210 210 0
5.870098 3.792986 23.610249 210 210 210 0
5.977107 3.803614 23.676400 211 211 211 0
6.085804 3.814981 23.747161 211 211 211 0
6.207069 3.833778 23.864165 209 209 209 0
6.307394 3.839283 23.898433 210 210 210 0
6.439406 3.863644 24.050069 210 210 210 0
6.573639 3.888631 24.205611 210 210 210 0
6.692733 3.904094 24.301864 209 209 209 0
6.806012 3.915788 24.374651 210 210 210 0
6.948315 3.943638 24.548011 210 210 210 0
7.072171 3.960416 24.652448 208 208 208 0
7.237417 3.999625 24.896515 209 209 209 0
7.407627 4.040524 25.151098 209 209 209 0
7.611006 4.098234 25.510328 208 208 208 0
7.725373 4.107160 25.565891 210 210 210 0
-6.038152 3.245507 19.732522 206 206 206 0
-5.981848 3.255943 19.795973 206 206 206 0
-5.897734 3.251315 19.767836 206 206 206 0
-5.813340 3.246410 19.738018 206 206 206 0
-5.725546 3.239453 19.695720 206 206 206 0
-5.644093 3.235947 19.674398 207 207 207 0
-5.507085 3.200063 19.456228 202 202 202 0
-5.489592 3.233596 19.660104 210 210 210 0
-5.424988 3.239924 19.698578 213 213 213 0
-5.376257 3.256043 19.796585 212 212 212 0
-5.293984 3.252019 19.772117 213 213 213 0
-5.180018 3.228127 19.626856 210 210 210 0
-5.088647 3.217821 19.564194 209 209 209 0
-5.009970 3.215354 19.549194 208 208 208 0
-4.947487 3.223363 19.597890 208 208 208 0
-4.875977 3.225647 19.611774 208 208 208 0
-4.791553 3.219325 19.573337 208 208 208 0
-4.696556 3.205586 19.489806 208 208 208 0
-4.629389 3.210705 19.520932 207 207 207 0
-4.557964 3.212991 19.534827 208 208 208 0
-4.490299 3.218047 19.565571 208 208 208 0
-4.424226 3.224436 19.604412 207 207 207 0
-4.355079 3.228765 19.630735 207 207 207 0
-4.262757 3.215764 19.551687 208 208 208 0
-4.187252 3.215211 19.548328 209 209 209 0
-4.117868 3.219424 19.573940 208 208 208 0
-4.044697 3.220777 19.582170 208 208 208 0
-3.968595 3.219803 19.576247 208 208 208 0
-3.898827 3.224030 19.601947 208 208 208 0
-3.807953 3.210627 19.520457 208 208 208 0
-3.733574 3.210874 19.521957 208 208 208 0
-3.658885 3.210858 19.521861 208 208 208 0
-3.582666 3.209472 19.513434 209 209 209 0
-3.503884 3.205681 19.490387 209 209 209 0
-3.431770 3.207959 19.504235 208 208 208 0
-3.352342 3.203349 19.476206 208 208 208 0
-3.276277 3.201816 19.466887 208 208 208 0
-3.198068 3.198068 19.444099 209 209 209 0
-3.121470 3.195791 19.430251 209 209 209 0
-3.052355 3.201251 19.463448 209 209 209 0
-2.974316 3.197389 19.439971 209 209 209 0
-2.899806 3.197222 19.438953 209 209 209 0
-2.826062 3.197912 19.443149 209 209 209 0
-2.748384 3.194068 19.419777 210 210 210 0
-2.671380 3.190815 19.400000 209 209 209 0
-2.595370 3.188598 19.386519 209 209 209 0
-2.521763 3.189289 19.390720 209 209 209 0
-2.443565 3.184039 19.358803 209 209 209 0
-2.370847 3.185826 19.369665 210 210 210 0
-2.294214 3.182297 19.348210 210 210 210 0
-2.218572 3.179953 19.333962 210 210 210 0
-2.143749 3.178662 19.326111 209 209 209 0
-2.073805 3.184773 19.363262 210 210 210 0
-1.996717 3.179957 19.333984 210 210 210 0
-1.922834 3.180072 19.334680 210 210 210 0
-1.846394 3.175798 19.308695 209 209 209 0
-1.771554 3.174035 19.297979 211 211 211 0
-1.697362 3.173329 19.293684 210 210 210 0
-1.624186 3.174545 19.301079 210 210 210 0
-1.551241 3.176350 19.312053 210 210 210 0
-1.475144 3.171560 19.282929 210 210 210 0
-1.400816 3.170267 19.275068 211 211 211 0
-1.324546 3.164192 19.238135 210 210 210 0
-1.252042 3.166930 19.254782 210 210 210 0
-1.177912 3.165639 19.246931 211 211 211 0
-1.102562 3.160677 19.216765 211 211 211 0
-1.029543 3.162166 19.225817 211 211 211 0
-0.954211 3.156236 19.189761 211 211 211 0
-0.881431 3.158461 19.203289 211 211 211 0
-0.807537 3.156736 19.192800 211 211 211 0
-0.734443 3.158105 19.201127 211 211 211 0
-0.661435 3.160191 19.213809 211 211 211 0
-0.587233 3.156377 19.190616 211 211 211 0
-0.512916 3.150768 19.156518 211 211 211 0
-0.439518 3.149880 19.151116 211 211 211 0
-0.365935 3.147041 19.133857 211 211 211 0
-0.293103 3.150854 19.157040 212 212 212 0
-0.219643 3.148218 19.141014 211 211 211 0
-0.146366 3.146858 19.132746 212 212 212 0
-0.073160 3.145891 19.126863 212 212 212 0
0.000000 3.143239 19.110742 211 211 211 0
0.073084 3.142602 19.106870 212 212 212 0
0.146188 3.143033 19.109489 212 212 212 0
0.219033 3.139470 19.087828 212 212 212 0
0.291983 3.138814 19.083837 212 212 212 0
0.364639 3.135898 19.066104 212 212 212 0
0.437478 3.135259 19.062220 212 212 212 0
0.510163 3.133861 19.053722 212 212 212 0
0.582773 3.132403 19.044856 212 212 212 0
0.655696 3.132769 19.047084 212 212 212 0
0.728750 3.133624 19.052282 212 212 212 0
0.800979 3.131100 19.036935 212 212 212 0
0.872912 3.127935 19.017694 213 213 213 0
0.945546 3.127576 19.015508 212 212 212 0
1.017450 3.125025 19.000000 213 213 213 0
1.089814 3.124134 18.994586 212 212 212 0
1.161334 3.121085 18.976046 213 213 213 0
1.234001 3.121296 18.977326 213 213 213 0
1.305569 3.118859 18.962510 213 213 213 0
1.378443 3.119633 18.967219 213 213 213 0
1.449930 3.117348 18.953327 213 213 213 0
1.488923 3.048747 18.536234 212 212 212 0
1.943043 3.797765 23.090229 210 210 210 0
2.020120 3.776747 22.962436 209 209 209 0
2.104690 3.770903 22.926904 210 210 210 0
2.192900 3.771787 22.932284 210 210 210 0
2.279330 3.769661 22.919354 209 209 209 0
2.376204 3.784325 23.008513 211 211 211 0
2.448104 3.759589 22.858118 211 211 211 0
2.534140 3.757518 22.845524 211 211 211 0
2.617415 3.751629 22.809721 210 210 210 0
2.703123 3.749493 22.796736 210 210 210 0
2.800202 3.762772 22.877469 210 210 210 0
2.884350 3.758396 22.850863 211 211 211 0
2.958546 3.741691 22.749299 211 211 211 0
3.053844 3.751865 22.811159 211 211 211 0
3.139022 3.749388 22.796095 211 211 211 0
3.231444 3.755462 22.833024 210 210 210 0
3.321188 3.758187 22.849593 211 211 211 0
3.403222 3.752271 22.813622 210 210 210 0
3.491639 3.753512 22.821170 212 212 212 0
3.580188 3.754832 22.829194 211 211 211 0
3.672898 3.760348 22.862730 211 211 211 0
3.762846 3.762846 22.877922 211 211 211 0
3.845143 3.757754 22.846959 210 210 210 0
3.933970 3.759127 22.855307 212 212 212 0
4.026664 3.764056 22.885275 211 211 211 0
4.121115 3.770382 22.923737 211 211 211 0
4.212426 3.773631 22.943496 212 212 212 0
4.298836 3.772448 22.936302 212 212 212 0
4.395406 3.780049 22.982515 212 212 212 0
4.486498 3.782733 22.998835 211 211 211 0
4.577957 3.785618 23.016376 212 212 212 0
4.670428 3.789215 23.038246 211 211 211 0
4.763509 3.793165 23.062256 211 211 211 0
4.863829 3.802630 23.119804 211 211 211 0
4.963246 3.811064 23.171085 211 211 211 0
5.051856 3.811049 23.170994 211 211 211 0
5.147648 3.816360 23.203282 210 210 210 0
5.255713 3.830435 23.288859 210 210 210 0
5.353813 3.836899 23.328161 211 211 211 0
5.453164 3.844034 23.371539 211 211 211 0
5.557377 3.854310 23.434017 211 211 211 0
5.659329 3.862717 23.485131 210 210 210 0
5.778871 3.882679 23.606499 209 209 209 0
5.879981 3.889834 23.649999 211 211 211 0
5.981566 3.897081 23.694064 210 210 210 0
6.097814 3.913522 23.794026 210 210 210 0
6.219273 3.932776 23.911085 210 210 210 0
6.318944 3.937893 23.942195 209 209 209 0
6.445926 3.959640 24.074420 209 209 209 0
6.584449 3.987765 24.245417 209 209 209 0
6.697016 3.999607 24.317414 208 208 208 0
6.830595 4.023501 24.462691 208 208 208 0
6.962663 4.045872 24.598705 209 209 209 0
7.088400 4.064016 24.709018 209 209 209 0
7.264322 4.110077 24.989066 209 209 209 0
7.445402 4.157822 25.279354 209 209 209 0
7.632764 4.207806 25.583253 207 207 207 0
7.714140 4.198836 25.528718 210 210 210 0
-6.034950 3.319222 19.722058 205 205 205 0
-5.962535 3.320906 19.732060 205 205 205 0
-5.883196 3.318726 19.719109 206 206 206 0
-5.798288 3.313308 19.686914 206 206 206 0
-5.736324 3.321029 19.732795 206 206 206 0
-5.654272 3.317173 19.709882 207 207 207 0
-5.530733 3.288544 19.539772 201 201 201 0
-5.477691 3.301622 19.617482 211 211 211 0
-5.417924 3.310953 19.672926 213 213 213 0
-5.378043 3.332872 19.803159 213 213 213 0
-5.308157 3.336556 19.825049 213 213 213 0
-5.183745 3.305576 19.640976 210 210 210 0
-5.090739 3.294008 19.572238 209 209 209 0
-5.009516 3.289832 19.547425 208 208 208 0
-4.938132 3.292088 19.560831 207 207 207 0
-4.865342 3.293462 19.568999 207 207 207 0
-4.786491 3.290712 19.552658 207 207 207 0
-4.692025 3.276970 19.471005 207 207 207 0
-4.632891 3.287858 19.535700 208 208 208 0
-4.550194 3.282107 19.501529 208 208 208 0
-4.491774 3.293968 19.572001 208 208 208 0
-4.420096 3.296343 19.586114 207 207 207 0
-4.350473 3.300359 19.609975 208 208 208 0
-4.272980 3.298441 19.598580 207 207 207 0
-4.194202 3.295444 19.580773 208 208 208 0
-4.112173 3.289739 19.546872 208 208 208 0
-4.040983 3.292653 19.564188 208 208 208 0
-3.963910 3.290793 19.553139 208 208 208 0
-3.888895 3.290604 19.552012 208 208 208 0
-3.808877 3.286090 19.525192 207 207 207 0
-3.732793 3.284858 19.517871 208 208 208 0
-3.648576 3.276272 19.466859 208 208 208 0
-3.579037 3.280784 19.493668 208 208 208 0
-3.503504 3.279876 19.488271 208 208 208 0
-3.430318 3.281173 19.495979 209 209 209 0
-3.357375 3.282766 19.505444 208 208 208 0
-3.267635 3.267635 19.415536 209 209 209 0
-3.195235 3.269543 19.426874 209 209 209 0
-3.121217 3.269846 19.428674 208 208 208 0
-3.047475 3.270460 19.432326 209 209 209 0
-2.970486 3.267534 19.414940 210 210 210 0
-2.896237 3.267549 19.415029 209 209 209 0
-2.818134 3.263103 19.388610 209 209 209 0
-2.747369 3.267141 19.412602 209 209 209 0
-2.670364 3.263778 19.392621 209 209 209 0
-2.593595 3.260519 19.373257 209 209 209 0
-2.521255 3.262800 19.386812 210 210 210 0
-2.448062 3.264082 19.394429 209 209 209 0
-2.368566 3.256778 19.351026 209 209 209 0
-2.295378 3.257956 19.358028 210 210 210 0
-2.219996 3.255994 19.346372 210 210 210 0
-2.143509 3.252221 19.323949 210 210 210 0
-2.072987 3.257551 19.355620 210 210 210 0
-1.995213 3.251458 19.319420 210 210 210 0
-1.920272 3.249691 19.308918 209 209 209 0
-1.844181 3.245759 19.285558 211 211 211 0
-1.771620 3.247970 19.298690 210 210 210 0
-1.694988 3.242586 19.266701 210 210 210 0
-1.621794 3.243588 19.272653 210 210 210 0
-1.548965 3.245450 19.283723 211 211 211 0
-1.473282 3.241220 19.258586 211 211 211 0
-1.399281 3.240440 19.253953 210 210 210 0
-1.324859 3.238544 19.242683 210 210 210 0
-1.250640 3.236951 19.233220 210 210 210 0
-1.176910 3.236503 19.230561 211 211 211 0
-1.103369 3.236549 19.230831 211 211 211 0
-1.029455 3.235428 19.224174 211 211 211 0
-0.953905 3.228601 19.183609 211 211 211 0
-0.880690 3.229197 19.187149 211 211 211 0
-0.807681 3.230722 19.196211 211 211 211 0
-0.734073 3.229923 19.191459 211 211 211 0
-0.660614 3.229669 19.189951 212 212 212 0
-0.586604 3.226324 19.170080 212 212 212 0
-0.512516 3.221530 19.141594 212 212 212 0
-0.439471 3.222788 19.149067 212 212 212 0
-0.365967 3.220510 19.135531 211 211 211 0
-0.292918 3.222093 19.144938 212 212 212 0
-0.219600 3.220798 19.137244 212 212 212 0
-0.146364 3.220016 19.132597 212 212 212 0
-0.073081 3.215577 19.106222 211 211 211 0
0.000000 3.211180 19.080093 211 211 211 0
0.073040 3.213782 19.095553 212 212 212 0
0.145846 3.208606 19.064798 212 212 212 0
0.219013 3.212184 19.086060 212 212 212 0
0.291768 3.209449 19.069811 212 212 212 0
0.364266 3.205540 19.046585 212 212 212 0
0.436953 3.204321 19.039340 212 212 212 0
0.509642 3.203462 19.034235 212 212 212 0
0.582434 3.203385 19.033780 212 212 212 0
0.654991 3.202180 19.026618 212 212 212 0
0.727654 3.201679 19.023644 212 212 212 0
0.800212 3.200848 19.018704 212 212 212 0
0.871879 3.196891 18.995195 213 213 213 0
0.945044 3.198611 19.005410 213 213 213 0
1.017002 3.196293 18.991641 213 213 213 0
1.089378 3.195508 18.986975 213 213 213 0
1.161979 3.195443 18.986592 212 212 212 0
1.233310 3.192096 18.966703 213 213 213 0
1.304971 3.189929 18.953827 213 213 213 0
1.376437 3.187539 18.939626 212 212 212 0
1.449282 3.188420 18.944859 213 213 213 0
1.490567 3.123094 18.556705 212 212 212 0
1.934162 3.868324 22.984695 209 209 209 0
2.023776 3.871572 23.003992 209 209 209 0
2.106801 3.862469 22.949904 209 209 209 0
2.192400 3.858624 22.927058 208 208 208 0
2.280600 3.859478 22.932130 210 210 210 0
2.373876 3.868539 22.985970 210 210 210 0
2.454661 3.857324 22.919333 211 211 211 0
2.538790 3.851957 22.887447 211 211 211 0
2.620989 3.844118 22.840866 210 210 210 0
2.713221 3.851024 22.881901 210 210 210 0
2.806760 3.859295 22.931046 212 212 212 0
2.887450 3.849933 22.875420 211 211 211 0
2.978249 3.854204 22.900799 211 211 211 0
3.056220 3.842105 22.828907 210 210 210 0
3.143256 3.841758 22.826844 211 211 211 0
3.234413 3.846329 22.854007 212 212 212 0
3.319552 3.843692 22.838334 210 210 210 0
3.406268 3.842969 22.834039 211 211 211 0
3.489870 3.838857 22.809606 210 210 210 0
3.582471 3.844603 22.843749 211 211 211 0
3.676965 3.852058 22.888046 211 211 211 0
3.765511 3.853081 22.894123 211 211 211 0
3.849239 3.849239 22.871298 212 212 212 0
3.939559 3.852013 22.887780 210 210 210 0
4.030290 3.855060 22.905881 211 211 211 0
4.120483 3.857473 22.920220 211 211 211 0
4.215735 3.864423 22.961517 212 212 212 0
4.300280 3.861476 22.944003 211 211 211 0
4.397343 3.869662 22.992644 211 211 211 0
4.495049 3.878082 23.042672 211 211 211 0
4.586680 3.881037 23.060231 211 211 211 0
4.675573 3.881608 23.063622 211 211 211 0
4.768379 3.885346 23.085836 211 211 211 0
4.869484 3.895587 23.146685 212 212 212 0
4.963881 3.900192 23.174047 211 211 211 0
5.056164 3.903004 23.190752 211 211 211 0
5.153734 3.909729 23.230716 210 210 210 0
5.260350 3.922973 23.309404 210 210 210 0
5.361169 3.931524 23.360214 211 211 211 0
5.457258 3.936383 23.389085 211 211 211 0
5.560629 3.946253 23.447730 210 210 210 0
5.675648 3.963944 23.552848 209 209 209 0
5.788296 3.979454 23.645002 209 209 209 0
5.882802 3.982205 23.661346 210 210 210 0
5.994122 3.996081 23.743797 210 210 210 0
6.108543 4.011580 23.835890 209 209 209 0
6.223730 4.027120 23.928221 209 209 209 0
6.334937 4.039670 24.002792 209 209 209 0
6.462774 4.062315 24.137344 209 209 209 0
6.591342 4.084776 24.270800 208 208 208 0
6.714512 4.103313 24.380944 208 208 208 0
6.850453 4.129040 24.533809 208 208 208 0
6.989333 4.155820 24.692929 208 208 208 0
7.117053 4.175338 24.808899 207 207 207 0
7.281545 4.215632 25.048316 207 207 207 0
7.486741 4.278138 25.419714 207 207 207 0
7.658335 4.320086 25.668963 209 209 209 0
7.712684 4.295672 25.523899 211 211 211 0
-6.011520 3.381480 19.645491 206 206 206 0
-5.962640 3.396440 19.732407 206 206 206 0
-5.890511 3.398372 19.743626 206 206 206 0
-5.801166 3.390292 19.696684 207 207 207 0
-5.721603 3.387791 19.682155 206 206 206 0
-5.666319 3.399791 19.751875 207 207 207 0
-5.533460 3.364942 19.549409 201 201 201 0
-5.478807 3.377347 19.621479 210 210 210 0
-5.422030 3.388769 19.687836 212 212 212 0
-5.368004 3.402256 19.766193 213 213 213 0
-5.250690 3.375444 19.610422 211 211 211 0
-5.170268 3.371914 19.589912 209 209 209 0
-5.082579 3.363471 19.540866 208 208 208 0
-5.015617 3.368698 19.571228 208 208 208 0
-4.944234 3.371069 19.585004 208 208 208 0
-4.863158 3.366801 19.560212 208 208 208 0
-4.777775 3.359373 19.517056 208 208 208 0
-4.711075 3.365054 19.550057 207 207 207 0
-4.621305 3.354173 19.486842 208 208 208 0
-4.558237 3.362634 19.535997 207 207 207 0
-4.480856 3.360642 19.524427 208 208 208 0
-4.430450 3.379157 19.631991 207 207 207 0
-4.340042 3.367274 19.562955 208 208 208 0
-4.261292 3.364178 19.544970 207 207 207 0
-4.189653 3.366686 19.559539 207 207 207 0
-4.107547 3.360720 19.524881 208 208 208 0
-4.040494 3.367078 19.561821 209 209 209 0
-3.956396 3.359204 19.516075 208 208 208 0
-3.889594 3.365994 19.555523 209 209 209 0
-3.815607 3.366712 19.559693 208 208 208 0
-3.734195 3.360776 19.525204 208 208 208 0
-3.659813 3.361053 19.526812 208 208 208 0
-3.577323 3.353741 19.484332 209 209 209 0
-3.500238 3.351292 19.470105 209 209 209 0
-3.427587 3.353074 19.480458 208 208 208 0
-3.350865 3.350865 19.467624 209 209 209 0
-3.271561 3.345915 19.438865 209 209 209 0
-3.195235 3.343851 19.426874 208 208 208 0
-3.119615 3.342444 19.418703 210 210 210 0
-3.042786 3.339643 19.402428 210 210 210 0
-2.965955 3.336699 19.385326 209 209 209 0
-2.892136 3.337079 19.387535 209 209 209 0
-2.821410 3.341143 19.411144 210 210 210 0
-2.740704 3.333289 19.365513 209 209 209 0
-2.666615 3.333269 19.365398 210 210 210 0
-2.595363 3.336895 19.386464 210 210 210 0
-2.519703 3.334901 19.374876 210 210 210 0
-2.441921 3.329892 19.345776 209 209 209 0
-2.369691 3.332378 19.360221 209 209 209 0
-2.293880 3.329826 19.345396 209 209 209 0
-2.216890 3.325335 19.319306 210 210 210 0
-2.143468 3.326070 19.323575 210 210 210 0
-2.069091 3.325326 19.319248 210 210 210 0
-1.994073 3.323456 19.308384 209 209 209 0
-1.918015 3.319642 19.286229 210 210 210 0
-1.844482 3.320068 19.288705 210 210 210 0
-1.770478 3.319647 19.286257 210 210 210 0
-1.695173 3.316642 19.268801 211 211 211 0
-1.621320 3.316336 19.267022 210 210 210 0
-1.547717 3.316537 19.268191 211 211 211 0
-1.473461 3.315286 19.260922 210 210 210 0
-1.398332 3.311840 19.240901 211 211 211 0
-1.323292 3.308230 19.219928 211 211 211 0
-1.249302 3.306977 19.212648 211 211 211 0
-1.176220 3.308118 19.219274 210 210 210 0
-1.102574 3.307723 19.216980 211 211 211 0
-1.029107 3.307843 19.217681 211 211 211 0
-0.952085 3.295677 19.147000 211 211 211 0
-0.879813 3.299299 19.168043 211 211 211 0
-0.806954 3.301175 19.178939 212 212 212 0
-0.733288 3.299797 19.170934 211 211 211 0
-0.660077 3.300387 19.174364 211 211 211 0
-0.586328 3.298096 19.161054 211 211 211 0
-0.512158 3.292445 19.128222 212 212 212 0
-0.438898 3.291734 19.124088 211 211 211 0
-0.365643 3.290791 19.118609 211 211 211 0
-0.292607 3.291833 19.124667 212 212 212 0
-0.219352 3.290275 19.115614 212 212 212 0
-0.146148 3.288320 19.104255 212 212 212 0
-0.073027 3.286232 19.092122 211 211 211 0
0.000000 3.284887 19.084308 211 211 211 0
0.072966 3.283465 19.076051 211 211 211 0
0.145921 3.283223 19.074646 212 212 212 0
0.218759 3.281389 19.063988 213 213 213 0
0.291769 3.282401 19.069869 212 212 212 0
0.364253 3.278273 19.045882 213 213 213 0
0.437219 3.279140 19.050921 212 212 212 0
0.509379 3.274581 19.024438 212 212 212 0
0.581941 3.273416 19.017668 212 212 212 0
0.654679 3.273396 19.017550 213 213 213 0
0.727054 3.271745 19.007958 212 212 212 0
0.799686 3.271442 19.006198 212 212 212 0
0.870991 3.266217 18.975842 212 212 212 0
0.943489 3.265924 18.974141 213 213 213 0
1.016120 3.266099 18.975157 213 213 213 0
1.088141 3.264422 18.965412 212 212 212 0
1.160266 3.263247 18.958588 213 213 213 0
1.232925 3.263624 18.960780 213 213 213 0
1.304304 3.260760 18.944139 213 213 213 0
1.376294 3.259643 18.937651 213 213 213 0
1.448059 3.258132 18.928873 213 213 213 0
1.491805 3.196725 18.572115 211 211 211 0
1.940454 3.969110 23.059462 210 210 210 0
2.021072 3.954271 22.973255 208 208 208 0
2.111784 3.959595 23.004186 209 209 209 0
2.200959 3.961726 23.016562 209 209 209 0
2.284036 3.953139 22.966675 209 209 209 0
2.374230 3.957049 22.989393 210 210 210 0
2.457289 3.949214 22.943875 210 210 210 0
2.529042 3.924376 22.799569 211 211 211 0
2.621350 3.932025 22.844011 211 211 211 0
2.715337 3.941619 22.899746 210 210 210 0
2.806730 3.946965 22.930804 210 210 210 0
2.894511 3.947060 22.931357 210 210 210 0
2.975445 3.938089 22.879236 211 211 211 0
3.058734 3.932657 22.847683 211 211 211 0
3.147915 3.934894 22.860677 211 211 211 0
3.240725 3.941423 22.898607 211 211 211 0
3.327886 3.940918 22.895676 210 210 210 0
3.407661 3.931916 22.843376 211 211 211 0
3.495286 3.932197 22.845008 211 211 211 0
3.588108 3.938167 22.879691 212 212 212 0
3.680726 3.943635 22.911458 211 211 211 0
3.767448 3.942679 22.905904 212 212 212 0
3.850751 3.938268 22.880276 210 210 210 0
3.941863 3.941863 22.901166 211 211 211 0
4.033427 3.945743 22.923709 212 212 212 0
4.125480 3.949928 22.948018 211 211 211 0
4.216816 3.953265 22.967409 210 210 210 0
4.307984 3.956312 22.985109 211 211 211 0
4.400774 3.960697 23.010586 211 211 211 0
4.497209 3.968125 23.053741 211 211 211 0
4.595016 3.976456 23.102142 211 211 211 0
4.686362 3.978987 23.116844 212 212 212 0
4.776232 3.980193 23.123854 211 211 211 0
4.874353 3.988107 23.169829 211 211 211 0
4.972192 3.995511 23.212846 210 210 210 0
5.077325 4.008414 23.287809 211 211 211 0
5.166732 4.008672 23.289305 209 209 209 0
5.272433 4.021347 23.362946 210 210 210 0
5.379797 4.034848 23.441382 211 211 211 0
5.470674 4.035743 23.446582 210 210 210 0
5.570273 4.042940 23.488394 210 210 210 0
5.684214 4.060153 23.588397 209 209 209 0
5.794594 4.074324 23.670727 210 210 210 0
5.899609 4.084344 23.728944 209 209 209 0
6.004345 4.093872 23.784295 209 209 209 0
6.128262 4.115997 23.912837 209 209 209 0
6.239443 4.129043 23.988630 210 210 210 0
6.348194 4.140126 24.053022 210 210 210 0
6.477518 4.164119 24.192410 209 209 209 0
6.616381 4.193481 24.362996 208 208 208 0
6.729049 4.205656 24.433729 208 208 208 0
6.867220 4.233218 24.593859 209 209 209 0
6.992138 4.251976 24.702836 207 207 207 0
7.140283 4.284170 24.889875 207 207 207 0
7.325936 4.337725 25.201017 207 207 207 0
7.519486 4.394505 25.530893 206 206 206 0
7.643661 4.409804 25.619778 211 211 211 0
7.710983 4.392332 25.518271 210 210 210 0
-6.030750 3.467681 19.708334 205 205 205 0
-5.953094 3.466358 19.700814 206 206 206 0
-5.872074 3.463018 19.681830 206 206 206 0
-5.803111 3.466793 19.703287 205 205 205 0
-5.715929 3.459641 19.662639 206 206 206 0
-5.633557 3.455248 19.637671 207 207 207 0
-5.524823 3.434350 19.518895 204 204 204 0
-5.499863 3.465667 19.696886 211 211 211 0
-5.428700 3.468336 19.712057 212 212 212 0
-5.361196 3.473451 19.741126 213 213 213 0
-5.268150 3.461927 19.675629 211 211 211 0
-5.157166 3.438111 19.540270 207 207 207 0
-5.073074 3.431786 19.504322 208 208 208 0
-5.017944 3.445156 19.580310 208 208 208 0
-4.943952 3.445785 19.583885 208 208 208 0
-4.858555 3.438362 19.541698 207 207 207 0
-4.791681 3.444020 19.573859 208 208 208 0
-4.709430 3.438632 19.543231 208 208 208 0
-4.604204 3.416022 19.414733 207 207 207 0
-4.551148 3.432013 19.505615 208 208 208 0
-4.479793 3.434508 19.519796 208 208 208 0
-4.414545 3.441849 19.561517 208 208 208 0
-4.349749 3.449801 19.606713 208 208 208 0
-4.272869 3.448281 19.598071 208 208 208 0
-4.174308 3.428896 19.487899 208 208 208 0
-4.115444 3.442008 19.562421 208 208 208 0
-4.025985 3.429542 19.491574 208 208 208 0
-3.954213 3.431958 19.505304 208 208 208 0
-3.881624 3.433744 19.515454 208 208 208 0
-3.799090 3.426630 19.475022 208 208 208 0
-3.733759 3.435059 19.522925 209 209 209 0
-3.648285 3.424920 19.465305 209 209 209 0
-3.569790 3.421048 19.443298 208 208 208 0
-3.497359 3.422948 19.454092 208 208 208 0
-3.423100 3.423100 19.454956 208 208 208 0
-3.348998 3.423420 19.456778 209 209 209 0
-3.267292 3.415805 19.413499 210 210 210 0
-3.193886 3.416715 19.418669 209 209 209 0
-3.117837 3.414774 19.407640 209 209 209 0
-3.045006 3.416348 19.416585 208 208 208 0
-2.969728 3.415187 19.409984 209 209 209 0
-2.892178 3.411287 19.387821 209 209 209 0
-2.819790 3.413430 19.400000 209 209 209 0
-2.743697 3.411082 19.386658 209 209 209 0
-2.664506 3.404647 19.350080 210 210 210 0
-2.591730 3.406274 19.359330 210 210 210 0
-2.515467 3.403279 19.342307 209 209 209 0
-2.441501 3.403304 19.342450 209 209 209 0
-2.368387 3.404557 19.349571 210 210 210 0
-2.288835 3.396335 19.302843 209 209 209 0
-2.216043 3.397933 19.311923 210 210 210 0
-2.141007 3.396079 19.301389 210 210 210 0
-2.067490 3.396590 19.304291 210 210 210 0
-1.990872 3.391856 19.277383 210 210 210 0
-1.918596 3.394439 19.292067 210 210 210 0
-1.840649 3.386794 19.248614 209 209 209 0
-1.769005 3.390594 19.270211 210 210 210 0
-1.693681 3.387362 19.251842 210 210 210 0
-1.620970 3.389301 19.262862 210 210 210 0
-1.547470 3.389696 19.265112 211 211 211 0
-1.471713 3.384940 19.238077 210 210 210 0
-1.397339 3.383032 19.227236 210 210 210 0
-1.322761 3.380389 19.212213 210 210 210 0
-1.248598 3.378560 19.201818 211 211 211 0
-1.175476 3.379493 19.207124 211 211 211 0
-1.101424 3.377700 19.196930 211 211 211 0
-1.027920 3.377450 19.195510 211 211 211 0
-0.952560 3.370596 19.156557 211 211 211 0
-0.878693 3.368323 19.143635 211 211 211 0
-0.806016 3.370613 19.156653 211 211 211 0
-0.732499 3.369493 19.150290 211 211 211 0
-0.659884 3.372740 19.168742 212 212 212 0
-0.585758 3.368109 19.142420 211 211 211 0
-0.512169 3.365683 19.128631 211 211 211 0
-0.438465 3.361567 19.105243 211 211 211 0
-0.365364 3.361351 19.104010 212 212 212 0
-0.292351 3.362033 19.107886 212 212 212 0
-0.219201 3.361086 19.102508 212 212 212 0
-0.145963 3.357143 19.080095 211 211 211 0
-0.072944 3.355416 19.070281 212 212 212 0
0.000000 3.355389 19.070130 211 211 211 0
0.072939 3.355216 19.069143 212 212 212 0
0.145909 3.355914 19.073111 212 212 212 0
0.218720 3.353704 19.060551 212 212 212 0
0.291228 3.349126 19.034530 212 212 212 0
0.363883 3.347720 19.026543 212 212 212 0
0.436604 3.347299 19.024152 212 212 212 0
0.509160 3.345908 19.016245 212 212 212 0
0.581400 3.343050 19.000000 212 212 212 0
0.654378 3.344598 19.008797 212 212 212 0
0.726599 3.342354 18.996045 213 213 213 0
0.798910 3.340895 18.987753 213 213 213 0
0.870843 3.338232 18.972618 213 213 213 0
0.942922 3.336494 18.962739 213 213 213 0
1.015677 3.337223 18.966885 212 212 212 0
1.088666 3.338575 18.974565 213 213 213 0
1.159728 3.334217 18.949797 213 213 213 0
1.231792 3.333084 18.943357 212 212 212 0
1.303435 3.331001 18.931520 213 213 213 0
1.375915 3.331163 18.932441 213 213 213 0
1.445673 3.325049 18.897690 214 214 214 0
1.490416 3.264720 18.554819 212 212 212 0
1.948203 4.073514 23.151545 209 209 209 0
2.022006 4.044012 22.983870 208 208 208 0
2.113557 4.050983 23.023492 209 209 209 0
2.197297 4.043026 22.978265 209 209 209 0
2.287805 4.047655 23.004577 209 209 209 0
2.373130 4.043111 22.978749 209 209 209 0
2.457797 4.037809 22.948618 209 209 209 0
2.542328 4.032658 22.919340 210 210 210 0
2.629962 4.032609 22.919060 210 210 210 0
2.717558 4.032505 22.918471 210 210 210 0
2.807733 4.036115 22.938991 211 211 211 0
2.890552 4.029254 22.899996 210 210 210 0
2.977057 4.027784 22.891638 211 211 211 0
3.065299 4.028678 22.896722 210 210 210 0
3.151314 4.026679 22.885361 210 210 210 0
3.243483 4.032438 22.918091 210 210 210 0
3.327287 4.027768 22.891550 210 210 210 0
3.409301 4.021227 22.854373 211 211 211 0
3.502379 4.027736 22.891368 211 211 211 0
3.589379 4.027108 22.887800 210 210 210 0
3.682222 4.032910 22.920774 211 211 211 0
3.767658 4.030518 22.907176 211 211 211 0
3.862438 4.038003 22.949719 211 211 211 0
3.948746 4.036496 22.941155 211 211 211 0
4.040802 4.040802 22.965628 210 210 210 0
4.133252 4.045311 22.991252 211 211 211 0
4.222723 4.046776 22.999579 211 211 211 0
4.315325 4.051121 23.024276 211 211 211 0
4.408048 4.055404 23.048618 210 210 210 0
4.501873 4.060513 23.077650 211 211 211 0
4.595995 4.065688 23.107066 210 210 210 0
4.689555 4.070180 23.132594 210 210 210 0
4.783252 4.074622 23.157843 211 211 211 0
4.882432 4.083489 23.208233 210 210 210 0
4.985727 4.095419 23.276039 209 209 209 0
5.079281 4.099069 23.296781 210 210 210 0
5.178202 4.106850 23.341005 210 210 210 0
5.280869 4.117287 23.400326 210 210 210 0
5.375818 4.121460 23.424042 210 210 210 0
5.479296 4.131928 23.483538 210 210 210 0
5.584838 4.143589 23.549811 209 209 209 0
5.699715 4.161697 23.652723 209 209 209 0
5.799952 4.168715 23.692614 209 209 209 0
5.902160 4.176913 23.739205 209 209 209 0
6.013521 4.191242 23.820643 208 208 208 0
6.140487 4.215857 23.960538 209 209 209 0
6.249022 4.227280 24.025459 208 208 208 0
6.362570 4.241713 24.107493 209 209 209 0
6.486913 4.262829 24.227500 207 207 207 0
6.626430 4.293180 24.400000 208 208 208 0
6.761469 4.319827 24.551448 208 208 208 0
6.890683 4.342074 24.677887 208 208 208 0
7.015450 4.360956 24.785198 207 207 207 0
7.183215 4.405705 25.039528 207 207 207 0
7.376526 4.464740 25.375047 207 207 207 0
7.560142 4.516449 25.668932 207 207 207 0
7.645328 4.508783 25.625366 211 211 211 0
7.715068 4.492318 25.531787 211 211 211 0
-6.019566 3.536495 19.671784 206 206 206 0
-5.951228 3.540604 19.694641 205 205 205 0
-5.864247 3.533585 19.655595 207 207 207 0
-5.803371 3.542317 19.704170 205 205 205 0
-5.729209 3.543063 19.708321 207 207 207 0
-5.652217 3.542056 19.702717 208 208 208 0
-5.508051 3.498357 19.459641 205 205 205 0
-5.483491 3.530467 19.638252 211 211 211 0
-5.428513 3.543613 19.711376 213 213 213 0
-5.355648 3.545288 19.720696 213 213 213 0
-5.232660 3.513358 19.543082 209 209 209 0
-5.164794 3.518048 19.569171 208 208 208 0
-5.069972 3.504245 19.492394 208 208 208 0
-5.010235 3.514642 19.550229 207 207 207 0
-4.929837 3.510641 19.527973 208 208 208 0
-4.860596 3.514585 19.549910 207 207 207 0
-4.781031 3.511070 19.530356 208 208 208 0
-4.709702 3.513587 19.544360 207 207 207 0
-4.621842 3.503654 19.489106 208 208 208 0
-4.552697 3.507815 19.512254 207 207 207 0
-4.485260 3.513454 19.543618 207 207 207 0
-4.416035 3.517858 19.568117 208 208 208 0
-4.332386 3.510727 19.528447 207 207 207 0
-4.260158 3.512762 19.539767 208 208 208 0
-4.169433 3.499345 19.465138 207 207 207 0
-4.104408 3.507403 19.509961 208 208 208 0
-4.034800 3.511771 19.534254 208 208 208 0
-3.955919 3.508079 19.513721 209 209 209 0
-3.878311 3.505396 19.498798 208 208 208 0
-3.803404 3.505098 19.497139 208 208 208 0
-3.718281 3.495184 19.441993 209 209 209 0
-3.649529 3.500568 19.471942 209 209 209 0
-3.570391 3.496008 19.446574 208 208 208 0
-3.493829 3.493829 19.434455 209 209 209 0
-3.425760 3.500233 19.470078 209 209 209 0
-3.339225 3.487635 19.400000 208 208 208 0
-3.267714 3.490513 19.416006 209 209 209 0
-3.187981 3.484537 19.382767 209 209 209 0
-3.116006 3.486959 19.396241 209 209 209 0
-3.040362 3.485293 19.386974 209 209 209 0
-2.964457 3.483237 19.375535 209 209 209 0
-2.891541 3.484678 19.383550 210 210 210 0
-2.811976 3.477970 19.346240 209 209 209 0
-2.739203 3.479528 19.354905 210 210 210 0
-2.665074 3.479402 19.354204 209 209 209 0
-2.589463 3.477279 19.342396 209 209 209 0
-2.517063 3.479469 19.354579 209 209 209 0
-2.440621 3.476036 19.335480 209 209 209 0
-2.365675 3.474584 19.327406 210 210 210 0
-2.288369 3.469462 19.298912 210 210 210 0
-2.213514 3.467838 19.289878 209 209 209 0
-2.139638 3.467688 19.289047 209 209 209 0
-2.069796 3.474301 19.325827 211 211 211 0
-1.995160 3.473056 19.318903 210 210 210 0
-1.917266 3.465826 19.278690 210 210 210 0
-1.840079 3.459349 19.242657 210 210 210 0
-1.766494 3.459385 19.242857 209 209 209 0
-1.693003 3.459614 19.244132 211 211 211 0
-1.619229 3.459261 19.242170 210 210 210 0
-1.545945 3.459973 19.246127 210 210 210 0
-1.469160 3.452527 19.204712 211 211 211 0
-1.397067 3.455903 19.223492 211 211 211 0
-1.321866 3.451539 19.199217 211 211 211 0
-1.247576 3.449181 19.186097 210 210 210 0
-1.175440 3.452854 19.206530 211 211 211 0
-1.100829 3.449264 19.186563 211 211 211 0
-1.027791 3.450441 19.193107 211 211 211 0
-0.952885 3.445045 19.163093 211 211 211 0
-0.878652 3.441387 19.142748 211 211 211 0
-0.806089 3.444199 19.158387 211 211 211 0
-0.732087 3.440811 19.139538 211 211 211 0
-0.660026 3.446800 19.172857 211 211 211 0
-0.585961 3.442519 19.149043 211 211 211 0
-0.511730 3.435903 19.112241 211 211 211 0
-0.438086 3.431671 19.088702 212 212 212 0
-0.364979 3.430806 19.083887 212 212 212 0
-0.292357 3.435200 19.108327 212 212 212 0
-0.219146 3.433284 19.097670 211 211 211 0
-0.146061 3.432441 19.092983 212 212 212 0
-0.072973 3.429748 19.078002 212 212 212 0
0.000000 3.425484 19.054282 211 211 211 0
0.072871 3.424945 19.051288 212 212 212 0
0.145774 3.425680 19.055377 212 212 212 0
0.218560 3.424109 19.046635 212 212 212 0
0.291437 3.424386 19.048177 212 212 212 0
0.363753 3.419281 19.019782 212 212 212 0
0.435935 3.414822 18.994980 212 212 212 0
0.508569 3.414680 18.994188 212 212 212 0
0.581105 3.413991 18.990357 212 212 212 0
0.653876 3.414684 18.994210 213 213 213 0
0.726778 3.415857 19.000735 213 213 213 0
0.798183 3.410418 18.970479 212 212 212 0
0.871407 3.413010 18.984898 213 213 213 0
0.942423 3.407223 18.952708 213 213 213 0
1.015251 3.408342 18.958931 213 213 213 0
1.086929 3.405710 18.944289 213 213 213 0
1.158228 3.402294 18.925291 213 213 213 0
1.231486 3.404696 18.938651 213 213 213 0
1.301963 3.399569 18.910133 213 213 213 0
1.374446 3.399944 18.912221 212 212 212 0
1.446116 3.398373 18.903481 213 213 213 0
1.494540 3.344922 18.606160 212 212 212 0
1.949893 4.165681 23.171639 209 209 209 0
2.033045 4.154483 23.109350 209 209 209 0
2.113923 4.139767 23.027488 208 208 208 0
2.201374 4.138584 23.020907 209 209 209 0
2.289706 4.139085 23.023695 208 208 208 0
2.382484 4.147287 23.069318 209 209 209 0
2.456771 4.123866 22.939040 209 209 209 0
2.549060 4.131236 22.980034 210 210 210 0
2.632784 4.124696 22.943655 209 209 209 0
2.724685 4.130975 22.978582 211 211 211 0
2.810238 4.127537 22.959458 210 210 210 0
2.896660 4.125546 22.948388 210 210 210 0
2.978282 4.117037 22.901054 210 210 210 0
3.063424 4.113741 22.882718 210 210 210 0
3.154083 4.117830 22.905466 212 212 212 0
3.247337 4.124996 22.945327 211 211 211 0
3.336331 4.126515 22.953774 212 212 212 0
3.418929 4.120248 22.918916 210 210 210 0
3.503720 4.116870 22.900127 210 210 210 0
3.594931 4.121019 22.923204 212 212 212 0
3.688141 4.127205 22.957614 210 210 210 0
3.772951 4.123924 22.939361 211 211 211 0
3.863381 4.126794 22.955326 210 210 210 0
3.953141 4.128836 22.966686 210 210 210 0
4.045810 4.133763 22.994091 210 210 210 0
4.135815 4.135815 23.005509 210 210 210 0
4.227735 4.139657 23.026878 211 211 211 0
4.321969 4.145562 23.059725 211 211 211 0
4.412953 4.148176 23.074263 210 210 210 0
4.515001 4.160883 23.144949 210 210 210 0
4.602155 4.159640 23.138033 210 210 210 0
4.697059 4.165316 23.169608 211 211 211 0
4.790506 4.169514 23.192960 210 210 210 0
4.891946 4.180390 23.253457 210 210 210 0
4.993386 4.190877 23.311791 210 210 210 0
5.090147 4.197139 23.346622 210 210 210 0
5.182001 4.199207 23.358128 210 210 210 0
5.290079 4.214131 23.441139 211 211 211 0
5.393446 4.224866 23.500853 210 210 210 0
5.484367 4.225660 23.505271 209 209 209 0
5.592580 4.239536 23.582458 209 209 209 0
5.707472 4.257955 23.684914 209 209 209 0
5.808166 4.265372 23.726168 209 209 209 0
5.917651 4.278917 23.801514 209 209 209 0
6.036399 4.298648 23.911265 209 209 209 0
6.156851 4.318985 24.024392 209 209 209 0
6.270186 4.333805 24.106829 208 208 208 0
6.374450 4.342017 24.152505 208 208 208 0
6.521539 4.378748 24.356822 207 207 207 0
6.636632 4.393263 24.437566 208 208 208 0
6.768277 4.418181 24.576170 207 207 207 0
6.903049 4.444428 24.722172 207 207 207 0
7.028038 4.463754 24.829669 208 208 208 0
7.208771 4.517496 25.128613 207 207 207 0
7.438678 4.600235 25.588849 207 207 207 0
7.573894 4.623026 25.715622 210 210 210 0
7.643775 4.605864 25.620161 211 211 211 0
7.725200 4.596005 25.565320 211 211 211 0
-6.026561 3.615936 19.694643 206 206 206 0
-5.951075 3.615843 19.694133 205 205 205 0
-5.872190 3.613655 19.682219 206 206 206 0
-5.799103 3.615025 19.689679 206 206 206 0
-5.706179 3.603902 19.629098 206 206 206 0
-5.646030 3.613459 19.681150 206 206 206 0
-5.538149 3.592313 19.565975 205 205 205 0
-5.499062 3.615822 19.694018 210 210 210 0
-5.422114 3.614743 19.688141 213 213 213 0
-5.348762 3.616065 19.695342 212 212 212 0
-5.240663 3.593597 19.572970 210 210 210 0
-5.164436 3.592651 19.567818 207 207 207 0
-5.078692 3.584959 19.525923 208 208 208 0
-4.997689 3.580434 19.501274 208 208 208 0
-4.929684 3.585225 19.527367 207 207 207 0
-4.854118 3.584579 19.523851 207 207 207 0
-4.782237 3.586678 19.535284 207 207 207 0
-4.693692 3.576146 19.477922 208 208 208 0
-4.624204 3.580029 19.499067 208 208 208 0
-4.549508 3.579941 19.498589 207 207 207 0
-4.475455 3.580364 19.500895 208 208 208 0
-4.420024 3.595952 19.585795 207 207 207 0
-4.338344 3.590354 19.555303 208 208 208 0
-4.249920 3.578880 19.492810 207 207 207 0
-4.191450 3.592671 19.567927 208 208 208 0
-4.096683 3.575287 19.473240 208 208 208 0
-4.033036 3.584921 19.525714 208 208 208 0
-3.951655 3.578858 19.492688 209 209 209 0
-3.875672 3.577544 19.485531 209 209 209 0
-3.809898 3.585787 19.530429 208 208 208 0
-3.726692 3.577624 19.485972 209 209 209 0
-3.653574 3.579012 19.493527 209 209 209 0
-3.569202 3.569202 19.440099 209 209 209 0
-3.493890 3.568228 19.434791 208 208 208 0
-3.416853 3.565412 19.419455 208 208 208 0
-3.347391 3.570550 19.447440 208 208 208 0
-3.262980 3.559615 19.387879 209 209 209 0
-3.189322 3.560173 19.390921 209 209 209 0
-3.111151 3.555602 19.366022 209 209 209 0
-3.037971 3.556649 19.371726 209 209 209 0
-2.965903 3.559084 19.384989 209 209 209 0
-2.893345 3.561040 19.395644 209 209 209 0
-2.812146 3.552185 19.347411 209 209 209 0
-2.736293 3.549785 19.334341 209 209 209 0
-2.661014 3.548018 19.324719 209 209 209 0
-2.586157 3.546729 19.317696 210 210 210 0
-2.515851 3.551790 19.345261 210 210 210 0
-2.444023 3.554942 19.362429 210 210 210 0
-2.362052 3.543078 19.297812 209 209 209 0
-2.287745 3.542315 19.293655 210 210 210 0
-2.212078 3.539324 19.277366 210 210 210 0
-2.137020 3.537137 19.265451 210 210 210 0
-2.066745 3.542991 19.297337 210 210 210 0
-1.991245 3.539991 19.280996 210 210 210 0
-1.916808 3.538722 19.274083 209 209 209 0
-1.841033 3.534784 19.252634 210 210 210 0
-1.764962 3.529924 19.226166 210 210 210 0
-1.691956 3.531038 19.232233 210 210 210 0
-1.616395 3.526680 19.208499 211 211 211 0
-1.545195 3.531874 19.236788 210 210 210 0
-1.470801 3.529922 19.226154 211 211 211 0
-1.396074 3.526923 19.209821 210 210 210 0
-1.321675 3.524468 19.196447 210 210 210 0
-1.247411 3.522103 19.183566 210 210 210 0
-1.173589 3.520766 19.176284 211 211 211 0
-1.100385 3.521233 19.178830 211 211 211 0
-1.026828 3.520552 19.175120 210 210 210 0
-0.951354 3.512693 19.132314 211 211 211 0
-0.878594 3.514377 19.141486 211 211 211 0
-0.804991 3.512687 19.132282 212 212 212 0
-0.732188 3.514500 19.142157 211 211 211 0
-0.658744 3.513302 19.135634 211 211 211 0
-0.585688 3.514127 19.140126 212 212 212 0
-0.511359 3.506464 19.098385 211 211 211 0
-0.438433 3.507463 19.103829 212 212 212 0
-0.364743 3.501533 19.071528 211 211 211 0
-0.292039 3.504465 19.087497 211 211 211 0
-0.218985 3.503765 19.083689 212 212 212 0
-0.145982 3.503564 19.082593 211 211 211 0
-0.072967 3.502397 19.076238 211 211 211 0
0.000000 3.495800 19.040304 212 212 212 0
0.072816 3.495173 19.036891 212 212 212 0
0.145625 3.495009 19.035995 212 212 212 0
0.218242 3.491864 19.018869 212 212 212 0
0.290836 3.490026 19.008856 212 212 212 0
0.363506 3.489655 19.006833 212 212 212 0
0.436050 3.488400 19.000000 212 212 212 0
0.508725 3.488400 19.000000 213 213 213 0
0.581122 3.486731 18.990911 212 212 212 0
0.653521 3.485447 18.983914 213 213 213 0
0.726087 3.485220 18.982680 213 213 213 0
0.797901 3.481750 18.963782 212 212 212 0
0.869979 3.479915 18.953785 213 213 213 0
0.941597 3.476666 18.936090 213 213 213 0
1.013517 3.474914 18.926547 213 213 213 0
1.086229 3.475933 18.932099 213 213 213 0
1.158322 3.474967 18.926835 213 213 213 0
1.230966 3.475669 18.930659 213 213 213 0
1.300818 3.468849 18.893514 212 212 212 0
1.373179 3.469085 18.894796 213 213 213 0
1.445131 3.468313 18.890595 213 213 213 0
1.495831 3.419042 18.622234 211 211 211 0
1.951994 4.258895 23.196596 208 208 208 0
2.028829 4.234077 23.061424 209 209 209 0
2.118442 4.236883 23.076707 208 208 208 0
2.203667 4.231041 23.044888 209 209 209 0
2.296071 4.238901 23.087697 208 208 208 0
2.385022 4.240038 23.093891 208 208 208 0
2.468364 4.231482 23.047286 209 209 209 0
2.540460 4.204900 22.902503 210 210 210 0
2.632959 4.212734 22.945176 209 209 209 0
2.727684 4.223510 23.003869 209 209 209 0
2.811223 4.216834 22.967505 208 208 208 0
2.900864 4.219439 22.981693 210 210 210 0
2.988722 4.219372 22.981328 210 210 210 0
3.072735 4.214037 22.952271 209 209 209 0
3.158929 4.211905 22.940660 210 210 210 0
3.250714 4.217142 22.969185 210 210 210 0
3.330901 4.207454 22.916416 210 210 210 0
3.415329 4.203481 22.894779 210 210 210 0
3.509562 4.211475 22.938315 209 209 209 0
3.602790 4.217900 22.973313 210 210 210 0
3.690727 4.217974 22.973712 210 210 210 0
3.783719 4.223687 23.004829 210 210 210 0
3.869615 4.221399 22.992367 210 210 210 0
3.959193 4.223139 23.001847 209 209 209 0
4.056979 4.233370 23.057569 210 210 210 0
4.143399 4.231557 23.047695 210 210 210 0
4.231928 4.231928 23.049717 210 210 210 0
4.329601 4.241242 23.100444 210 210 210 0
4.421654 4.244788 23.119760 210 210 210 0
4.519264 4.253425 23.166800 211 211 211 0
4.605996 4.251689 23.157345 210 210 210 0
4.704722 4.260880 23.207410 210 210 210 0
4.798690 4.265502 23.232583 209 209 209 0
4.899275 4.275731 23.288294 209 209 209 0
4.998618 4.284530 23.336218 210 210 210 0
5.097474 4.292610 23.380229 210 210 210 0
5.194811 4.299154 23.415872 210 210 210 0
5.298962 4.311020 23.480500 209 209 209 0
5.402441 4.321953 23.540050 208 208 208 0
5.506610 4.333070 23.600601 210 210 210 0
5.606555 4.340558 23.641385 208 208 208 0
5.719429 4.357660 23.734531 209 209 209 0
5.829001 4.371750 23.811277 209 209 209 0
5.924373 4.374922 23.828550 208 208 208 0
6.042157 4.394296 23.934074 208 208 208 0
6.170359 4.420556 24.077101 208 208 208 0
6.285499 4.436823 24.165703 208 208 208 0
6.403011 4.454268 24.260721 207 207 207 0
6.535398 4.481416 24.408582 206 206 206 0
6.656614 4.500246 24.511143 207 207 207 0
6.792909 4.528606 24.665611 206 206 206 0
6.932472 4.558338 24.827548 207 207 207 0
7.077843 4.591033 25.005629 207 207 207 0
7.265277 4.649777 25.325583 206 206 206 0
7.466159 4.715469 25.683381 207 207 207 0
7.571875 4.720130 25.708770 211 211 211 0
7.643868 4.703919 25.620471 211 211 211 0
7.721266 4.691402 25.552298 209 209 209 0
-6.017297 3.685594 19.664368 206 206 206 0
-5.962514 3.698268 19.731988 205 205 205 0
-5.871098 3.688254 19.678558 206 206 206 0
-5.803371 3.693054 19.704170 206 206 206 0
-5.716625 3.685719 19.665033 207 207 207 0
-5.627166 3.676415 19.615394 206 206 206 0
-5.513993 3.651158 19.480632 205 205 205 0
-5.495192 3.688553 19.680157 211 211 211 0
-5.414105 3.684599 19.659060 212 212 212 0
-5.338984 3.684651 19.659336 212 212 212 0
-5.224414 3.657090 19.512284 208 208 208 0
-5.149100 3.656607 19.509709 208 208 208 0
-5.059165 3.645574 19.450844 207 207 207 0
-5.007759 3.662391 19.540566 207 207 207 0
-4.935622 3.664326 19.550891 207 207 207 0
-4.860768 3.664271 19.550599 208 208 208 0
-4.781152 3.660569 19.530849 207 207 207 0
-4.713615 3.666145 19.560599 208 208 208 0
-4.624492 3.654840 19.500282 207 207 207 0
-4.536010 3.643680 19.440736 208 208 208 0
-4.468607 3.649363 19.471055 208 208 208 0
-4.415654 3.667238 19.566428 207 207 207 0
-4.337266 3.664242 19.550442 208 208 208 0
-4.265675 3.666984 19.565072 208 208 208 0
-4.173697 3.651985 19.485047 208 208 208 0
-4.095717 3.648912 19.468651 208 208 208 0
-4.017589 3.645590 19.450926 208 208 208 0
-3.952811 3.654486 19.498391 208 208 208 0
-3.870930 3.647607 19.461690 208 208 208 0
-3.806702 3.657419 19.514043 208 208 208 0
-3.723863 3.649386 19.471180 209 209 209 0
-3.640467 3.640467 19.423594 208 208 208 0
-3.561495 3.635693 19.398120 208 208 208 0
-3.490368 3.638894 19.415203 208 208 208 0
-3.421359 3.644491 19.445063 209 209 209 0
-3.339225 3.636045 19.400000 208 208 208 0
-3.263040 3.633840 19.388236 209 209 209 0
-3.186814 3.631485 19.375672 209 209 209 0
-3.107472 3.625384 19.343116 209 209 209 0
-3.040181 3.633386 19.385816 209 209 209 0
-2.964449 3.631449 19.375481 209 209 209 0
-2.890859 3.632105 19.378976 209 209 209 0
-2.814831 3.629650 19.365880 209 209 209 0
-2.733735 3.620352 19.316272 209 209 209 0
-2.658828 3.618960 19.308845 209 209 209 0
-2.589602 3.625443 19.343432 209 209 209 0
-2.510954 3.618728 19.307607 209 209 209 0
-2.436617 3.618007 19.303758 209 209 209 0
-2.360609 3.614682 19.286021 209 209 209 0
-2.283549 3.609481 19.258269 210 210 210 0
-2.210893 3.611126 19.267043 210 210 210 0
-2.136768 3.610401 19.263177 210 210 210 0
-2.064381 3.612667 19.275270 210 210 210 0
-1.988180 3.608178 19.251316 209 209 209 0
-1.916055 3.611026 19.266514 210 210 210 0
-1.836752 3.600034 19.207864 210 210 210 0
-1.766865 3.607349 19.246895 210 210 210 0
-1.690895 3.602342 19.220177 210 210 210 0
-1.617143 3.601819 19.217390 210 210 210 0
-1.544645 3.604172 19.229943 211 211 211 0
-1.469075 3.599235 19.203600 210 210 210 0
-1.395149 3.598016 19.197098 210 210 210 0
-1.319250 3.591292 19.161224 211 211 211 0
-1.246346 3.592410 19.167189 211 211 211 0
-1.173093 3.592599 19.168194 211 211 211 0
-1.100355 3.594493 19.178302 211 211 211 0
-1.026937 3.594280 19.177163 211 211 211 0
-0.951372 3.585942 19.132679 211 211 211 0
-0.877150 3.581694 19.110011 211 211 211 0
-0.804622 3.584223 19.123506 211 211 211 0
-0.731348 3.583603 19.120199 212 212 212 0
-0.658518 3.585263 19.129057 212 212 212 0
-0.585133 3.583939 19.121991 211 211 211 0
-0.511039 3.577271 19.086412 212 212 212 0
-0.437512 3.573012 19.063691 211 211 211 0
-0.364574 3.572828 19.062709 211 211 211 0
-0.291735 3.573754 19.067648 212 212 212 0
-0.218923 3.575741 19.078252 212 212 212 0
-0.145808 3.572286 19.059818 212 212 212 0
-0.072811 3.567752 19.035623 212 212 212 0
0.000000 3.570465 19.050099 212 212 212 0
0.072825 3.568427 19.039226 213 213 213 0
0.145488 3.564459 19.018057 212 212 212 0
0.218289 3.565391 19.023027 212 212 212 0
0.290757 3.561777 19.003744 212 212 212 0
0.363375 3.561075 19.000000 212 212 212 0
0.435552 3.557009 18.978304 212 212 212 0
0.508021 3.556150 18.973720 212 212 212 0
0.580828 3.557573 18.981313 213 213 213 0
0.652939 3.554893 18.967014 212 212 212 0
0.725904 3.556928 18.977871 213 213 213 0
0.797158 3.550976 18.946118 212 212 212 0
0.869344 3.549823 18.939964 213 213 213 0
0.941830 3.549973 18.940767 213 213 213 0
1.013428 3.546998 18.924891 212 212 212 0
1.085581 3.546230 18.920795 213 213 213 0
1.157780 3.545702 18.917976 213 213 213 0
1.228985 3.542368 18.900191 213 213 213 0
1.300712 3.540827 18.891966 213 213 213 0
1.372054 3.538456 18.879317 212 212 212 0
1.443936 3.537643 18.874979 213 213 213 0
1.496346 3.491475 18.628649 211 211 211 0
1.956284 4.357179 23.247586 208 208 208 0
2.037149 4.340013 23.155998 208 208 208 0
2.122376 4.333184 23.119565 210 210 210 0
2.212799 4.337087 23.140385 209 209 209 0
2.298398 4.331596 23.111092 208 208 208 0
2.384606 4.327618 23.089866 207 207 207 0
