ply
format ascii 1.0
element vertex 1124
property float x
property float y
property float z
property uchar red
property uchar green
property uchar blue
property uchar alpha
end_header
-3.282872 4.749687 18.261005 212 212 212 0
-3.219637 4.759464 18.298593 212 212 212 0
-3.154956 4.767489 18.329446 212 212 212 0
-3.094925 4.783066 18.389336 212 212 212 0
-3.029011 4.790064 18.416242 212 212 212 0
-2.954757 4.783892 18.392509 212 212 212 0
-2.902009 4.813088 18.504761 212 212 212 0
-4.563407 7.757792 29.826191 213 213 213 0
-2.770380 4.830406 18.571343 213 213 213 0
-2.705898 4.842134 18.616432 212 212 212 0
-2.638663 4.849434 18.644499 212 212 212 0
-2.573490 4.861037 18.689108 212 212 212 0
-2.501788 4.860616 18.687491 212 212 212 0
-2.437032 4.874063 18.739189 213 213 213 0
-2.369246 4.882082 18.770020 212 212 212 0
-2.303520 4.894979 18.819605 212 212 212 0
-2.233855 4.900068 18.839171 212 212 212 0
-2.171351 4.921729 18.922448 212 212 212 0
-2.093496 4.908888 18.873080 212 212 212 0
-2.026170 4.920698 18.918487 212 212 212 0
-1.959218 4.934327 18.970883 212 212 212 0
-1.887678 4.937004 18.981175 212 212 212 0
-1.819689 4.949555 19.029431 212 212 212 0
-1.745550 4.945725 19.014708 213 213 213 0
-1.680462 4.968322 19.101585 212 212 212 0
-1.611440 4.980814 19.149610 212 212 212 0
-1.539789 4.985982 19.169482 212 212 212 0
-1.466759 4.986980 19.173317 213 213 213 0
-1.395828 4.995595 19.206440 212 212 212 0
-1.325383 5.007001 19.250293 212 212 212 0
-1.256474 5.025894 19.322931 212 212 212 0
-1.185110 5.036719 19.364547 213 213 213 0
-1.115074 5.055001 19.434837 212 212 212 0
-1.038978 5.046463 19.402009 212 212 212 0
-0.965786 5.051805 19.422550 212 212 212 0
-0.895319 5.073473 19.505855 212 212 212 0
-0.821795 5.080187 19.531668 212 212 212 0
-0.747411 5.082393 19.540151 212 212 212 0
-0.674147 5.093554 19.583060 213 213 213 0
-0.598932 5.090920 19.572933 212 212 212 0
-0.525803 5.107796 19.637817 213 213 213 0
-0.452584 5.129291 19.720457 211 211 211 0
-0.377154 5.129295 19.720474 213 213 213 0
-0.302090 5.135527 19.744435 212 212 212 0
-0.227197 5.149803 19.799318 212 212 212 0
-0.152004 5.168134 19.869798 212 212 212 0
-0.076128 5.176728 19.902837 213 213 213 0
0.000000 5.188640 19.948634 213 213 213 0
0.076611 5.209532 20.028957 212 212 212 0
0.152701 5.191829 19.960897 212 212 212 0
0.229539 5.202873 20.003358 212 212 212 0
0.306914 5.217530 20.059709 212 212 212 0
0.385188 5.238563 20.140571 212 212 212 0
0.462191 5.238166 20.139046 213 213 213 0
0.540298 5.248607 20.179190 213 213 213 0
0.619449 5.265318 20.243436 212 212 212 0
0.698270 5.275820 20.283815 213 213 213 0
0.777055 5.283976 20.315170 213 213 213 0
0.856310 5.293551 20.351983 212 212 212 0
0.933060 5.287342 20.328113 212 212 212 0
1.015977 5.314340 20.431911 212 212 212 0
1.094789 5.317544 20.444230 213 213 213 0
1.174899 5.326210 20.477547 213 213 213 0
1.259259 5.351851 20.576127 213 213 213 0
1.340416 5.361663 20.613851 212 212 212 0
1.420324 5.365669 20.629254 212 212 212 0
1.501297 5.373064 20.657685 212 212 212 0
1.587882 5.398798 20.756626 213 213 213 0
1.665420 5.392789 20.733523 213 213 213 0
1.746441 5.398091 20.753906 213 213 213 0
1.829832 5.409937 20.799449 213 213 213 0
1.918166 5.434804 20.895057 214 214 214 0
2.003793 5.450316 20.954694 213 213 213 0
2.083333 5.448716 20.948544 213 213 213 0
2.165607 5.454121 20.969321 212 212 212 0
2.251316 5.467481 21.020689 212 212 212 0
2.338163 5.482590 21.078778 213 213 213 0
2.427960 5.503377 21.158695 213 213 213 0
2.507854 5.501100 21.149941 212 212 212 0
2.591700 5.507364 21.174023 212 212 212 0
2.680565 5.523589 21.236404 213 213 213 0
2.767104 5.534208 21.277232 212 212 212 0
2.860782 5.558090 21.369052 212 212 212 0
2.941073 5.555360 21.358556 213 213 213 0
3.034856 5.577572 21.443953 213 213 213 0
3.124016 5.590345 21.493060 212 212 212 0
3.205587 5.589228 21.488766 213 213 213 0
3.291928 5.596277 21.515867 213 213 213 0
3.384257 5.612914 21.579830 213 213 213 0
3.477077 5.629554 21.643805 212 212 212 0
3.568410 5.643067 21.695758 213 213 213 0
3.658306 5.653746 21.736816 213 213 213 0
3.740292 5.651997 21.730092 213 213 213 0
3.837636 5.673027 21.810946 212 212 212 0
3.929149 5.684726 21.855926 213 213 213 0
4.017015 5.690771 21.879164 213 213 213 0
4.105084 5.696851 21.902540 213 213 213 0
4.208897 5.724100 22.007306 213 213 213 0
4.308601 5.744801 22.086893 212 212 212 0
4.395871 5.748446 22.100908 212 212 212 0
4.488856 5.759287 22.142586 212 212 212 0
4.589119 5.778890 22.217955 212 212 212 0
4.693380 5.802724 22.309589 213 213 213 0
4.773965 5.796957 22.287416 212 212 212 0
4.844149 5.778985 22.218319 213 213 213 0
4.925634 5.774882 22.202544 212 212 212 0
5.008111 5.772060 22.191696 212 212 212 0
5.092560 5.771568 22.189804 212 212 212 0
5.171580 5.765040 22.164707 211 211 211 0
5.247647 5.755484 22.127967 212 212 212 0
5.326784 5.749544 22.105130 212 212 212 0
5.413608 5.751958 22.114410 212 212 212 0
5.498414 5.752187 22.115289 212 212 212 0
5.580329 5.749430 22.104689 212 212 212 0
5.659010 5.743472 22.081786 212 212 212 0
5.731242 5.731242 22.034762 211 211 211 0
5.804286 5.720166 21.992179 212 212 212 0
5.887112 5.718909 21.987346 213 213 213 0
5.976168 5.723654 22.005591 212 212 212 0
6.062183 5.725395 22.012285 212 212 212 0
6.129756 5.709910 21.952748 212 212 212 0
6.194171 5.691941 21.883664 212 212 212 0
6.284162 5.697640 21.905575 212 212 212 0
6.363115 5.693313 21.888940 212 212 212 0
6.448667 5.694927 21.895145 212 212 212 0
6.521489 5.685401 21.858519 213 213 213 0
6.586083 5.669033 21.795592 212 212 212 0
-5.309858 4.579753 17.352479 212 212 212 0
-5.229232 4.567304 17.305309 211 211 211 0
-5.176454 4.579171 17.350274 212 212 212 0
-5.106175 4.575663 17.336983 212 212 212 0
-5.014760 4.552874 17.250636 211 211 211 0
-4.992203 4.592827 17.402016 212 212 212 0
-4.928275 4.595283 17.411322 211 211 211 0
-4.894400 4.626214 17.528517 211 211 211 0
-4.827591 4.626442 17.529380 212 212 212 0
-4.764706 4.630489 17.544716 212 212 212 0
-4.693439 4.626390 17.529185 211 211 211 0
-4.638871 4.638871 17.576474 212 212 212 0
-4.591424 4.658945 17.652533 211 211 211 0
-4.514550 4.649313 17.616038 211 211 211 0
-4.445665 4.647740 17.610080 211 211 211 0
-4.416133 4.687895 17.762223 212 212 212 0
-4.342974 4.682269 17.740908 212 212 212 0
-4.281114 4.688840 17.765803 212 212 212 0
-4.213462 4.689176 17.767076 213 213 213 0
-4.172818 4.720073 17.884146 211 211 211 0
-4.097162 4.711736 17.852558 212 212 212 0
-4.029321 4.712257 17.854532 213 213 213 0
-3.958006 4.708663 17.840912 213 213 213 0
-3.917799 4.742599 17.969495 212 212 212 0
-3.849818 4.743526 17.973007 212 212 212 0
-3.783805 4.746956 17.986002 212 212 212 0
-3.722443 4.756456 18.021997 212 212 212 0
-3.651906 4.754368 18.014088 212 212 212 0
-3.586662 4.759225 18.032490 212 212 212 0
-3.530970 4.777195 18.100578 212 212 212 0
-3.477648 4.799154 18.183779 212 212 212 0
-3.416676 4.811238 18.229565 212 212 212 0
-3.344218 4.807313 18.214694 212 212 212 0
-3.287622 4.826509 18.287427 213 213 213 0
-3.211703 4.817554 18.253498 212 212 212 0
-3.152256 4.833460 18.313762 212 212 212 0
-3.091317 4.847747 18.367896 212 212 212 0
-3.022010 4.849272 18.373675 212 212 212 0
-4.851630 7.970535 30.200000 212 212 212 0
-2.894050 4.870475 18.454012 212 212 212 0
-2.825374 4.873771 18.466498 213 213 213 0
-2.762073 4.886745 18.515657 212 212 212 0
-2.701613 4.905560 18.586948 213 213 213 0
-2.626884 4.898785 18.561275 212 212 212 0
-2.561181 4.908930 18.599716 213 213 213 0
-2.499219 4.927032 18.668304 211 211 211 0
-2.428595 4.928619 18.674317 212 212 212 0
-2.360372 4.935323 18.699717 212 212 212 0
-2.296852 4.952586 18.765127 212 212 212 0
-2.227779 4.958604 18.787929 212 212 212 0
-2.158983 4.965661 18.814667 212 212 212 0
-2.079498 4.947770 18.746881 213 213 213 0
-2.025109 4.990448 18.908584 212 212 212 0
-1.955231 4.996702 18.932281 212 212 212 0
-1.886182 5.005637 18.966135 213 213 213 0
-1.818452 5.018927 19.016490 212 212 212 0
-1.748476 5.026869 19.046582 213 213 213 0
-1.673148 5.019444 19.018449 212 212 212 0
-1.605609 5.035774 19.080324 212 212 212 0
-1.537868 5.052995 19.145573 212 212 212 0
-1.466890 5.060769 19.175028 212 212 212 0
-1.395802 5.068965 19.206081 212 212 212 0
-1.323253 5.072471 19.219364 213 213 213 0
-1.253605 5.088162 19.278816 212 212 212 0
-1.181094 5.093466 19.298916 213 213 213 0
-1.110985 5.110530 19.363571 212 212 212 0
-1.039105 5.121303 19.404387 212 212 212 0
-0.965034 5.122105 19.407428 213 213 213 0
-0.892682 5.132923 19.448415 212 212 212 0
-0.819890 5.142947 19.486396 213 213 213 0
-0.746570 5.151334 19.518175 212 212 212 0
-0.673302 5.161985 19.558530 212 212 212 0
-0.597683 5.155013 19.532114 213 213 213 0
-0.525152 5.176503 19.613536 212 212 212 0
-0.450997 5.186467 19.651289 213 213 213 0
-0.376837 5.200347 19.703883 213 213 213 0
-0.302039 5.210180 19.741138 212 212 212 0
-0.226321 5.205377 19.722942 213 213 213 0
-0.151219 5.217057 19.767194 212 212 212 0
-0.075851 5.233732 19.830375 212 212 212 0
0.000000 5.247374 19.882066 212 212 212 0
0.076192 5.257226 19.919395 212 212 212 0
0.152375 5.256929 19.918267 212 212 212 0
0.228712 5.260375 19.931325 213 213 213 0
0.306281 5.283346 20.018361 213 213 213 0
0.384064 5.300084 20.081780 213 213 213 0
0.460879 5.300105 20.081862 212 212 212 0
0.537946 5.302608 20.091345 213 213 213 0
0.616231 5.314988 20.138253 213 213 213 0
0.697037 5.343954 20.248001 212 212 212 0
0.773915 5.340015 20.233079 212 212 212 0
0.852449 5.347182 20.260232 213 213 213 0
0.932154 5.359886 20.308367 212 212 212 0
1.012758 5.375407 20.367177 213 213 213 0
1.093043 5.387140 20.411632 212 212 212 0
1.175871 5.409008 20.494489 212 212 212 0
1.255162 5.412885 20.509180 213 213 213 0
1.334490 5.416459 20.522719 214 214 214 0
1.415304 5.425330 20.556333 212 212 212 0
1.498573 5.442188 20.620206 212 212 212 0
1.580838 5.453892 20.664551 213 213 213 0
1.663169 5.464699 20.705499 212 212 212 0
1.742139 5.463983 20.702787 212 212 212 0
1.827415 5.482245 20.771982 213 213 213 0
1.911281 5.494932 20.820051 213 213 213 0
1.997174 5.512201 20.885483 212 212 212 0
2.078245 5.515341 20.897381 212 212 212 0
2.158577 5.516363 20.901254 212 212 212 0
2.247410 5.538260 20.984217 213 213 213 0
2.332489 5.549714 21.027619 212 212 212 0
2.418805 5.563251 21.078908 212 212 212 0
2.503884 5.573161 21.116459 212 212 212 0
2.586397 5.576918 21.130694 213 213 213 0
2.675755 5.594760 21.198294 213 213 213 0
2.761274 5.603762 21.232404 212 212 212 0
2.856876 5.632127 21.339878 213 213 213 0
2.933087 5.621751 21.300562 212 212 212 0
3.022520 5.636592 21.356795 212 212 212 0
3.117412 5.660564 21.447625 213 213 213 0
3.206068 5.672274 21.491993 212 212 212 0
3.276759 5.652410 21.416728 213 213 213 0
3.383097 5.693505 21.572437 212 212 212 0
3.469985 5.700690 21.599659 212 212 212 0
3.558802 5.710636 21.637344 212 212 212 0
3.649014 5.722317 21.681603 212 212 212 0
3.730163 5.719583 21.671245 212 212 212 0
3.830697 5.746045 21.771507 212 212 212 0
3.922969 5.759252 21.821547 212 212 212 0
4.011582 5.766649 21.849573 213 213 213 0
4.096989 5.769229 21.859351 213 213 213 0
4.192936 5.786252 21.923849 213 213 213 0
4.296021 5.812264 22.022407 213 213 213 0
4.397305 5.834885 22.108120 213 213 213 0
4.476384 5.827745 22.081063 214 214 214 0
4.573963 5.844508 22.144579 212 212 212 0
4.667653 5.855783 22.187298 213 213 213 0
4.773024 5.881048 22.283027 213 213 213 0
4.843683 5.863406 22.216182 214 214 214 0
4.920665 5.853894 22.180143 213 213 213 0
5.007864 5.856654 22.190601 213 213 213 0
5.085174 5.847951 22.157623 212 212 212 0
5.178402 5.857537 22.193944 212 212 212 0
5.251030 5.843888 22.142229 211 211 211 0
5.327774 5.835181 22.109239 212 212 212 0
5.407303 5.829749 22.088658 211 211 211 0
5.496278 5.834510 22.106698 212 212 212 0
5.582388 5.836133 22.112847 212 212 212 0
5.662280 5.831303 22.094546 212 212 212 0
5.730610 5.814884 22.032334 212 212 212 0
5.809340 5.809340 22.011330 212 212 212 0
5.883237 5.799191 21.972874 212 212 212 0
5.971015 5.802817 21.986614 212 212 212 0
6.047418 5.795442 21.958670 212 212 212 0
6.123431 5.787900 21.930095 212 212 212 0
6.195551 5.776932 21.888538 212 212 212 0
6.276940 5.774785 21.880401 212 212 212 0
6.355687 5.770294 21.863387 212 212 212 0
6.440888 5.771705 21.868730 212 212 212 0
6.515313 5.763546 21.837819 212 212 212 0
6.589931 5.755763 21.808327 212 212 212 0
-5.267612 4.609161 17.214418 212 212 212 0
-5.211596 4.617870 17.246946 212 212 212 0
-5.166487 4.636591 17.316868 212 212 212 0
-5.104694 4.640630 17.331953 211 211 211 0
-5.053116 4.654186 17.382580 212 212 212 0
-4.980154 4.648144 17.360015 211 211 211 0
-4.929893 4.663412 17.417040 212 212 212 0
-4.885470 4.684697 17.496534 212 212 212 0
-4.802440 4.669038 17.438052 212 212 212 0
-4.738260 4.671524 17.447337 211 211 211 0
-4.705419 4.705419 17.573929 212 212 212 0
-4.637692 4.704904 17.572006 212 212 212 0
-4.587765 4.722699 17.638466 212 212 212 0
-4.520771 4.723194 17.640313 211 211 211 0
-4.452874 4.722745 17.638636 212 212 212 0
-4.387144 4.724616 17.645625 212 212 212 0
-4.338603 4.745347 17.723053 212 212 212 0
-4.271999 4.746666 17.727976 212 212 212 0
-4.219560 4.764019 17.792788 212 212 212 0
-4.139372 4.750099 17.740798 213 213 213 0
-4.071210 4.749745 17.739476 213 213 213 0
-4.027288 4.778138 17.845520 213 213 213 0
-3.970993 4.792578 17.899452 213 213 213 0
-3.908400 4.799789 17.926383 212 212 212 0
-3.843840 4.804800 17.945100 212 212 212 0
-3.778214 4.808636 17.959426 213 213 213 0
-3.732646 4.838615 18.071393 212 212 212 0
-3.656389 4.829193 18.036202 212 212 212 0
-3.599210 4.845090 18.095574 212 212 212 0
-3.529004 4.843731 18.090498 212 212 212 0
-3.467902 4.855063 18.132821 213 213 213 0
-3.415016 4.878595 18.220709 212 212 212 0
-3.334835 4.863300 18.163587 213 213 213 0
-3.276363 4.879689 18.224797 213 213 213 0
-3.206612 4.879627 18.224564 212 212 212 0
-5.249737 8.166257 30.499560 213 213 213 0
-5.109598 8.128906 30.360060 213 213 213 0
-3.022010 4.919551 18.373675 212 212 212 0
-2.951309 4.918849 18.371050 212 212 212 0
-2.890685 4.935317 18.432555 212 212 212 0
-2.824482 4.942843 18.460666 212 212 212 0
-2.752972 4.941232 18.454648 212 212 212 0
-2.689460 4.954269 18.503340 212 212 212 0
-2.623675 4.963710 18.538598 212 212 212 0
-2.558061 4.974007 18.577056 212 212 212 0
-2.485571 4.971141 18.566354 213 213 213 0
-2.419160 4.980623 18.601766 212 212 212 0
-2.357804 5.001403 18.679375 213 213 213 0
-2.295085 5.020499 18.750696 213 213 213 0
-2.224454 5.022961 18.759890 212 212 212 0
-2.152169 5.021729 18.755289 212 212 212 0
-2.084020 5.030393 18.787648 212 212 212 0
-2.020119 5.050297 18.861987 213 213 213 0
-1.953118 5.063639 18.911817 213 213 213 0
-1.887069 5.080571 18.975054 213 213 213 0
-1.816522 5.086261 18.996308 212 212 212 0
-1.744187 5.087212 18.999859 212 212 212 0
-1.673165 5.092242 19.018644 213 213 213 0
-1.603661 5.102557 19.057170 212 212 212 0
-1.536309 5.121029 19.126159 212 212 212 0
-1.464681 5.126382 19.146152 213 213 213 0
-1.386484 5.108097 19.077860 213 213 213 0
-1.317678 5.124303 19.138388 212 212 212 0
-1.248473 5.140770 19.199887 212 212 212 0
-1.180680 5.165477 19.292165 212 212 212 0
-1.107803 5.169749 19.308121 213 213 213 0
-1.035620 5.178098 19.339300 212 212 212 0
-0.963367 5.187359 19.373890 212 212 212 0
-0.889078 5.186287 19.369886 212 212 212 0
-0.816884 5.198352 19.414947 213 213 213 0
-0.746446 5.225122 19.514929 212 212 212 0
-0.670857 5.217780 19.487507 213 213 213 0
-0.596203 5.216781 19.483774 213 213 213 0
-0.523506 5.235060 19.552047 213 213 213 0
-0.449588 5.245195 19.589898 212 212 212 0
-0.376048 5.264673 19.662643 213 213 213 0
-0.301089 5.269062 19.679035 213 213 213 0
-0.225915 5.271349 19.687576 213 213 213 0
-0.150877 5.280682 19.722436 213 213 213 0
-0.075728 5.300929 19.798054 213 213 213 0
0.000000 5.312693 19.841990 213 213 213 0
0.075988 5.319140 19.866071 212 212 212 0
0.152573 5.340047 19.944152 212 212 212 0
0.228440 5.330273 19.907650 213 213 213 0
0.305284 5.342475 19.953222 213 213 213 0
0.383731 5.372237 20.064376 213 213 213 0
0.461589 5.385206 20.112815 212 212 212 0
0.536549 5.365487 20.039167 212 212 212 0
0.615189 5.382901 20.104207 212 212 212 0
0.694646 5.402799 20.178522 213 213 213 0
0.773819 5.416730 20.230551 213 213 213 0
0.853374 5.430564 20.282219 213 213 213 0
0.930752 5.429389 20.277829 213 213 213 0
1.010528 5.441303 20.322326 213 213 213 0
1.090024 5.450119 20.355254 212 212 212 0
1.171903 5.468879 20.425320 212 212 212 0
1.253873 5.485695 20.488122 213 213 213 0
1.332032 5.484838 20.484922 213 213 213 0
1.411920 5.490800 20.507188 212 212 212 0
1.494486 5.506000 20.563959 213 213 213 0
1.575672 5.514851 20.597017 213 213 213 0
1.656194 5.520646 20.618659 212 212 212 0
1.736574 5.525464 20.636653 212 212 212 0
1.820616 5.541006 20.694699 212 212 212 0
1.909988 5.570797 20.805964 213 213 213 0
1.991762 5.576935 20.828888 213 213 213 0
2.076154 5.589646 20.876363 213 213 213 0
2.154122 5.584760 20.858115 212 212 212 0
2.242477 5.606192 20.938158 213 213 213 0
2.326287 5.615176 20.971712 213 213 213 0
2.410974 5.625606 21.010667 213 213 213 0
2.494239 5.632152 21.035114 213 213 213 0
2.582965 5.650237 21.102659 213 213 213 0
2.670955 5.665662 21.160267 213 213 213 0
2.765227 5.693114 21.262799 213 213 213 0
2.844352 5.688703 21.246325 213 213 213 0
2.927899 5.693138 21.262886 212 212 212 0
3.014737 5.703557 21.301801 213 213 213 0
3.106078 5.721724 21.369649 212 212 212 0
3.197185 5.738538 21.432447 212 212 212 0
3.278681 5.737691 21.429287 213 213 213 0
3.372130 5.757295 21.502501 213 213 213 0
3.463116 5.771861 21.556902 212 212 212 0
3.551958 5.782257 21.595730 212 212 212 0
3.645260 5.799277 21.659298 213 213 213 0
3.724823 5.794170 21.640222 213 213 213 0
3.817485 5.809217 21.696420 212 212 212 0
3.915897 5.832187 21.782212 212 212 212 0
3.995001 5.826043 21.759264 213 213 213 0
4.089124 5.841605 21.817387 213 213 213 0
4.185740 5.860036 21.886222 213 213 213 0
4.280372 5.875021 21.942188 212 212 212 0
4.380618 5.896986 22.024225 213 213 213 0
4.465017 5.897192 22.024995 213 213 213 0
4.561108 5.912548 22.082346 212 212 212 0
4.662983 5.934706 22.165101 213 213 213 0
4.751140 5.938925 22.180860 213 213 213 0
4.850721 5.957026 22.248463 213 213 213 0
4.922130 5.940502 22.186749 213 213 213 0
5.001658 5.934170 22.163102 213 213 213 0
5.082226 5.929264 22.144777 213 213 213 0
5.164348 5.926301 22.133711 213 213 213 0
5.248220 5.925410 22.130383 212 212 212 0
5.325173 5.916859 22.098445 212 212 212 0
5.401809 5.908229 22.066214 213 213 213 0
5.491379 5.913793 22.086996 212 212 212 0
5.574422 5.912265 22.081290 212 212 212 0
5.662877 5.916439 22.096877 213 213 213 0
5.730164 5.898698 22.030619 212 212 212 0
5.799537 5.883588 21.974185 212 212 212 0
5.883496 5.883496 21.973843 211 211 211 0
5.968050 5.883993 21.975698 211 211 211 0
6.043588 5.875711 21.944765 212 212 212 0
6.117407 5.866006 21.908521 212 212 212 0
6.195747 5.860842 21.889232 212 212 212 0
6.270985 5.852920 21.859644 212 212 212 0
6.355017 5.853305 21.861084 212 212 212 0
6.438326 5.853024 21.860033 212 212 212 0
6.504030 5.836950 21.800000 212 212 212 0
6.580557 5.830874 21.777306 212 212 212 0
-5.265620 4.673238 17.207909 212 212 212 0
-5.219060 4.690548 17.271647 212 212 212 0
-5.149644 4.687497 17.260414 211 211 211 0
-5.067425 4.672561 17.205415 212 212 212 0
-5.025660 4.695025 17.288133 212 212 212 0
-4.970625 4.705525 17.326798 212 212 212 0
-4.905736 4.706855 17.331694 212 212 212 0
-4.874664 4.741112 17.457835 212 212 212 0
-4.814462 4.747594 17.481705 212 212 212 0
-4.718413 4.718413 17.374253 212 212 212 0
-4.682787 4.749684 17.489401 212 212 212 0
-4.621564 4.755522 17.510898 212 212 212 0
-4.569558 4.771156 17.568466 212 212 212 0
-4.532092 4.802665 17.684488 212 212 212 0
-4.458472 4.796235 17.660811 212 212 212 0
-4.396885 4.802751 17.684807 212 212 212 0
-4.309805 4.781190 17.605411 212 212 212 0
-4.261466 4.802605 17.684266 212 212 212 0
-4.200699 4.810478 17.713257 212 212 212 0
-4.137121 4.815338 17.731153 212 212 212 0
-4.092836 4.843190 17.833710 212 212 212 0
-4.024037 4.842485 17.831114 212 212 212 0
-3.960612 4.848335 17.852656 212 212 212 0
-3.906108 4.865503 17.915872 212 212 212 0
-3.841920 4.871006 17.936135 213 213 213 0
-3.774110 4.872033 17.939919 212 212 212 0
-3.725979 4.898973 18.039115 212 212 212 0
-3.655615 4.897144 18.032382 212 212 212 0
-3.589548 4.901113 18.046996 211 211 211 0
-3.524394 4.906509 18.066864 212 212 212 0
-3.459882 4.913032 18.090885 212 212 212 0
-3.409335 4.940056 18.190394 213 213 213 0
-3.322051 4.913867 18.093961 212 212 212 0
-3.263664 4.930216 18.154158 212 212 212 0
-3.200116 4.939310 18.187647 212 212 212 0
-5.228866 8.249989 30.378307 212 212 212 0
-3.079617 4.969383 18.298380 212 212 212 0
-3.022867 4.991245 18.378884 212 212 212 0
-2.950661 4.988022 18.367014 212 212 212 0
-2.889324 5.003464 18.423875 213 213 213 0
-2.817077 5.000312 18.412270 213 213 213 0
-2.751065 5.008348 18.441861 212 212 212 0
-2.685008 5.016726 18.472709 212 212 212 0
-2.622589 5.032535 18.530923 212 212 212 0
-2.552792 5.034673 18.538795 212 212 212 0
-2.485459 5.041932 18.565524 212 212 212 0
-2.418361 5.050107 18.595624 212 212 212 0
-2.357272 5.071706 18.675159 213 213 213 0
-2.292776 5.087096 18.731826 212 212 212 0
-2.219422 5.083192 18.717453 212 212 212 0
-2.139955 5.064561 18.648847 213 213 213 0
-2.078532 5.088820 18.738176 212 212 212 0
-2.012697 5.103624 18.792687 212 212 212 0
-1.945380 5.115628 18.836889 212 212 212 0
-1.881638 5.138320 18.920446 212 212 212 0
-1.808594 5.136406 18.913398 212 212 212 0
-1.737559 5.140279 18.927661 212 212 212 0
-1.664697 5.138846 18.922383 212 212 212 0
-1.600403 5.164937 19.018457 212 212 212 0
-1.533095 5.183323 19.086156 213 213 213 0
-1.458148 5.176424 19.060754 212 212 212 0
-1.382597 5.166546 19.024380 213 213 213 0
-1.318041 5.198938 19.143655 213 213 213 0
-1.247238 5.209052 19.180897 212 212 212 0
-1.177044 5.223132 19.232742 213 213 213 0
-1.106796 5.238833 19.290558 212 212 212 0
-1.034919 5.248517 19.326214 212 212 212 0
-0.957411 5.228937 19.254119 212 212 212 0
-0.885742 5.240640 19.297210 213 213 213 0
-0.815898 5.266250 19.391512 213 213 213 0
-0.744706 5.287411 19.469432 213 213 213 0
-0.670136 5.286626 19.466541 212 212 212 0
-0.597479 5.302625 19.525452 213 213 213 0
-0.521905 5.293604 19.492238 212 212 212 0
-0.449297 5.316679 19.577203 213 213 213 0
-0.375041 5.325583 19.609991 213 213 213 0
-0.300654 5.336608 19.650585 212 212 212 0
-0.226141 5.351994 19.707241 213 213 213 0
-0.150437 5.340528 19.665023 212 212 212 0
-0.075598 5.367448 19.764145 212 212 212 0
0.000000 5.374085 19.788585 212 212 212 0
0.075969 5.393772 19.861076 213 213 213 0
0.151811 5.389308 19.844639 213 213 213 0
0.228389 5.405196 19.903144 213 213 213 0
0.304679 5.408052 19.913660 213 213 213 0
0.381461 5.416750 19.945688 212 212 212 0
0.459400 5.436234 20.017431 213 213 213 0
0.536272 5.439335 20.028850 213 213 213 0
0.613842 5.447850 20.060206 212 212 212 0
0.692973 5.466786 20.129933 212 212 212 0
0.772606 5.485505 20.198858 213 213 213 0
0.852107 5.499962 20.252093 212 212 212 0
0.928769 5.495216 20.234617 213 213 213 0
1.008927 5.510296 20.290146 212 212 212 0
1.087448 5.514916 20.307157 213 213 213 0
1.170334 5.539582 20.397983 213 213 213 0
1.249924 5.546539 20.423598 212 212 212 0
1.325897 5.537568 20.390567 213 213 213 0
1.410806 5.564846 20.491009 212 212 212 0
1.490123 5.568353 20.503925 213 213 213 0
1.573398 5.585563 20.567295 213 213 213 0
1.656602 5.600894 20.623745 212 212 212 0
1.740812 5.618075 20.687011 213 213 213 0
1.820491 5.619775 20.693272 213 213 213 0
1.902902 5.629418 20.728777 213 213 213 0
1.989834 5.651129 20.808724 213 213 213 0
2.071187 5.655935 20.826420 213 213 213 0
2.149003 5.651081 20.808546 213 213 213 0
2.237917 5.674718 20.895584 213 213 213 0
2.322958 5.687243 20.941702 212 212 212 0
2.407107 5.696820 20.976968 213 213 213 0
2.489092 5.700822 20.991706 213 213 213 0
2.573394 5.709718 21.024461 212 212 212 0
2.660418 5.723929 21.076788 212 212 212 0
2.752197 5.747235 21.162607 213 213 213 0
2.839049 5.759214 21.206717 213 213 213 0
2.927258 5.773204 21.258229 212 212 212 0
3.005808 5.767901 21.238705 212 212 212 0
3.096577 5.785710 21.304281 212 212 212 0
3.186178 5.800478 21.358658 213 213 213 0
3.268678 5.801903 21.363907 212 212 212 0
3.358285 5.815567 21.414220 212 212 212 0
3.451834 5.835243 21.486672 213 213 213 0
3.551182 5.863579 21.591013 212 212 212 0
3.630041 5.857566 21.568872 213 213 213 0
3.707386 5.849432 21.538918 213 213 213 0
3.810067 5.880756 21.654260 213 213 213 0
3.904860 5.898831 21.720818 213 213 213 0
4.000747 5.917771 21.790560 213 213 213 0
4.078534 5.909712 21.760883 212 212 212 0
4.175144 5.928704 21.830817 213 213 213 0
4.271586 5.946718 21.897148 213 213 213 0
4.365457 5.960527 21.947997 213 213 213 0
4.456376 5.969862 21.982369 213 213 213 0
4.548953 5.981031 22.023497 213 213 213 0
4.642347 5.992848 22.067008 212 212 212 0
4.748314 6.020184 22.167665 213 213 213 0
4.835376 6.023012 22.178078 213 213 213 0
4.931734 6.037122 22.230037 213 213 213 0
5.000547 6.017607 22.158179 214 214 214 0
5.082887 6.014750 22.147656 212 212 212 0
5.157372 6.002843 22.103813 213 213 213 0
5.243407 6.004547 22.110088 212 212 212 0
5.316910 5.992073 22.064155 213 213 213 0
5.398204 5.988633 22.051488 213 213 213 0
5.485182 5.991507 22.062070 213 213 213 0
5.573178 5.995389 22.076365 213 213 213 0
5.649119 5.986380 22.043191 212 212 212 0
5.726821 5.979474 22.017765 212 212 212 0
5.801531 5.969692 21.981743 212 212 212 0
5.879633 5.963628 21.959414 212 212 212 0
5.965945 5.965945 21.967947 212 212 212 0
6.043880 5.959937 21.945823 212 212 212 0
6.127229 5.959360 21.943699 211 211 211 0
6.190747 5.939771 21.871568 212 212 212 0
6.273327 5.938749 21.867806 212 212 212 0
6.351393 5.933538 21.848618 213 213 213 0
6.436264 5.934737 21.853030 211 211 211 0
6.514404 5.929778 21.834772 212 212 212 0
6.584920 5.918093 21.791743 212 212 212 0
-5.265620 4.739058 17.207909 212 212 212 0
-5.170674 4.712513 17.111520 212 212 212 0
-5.116985 4.723371 17.150948 212 212 212 0
-5.099666 4.768519 17.314884 212 212 212 0
-5.017883 4.753784 17.261379 212 212 212 0
-4.963735 4.765186 17.302780 212 212 212 0
-4.907511 4.774876 17.337967 212 212 212 0
-4.880424 4.813569 17.478463 212 212 212 0
-4.802890 4.802890 17.439689 213 213 213 0
-4.725405 4.791960 17.400000 211 211 211 0
-4.656217 4.789252 17.390168 211 211 211 0
-4.614011 4.814620 17.482281 212 212 212 0
-4.552645 4.820448 17.503442 212 212 212 0
-4.477868 4.812038 17.472904 212 212 212 0
-4.449108 4.853573 17.623721 213 213 213 0
-4.362303 4.832089 17.545713 213 213 213 0
-4.312833 4.851937 17.617780 212 212 212 0
-4.248292 4.855190 17.629595 212 212 212 0
-4.190716 4.866638 17.671162 212 212 212 0
-4.129524 4.874192 17.698590 212 212 212 0
-4.063642 4.876371 17.706503 212 212 212 0
-4.007428 4.890420 17.757517 212 212 212 0
-3.964778 4.921793 17.871436 213 213 213 0
-3.886296 4.909005 17.825001 213 213 213 0
-3.824877 4.917699 17.856568 213 213 213 0
-3.764823 4.928496 17.895772 213 213 213 0
-3.707741 4.943655 17.950817 212 212 212 0
-3.660718 4.973051 18.057557 212 212 212 0
-3.580427 4.957514 18.001142 212 212 212 0
-3.514110 4.961097 18.014151 212 212 212 0
-3.455693 4.976198 18.068984 212 212 212 0
-3.398176 4.993238 18.130857 213 213 213 0
-3.322842 4.984263 18.098270 212 212 212 0
-3.265560 5.002559 18.164703 212 212 212 0
-3.196981 5.003970 18.169825 212 212 212 0
-3.134717 5.015548 18.211866 213 213 213 0
-3.072378 5.027528 18.255365 212 212 212 0
-3.014683 5.047841 18.329126 212 212 212 0
-2.944812 5.048249 18.330605 212 212 212 0
-2.880988 5.059296 18.370720 213 213 213 0
-2.812678 5.062821 18.383517 212 212 212 0
-2.740750 5.059847 18.372719 212 212 212 0
-2.677456 5.073075 18.420753 212 212 212 0
-2.619932 5.098246 18.512149 213 213 213 0
-2.539356 5.078711 18.441217 212 212 212 0
-2.476748 5.095025 18.500453 212 212 212 0
-3.745712 7.932095 28.802088 213 213 213 0
-2.349072 5.125247 18.610194 213 213 213 0
-3.502501 7.880627 28.615202 212 212 212 0
-2.211733 5.136928 18.652607 213 213 213 0
-2.141673 5.140016 18.663819 213 213 213 0
-2.072542 5.145621 18.684172 212 212 212 0
-2.011687 5.172909 18.783258 212 212 212 0
-1.946021 5.189390 18.843102 213 213 213 0
-1.880071 5.206352 18.904691 212 212 212 0
-1.804989 5.198368 18.875700 213 213 213 0
-1.732558 5.197674 18.873180 213 213 213 0
-1.664679 5.211168 18.922177 212 212 212 0
-1.594555 5.218544 18.948962 212 212 212 0
-1.527806 5.238194 19.020311 212 212 212 0
-1.453951 5.234223 19.005894 213 213 213 0
-1.385250 5.249367 19.060882 212 212 212 0
-1.313500 5.253999 19.077703 213 213 213 0
-1.243794 5.267834 19.127937 213 213 213 0
-1.173078 5.278849 19.167934 212 212 212 0
-1.106087 5.309218 19.278208 212 212 212 0
-1.029324 5.293667 19.221739 212 212 212 0
-0.957344 5.302215 19.252777 213 213 213 0
-0.885995 5.315972 19.302730 213 213 213 0
-0.814969 5.334340 19.369427 212 212 212 0
-0.742597 5.346699 19.414302 212 212 212 0
-0.668880 5.351038 19.430056 213 213 213 0
-0.592836 5.335528 19.373739 213 213 213 0
-0.520049 5.349076 19.422935 213 213 213 0
-0.447785 5.373415 19.511311 212 212 212 0
-0.374821 5.397429 19.598509 213 213 213 0
-0.299662 5.393907 19.585720 213 213 213 0
-0.225199 5.404779 19.625195 213 213 213 0
-0.150504 5.418139 19.673709 212 212 212 0
-0.075348 5.425043 19.698775 213 213 213 0
0.000000 5.441226 19.757539 212 212 212 0
0.075848 5.461077 19.829619 213 213 213 0
0.151532 5.455135 19.808042 213 213 213 0
0.227606 5.462550 19.834968 213 213 213 0
0.304585 5.482521 19.907484 213 213 213 0
0.381160 5.488700 19.929919 212 212 212 0
0.458813 5.505760 19.991865 212 212 212 0
0.536459 5.517869 20.035835 213 213 213 0
0.613695 5.523255 20.055392 212 212 212 0
0.690785 5.526282 20.066384 212 212 212 0
0.770358 5.546580 20.140086 212 212 212 0
0.848792 5.555728 20.173305 213 213 213 0
0.927246 5.563476 20.201437 213 213 213 0
1.006246 5.573054 20.236217 213 213 213 0
1.084619 5.578040 20.254320 213 213 213 0
1.167026 5.601726 20.340326 213 213 213 0
1.247713 5.614710 20.387471 212 212 212 0
1.325984 5.615931 20.391906 213 213 213 0
1.403476 5.613906 20.384553 212 212 212 0
1.489358 5.643884 20.493406 213 213 213 0
1.573547 5.664768 20.569238 213 213 213 0
1.652870 5.666984 20.577284 213 213 213 0
1.734578 5.676802 20.612933 213 213 213 0
1.812365 5.673492 20.600915 213 213 213 0
1.895395 5.686184 20.647002 212 212 212 0
1.982349 5.709165 20.730446 213 213 213 0
2.065740 5.720512 20.771648 212 212 212 0
2.144234 5.717958 20.762373 213 213 213 0
2.227175 5.727023 20.795289 212 212 212 0
2.319426 5.758574 20.909854 212 212 212 0
2.406471 5.775531 20.971425 212 212 212 0
2.480151 5.760352 20.916309 213 213 213 0
2.570034 5.782577 20.997013 212 212 212 0
2.658465 5.800288 21.061322 213 213 213 0
2.748708 5.820793 21.135778 213 213 213 0
2.825264 5.811972 21.103746 212 212 212 0
2.913631 5.827262 21.159265 213 213 213 0
3.000414 5.838643 21.200592 212 212 212 0
3.092647 5.859753 21.277242 212 212 212 0
3.186686 5.883113 21.362066 213 213 213 0
3.263329 5.873992 21.328947 213 213 213 0
3.354801 5.891358 21.392004 213 213 213 0
3.442160 5.900846 21.426456 212 212 212 0
3.536405 5.921423 21.501171 212 212 212 0
3.622227 5.927281 21.522444 213 213 213 0
3.706942 5.931107 21.536337 213 213 213 0
3.799376 5.946850 21.593500 214 214 214 0
3.892320 5.962703 21.651066 213 213 213 0
3.987351 5.981026 21.717596 212 212 212 0
4.060960 5.967125 21.667121 212 212 212 0
4.160579 5.991234 21.754663 213 213 213 0
4.263736 6.019392 21.856906 214 214 214 0
4.361736 6.039326 21.929289 213 213 213 0
4.439370 6.030843 21.898485 212 212 212 0
4.539333 6.052444 21.976923 212 212 212 0
4.636554 6.069671 22.039474 214 214 214 0
4.734889 6.087715 22.104991 213 213 213 0
4.831433 6.102863 22.159997 213 213 213 0
4.918051 6.105167 22.168363 213 213 213 0
5.000854 6.102737 22.159537 214 214 214 0
5.077551 6.093061 22.124403 214 214 214 0
5.154278 6.083738 22.090553 213 213 213 0
5.238107 6.082962 22.087736 212 212 212 0
5.311050 6.069772 22.039840 213 213 213 0
5.394394 6.068694 22.035925 212 212 212 0
5.479355 6.069439 22.038632 213 213 213 0
5.567154 6.073259 22.052500 212 212 212 0
5.649274 6.070861 22.043795 213 213 213 0
5.730914 6.068027 22.033503 212 212 212 0
5.797317 6.049374 21.965774 212 212 212 0
5.873111 6.040915 21.935057 212 212 212 0
5.960953 6.044910 21.949565 212 212 212 0
6.039538 6.039538 21.930059 212 212 212 0
6.117634 6.033831 21.909334 212 212 212 0
6.192369 6.025007 21.877296 212 212 212 0
6.263773 6.013222 21.834502 212 212 212 0
6.343604 6.009730 21.821825 212 212 212 0
6.423964 6.006824 21.811270 212 212 212 0
6.512803 6.011818 21.829404 212 212 212 0
6.584869 6.001400 21.791574 213 213 213 0
-5.265620 4.804878 17.207909 212 212 212 0
-5.208001 4.812456 17.235049 212 212 212 0
-5.125450 4.796895 17.179319 212 212 212 0
-5.051637 4.789214 17.151810 212 212 212 0
-5.009433 4.811692 17.232312 212 212 212 0
-4.961750 4.829436 17.295860 212 212 212 0
-4.922730 4.856207 17.391734 212 212 212 0
-4.855558 4.855558 17.389410 212 212 212 0
-4.764485 4.830658 17.300236 212 212 212 0
-4.705536 4.838086 17.326839 212 212 212 0
-4.657797 4.857417 17.396067 212 212 212 0
-4.601702 4.868467 17.435643 212 212 212 0
-4.542140 4.876121 17.463052 213 213 213 0
-4.490734 4.892889 17.523106 212 212 212 0
-4.438317 4.909048 17.580974 212 212 212 0
-4.346183 4.881098 17.480879 212 212 212 0
-4.296000 4.900125 17.549019 212 212 212 0
-4.251375 4.926196 17.642389 211 211 211 0
-4.186628 4.929417 17.653925 212 212 212 0
-4.123806 4.935047 17.674088 212 212 212 0
-4.075468 4.958486 17.758029 212 212 212 0
-3.986248 4.932137 17.663666 212 212 212 0
-3.928104 4.943993 17.706127 212 212 212 0
-3.878930 4.967752 17.791214 213 213 213 0
-3.812760 4.970205 17.800000 212 212 212 0
-3.750029 4.977312 17.825451 212 212 212 0
-3.717121 5.024997 17.996228 213 213 213 0
-3.637622 5.010310 17.943629 213 213 213 0
-3.575038 5.018803 17.974047 212 212 212 0
-3.510682 5.025094 17.996575 212 212 212 0
-5.981549 8.733061 31.276072 212 212 212 0
-5.827217 8.681364 31.090927 213 213 213 0
-3.317459 5.045302 18.068947 212 212 212 0
-3.256737 5.058337 18.115630 212 212 212 0
-3.188575 5.060130 18.122052 212 212 212 0
-3.125064 5.069548 18.155782 213 213 213 0
-3.062191 5.080454 18.194838 212 212 212 0
-3.008197 5.106939 18.289691 213 213 213 0
-4.788258 8.322448 29.805526 213 213 213 0
-2.864513 5.100231 18.265666 213 213 213 0
-2.795280 5.101385 18.269801 212 212 212 0
-2.734242 5.117940 18.329088 213 213 213 0
-2.672736 5.134467 18.388277 213 213 213 0
-2.608822 5.147135 18.433648 213 213 213 0
-2.545449 5.161605 18.485470 213 213 213 0
-3.857868 8.046411 28.816942 213 213 213 0
-2.406865 5.167680 18.507225 213 213 213 0
-2.339904 5.176151 18.537564 212 212 212 0
-2.280824 5.203130 18.634184 212 212 212 0
-2.210020 5.204241 18.638162 212 212 212 0
-2.148345 5.227638 18.721957 212 212 212 0
-2.067797 5.205144 18.641396 212 212 212 0
-2.003914 5.224490 18.710680 213 213 213 0
-1.938364 5.240763 18.768960 213 213 213 0
-1.866674 5.241047 18.769978 212 212 212 0
-1.803412 5.265963 18.859210 212 212 212 0
-1.731541 5.266770 18.862102 212 212 212 0
-1.660374 5.269882 18.873245 213 213 213 0
-1.592151 5.283047 18.920393 213 213 213 0
-1.526330 5.305815 19.001933 213 213 213 0
-1.453251 5.304367 18.996749 213 213 213 0
-1.385672 5.323899 19.066699 213 213 213 0
-1.313179 5.325670 19.073040 212 212 212 0
-1.240907 5.328600 19.083533 212 212 212 0
-1.172023 5.347354 19.150699 213 213 213 0
-1.102118 5.363643 19.209034 214 214 214 0
-1.030446 5.373038 19.242684 212 212 212 0
-0.956676 5.372102 19.239330 212 212 212 0
-0.884124 5.378421 19.261962 213 213 213 0
-0.812126 5.389566 19.301875 212 212 212 0
-0.740283 5.404066 19.353806 212 212 212 0
-0.666671 5.407440 19.365889 213 213 213 0
-0.594581 5.425553 19.430757 212 212 212 0
-0.520428 5.427325 19.437102 212 212 212 0
-0.447013 5.438664 19.477711 213 213 213 0
-0.373376 5.451287 19.522920 213 213 213 0
-0.299837 5.472020 19.597170 213 213 213 0
-0.225114 5.477786 19.617821 213 213 213 0
-0.149980 5.474281 19.605270 213 213 213 0
-0.075269 5.494647 19.678207 213 213 213 0
0.000000 5.501794 19.703802 212 212 212 0
0.075576 5.517081 19.758549 213 213 213 0
0.151297 5.522324 19.777326 213 213 213 0
0.227503 5.535908 19.825974 213 213 213 0
0.303720 5.542888 19.850972 212 212 212 0
0.380430 5.554283 19.891784 213 213 213 0
0.456514 5.554255 19.891681 212 212 212 0
0.537133 5.601532 20.060997 213 213 213 0
0.612915 5.592850 20.029904 213 213 213 0
0.689780 5.594879 20.037171 213 213 213 0
0.767682 5.604078 20.070115 213 213 213 0
0.846310 5.616420 20.114317 213 213 213 0
0.923971 5.620825 20.130091 212 212 212 0
1.004056 5.638162 20.192182 213 213 213 0
1.082084 5.642293 20.206978 212 212 212 0
1.164609 5.667763 20.298195 213 213 213 0
1.244934 5.680011 20.342058 212 212 212 0
1.317784 5.658719 20.265802 213 213 213 0
1.398231 5.670605 20.308370 212 212 212 0
1.483780 5.700838 20.416648 213 213 213 0
1.565286 5.713294 20.461256 213 213 213 0
1.647711 5.727757 20.513053 213 213 213 0
1.729016 5.737191 20.546838 213 213 213 0
1.809835 5.744259 20.572151 213 213 213 0
1.892088 5.755101 20.610979 212 212 212 0
1.982165 5.787922 20.728522 213 213 213 0
2.057275 5.776196 20.686528 213 213 213 0
2.139831 5.785468 20.719735 213 213 213 0
2.224398 5.799323 20.769356 213 213 213 0
2.310195 5.815317 20.826636 213 213 213 0
2.397646 5.834272 20.894519 213 213 213 0
2.479886 5.839732 20.914073 212 212 212 0
2.562122 5.844842 20.932372 213 213 213 0
2.647776 5.857200 20.976633 212 212 212 0
2.734612 5.871373 21.027390 212 212 212 0
2.826187 5.894618 21.110637 212 212 212 0
2.907088 5.894928 21.111748 213 213 213 0
2.989648 5.898494 21.124519 212 212 212 0
3.087194 5.930662 21.239725 212 212 212 0
3.170315 5.934180 21.252322 212 212 212 0
3.263476 5.955843 21.329907 212 212 212 0
3.343942 5.953847 21.322759 213 213 213 0
3.436492 5.972950 21.391173 212 212 212 0
3.520545 5.976739 21.404743 213 213 213 0
3.612533 5.993520 21.464842 213 213 213 0
3.696563 5.996647 21.476038 212 212 212 0
3.789819 6.014278 21.539180 213 213 213 0
3.886014 6.035724 21.615989 212 212 212 0
3.975283 6.045743 21.651867 213 213 213 0
4.063153 6.053268 21.678819 213 213 213 0
4.148261 6.056461 21.690255 212 212 212 0
4.248888 6.081742 21.780793 212 212 212 0
4.348700 6.104906 21.863751 213 213 213 0
4.435511 6.109289 21.879447 212 212 212 0
4.518384 6.108186 21.875500 212 212 212 0
4.623784 6.137023 21.978773 213 213 213 0
4.723004 6.156773 22.049504 212 212 212 0
4.818322 6.170834 22.099862 213 213 213 0
4.913832 6.184651 22.149345 212 212 212 0
4.999277 6.185547 22.152553 213 213 213 0
5.079981 6.180644 22.134995 213 213 213 0
5.154513 6.168516 22.091560 212 212 212 0
5.232290 6.160599 22.063208 212 212 212 0
5.298853 6.139941 21.989225 213 213 213 0
5.390720 6.148790 22.020916 212 212 212 0
5.476571 6.150610 22.027435 213 213 213 0
5.565863 6.156182 22.047389 213 213 213 0
5.647170 6.152887 22.035586 212 212 212 0
5.718444 6.138918 21.985561 212 212 212 0
5.790646 6.126336 21.940499 213 213 213 0
5.874258 6.126012 21.939338 211 211 211 0
5.958681 6.126531 21.941199 212 212 212 0
6.034836 6.118654 21.912986 212 212 212 0
6.114998 6.114998 21.899895 212 212 212 0
6.188135 6.104512 21.862341 212 212 212 0
6.268003 6.100856 21.849248 212 212 212 0
6.347630 6.097065 21.835671 212 212 212 0
6.422431 6.088798 21.806064 212 212 212 0
6.504496 6.087541 21.801562 212 212 212 0
10.772980 9.954779 35.651460 212 212 212 0
-5.265620 4.870699 17.207909 213 213 213 0
-5.145695 4.820018 17.028858 212 212 212 0
-5.108960 4.846962 17.124050 212 212 212 0
-5.058330 4.861253 17.174537 212 212 212 0
-5.013656 4.881717 17.246838 212 212 212 0
-4.948246 4.882270 17.248788 212 212 212 0
-4.901201 4.901201 17.315672 212 212 212 0
-4.850842 4.917292 17.372521 212 212 212 0
-4.791821 4.924927 17.399494 212 212 212 0
-4.704821 4.903616 17.324204 213 213 213 0
-4.659209 4.925449 17.401340 213 213 213 0
-4.603152 4.936714 17.441138 213 213 213 0
-4.542020 4.942786 17.462590 211 211 211 0
-4.478571 4.946481 17.475645 213 213 213 0
-4.410720 4.945353 17.471657 212 212 212 0
-4.351518 4.954036 17.502335 213 213 213 0
-4.297164 4.968596 17.553775 212 212 212 0
-4.236163 4.975811 17.579265 212 212 212 0
-4.180213 4.989286 17.626871 212 212 212 0
-4.126632 5.006078 17.686195 212 212 212 0
-4.062980 5.011008 17.703614 211 211 211 0
-3.961974 4.969255 17.556105 213 213 213 0
-3.930005 5.014144 17.714694 213 213 213 0
-3.865356 5.018182 17.728958 212 212 212 0
-3.814976 5.041219 17.810347 212 212 212 0
-3.752202 5.048417 17.835779 212 212 212 0
-3.686675 5.052110 17.848824 213 213 213 0
-3.617487 5.050832 17.844308 212 212 212 0
-3.568526 5.078288 17.941309 212 212 212 0
-3.494359 5.070247 17.912901 213 213 213 0
-5.961853 8.823542 31.173086 212 212 212 0
-3.377648 5.100938 18.021332 212 212 212 0
-3.317751 5.114865 18.070537 213 213 213 0
-3.244361 5.108143 18.046789 213 213 213 0
-3.186888 5.126733 18.112464 212 212 212 0
-3.119388 5.129661 18.122808 212 212 212 0
-3.060203 5.146705 18.183023 212 212 212 0
-2.996909 5.157471 18.221059 212 212 212 0
-2.944461 5.187860 18.328422 213 213 213 0
-2.856661 5.155925 18.215597 212 212 212 0
-2.795994 5.172590 18.274473 213 213 213 0
-2.737033 5.193344 18.347797 213 213 213 0
-2.666891 5.193420 18.348065 213 213 213 0
-2.596531 5.193062 18.346801 212 212 212 0
-2.541651 5.224506 18.457890 212 212 212 0
-2.468483 5.219078 18.438716 213 213 213 0
-2.403224 5.230547 18.479235 213 213 213 0
-2.335334 5.236810 18.501359 212 212 212 0
-2.269720 5.248727 18.543462 213 213 213 0
-2.200455 5.252698 18.557493 212 212 212 0
-2.131306 5.257221 18.573473 212 212 212 0
-2.067617 5.275989 18.639777 213 213 213 0
-2.001301 5.289153 18.686286 213 213 213 0
-1.934122 5.300927 18.727883 213 213 213 0
-1.867587 5.315439 18.779151 213 213 213 0
-1.795445 5.314518 18.775898 213 213 213 0
-1.725911 5.321558 18.800770 213 213 213 0
-1.657416 5.332554 18.839619 212 212 212 0
-1.589863 5.347719 18.893197 213 213 213 0
-1.522767 5.365940 18.957568 213 213 213 0
-1.453415 5.377636 18.998891 212 212 212 0
-1.380461 5.376534 18.994997 212 212 212 0
-1.312271 5.394893 19.059858 213 213 213 0
-1.236796 5.383700 19.020316 213 213 213 0
-1.167784 5.401003 19.081444 213 213 213 0
-1.097089 5.412305 19.121373 212 212 212 0
-1.027526 5.431210 19.188164 213 213 213 0
-0.954012 5.430530 19.185762 212 212 212 0
-0.881806 5.437806 19.211469 213 213 213 0
-0.810802 5.454487 19.270399 213 213 213 0
-0.739928 5.475464 19.344512 213 213 213 0
-0.666622 5.481118 19.364487 213 213 213 0
-0.592515 5.480767 19.363248 212 212 212 0
-0.518855 5.485036 19.378328 212 212 212 0
-0.446066 5.501479 19.436421 213 213 213 0
-0.372708 5.516080 19.488006 214 214 214 0
-0.298557 5.523305 19.513532 213 213 213 0
-0.225061 5.551517 19.613201 213 213 213 0
-0.149926 5.547260 19.598163 213 213 213 0
-0.075091 5.556706 19.631535 213 213 213 0
0.000000 5.566360 19.665643 213 213 213 0
0.075364 5.576965 19.703109 213 213 213 0
0.151306 5.598337 19.778615 213 213 213 0
0.226980 5.598842 19.780400 212 212 212 0
0.303050 5.606434 19.807220 213 213 213 0
0.379845 5.621710 19.861189 213 213 213 0
0.456755 5.633310 19.902171 213 213 213 0
0.533936 5.644465 19.941584 213 213 213 0
0.610664 5.648642 19.956341 213 213 213 0
0.687673 5.654202 19.975982 213 213 213 0
0.768126 5.684135 20.081736 213 213 213 0
0.847111 5.698748 20.133362 213 213 213 0
0.923122 5.692584 20.111585 213 213 213 0
1.000411 5.694648 20.118878 212 212 212 0
1.080092 5.709057 20.169784 212 212 212 0
1.161364 5.729396 20.241641 212 212 212 0
1.241689 5.742813 20.289041 213 213 213 0
1.320715 5.748994 20.310879 213 213 213 0
1.398933 5.751171 20.318568 213 213 213 0
1.481234 5.769017 20.381617 213 213 213 0
1.563401 5.784583 20.436613 213 213 213 0
1.643163 5.790194 20.456437 213 213 213 0
1.721090 5.789122 20.452647 213 213 213 0
1.806294 5.811555 20.531904 212 212 212 0
1.889721 5.826638 20.585191 213 213 213 0
1.971575 5.835863 20.617780 213 213 213 0
2.058726 5.859450 20.701112 213 213 213 0
2.136995 5.856948 20.692275 212 212 212 0
2.215050 5.854061 20.682075 212 212 212 0
2.306471 5.885478 20.793067 213 213 213 0
2.393686 5.904424 20.860005 213 213 213 0
2.473801 5.905203 20.862757 212 212 212 0
2.556308 5.911463 20.884871 213 213 213 0
2.643745 5.928397 20.944699 212 212 212 0
2.734343 5.951218 21.025323 213 213 213 0
2.817369 5.956724 21.044775 213 213 213 0
2.899464 5.960010 21.056386 213 213 213 0
2.984281 5.968563 21.086603 213 213 213 0
3.076724 5.991515 21.167691 213 213 213 0
3.169401 6.013736 21.246197 213 213 213 0
3.253211 6.018441 21.262818 213 213 213 0
3.336623 6.022197 21.276091 212 212 212 0
3.425568 6.035525 21.323177 213 213 213 0
3.516554 6.051744 21.380479 213 213 213 0
3.599767 6.054154 21.388992 212 212 212 0
3.691776 6.070921 21.448228 213 213 213 0
3.784670 6.088383 21.509919 212 212 212 0
3.872304 6.096820 21.539726 213 213 213 0
3.967521 6.116596 21.609594 212 212 212 0
4.054549 6.123197 21.632916 212 212 212 0
4.136927 6.122653 21.630993 213 213 213 0
4.239387 6.151267 21.732086 212 212 212 0
4.330384 6.162470 21.771665 213 213 213 0
4.425921 6.179588 21.832144 212 212 212 0
4.510916 6.181626 21.839342 213 213 213 0
4.604906 6.195692 21.889036 213 213 213 0
4.709330 6.223044 21.985669 213 213 213 0
4.809085 6.243373 22.057492 212 212 212 0
4.901779 6.253994 22.095016 214 214 214 0
4.995510 6.265554 22.135857 214 214 214 0
5.076246 6.260703 22.118718 213 213 213 0
5.157833 6.257044 22.105790 213 213 213 0
5.227307 6.239044 22.042199 213 213 213 0
5.300543 6.226035 21.996237 212 212 212 0
5.389609 6.231736 22.016378 212 212 212 0
5.472528 6.230263 22.011173 212 212 212 0
5.563880 6.238290 22.039534 213 213 213 0
5.640619 6.229938 22.010025 212 212 212 0
5.714797 6.219044 21.971538 212 212 212 0
5.787201 6.206563 21.927445 213 213 213 0
5.863610 6.198673 21.899570 212 212 212 0
5.956562 6.208247 21.933394 212 212 212 0
6.031370 6.198908 21.900398 212 212 212 0
6.116360 6.200146 21.904772 212 212 212 0
6.190411 6.190411 21.870379 213 213 213 0
6.261515 6.178028 21.826632 212 212 212 0
6.336396 6.169649 21.797027 212 212 212 0
6.420140 6.170005 21.798285 211 211 211 0
10.606879 10.062937 35.551799 211 211 211 0
6.570453 6.154602 21.743868 211 211 211 0
-5.219873 4.893631 17.058410 211 211 211 0
-5.178252 4.916062 17.136599 212 212 212 0
-5.101763 4.905541 17.099926 212 212 212 0
-5.033008 4.902280 17.088559 212 212 212 0
-5.000530 4.934734 17.201687 212 212 212 0
-4.937076 4.937076 17.209853 212 212 212 0
-4.877156 4.943064 17.230723 212 212 212 0
-4.835569 4.968050 17.317821 213 213 213 0
-4.781023 4.980232 17.360287 211 211 211 0
-4.660318 4.922871 17.160335 212 212 212 0
-4.660134 4.993001 17.404796 212 212 212 0
-4.587219 4.986108 17.380769 212 212 212 0
-4.519522 4.984767 17.376095 212 212 212 0
-4.499247 5.036470 17.556323 212 212 212 0
-4.409604 5.010914 17.467238 212 212 212 0
-4.346110 5.014742 17.480582 212 212 212 0
-4.288972 5.026140 17.520312 212 212 212 0
-4.232540 5.038738 17.564228 212 212 212 0
-4.166628 5.040275 17.569588 212 212 212 0
-4.112496 5.056348 17.625613 213 213 213 0
-4.046310 5.057887 17.630980 212 212 212 0
-3.988053 5.069559 17.671665 213 213 213 0
-3.931743 5.084151 17.722530 212 212 212 0
-3.863864 5.084032 17.722115 213 213 213 0
-3.799235 5.088261 17.736858 213 213 213 0
-3.743573 5.104872 17.794762 213 213 213 0
-3.677456 5.107577 17.804191 213 213 213 0
-3.611458 5.110553 17.814565 213 213 213 0
-6.281803 9.060292 31.582719 213 213 213 0
-3.492357 5.135819 17.902638 212 212 212 0
-3.435343 5.153014 17.962578 212 212 212 0
-3.366954 5.153502 17.964276 213 213 213 0
-3.315457 5.180402 18.058044 212 212 212 0
-5.518516 8.806142 30.696791 212 212 212 0
-3.180790 5.186070 18.077805 213 213 213 0
-3.105128 5.175213 18.039958 213 213 213 0
-3.050846 5.200305 18.127426 212 212 212 0
