ply
format ascii 1.0
element vertex 1105
property float x
property float y
property float z
property uchar red
property uchar green
property uchar blue
property uchar alpha
end_header
1.583650 -6.136642 25.876626 202 202 202 0
1.681664 -6.133126 25.861803 201 201 201 0
1.778443 -6.125749 25.830693 202 202 202 0
1.871145 -6.105841 25.746747 201 201 201 0
1.966532 -6.096250 25.706302 202 202 202 0
2.063515 -6.092283 25.689575 201 201 201 0
2.158976 -6.084386 25.656278 202 202 202 0
2.254800 -6.078157 25.630012 202 202 202 0
2.349333 -6.069111 25.591865 202 202 202 0
2.438371 -6.047160 25.499304 203 203 203 0
2.535653 -6.046556 25.496757 203 203 203 0
2.631130 -6.041853 25.476928 203 203 203 0
2.723757 -6.031175 25.431901 203 203 203 0
2.818774 -6.026344 25.411527 203 203 203 0
2.909599 -6.013171 25.355981 202 202 202 0
3.002040 -6.004080 25.317646 203 203 203 0
3.094898 -5.996364 25.285111 203 203 203 0
3.190702 -5.994653 25.277894 204 204 204 0
3.280209 -5.981557 25.222674 203 203 203 0
3.371231 -5.971896 25.181934 203 203 203 0
3.457792 -5.955086 25.111051 204 204 204 0
3.553360 -5.954279 25.107651 204 204 204 0
3.649435 -5.954341 25.107909 204 204 204 0
3.735201 -5.938012 25.039055 204 204 204 0
3.828588 -5.934312 25.023452 204 204 204 0
3.913838 -5.918487 24.956724 204 204 204 0
4.003514 -5.909950 24.920724 205 205 205 0
4.094993 -5.904409 24.897359 204 204 204 0
4.189363 -5.903193 24.892234 204 204 204 0
4.278577 -5.894928 24.857381 205 205 205 0
4.363316 -5.880991 24.798612 205 205 205 0
4.446146 -5.865128 24.731724 205 205 205 0
4.537301 -5.860681 24.712969 205 205 205 0
4.631301 -5.860013 24.710154 205 205 205 0
4.718612 -5.851079 24.672481 205 205 205 0
4.805380 -5.841834 24.633498 205 205 205 0
4.893138 -5.834126 24.600995 206 206 206 0
4.975335 -5.820203 24.542285 205 205 205 0
5.067174 -5.817867 24.532435 205 205 205 0
5.155414 -5.811558 24.505830 205 205 205 0
5.241535 -5.803128 24.470283 206 206 206 0
5.322397 -5.789274 24.411867 205 205 205 0
5.406022 -5.778851 24.367914 205 205 205 0
5.494555 -5.773939 24.347203 206 206 206 0
5.585277 -5.771453 24.336719 206 206 206 0
5.670478 -5.763436 24.302916 206 206 206 0
5.754227 -5.754227 24.264082 206 206 206 0
5.835510 -5.742882 24.216244 206 206 206 0
5.919488 -5.734504 24.180915 205 205 205 0
6.004658 -5.727520 24.151466 206 206 206 0
6.092206 -5.722982 24.132328 206 206 206 0
6.180078 -5.718878 24.115025 206 206 206 0
6.252856 -5.701134 24.040202 206 206 206 0
6.336723 -5.693867 24.009559 207 207 207 0
6.422003 -5.688060 23.985073 207 207 207 0
6.509483 -5.684337 23.969374 206 206 206 0
6.592220 -5.676634 23.936893 207 207 207 0
6.669102 -5.664169 23.884329 207 207 207 0
6.752051 -5.657123 23.854621 206 206 206 0
6.839971 -5.654376 23.843035 207 207 207 0
6.918494 -5.644035 23.799430 208 208 208 0
7.002503 -5.638379 23.775582 207 207 207 0
7.082215 -5.629453 23.737943 207 207 207 0
7.168011 -5.625528 23.721389 207 207 207 0
-3.792254 -6.609357 28.326827 93 93 93 0
-3.637887 -6.526797 27.972985 186 186 186 0
-3.508381 -6.485189 27.794660 195 195 195 0
-3.402541 -6.486095 27.798541 195 195 195 0
-3.291511 -6.476844 27.758894 195 195 195 0
-3.183310 -6.472730 27.741263 195 195 195 0
-3.071447 -6.460630 27.689404 195 195 195 0
-2.953178 -6.433708 27.574020 196 196 196 0
-2.851632 -6.442575 27.612022 196 196 196 0
-2.743097 -6.435729 27.582680 197 197 197 0
-2.633782 -6.426429 27.542821 197 197 197 0
-2.521018 -6.407586 27.462066 196 196 196 0
-2.410089 -6.391974 27.395153 197 197 197 0
-2.301672 -6.381910 27.352018 197 197 197 0
-2.196028 -6.378939 27.339287 196 196 196 0
-2.089290 -6.372335 27.310982 197 197 197 0
-1.980914 -6.359777 27.257162 197 197 197 0
-1.871309 -6.341659 27.179511 197 197 197 0
-1.766229 -6.337644 27.162301 198 198 198 0
-1.660213 -6.329562 27.127664 198 198 198 0
-1.556856 -6.331213 27.134739 197 197 197 0
-1.450769 -6.321207 27.091855 197 197 197 0
-1.343402 -6.303654 27.016627 198 198 198 0
-1.237359 -6.289910 26.957719 198 198 198 0
-1.132142 -6.278240 26.907702 198 198 198 0
-1.029145 -6.277786 26.905757 198 198 198 0
-0.925792 -6.274813 26.893015 198 198 198 0
-0.820074 -6.253067 26.799816 198 198 198 0
-0.715523 -6.235272 26.723550 199 199 199 0
-0.613193 -6.234131 26.718657 199 199 199 0
-0.510445 -6.227427 26.689926 199 199 199 0
-0.408256 -6.225906 26.683408 199 199 199 0
-0.305329 -6.208347 26.608151 199 199 199 0
-0.203130 -6.195468 26.552953 199 199 199 0
-0.101315 -6.180213 26.487572 199 199 199 0
0.000000 -6.182124 26.495762 199 199 199 0
0.101164 -6.170978 26.447991 200 200 200 0
0.202156 -6.165771 26.425675 199 199 199 0
0.302655 -6.153976 26.375123 200 200 200 0
0.402020 -6.130798 26.275786 200 200 200 0
0.502757 -6.133633 26.287937 200 200 200 0
0.603341 -6.133965 26.289361 201 201 201 0
0.703015 -6.126270 26.256379 200 200 200 0
0.799817 -6.098605 26.137814 201 201 201 0
0.899073 -6.093714 26.116848 201 201 201 0
0.997358 -6.083886 26.074730 201 201 201 0
1.096287 -6.079408 26.055538 201 201 201 0
1.194832 -6.073729 26.031197 201 201 201 0
1.291694 -6.061026 25.976752 201 201 201 0
1.388623 -6.050430 25.931342 202 202 202 0
1.486572 -6.045394 25.909758 201 201 201 0
1.582897 -6.034796 25.864336 201 201 201 0
1.682510 -6.037243 25.874824 202 202 202 0
1.776835 -6.021498 25.807340 202 202 202 0
1.870861 -6.006449 25.742842 202 202 202 0
1.966316 -5.997265 25.703483 202 202 202 0
2.062657 -5.991529 25.678897 202 202 202 0
2.159224 -5.986940 25.659230 201 201 201 0
2.255286 -5.981411 25.635535 203 203 203 0
2.348629 -5.969431 25.584189 202 202 202 0
2.440834 -5.955635 25.525062 202 202 202 0
2.536980 -5.952146 25.510110 203 203 203 0
2.629676 -5.941120 25.462853 203 203 203 0
2.724142 -5.934739 25.435504 203 203 203 0
2.817385 -5.926223 25.399005 202 202 202 0
2.909026 -5.915020 25.350990 203 203 203 0
3.000409 -5.904030 25.303891 203 203 203 0
3.095675 -5.901131 25.291464 203 203 203 0
3.191191 -5.898868 25.281767 203 203 203 0
3.279383 -5.883600 25.216327 203 203 203 0
3.367683 -5.869390 25.155426 203 203 203 0
3.460256 -5.863212 25.128950 204 204 204 0
3.553615 -5.858663 25.109453 204 204 204 0
3.646432 -5.853483 25.087251 204 204 204 0
3.737688 -5.846128 25.055730 204 204 204 0
3.827586 -5.837068 25.016900 204 204 204 0
3.911249 -5.819175 24.940213 205 205 205 0
4.000640 -5.810454 24.902833 204 204 204 0
4.094024 -5.807802 24.891469 204 204 204 0
4.186736 -5.804339 24.876626 204 204 204 0
4.276569 -5.797126 24.845714 204 204 204 0
4.360002 -5.781742 24.779780 204 204 204 0
4.445370 -5.769523 24.727412 205 205 205 0
4.539091 -5.768428 24.722716 205 205 205 0
4.631055 -5.765191 24.708845 204 204 204 0
4.718014 -5.755977 24.669355 204 204 204 0
4.805740 -5.748042 24.635346 205 205 205 0
4.886913 -5.732725 24.569699 205 205 205 0
4.975658 -5.726700 24.543878 205 205 205 0
5.063151 -5.719486 24.512957 205 205 205 0
5.155361 -5.717765 24.505580 205 205 205 0
5.243184 -5.711325 24.477983 205 205 205 0
5.321894 -5.695360 24.409557 206 206 206 0
5.403714 -5.683217 24.357513 206 206 206 0
5.492399 -5.678582 24.337650 206 206 206 0
5.583145 -5.676198 24.327431 206 206 206 0
5.668310 -5.668310 24.293623 206 206 206 0
5.752311 -5.659532 24.256002 206 206 206 0
5.834568 -5.649343 24.212337 206 206 206 0
5.917887 -5.640486 24.174377 205 205 205 0
6.005073 -5.635530 24.153135 206 206 206 0
6.090708 -5.629290 24.126392 206 206 206 0
6.178168 -5.624899 24.107570 207 207 207 0
6.254640 -5.610780 24.047058 206 206 206 0
6.336328 -5.601681 24.008062 207 207 207 0
6.420641 -5.595130 23.979987 207 207 207 0
6.509369 -5.592556 23.968955 207 207 207 0
6.589684 -5.582927 23.927683 207 207 207 0
6.674568 -5.577379 23.903906 207 207 207 0
6.750840 -5.564882 23.850344 207 207 207 0
6.834292 -5.558557 23.823238 207 207 207 0
6.918412 -5.552936 23.799146 207 207 207 0
7.000535 -5.545879 23.768901 208 208 208 0
7.084365 -5.540337 23.745149 207 207 207 0
7.163627 -5.531408 23.706882 207 207 207 0
-3.798808 -6.512243 28.375784 96 96 96 0
-3.638962 -6.421698 27.981257 185 185 185 0
-3.506093 -6.374714 27.776530 195 195 195 0
-3.401807 -6.378388 27.792542 195 195 195 0
-3.293666 -6.374837 27.777066 195 195 195 0
-3.185374 -6.370747 27.759247 196 196 196 0
-3.063786 -6.338867 27.620338 196 196 196 0
-2.957681 -6.337887 27.616066 197 197 197 0
-2.845379 -6.323065 27.551483 196 196 196 0
-2.741896 -6.327453 27.570600 196 196 196 0
-2.633733 -6.320960 27.542309 195 195 195 0
-2.526038 -6.315094 27.516750 197 197 197 0
-2.408929 -6.284162 27.381972 197 197 197 0
-2.303380 -6.281944 27.372306 197 197 197 0
-2.195935 -6.274100 27.338126 198 198 198 0
-2.090178 -6.270535 27.322593 196 196 196 0
-1.980231 -6.253362 27.247766 197 197 197 0
-1.871316 -6.237719 27.179604 198 198 198 0
-1.764261 -6.226803 27.132038 197 197 197 0
-1.658783 -6.220437 27.104299 198 198 198 0
-1.553901 -6.215605 27.083247 198 198 198 0
-1.450167 -6.215001 27.080616 197 197 197 0
-1.343306 -6.199875 27.014707 198 198 198 0
-1.236317 -6.181586 26.935014 198 198 198 0
-1.131466 -6.171631 26.891639 199 199 199 0
-1.028313 -6.169881 26.884011 198 198 198 0
-0.924598 -6.163989 26.858341 198 198 198 0
-0.819874 -6.149054 26.793264 198 198 198 0
-0.715209 -6.130364 26.711825 199 199 199 0
-0.612595 -6.125952 26.692600 198 198 198 0
-0.510608 -6.127296 26.698456 199 199 199 0
-0.408004 -6.120055 26.666905 199 199 199 0
-0.304696 -6.093923 26.553042 199 199 199 0
-0.203266 -6.097993 26.570774 200 200 200 0
-0.101398 -6.083908 26.509402 200 200 200 0
0.000000 -6.075395 26.472308 200 200 200 0
0.101090 -6.065424 26.428864 200 200 200 0
0.202183 -6.065490 26.429150 200 200 200 0
0.302596 -6.051920 26.370021 200 200 200 0
0.403052 -6.045783 26.343280 200 200 200 0
0.502919 -6.035029 26.296423 200 200 200 0
0.602744 -6.027442 26.263362 200 200 200 0
0.701955 -6.016760 26.216821 201 201 201 0
0.800105 -6.000786 26.147216 200 200 200 0
0.899966 -5.999773 26.142800 200 200 200 0
0.997378 -5.984269 26.075245 201 201 201 0
1.096985 -5.983553 26.072128 200 200 200 0
1.195123 -5.975615 26.037536 201 201 201 0
1.293698 -5.970913 26.017052 201 201 201 0
1.389205 -5.953737 25.942207 201 201 201 0
1.484805 -5.939221 25.878960 201 201 201 0
1.583454 -5.937954 25.873436 201 201 201 0
1.680057 -5.929613 25.837093 202 202 202 0
1.775909 -5.919696 25.793880 202 202 202 0
1.869928 -5.905034 25.729998 201 201 201 0
1.965524 -5.896571 25.693122 202 202 202 0
2.061099 -5.888854 25.659496 202 202 202 0
2.160090 -5.891155 25.669522 202 202 202 0
2.254191 -5.880498 25.623085 202 202 202 0
2.345363 -5.863406 25.548612 202 202 202 0
2.437861 -5.850866 25.493971 202 202 202 0
2.535210 -5.850486 25.492313 203 203 203 0
2.631230 -5.847178 25.477898 202 202 202 0
2.723427 -5.835916 25.428827 202 202 202 0
2.817387 -5.829077 25.399028 202 202 202 0
2.907741 -5.815483 25.339794 202 202 202 0
2.999866 -5.806192 25.299311 204 204 204 0
3.094752 -5.802660 25.283922 203 203 203 0
3.187981 -5.796328 25.256332 203 203 203 0
3.278358 -5.785337 25.208442 203 203 203 0
3.368216 -5.774085 25.159412 204 204 204 0
3.458014 -5.763356 25.112664 204 204 204 0
3.553307 -5.762119 25.107273 204 204 204 0
3.644362 -5.754255 25.073007 204 204 204 0
3.735747 -5.747303 25.042716 203 203 203 0
3.825895 -5.738842 25.005850 204 204 204 0
3.912389 -5.725447 24.947480 204 204 204 0
4.003277 -5.718968 24.919249 205 205 205 0
4.094558 -5.713337 24.894714 205 205 205 0
4.187154 -5.709756 24.879110 204 204 204 0
4.274388 -5.699184 24.833048 205 205 205 0
4.359953 -5.686895 24.779500 205 205 205 0
4.446062 -5.675824 24.731260 204 204 204 0
4.537134 -5.671417 24.712057 205 205 205 0
4.629169 -5.668370 24.698782 205 205 205 0
4.719714 -5.663657 24.678242 205 205 205 0
4.801996 -5.649407 24.616153 205 205 205 0
4.888797 -5.640919 24.579169 205 205 205 0
4.973347 -5.630204 24.532481 206 206 206 0
5.062959 -5.625511 24.512028 205 205 205 0
5.153100 -5.621564 24.494830 205 205 205 0
5.241363 -5.615746 24.469484 205 205 205 0
5.321508 -5.601587 24.407788 205 205 205 0
5.404220 -5.590573 24.359794 205 205 205 0
5.489346 -5.582386 24.324123 206 206 206 0
5.584997 -5.584997 24.335498 206 206 206 0
5.668946 -5.576012 24.296351 206 206 206 0
5.752552 -5.566986 24.257019 206 206 206 0
5.832353 -5.554622 24.203148 206 206 206 0
5.918972 -5.549036 24.178807 206 206 206 0
6.003186 -5.541402 24.145543 206 206 206 0
6.090585 -5.536895 24.125905 206 206 206 0
6.177578 -5.532159 24.105268 206 206 206 0
6.257135 -5.521002 24.056652 206 206 206 0
6.334337 -5.508119 24.000518 206 206 206 0
6.422155 -5.504704 23.985640 207 207 207 0
6.510448 -5.501787 23.972930 207 207 207 0
6.594622 -5.495518 23.945612 206 206 206 0
6.670909 -5.482939 23.890800 206 206 206 0
6.751256 -5.473991 23.851813 207 207 207 0
6.835135 -5.468108 23.826180 207 207 207 0
6.916420 -5.460332 23.792296 207 207 207 0
7.002099 -5.456181 23.774210 207 207 207 0
7.080713 -5.446702 23.732908 207 207 207 0
7.162382 -5.439784 23.702762 207 207 207 0
-3.793415 -6.394614 28.335502 94 94 94 0
-3.628303 -6.296173 27.899294 188 188 188 0
-3.507186 -6.270423 27.785193 195 195 195 0
-3.400049 -6.268841 27.778180 194 194 194 0
-3.291719 -6.264885 27.760650 195 195 195 0
-3.183768 -6.261410 27.745253 196 196 196 0
-3.064847 -6.235379 27.629906 195 195 195 0
-2.955241 -6.227115 27.593288 196 196 196 0
-2.843639 -6.213878 27.534630 196 196 196 0
-2.740325 -6.218429 27.554797 196 196 196 0
-2.631209 -6.209654 27.515914 196 196 196 0
-2.513074 -6.177973 27.375531 197 197 197 0
-2.410532 -6.183537 27.400188 198 198 198 0
-2.302354 -6.174494 27.360116 197 197 197 0
-2.194863 -6.166521 27.324785 197 197 197 0
-2.088840 -6.162077 27.305093 198 198 198 0
-1.981269 -6.152360 27.262037 197 197 197 0
-1.867771 -6.122139 27.128121 197 197 197 0
-1.764480 -6.123785 27.135415 197 197 197 0
-1.660784 -6.124142 27.136999 199 199 199 0
-1.554507 -6.114396 27.093810 198 198 198 0
-1.445911 -6.093484 27.001148 198 198 198 0
-1.340965 -6.085919 26.967627 198 198 198 0
-1.236014 -6.077070 26.928413 199 199 199 0
-1.131997 -6.071618 26.904258 199 199 199 0
-1.028354 -6.067287 26.885063 198 198 198 0
-0.923988 -6.057256 26.840617 199 199 199 0
-0.818473 -6.036239 26.747487 198 198 198 0
-0.716004 -6.034887 26.741496 198 198 198 0
-0.613650 -6.034227 26.738570 200 200 200 0
-0.510755 -6.026912 26.706158 199 199 199 0
-0.407868 -6.016050 26.658025 199 199 199 0
-0.305542 -6.008994 26.626759 199 199 199 0
-0.203144 -5.992746 26.554762 199 199 199 0
-0.101379 -5.981367 26.504340 200 200 200 0
0.000000 -5.973093 26.467676 201 201 201 0
0.101178 -5.969513 26.451814 199 199 199 0
0.201953 -5.957614 26.399087 200 200 200 0
0.302115 -5.941603 26.328140 200 200 200 0
0.402538 -5.937432 26.309659 200 200 200 0
0.503182 -5.937547 26.310167 200 200 200 0
0.602213 -5.921758 26.240206 200 200 200 0
0.702605 -5.921954 26.241072 201 201 201 0
0.801509 -5.911127 26.193096 200 200 200 0
0.900116 -5.900762 26.147165 201 201 201 0
0.996844 -5.881382 26.061294 201 201 201 0
1.096806 -5.882868 26.067874 201 201 201 0
1.196179 -5.881211 26.060536 201 201 201 0
1.292703 -5.866885 25.997052 201 201 201 0
1.387773 -5.848473 25.915465 201 201 201 0
1.484021 -5.837149 25.865290 202 202 202 0
1.584262 -5.841967 25.886637 202 202 202 0
1.679700 -5.829548 25.831606 202 202 202 0
1.775334 -5.819150 25.785530 202 202 202 0
1.871293 -5.810856 25.748780 202 202 202 0
1.965049 -5.796894 25.686914 202 202 202 0
2.061026 -5.790502 25.658588 202 202 202 0
2.159818 -5.792240 25.666292 202 202 202 0
2.253793 -5.781470 25.618568 202 202 202 0
2.344584 -5.763769 25.540133 202 202 202 0
2.438414 -5.754656 25.499750 203 203 203 0
2.534083 -5.750420 25.480978 202 202 202 0
2.631346 -5.749978 25.479022 203 203 203 0
2.728101 -5.748498 25.472461 204 204 204 0
2.815958 -5.729018 25.386144 203 203 203 0
2.905665 -5.714474 25.321699 203 203 203 0
2.999943 -5.709569 25.299964 203 203 203 0
3.093766 -5.704131 25.275864 202 202 202 0
3.189237 -5.701970 25.266290 203 203 203 0
3.281115 -5.693700 25.229645 204 204 204 0
3.368162 -5.677758 25.159003 203 203 203 0
3.459704 -5.670070 25.124938 204 204 204 0
3.551281 -5.662853 25.092958 204 204 204 0
3.643202 -5.656550 25.065028 204 204 204 0
3.737604 -5.654324 25.055164 204 204 204 0
3.825667 -5.642858 25.004357 204 204 204 0
3.910846 -5.627802 24.937641 205 205 205 0
4.001317 -5.620898 24.907047 204 204 204 0
4.092846 -5.615766 24.884306 204 204 204 0
4.184879 -5.611543 24.865593 205 205 205 0
4.274962 -5.604950 24.836378 205 205 205 0
4.359558 -5.591607 24.777256 204 204 204 0
4.445627 -5.580681 24.728842 205 205 205 0
4.536012 -5.575515 24.705950 205 205 205 0
4.628817 -5.573473 24.696900 205 205 205 0
4.716485 -5.565452 24.661357 205 205 205 0
4.803163 -5.556600 24.622134 205 205 205 0
4.884209 -5.541699 24.556103 206 206 206 0
4.974698 -5.537872 24.539145 205 205 205 0
5.060869 -5.529468 24.501909 205 205 205 0
5.150944 -5.525559 24.484584 206 206 206 0
5.237763 -5.518357 24.452674 205 205 205 0
5.320672 -5.507362 24.403954 205 205 205 0
5.403541 -5.496705 24.356730 206 206 206 0
5.491536 -5.491536 24.333825 205 205 205 0
5.581720 -5.488692 24.321222 205 205 205 0
5.668626 -5.482770 24.294980 206 206 206 0
5.748593 -5.470435 24.240324 206 206 206 0
5.834160 -5.463737 24.210644 206 206 206 0
5.912708 -5.450778 24.153220 207 207 207 0
6.003024 -5.448899 24.144894 206 206 206 0
6.088449 -5.442704 24.117444 206 206 206 0
6.175505 -5.438131 24.097181 206 206 206 0
6.253250 -5.425614 24.041714 206 206 206 0
6.335165 -5.417025 24.003657 206 206 206 0
6.415909 -5.407694 23.962310 207 207 207 0
6.507941 -5.408007 23.963697 207 207 207 0
6.591699 -5.401531 23.935000 206 206 206 0
6.671632 -5.392141 23.893391 207 207 207 0
6.751894 -5.383267 23.854068 207 207 207 0
6.831834 -5.374376 23.814672 207 207 207 0
6.914484 -5.367823 23.785634 207 207 207 0
6.999418 -5.363191 23.765108 207 207 207 0
7.081886 -5.356812 23.736841 207 207 207 0
7.159548 -5.347004 23.693382 208 208 208 0
-3.810084 -6.313854 28.460014 97 97 97 0
-3.639001 -6.207708 27.981554 186 186 186 0
-3.507655 -6.164969 27.788906 196 196 196 0
-3.402432 -6.166908 27.797646 195 195 195 0
-3.294473 -6.163852 27.783871 195 195 195 0
-3.186714 -6.160980 27.770925 196 196 196 0
-3.068741 -6.137481 27.665004 196 196 196 0
-2.954684 -6.120417 27.588087 196 196 196 0
-2.846631 -6.114985 27.563602 196 196 196 0
-2.739160 -6.110435 27.543090 196 196 196 0
-2.632762 -6.108008 27.532153 197 197 197 0
-2.516963 -6.082662 27.417903 196 196 196 0
-2.409514 -6.076166 27.388624 197 197 197 0
-2.303672 -6.073318 27.375786 197 197 197 0
-2.193394 -6.057944 27.306487 198 198 198 0
-2.089213 -6.058717 27.309969 197 197 197 0
-1.983743 -6.055636 27.296083 197 197 197 0
-1.867903 -6.018797 27.130032 197 197 197 0
-1.764577 -6.020320 27.136896 197 197 197 0
-1.658411 -6.011740 27.098218 198 198 198 0
-1.553695 -6.007621 27.079655 198 198 198 0
-1.449264 -6.004095 27.063758 198 198 198 0
-1.342342 -5.988909 26.995305 199 199 199 0
-1.235628 -5.972203 26.920006 199 199 199 0
-1.131906 -5.968233 26.902108 199 199 199 0
-1.027846 -5.961507 26.871790 198 198 198 0
-0.925112 -5.961830 26.873247 199 199 199 0
-0.819848 -5.943899 26.792421 199 199 199 0
-0.716953 -5.940469 26.776963 198 198 198 0
-0.612660 -5.922384 26.695443 198 198 198 0
-0.510390 -5.920525 26.687062 199 199 199 0
-0.407873 -5.914159 26.658367 200 200 200 0
-0.305078 -5.898180 26.586340 200 200 200 0
-0.202736 -5.879343 26.501435 200 200 200 0
-0.101315 -5.876268 26.487572 200 200 200 0
0.000000 -5.872720 26.471579 200 200 200 0
0.101232 -5.871449 26.465851 200 200 200 0
0.202028 -5.858798 26.408825 200 200 200 0
0.301950 -5.837703 26.313738 200 200 200 0
0.402374 -5.834422 26.298948 200 200 200 0
0.502472 -5.828674 26.273042 200 200 200 0
0.602394 -5.823145 26.248117 200 200 200 0
0.702166 -5.817944 26.224674 200 200 200 0
0.799662 -5.797551 26.132752 201 201 201 0
0.898697 -5.791604 26.105945 201 201 201 0
0.997096 -5.783155 26.067862 201 201 201 0
1.096596 -5.782052 26.062889 201 201 201 0
1.193623 -5.769175 26.004848 201 201 201 0
1.291998 -5.764297 25.982857 202 202 202 0
1.388284 -5.751464 25.925014 201 201 201 0
1.485518 -5.744003 25.891384 202 202 202 0
1.582796 -5.737636 25.862684 201 201 201 0
1.679026 -5.728443 25.821244 202 202 202 0
1.775636 -5.721495 25.789927 201 201 201 0
1.871655 -5.713475 25.753774 202 202 202 0
1.965340 -5.699486 25.690721 202 202 202 0
2.062254 -5.695748 25.673869 202 202 202 0
2.159291 -5.692676 25.660021 202 202 202 0
2.254143 -5.684360 25.622536 202 202 202 0
2.347906 -5.674105 25.576315 202 202 202 0
2.438413 -5.657117 25.499740 203 203 203 0
2.534256 -5.653340 25.482714 202 202 202 0
2.628454 -5.646309 25.451021 203 203 203 0
2.725209 -5.645076 25.445462 203 203 203 0
2.816189 -5.632378 25.388228 203 203 203 0
2.910415 -5.626803 25.363096 203 203 203 0
2.999512 -5.611989 25.296324 203 203 203 0
3.089000 -5.598813 25.236930 203 203 203 0
3.188573 -5.604159 25.261029 203 203 203 0
3.278775 -5.593205 25.211650 204 204 204 0
3.366597 -5.578932 25.147315 204 204 204 0
3.458616 -5.572215 25.117039 204 204 204 0
3.549744 -5.564464 25.082102 204 204 204 0
3.643657 -5.561372 25.068161 204 204 204 0
3.737755 -5.558712 25.056173 204 204 204 0
3.826701 -5.548717 25.011119 204 204 204 0
3.911732 -5.533669 24.943292 204 204 204 0
4.001107 -5.525338 24.905740 205 205 205 0
4.091922 -5.519337 24.878689 205 205 205 0
4.184661 -5.516144 24.864294 205 205 205 0
4.271844 -5.505932 24.818266 204 204 204 0
4.358196 -5.495116 24.769513 204 204 204 0
4.445336 -5.485734 24.727222 204 204 204 0
4.536903 -5.482092 24.710803 205 205 205 0
4.626428 -5.476181 24.684158 205 205 205 0
4.714765 -5.469128 24.652368 205 205 205 0
4.802167 -5.461288 24.617028 205 205 205 0
4.889310 -5.453461 24.581749 205 205 205 0
4.972839 -5.441975 24.529975 205 205 205 0
5.061189 -5.436092 24.503456 205 205 205 0
5.148592 -5.429424 24.473403 205 205 205 0
5.238312 -5.425395 24.455239 206 206 206 0
5.319289 -5.412610 24.397610 205 205 205 0
5.398689 -5.398689 24.334862 205 205 205 0
5.491275 -5.398202 24.332668 205 205 205 0
5.581208 -5.395168 24.318989 206 206 206 0
5.667960 -5.389208 24.292124 206 206 206 0
5.748717 -5.377832 24.240849 206 206 206 0
5.829564 -5.366901 24.191574 206 206 206 0
5.915472 -5.360897 24.164510 206 206 206 0
6.004877 -5.358198 24.152346 206 206 206 0
6.088449 -5.350455 24.117444 206 206 206 0
6.173966 -5.344627 24.091174 206 206 206 0
6.250402 -5.331226 24.030766 207 207 207 0
6.332984 -5.323378 23.995392 206 206 206 0
6.416368 -5.316419 23.964025 206 206 206 0
6.506141 -5.314876 23.957068 207 207 207 0
6.588001 -5.307001 23.921573 207 207 207 0
6.669341 -5.298929 23.885187 208 208 208 0
6.749098 -5.289834 23.844191 206 206 206 0
6.831175 -5.282775 23.812373 208 208 208 0
6.912801 -5.275559 23.779846 207 207 207 0
6.999916 -5.272664 23.766799 208 208 208 0
7.082770 -5.266675 23.739801 207 207 207 0
7.162135 -5.258276 23.701945 208 208 208 0
-3.799521 -6.187791 28.381107 100 100 100 0
-3.635918 -6.095510 27.957847 186 186 186 0
-3.510972 -6.064405 27.815184 196 196 196 0
-3.403678 -6.062801 27.807827 196 196 196 0
-3.294798 -6.058178 27.786619 196 196 196 0
-3.187552 -6.056349 27.778232 195 195 195 0
-3.069708 -6.033565 27.673729 195 195 195 0
-2.955991 -6.017553 27.600290 196 196 196 0
-2.847830 -6.012085 27.575208 196 196 196 0
-2.739333 -6.005462 27.544832 197 197 197 0
-2.627517 -5.990738 27.477300 196 196 196 0
-2.520470 -5.986116 27.456100 197 197 197 0
-2.412673 -5.979233 27.424532 197 197 197 0
-2.302467 -5.965484 27.361466 197 197 197 0
-2.195997 -5.960563 27.338898 197 197 197 0
-2.087253 -5.948671 27.284351 197 197 197 0
-1.976497 -5.929492 27.196386 198 198 198 0
-1.867617 -5.914122 27.125890 198 198 198 0
-1.766069 -5.921525 27.159842 198 198 198 0
-1.659695 -5.912664 27.119200 198 198 198 0
-1.553238 -5.902303 27.071678 198 198 198 0
-1.445411 -5.884887 26.991800 198 198 198 0
-1.343363 -5.890130 27.015847 199 199 199 0
-1.237324 -5.877288 26.956947 198 198 198 0
-1.131395 -5.862683 26.889959 199 199 199 0
-1.027506 -5.856784 26.862899 199 199 199 0
-0.922822 -5.844541 26.806746 199 199 199 0
-0.819548 -5.839283 26.782629 199 199 199 0
-0.716034 -5.830561 26.742626 199 199 199 0
-0.611793 -5.812036 26.657659 200 200 200 0
-0.510095 -5.815086 26.671648 200 200 200 0
-0.407969 -5.813565 26.664672 199 199 199 0
-0.305821 -5.810600 26.651072 200 200 200 0
-0.202789 -5.779495 26.508403 199 199 199 0
-0.101255 -5.771521 26.471829 200 200 200 0
0.000000 -5.773363 26.480279 200 200 200 0
0.101119 -5.763772 26.436288 200 200 200 0
0.201971 -5.756178 26.401460 200 200 200 0
0.302587 -5.749155 26.369248 200 200 200 0
0.401931 -5.727510 26.269968 200 200 200 0
0.502331 -5.726575 26.265680 200 200 200 0
0.602064 -5.719606 26.233716 200 200 200 0
0.702068 -5.716836 26.221012 200 200 200 0
0.799741 -5.698158 26.135341 200 200 200 0
0.898613 -5.691213 26.103489 201 201 201 0
0.996160 -5.678113 26.043405 201 201 201 0
1.096515 -5.681940 26.060956 201 201 201 0
1.193623 -5.669707 26.004848 201 201 201 0
1.292312 -5.666292 25.989183 201 201 201 0
1.387149 -5.647678 25.903809 202 202 202 0
1.485231 -5.643880 25.886388 201 201 201 0
1.582811 -5.638765 25.862928 201 201 201 0
1.679135 -5.630040 25.822912 201 201 201 0
1.776122 -5.624388 25.796986 202 202 202 0
1.867513 -5.602540 25.696776 202 202 202 0
1.965119 -5.600589 25.687831 202 202 202 0
2.060869 -5.593788 25.656634 202 202 202 0
2.159396 -5.594800 25.661277 202 202 202 0
2.254365 -5.586904 25.625059 203 203 203 0
2.347566 -5.575470 25.572618 202 202 202 0
2.439046 -5.561025 25.506365 203 203 203 0
2.534746 -5.556943 25.487643 203 203 203 0
2.631331 -5.555031 25.478873 203 203 203 0
2.725092 -5.547509 25.444373 202 202 202 0
2.814131 -5.531223 25.369675 204 204 204 0
2.906447 -5.522249 25.328512 202 202 202 0
3.000730 -5.517471 25.306599 204 204 204 0
3.092713 -5.508895 25.267262 204 204 204 0
3.188508 -5.507423 25.260512 204 204 204 0
3.280381 -5.499462 25.223996 203 203 203 0
3.367595 -5.484368 25.154768 203 203 203 0
3.456889 -5.473408 25.104497 204 204 204 0
3.551242 -5.470832 25.092684 203 203 203 0
3.642713 -5.464070 25.061668 204 204 204 0
3.735032 -5.458892 25.037919 204 204 204 0
3.825677 -5.451589 25.004424 204 204 204 0
3.910767 -5.436920 24.937139 204 204 204 0
4.000669 -5.429479 24.903012 205 205 205 0
4.094290 -5.427314 24.893082 204 204 204 0
4.183371 -5.419367 24.856632 204 204 204 0
4.272425 -5.411738 24.821641 205 205 205 0
4.357610 -5.399647 24.766183 205 205 205 0
4.446143 -5.392130 24.731707 205 205 205 0
4.536235 -5.386779 24.707164 205 205 205 0
4.626957 -5.382379 24.686979 205 205 205 0
4.718182 -5.378727 24.670232 206 206 206 0
4.798453 -5.362977 24.597991 206 206 206 0
4.890112 -5.360315 24.585783 205 205 205 0
4.972941 -5.348258 24.530479 205 205 205 0
5.059708 -5.340803 24.496289 205 205 205 0
5.149607 -5.336865 24.478225 206 206 206 0
5.238667 -5.332214 24.456893 205 205 205 0
5.322102 -5.322102 24.410513 206 206 206 0
5.399982 -5.306879 24.340689 206 206 206 0
5.487455 -5.301439 24.315740 206 206 206 0
5.580298 -5.301283 24.315025 206 206 206 0
5.667190 -5.295571 24.288825 206 206 206 0
5.744860 -5.281565 24.224584 206 206 206 0
5.834541 -5.278870 24.212225 207 207 207 0
5.913023 -5.266286 24.154506 206 206 206 0
5.999582 -5.261172 24.131049 206 206 206 0
6.087419 -5.257316 24.113364 207 207 207 0
6.176110 -5.254302 24.099540 206 206 206 0
6.250235 -5.239168 24.030124 207 207 207 0
6.334503 -5.232851 24.001149 207 207 207 0
6.417799 -5.225922 23.969372 207 207 207 0
6.504484 -5.221910 23.950967 207 207 207 0
6.590111 -5.217171 23.929233 206 206 206 0
6.671157 -5.208986 23.891691 207 207 207 0
6.745918 -5.196180 23.832955 207 207 207 0
6.831772 -5.192147 23.814456 207 207 207 0
6.914352 -5.185764 23.785179 207 207 207 0
6.996634 -5.179327 23.755654 208 208 208 0
7.076427 -5.171235 23.718543 208 208 208 0
7.160149 -5.166184 23.695372 207 207 207 0
-3.800547 -6.080875 28.388771 100 100 100 0
-3.630156 -5.979081 27.913541 187 187 187 0
-3.509026 -5.954710 27.799767 195 195 195 0
-3.400021 -5.950037 27.777950 196 196 196 0
-3.289097 -5.941595 27.738537 195 195 195 0
-3.178865 -5.933881 27.702523 196 196 196 0
-3.064716 -5.918072 27.628721 196 196 196 0
-2.958168 -5.916335 27.620614 196 196 196 0
-2.846896 -5.904672 27.566164 196 196 196 0
-2.741161 -5.904040 27.563213 196 196 196 0
-2.631596 -5.894775 27.519959 196 196 196 0
-2.519266 -5.878287 27.442983 196 196 196 0
-2.410580 -5.869239 27.400744 196 196 196 0
-2.301840 -5.859230 27.354013 196 196 196 0
-2.193349 -5.848930 27.305930 197 197 197 0
-2.090894 -5.854503 27.331947 197 197 197 0
-1.981712 -5.840835 27.268139 197 197 197 0
-1.873000 -5.827110 27.204061 197 197 197 0
-1.764233 -5.811590 27.131607 197 197 197 0
-1.658737 -5.805578 27.103540 198 198 198 0
-1.553944 -5.801392 27.083998 198 198 198 0
-1.448029 -5.792115 27.040686 198 198 198 0
-1.341079 -5.776955 26.969911 198 198 198 0
-1.234769 -5.762257 26.901294 198 198 198 0
-1.131538 -5.760557 26.893358 199 199 199 0
-1.028762 -5.761069 26.895749 199 199 199 0
-0.924852 -5.754633 26.865703 199 199 199 0
-0.819845 -5.738915 26.792321 199 199 199 0
-0.715956 -5.727649 26.739723 198 198 198 0
-0.612581 -5.717427 26.692002 199 199 199 0
-0.510263 -5.714943 26.680406 199 199 199 0
-0.407860 -5.710038 26.657506 200 200 200 0
-0.305294 -5.698813 26.605101 200 200 200 0
-0.202814 -5.678786 26.511605 199 199 199 0
-0.101295 -5.672533 26.482415 200 200 200 0
0.000000 -5.669050 26.466154 200 200 200 0
0.101187 -5.666464 26.454079 200 200 200 0
0.202245 -5.662851 26.437211 200 200 200 0
0.302136 -5.639874 26.329946 199 199 199 0
0.402346 -5.632844 26.297125 200 200 200 0
0.502809 -5.631458 26.290652 201 201 201 0
0.602271 -5.621193 26.242729 200 200 200 0
0.701986 -5.615885 26.217949 200 200 200 0
0.801536 -5.610753 26.193992 201 201 201 0
0.898758 -5.592270 26.107704 201 201 201 0
0.996725 -5.581661 26.058174 201 201 201 0
1.095667 -5.577942 26.040812 201 201 201 0
1.194600 -5.574801 26.026151 202 202 202 0
1.291268 -5.562383 25.968175 202 202 202 0
1.386426 -5.545706 25.890317 201 201 201 0
1.483841 -5.539675 25.862161 202 202 202 0
1.582270 -5.537946 25.854091 202 202 202 0
1.680049 -5.534278 25.836965 202 202 202 0
1.774629 -5.521067 25.775290 202 202 202 0
1.870532 -5.513147 25.738314 202 202 202 0
1.964969 -5.501913 25.685866 202 202 202 0
2.060341 -5.494244 25.650064 202 202 202 0
2.159413 -5.496687 25.661471 203 203 203 0
2.254544 -5.489324 25.627097 202 202 202 0
2.345969 -5.473929 25.555223 203 203 203 0
2.435436 -5.455376 25.468607 203 203 203 0
2.533593 -5.456970 25.476051 203 203 203 0
2.630125 -5.455074 25.467198 202 202 202 0
2.722698 -5.445396 25.422015 202 202 202 0
2.816554 -5.438863 25.391517 204 204 204 0
2.904139 -5.421059 25.308398 203 203 203 0
2.999221 -5.417948 25.293875 203 203 203 0
3.090329 -5.408076 25.247788 204 204 204 0
3.188461 -5.410721 25.260136 204 204 204 0
3.275716 -5.395297 25.188129 203 203 203 0
3.366274 -5.386038 25.144902 204 204 204 0
3.456355 -5.376552 25.100615 204 204 204 0
3.548394 -5.370542 25.072560 204 204 204 0
3.640952 -5.365614 25.049552 204 204 204 0
3.737362 -5.366468 25.053541 204 204 204 0
3.824643 -5.354501 24.997670 204 204 204 0
3.913264 -5.344945 24.953060 204 204 204 0
3.997995 -5.330660 24.886368 204 204 204 0
4.091256 -5.328147 24.874637 204 204 204 0
4.184961 -5.326314 24.866080 205 205 205 0
4.271429 -5.315556 24.815855 204 204 204 0
4.358774 -5.306333 24.772798 204 204 204 0
4.445391 -5.296636 24.727528 204 204 204 0
4.534907 -5.290725 24.699929 205 205 205 0
4.624317 -5.284933 24.672892 205 205 205 0
4.714632 -5.280387 24.651668 205 205 205 0
4.801864 -5.272635 24.615477 205 205 205 0
4.884648 -5.260390 24.558309 205 205 205 0
4.970897 -5.252269 24.520397 206 206 206 0
5.064083 -5.251641 24.517467 205 205 205 0
5.149074 -5.242694 24.475694 205 205 205 0
5.236969 -5.236969 24.448967 206 206 206 0
5.315652 -5.222395 24.380927 205 205 205 0
5.402813 -5.216509 24.353452 206 206 206 0
5.489353 -5.210233 24.324152 206 206 206 0
5.581208 -5.209127 24.318989 206 206 206 0
5.665806 -5.201396 24.282895 207 207 207 0
5.747559 -5.191343 24.235963 206 206 206 0
5.826337 -5.178966 24.178181 207 207 207 0
5.913666 -5.174458 24.157131 206 206 206 0
5.999875 -5.169123 24.132226 207 207 207 0
6.086368 -5.164191 24.109201 206 206 206 0
6.174436 -5.160722 24.093009 206 206 206 0
6.249343 -5.146518 24.026695 206 206 206 0
6.332421 -5.139356 23.993258 206 206 206 0
6.417530 -5.134024 23.968367 207 207 207 0
6.504993 -5.130699 23.952841 206 206 206 0
6.590902 -5.126257 23.932106 206 206 206 0
6.668938 -5.115898 23.883742 207 207 207 0
6.744524 -5.103964 23.828030 207 207 207 0
6.826135 -5.096847 23.794806 208 208 208 0
6.914357 -5.094789 23.785196 207 207 207 0
6.994505 -5.086913 23.748425 208 208 208 0
7.081207 -5.083943 23.734562 207 207 207 0
7.158741 -5.074551 23.690713 207 207 207 0
-3.773750 -5.930178 28.188607 98 98 98 0
-3.625892 -5.865413 27.880752 187 187 187 0
-3.508623 -5.847706 27.796581 195 195 195 0
-3.400074 -5.843877 27.778383 195 195 195 0
-3.288032 -5.833606 27.729558 196 196 196 0
-3.179990 -5.829982 27.712334 196 196 196 0
-3.071668 -5.825577 27.691396 196 196 196 0
-2.950355 -5.795339 27.547662 196 196 196 0
-2.844613 -5.794582 27.544061 196 196 196 0
-2.736531 -5.788816 27.516654 196 196 196 0
-2.627145 -5.779720 27.473416 196 196 196 0
-2.521018 -5.777332 27.462066 196 196 196 0
-2.407575 -5.757244 27.366578 197 197 197 0
-2.300247 -5.750617 27.335078 197 197 197 0
-2.193467 -5.744795 27.307406 197 197 197 0
-2.086122 -5.736835 27.269567 197 197 197 0
-1.978420 -5.727007 27.222848 198 198 198 0
-1.869244 -5.711578 27.149508 198 198 198 0
-1.765137 -5.710739 27.145520 198 198 198 0
-1.659449 -5.704355 27.115176 198 198 198 0
-1.555921 -5.705045 27.118454 199 199 199 0
-1.447679 -5.687310 27.034151 198 198 198 0
-1.343432 -5.683749 27.017228 199 199 199 0
-1.237013 -5.669643 26.950176 198 198 198 0
-1.132543 -5.662716 26.917250 199 199 199 0
-1.028318 -5.655751 26.884138 198 198 198 0
-0.924963 -5.652553 26.868937 199 199 199 0
-0.818844 -5.629550 26.759595 199 199 199 0
-0.714767 -5.616024 26.695302 199 199 199 0
-0.611639 -5.606692 26.650944 199 199 199 0
-0.510077 -5.610844 26.670677 199 199 199 0
-0.407536 -5.603627 26.636372 200 200 200 0
-0.305359 -5.598240 26.610767 200 200 200 0
-0.202765 -5.576025 26.505170 199 199 199 0
-0.101247 -5.568591 26.469831 200 200 200 0
0.000000 -5.566014 26.457584 200 200 200 0
0.101223 -5.567270 26.463554 200 200 200 0
0.202054 -5.556481 26.412270 200 200 200 0
0.302524 -5.546269 26.363726 201 201 201 0
0.401995 -5.527426 26.274157 201 201 201 0
0.501937 -5.521310 26.245088 200 200 200 0
0.601832 -5.516795 26.223626 200 200 200 0
0.700576 -5.504522 26.165287 201 201 201 0
0.799506 -5.496601 26.127633 201 201 201 0
0.898123 -5.488529 26.089265 201 201 201 0
0.996905 -5.482980 26.062888 201 201 201 0
1.096336 -5.481679 26.056706 202 202 202 0
1.194097 -5.472945 26.015186 201 201 201 0
1.290007 -5.457721 25.942822 202 202 202 0
1.387302 -5.450113 25.906658 202 202 202 0
1.484565 -5.443404 25.874768 201 201 201 0
1.580821 -5.434072 25.830406 202 202 202 0
1.680069 -5.435518 25.837283 202 202 202 0
1.775105 -5.423931 25.782203 202 202 202 0
1.869709 -5.412315 25.726989 202 202 202 0
1.964620 -5.402705 25.681309 201 201 201 0
2.061026 -5.397925 25.658588 202 202 202 0
2.157981 -5.394951 25.644451 203 203 203 0
2.253220 -5.388135 25.612052 202 202 202 0
2.344908 -5.373748 25.543664 203 203 203 0
2.438724 -5.365192 25.502992 203 203 203 0
2.532256 -5.356695 25.462600 203 203 203 0
2.628906 -5.355178 25.455394 203 203 203 0
2.724109 -5.350929 25.435193 203 203 203 0
2.815858 -5.340421 25.385243 203 203 203 0
2.903943 -5.323896 25.306695 204 204 204 0
2.999380 -5.321480 25.295210 203 203 203 0
3.090773 -5.312266 25.251413 203 203 203 0
3.185312 -5.308853 25.235190 204 204 204 0
3.278547 -5.303532 25.209897 204 204 204 0
3.367863 -5.292357 25.156776 203 203 203 0
3.454617 -5.277887 25.087993 204 204 204 0
3.550833 -5.278265 25.089790 204 204 204 0
3.642075 -5.271424 25.057275 204 204 204 0
3.731298 -5.262087 25.012893 204 204 204 0
3.822119 -5.255414 24.981171 204 204 204 0
3.909022 -5.243811 24.926016 205 205 205 0
3.999411 -5.237324 24.895182 204 204 204 0
4.091415 -5.233206 24.875606 205 205 205 0
4.185571 -5.231964 24.869705 205 205 205 0
4.270868 -5.219949 24.812593 205 205 205 0
4.356542 -5.208909 24.760115 205 205 205 0
4.444008 -5.200435 24.719833 205 205 205 0
4.533638 -5.194794 24.693020 205 205 205 0
4.624956 -5.191277 24.676302 206 206 206 0
4.713898 -5.185288 24.647834 205 205 205 0
4.799939 -5.176405 24.605608 206 206 206 0
4.883283 -5.165011 24.551449 205 205 205 0
4.971883 -5.159501 24.525257 205 205 205 0
5.059875 -5.153576 24.497094 205 205 205 0
5.145180 -5.145180 24.457184 206 206 206 0
5.238512 -5.144967 24.456172 206 206 206 0
5.316058 -5.129529 24.382790 205 205 205 0
5.400749 -5.121400 24.344145 205 205 205 0
5.489039 -5.116901 24.322761 206 206 206 0
5.581500 -5.116375 24.320262 207 207 207 0
5.662504 -5.105537 24.268743 206 206 206 0
5.744799 -5.096192 24.224326 206 206 206 0
5.828735 -5.088578 24.188130 206 206 206 0
5.911724 -5.080388 24.149201 206 206 206 0
5.998008 -5.075237 24.124717 206 206 206 0
6.083646 -5.069705 24.098418 207 207 207 0
6.175915 -5.069781 24.098782 207 207 207 0
6.250084 -5.055215 24.029541 207 207 207 0
6.331990 -5.047239 23.991627 207 207 207 0
6.416074 -5.041201 23.962927 206 206 206 0
6.500556 -5.035642 23.936503 207 207 207 0
6.588361 -5.032776 23.922880 207 207 207 0
6.668313 -5.024072 23.881506 207 207 207 0
6.743377 -5.011969 23.823977 207 207 207 0
6.827873 -5.007107 23.800865 208 208 208 0
6.910661 -5.001136 23.772484 207 207 207 0
6.996326 -4.997376 23.754610 207 207 207 0
7.077344 -4.990435 23.721614 208 208 208 0
7.156673 -4.982494 23.683868 207 207 207 0
-3.803253 -5.867876 28.408984 95 95 95 0
-3.629568 -5.764609 27.909023 187 187 187 0
-3.506324 -5.737621 27.778364 195 195 195 0
-3.399609 -5.736841 27.774586 195 195 195 0
-3.289977 -5.730927 27.745955 197 197 197 0
-3.179749 -5.723548 27.710231 196 196 196 0
-3.067844 -5.712538 27.656925 196 196 196 0
-2.960238 -5.709030 27.639942 197 197 197 0
-2.843455 -5.686910 27.532851 196 196 196 0
-2.740312 -5.691418 27.554674 196 196 196 0
-2.626438 -5.673107 27.466021 197 197 197 0
-2.519058 -5.667882 27.440724 197 197 197 0
-2.411924 -5.662779 27.416021 197 197 197 0
-2.298765 -5.642423 27.317466 197 197 197 0
-2.193314 -5.639951 27.305502 198 198 198 0
-2.085171 -5.629962 27.257140 197 197 197 0
-1.978724 -5.623743 27.227028 198 198 198 0
-1.871354 -5.614061 27.180155 198 198 198 0
-1.762598 -5.598839 27.106459 198 198 198 0
-1.659477 -5.600736 27.115643 198 198 198 0
-1.555341 -5.599226 27.108332 197 197 197 0
-1.446439 -5.579123 27.011004 198 198 198 0
-1.341690 -5.573174 26.982204 199 199 199 0
-1.234314 -5.554414 26.891375 198 198 198 0
-1.132054 -5.557354 26.905611 199 199 199 0
-1.027593 -5.549000 26.865164 198 198 198 0
-0.923273 -5.539637 26.819833 199 199 199 0
-0.819878 -5.534180 26.793413 199 199 199 0
-0.715918 -5.522798 26.738308 199 199 199 0
-0.612115 -5.509036 26.671685 199 199 199 0
-0.509827 -5.506130 26.657612 199 199 199 0
-0.407224 -5.497527 26.615961 200 200 200 0
-0.305520 -5.499360 26.624834 199 199 199 0
-0.202729 -5.473681 26.500513 200 200 200 0
-0.101139 -5.461531 26.441692 200 200 200 0
0.000000 -5.467581 26.470981 200 200 200 0
0.101185 -5.463968 26.453486 200 200 200 0
0.201731 -5.446741 26.370086 200 200 200 0
0.301663 -5.429940 26.288745 200 200 200 0
0.401927 -5.426013 26.269734 201 201 201 0
0.502154 -5.423259 26.256398 200 200 200 0
0.602462 -5.422158 26.251065 200 200 200 0
0.701631 -5.412580 26.204694 201 201 201 0
0.800642 -5.404333 26.164767 201 201 201 0
0.897662 -5.385969 26.075862 201 201 201 0
0.996463 -5.380901 26.051326 201 201 201 0
1.095802 -5.379390 26.044011 201 201 201 0
1.195184 -5.378326 26.038858 202 202 202 0
1.291180 -5.363361 25.966407 201 201 201 0
1.388383 -5.355192 25.926855 202 202 202 0
1.484997 -5.345987 25.882292 202 202 202 0
1.581481 -5.337497 25.841186 202 202 202 0
1.679666 -5.335409 25.831076 203 203 203 0
1.775607 -5.326820 25.789496 202 202 202 0
1.868478 -5.310411 25.710051 202 202 202 0
1.964170 -5.303259 25.675424 202 202 202 0
2.059926 -5.296952 25.644892 203 203 203 0
2.157443 -5.295541 25.638060 203 203 203 0
2.254866 -5.294032 25.630754 203 203 203 0
2.345053 -5.276369 25.545238 202 202 202 0
2.437728 -5.265492 25.492578 203 203 203 0
2.531572 -5.257881 25.455729 203 203 203 0
2.629690 -5.259380 25.462988 202 202 202 0
2.720608 -5.246887 25.402502 203 203 203 0
2.813608 -5.239131 25.364954 203 203 203 0
2.904914 -5.228845 25.315154 203 203 203 0
2.996873 -5.220359 25.274069 204 204 204 0
3.092588 -5.218743 25.266244 203 203 203 0
3.187459 -5.215842 25.252202 204 204 204 0
3.276053 -5.203144 25.190723 204 204 204 0
3.367863 -5.196132 25.156776 203 203 203 0
3.456966 -5.185449 25.105057 204 204 204 0
3.549119 -5.179796 25.077685 204 204 204 0
3.640683 -5.173602 25.047698 204 204 204 0
3.729892 -5.164466 25.003467 204 204 204 0
3.821241 -5.158675 24.975431 204 204 204 0
3.911322 -5.151497 24.940678 205 205 205 0
4.000757 -5.143831 24.903563 204 204 204 0
4.089975 -5.136247 24.866848 205 205 205 0
4.180856 -5.131050 24.841684 204 204 204 0
4.270444 -5.124533 24.810134 205 205 205 0
4.356442 -5.114084 24.759543 205 205 205 0
4.441210 -5.102667 24.704269 205 205 205 0
4.532536 -5.099103 24.687014 205 205 205 0
4.623236 -5.094995 24.667124 204 204 204 0
4.712837 -5.089864 24.642284 205 205 205 0
4.805220 -5.087880 24.632679 206 206 206 0
4.884997 -5.072881 24.560064 205 205 205 0
4.967311 -5.061034 24.502704 206 206 206 0
5.057851 -5.057851 24.487297 205 205 205 0
5.146602 -5.053027 24.463942 206 206 206 0
5.239537 -5.052411 24.460958 206 206 206 0
5.319001 -5.039053 24.396288 205 205 205 0
5.398630 -5.026310 24.334593 206 206 206 0
5.486684 -5.021711 24.312327 206 206 206 0
5.578587 -5.020728 24.307569 206 206 206 0
5.658760 -5.009394 24.252693 206 206 206 0
5.744046 -5.002879 24.221151 206 206 206 0
5.826653 -4.994274 24.179490 206 206 206 0
5.909341 -4.986007 24.139465 206 206 206 0
5.996257 -4.981506 24.117674 206 206 206 0
6.083622 -4.977509 24.098324 207 207 207 0
6.174553 -4.976506 24.093468 206 206 206 0
6.250788 -4.963861 24.032249 207 207 207 0
6.332239 -4.955665 23.992570 207 207 207 0
6.413845 -4.947824 23.954605 207 207 207 0
6.500714 -4.944205 23.937084 207 207 207 0
6.584781 -4.938586 23.909881 207 207 207 0
6.666772 -4.931585 23.875985 207 207 207 0
6.743161 -4.920685 23.823215 207 207 207 0
6.826289 -4.914928 23.795343 207 207 207 0
6.910735 -4.910259 23.772738 208 208 208 0
6.994069 -4.904931 23.746944 207 207 207 0
7.076858 -4.899364 23.719988 207 207 207 0
7.156114 -4.891521 23.682019 207 207 207 0
-3.803540 -5.759646 28.411127 94 94 94 0
-3.631287 -5.660536 27.922240 188 188 188 0
-3.507252 -5.632859 27.785714 196 196 196 0
-3.396753 -5.625871 27.751247 196 196 196 0
-3.287297 -5.620218 27.723359 196 196 196 0
-3.180779 -5.619377 27.719210 196 196 196 0
-3.066147 -5.603648 27.641622 197 197 197 0
-2.954084 -5.591660 27.582487 196 196 196 0
-2.843326 -5.581344 27.531603 196 196 196 0
-2.736855 -5.578973 27.519906 197 197 197 0
-2.631116 -5.577967 27.514944 197 197 197 0
-2.520994 -5.567196 27.461812 198 198 198 0
-2.408655 -5.550379 27.378858 196 196 196 0
-2.299865 -5.540584 27.330541 198 198 198 0
-2.192139 -5.532541 27.290865 197 197 197 0
-2.083863 -5.522237 27.240038 197 197 197 0
-1.978879 -5.520032 27.229164 198 198 198 0
-1.870353 -5.507150 27.165621 198 198 198 0
-1.759364 -5.485077 27.056737 197 197 197 0
-1.657317 -5.489861 27.080336 198 198 198 0
-1.552615 -5.485905 27.060822 198 198 198 0
-1.449348 -5.486817 27.065320 198 198 198 0
-1.339823 -5.462357 26.944665 199 199 199 0
-1.235551 -5.457018 26.918330 199 199 199 0
-1.131997 -5.454165 26.904255 199 199 199 0
-1.027155 -5.443920 26.853718 198 198 198 0
-0.924046 -5.441606 26.842304 199 199 199 0
-0.819708 -5.430564 26.787834 199 199 199 0
-0.714884 -5.412696 26.699699 200 200 200 0
-0.611802 -5.404253 26.658051 200 200 200 0
-0.509941 -5.405376 26.663586 200 200 200 0
-0.407951 -5.405352 26.663469 200 200 200 0
-0.304469 -5.378954 26.533256 200 200 200 0
-0.202534 -5.367147 26.475013 200 200 200 0
-0.101183 -5.362724 26.453197 200 200 200 0
0.000000 -5.363817 26.458584 200 200 200 0
0.101013 -5.353689 26.408630 200 200 200 0
0.201913 -5.350697 26.393868 200 200 200 0
0.301843 -5.332568 26.304443 201 201 201 0
0.401735 -5.322995 26.257219 201 201 201 0
0.502480 -5.326289 26.273469 201 201 201 0
0.601965 -5.317355 26.229400 200 200 200 0
0.700805 -5.306097 26.173867 201 201 201 0
0.799534 -5.296910 26.128546 201 201 201 0
0.897546 -5.285547 26.072498 202 202 202 0
0.995869 -5.278106 26.035792 201 201 201 0
1.095271 -5.277216 26.031405 202 202 202 0
1.193121 -5.269619 25.993925 202 202 202 0
1.291544 -5.265524 25.973729 201 201 201 0
1.386961 -5.250638 25.900297 201 201 201 0
1.484787 -5.246246 25.878634 202 202 202 0
1.580900 -5.236731 25.831698 201 201 201 0
1.677645 -5.230305 25.800000 202 202 202 0
1.775073 -5.226604 25.781744 202 202 202 0
1.871079 -5.219325 25.745840 202 202 202 0
1.963225 -5.202547 25.663078 202 202 202 0
2.059647 -5.198156 25.641415 202 202 202 0
2.157523 -5.197669 25.639016 203 203 203 0
2.252387 -5.190283 25.602578 202 202 202 0
2.346018 -5.180789 25.555748 203 203 203 0
2.436658 -5.165714 25.481387 203 203 203 0
2.533363 -5.164162 25.473731 204 204 204 0
2.628463 -5.159576 25.451111 202 202 202 0
2.722987 -5.154226 25.424719 203 203 203 0
2.813972 -5.142776 25.368235 203 203 203 0
2.903921 -5.130261 25.306504 203 203 203 0
2.998162 -5.125889 25.284938 204 204 204 0
3.089312 -5.116673 25.239480 204 204 204 0
3.186486 -5.117690 25.244495 203 203 203 0
3.275974 -5.106666 25.190114 204 204 204 0
3.366785 -5.098274 25.148718 205 205 205 0
3.455345 -5.087036 25.093282 204 204 204 0
3.547665 -5.081790 25.067407 204 204 204 0
3.641885 -5.079472 25.055971 204 204 204 0
3.732446 -5.072298 25.020584 204 204 204 0
3.822694 -5.065070 24.984931 205 205 205 0
3.910007 -5.054399 24.932293 204 204 204 0
3.994875 -5.041152 24.866948 205 205 205 0
4.089556 -5.040616 24.864303 204 204 204 0
4.182159 -5.037600 24.849428 205 205 205 0
4.273729 -5.033503 24.829216 205 205 205 0
4.356771 -5.019758 24.761417 205 205 205 0
4.439357 -5.006083 24.693960 205 205 205 0
4.531859 -5.003928 24.683329 205 205 205 0
4.623815 -5.001270 24.670217 205 205 205 0
4.710587 -4.993222 24.630520 205 205 205 0
4.800873 -4.989143 24.610397 206 206 206 0
4.880840 -4.974703 24.539167 206 206 206 0
4.966485 -4.966485 24.498633 205 205 205 0
5.055028 -4.961416 24.473628 205 205 205 0
5.147158 -4.959989 24.466585 206 206 206 0
5.237758 -4.957164 24.452651 206 206 206 0
5.314361 -4.941423 24.375007 206 206 206 0
5.398447 -4.933064 24.333771 207 207 207 0
5.487565 -4.929507 24.316228 206 206 206 0
5.579270 -4.928355 24.310543 207 207 207 0
5.657997 -4.915964 24.249423 206 206 206 0
5.748713 -4.914222 24.240829 206 206 206 0
5.829503 -4.904185 24.191320 206 206 206 0
5.914092 -4.897608 24.158873 206 206 206 0
5.999283 -4.891723 24.129845 206 206 206 0
6.082363 -4.884322 24.093337 207 207 207 0
6.168903 -4.879878 24.071419 207 207 207 0
6.249690 -4.871082 24.028028 207 207 207 0
6.323549 -4.857219 23.959644 207 207 207 0
6.411336 -4.854297 23.945233 207 207 207 0
6.500556 -4.852528 23.936503 207 207 207 0
6.586254 -4.848215 23.915229 207 207 207 0
6.665807 -4.839559 23.872530 208 208 208 0
6.744181 -4.830292 23.826819 207 207 207 0
6.826063 -4.823751 23.794554 208 208 208 0
6.912499 -4.820558 23.778806 208 208 208 0
6.992235 -4.812837 23.740718 207 207 207 0
7.075151 -4.807474 23.714264 207 207 207 0
7.157483 -4.801856 23.686550 207 207 207 0
-3.786120 -5.625092 28.281008 96 96 96 0
-3.629304 -5.550700 27.906987 187 187 187 0
-3.503023 -5.519916 27.752216 196 196 196 0
-3.397057 -5.520218 27.753736 196 196 196 0
-3.287764 -5.514958 27.727292 196 196 196 0
-3.184663 -5.520082 27.753052 196 196 196 0
