ply
format ascii 1.0
element vertex 1123
property float x
property float y
property float z
property uchar red
property uchar green
property uchar blue
property uchar alpha
end_header
0.298993 2.242449 19.542038 207 207 207 0
0.373361 2.240167 19.522149 208 208 208 0
0.447985 2.239924 19.520033 208 208 208 0
0.522662 2.239980 19.520521 208 208 208 0
0.596424 2.236592 19.490996 208 208 208 0
0.669484 2.231614 19.447613 208 208 208 0
0.743044 2.229131 19.425981 209 209 209 0
0.816273 2.226198 19.400420 209 209 209 0
0.889537 2.223842 19.379886 209 209 209 0
0.962823 2.221899 19.362952 208 208 208 0
1.036918 2.221967 19.363543 209 209 209 0
1.109991 2.219983 19.346254 209 209 209 0
1.180527 2.213488 19.289656 208 208 208 0
1.252925 2.211043 19.268352 209 209 209 0
1.325384 2.208973 19.250312 209 209 209 0
1.398021 2.207402 19.236620 210 210 210 0
1.471523 2.207284 19.235589 209 209 209 0
1.542925 2.204178 19.208527 209 209 209 0
1.612687 2.199118 19.164429 210 210 210 0
1.684221 2.196809 19.144309 209 209 209 0
1.754915 2.193643 19.116719 210 210 210 0
1.827472 2.192966 19.110815 210 210 210 0
1.898989 2.191142 19.094915 209 209 209 0
1.970415 2.189350 19.079299 209 209 209 0
2.041379 2.187192 19.060499 210 210 210 0
2.108412 2.181116 19.007545 210 210 210 0
2.179566 2.179566 18.994035 210 210 210 0
2.249073 2.176523 18.967518 210 210 210 0
2.321340 2.176256 18.965194 210 210 210 0
2.392918 2.175380 18.957557 210 210 210 0
2.462354 2.172665 18.933903 210 210 210 0
2.532009 2.170294 18.913236 211 211 211 0
2.598742 2.165618 18.872489 210 210 210 0
2.666543 2.162062 18.841495 211 211 211 0
2.736335 2.160264 18.825832 210 210 210 0
2.809387 2.161067 18.832827 210 210 210 0
2.879181 2.159386 18.818175 210 210 210 0
2.946458 2.155945 18.788188 212 212 212 0
3.010839 2.150600 18.741609 211 211 211 0
3.079193 2.148274 18.721344 212 212 212 0
3.151357 2.148652 18.724640 211 211 211 0
3.218584 2.145723 18.699108 212 212 212 0
3.287409 2.143963 18.683771 211 211 211 0
3.356106 2.142195 18.668367 212 212 212 0
3.419059 2.136912 18.622328 212 212 212 0
3.489490 2.136423 18.618063 212 212 212 0
3.553707 2.132224 18.581474 211 211 211 0
3.624256 2.131916 18.578784 211 211 211 0
3.692742 2.130428 18.565822 211 211 211 0
3.761310 2.129043 18.553754 212 212 212 0
3.826707 2.125948 18.526782 212 212 212 0
3.893768 2.123873 18.508700 212 212 212 0
3.954899 2.118696 18.463581 212 212 212 0
4.012766 2.111982 18.405075 200 200 200 0
4.063329 2.101722 18.315659 93 93 93 0
-6.585731 2.551971 21.521995 199 199 199 0
-6.524164 2.560115 21.590680 199 199 199 0
-6.408930 2.547139 21.481247 198 198 198 0
-6.306182 2.538852 21.411363 199 199 199 0
-6.230540 2.541405 21.432887 199 199 199 0
-6.149170 2.541657 21.435016 199 199 199 0
-6.062834 2.539836 21.419659 199 199 199 0
-5.978441 2.538790 21.410838 199 199 199 0
-5.889321 2.535680 21.384606 200 200 200 0
-5.788892 2.527545 21.315999 199 199 199 0
-5.694950 2.522049 21.269654 200 200 200 0
-5.606277 2.518762 21.241934 200 200 200 0
-5.528990 2.520569 21.257171 200 200 200 0
-5.448222 2.520819 21.259279 200 200 200 0
-5.352432 2.514021 21.201948 200 200 200 0
-5.260736 2.508966 21.159319 201 201 201 0
-5.175652 2.506956 21.142368 201 201 201 0
-5.077085 2.498248 21.068929 201 201 201 0
-5.008060 2.504030 21.117689 201 201 201 0
-4.920658 2.500662 21.089288 201 201 201 0
-4.839734 2.500529 21.088164 201 201 201 0
-4.737516 2.489203 20.992648 201 201 201 0
-4.658675 2.489981 20.999211 201 201 201 0
-4.571576 2.486296 20.968129 202 202 202 0
-4.479120 2.479513 20.910924 201 201 201 0
-4.409708 2.485472 20.961178 202 202 202 0
-4.315625 2.477489 20.893853 202 202 202 0
-4.230450 2.474414 20.867926 202 202 202 0
-4.145651 2.471446 20.842890 202 202 202 0
-4.053503 2.463894 20.779202 202 202 202 0
-3.973741 2.463719 20.777731 202 202 202 0
-3.900850 2.467885 20.812858 202 202 202 0
-3.813583 2.462939 20.771151 203 203 203 0
-3.724101 2.456322 20.715346 203 203 203 0
-3.635438 2.449969 20.661766 203 203 203 0
-3.554756 2.448832 20.652176 203 203 203 0
-3.478527 2.450780 20.668609 203 203 203 0
-3.391523 2.445052 20.620297 203 203 203 0
-3.309046 2.442391 20.597860 203 203 203 0
-3.230537 2.442601 20.599632 203 203 203 0
-3.145198 2.437529 20.556852 203 203 203 0
-3.055617 2.428824 20.483441 203 203 203 0
-2.980857 2.431751 20.508129 204 204 204 0
-2.901594 2.431066 20.502345 204 204 204 0
-2.819866 2.428218 20.478328 204 204 204 0
-2.737690 2.424811 20.449596 204 204 204 0
-2.652724 2.418660 20.397723 204 204 204 0
-2.569511 2.413783 20.356597 204 204 204 0
-2.493937 2.416001 20.375300 204 204 204 0
-2.413245 2.413245 20.352059 205 205 205 0
-2.331839 2.409567 20.321040 205 205 205 0
-2.252438 2.407778 20.305952 205 205 205 0
-2.172194 2.404929 20.281922 205 205 205 0
-2.089339 2.398871 20.230830 205 205 205 0
-2.009338 2.395750 20.204508 204 204 204 0
-1.932101 2.395806 20.204983 205 205 205 0
-1.852693 2.393061 20.181836 205 205 205 0
-1.775025 2.392425 20.176474 205 205 205 0
-1.691424 2.383370 20.100108 205 205 205 0
-1.612761 2.380742 20.077944 206 206 206 0
-1.535252 2.379641 20.068657 206 206 206 0
-1.456764 2.376826 20.044918 205 205 205 0
-1.379963 2.376603 20.043034 206 206 206 0
-1.301621 2.373545 20.017243 206 206 206 0
-1.222357 2.368317 19.973153 206 206 206 0
-1.143872 2.364001 19.936761 206 206 206 0
-1.067490 2.363728 19.934456 206 206 206 0
-0.990918 2.362957 19.927956 206 206 206 0
-0.913485 2.359836 19.901635 207 207 207 0
-0.837513 2.360263 19.905236 207 207 207 0
-0.759156 2.353384 19.847219 206 206 206 0
-0.682100 2.349456 19.814092 207 207 207 0
-0.605823 2.347565 19.798143 206 206 206 0
-0.529191 2.343560 19.764365 207 207 207 0
-0.453714 2.344191 19.769691 206 206 206 0
-0.378067 2.344016 19.768216 207 207 207 0
-0.301897 2.339698 19.731801 207 207 207 0
-0.226060 2.335955 19.700235 207 207 207 0
-0.150339 2.330250 19.652120 207 207 207 0
-0.075090 2.327781 19.631301 208 208 208 0
0.000000 2.327249 19.626809 208 208 208 0
0.075044 2.326372 19.619412 207 207 207 0
0.150014 2.325210 19.609610 207 207 207 0
0.224433 2.319139 19.558419 208 208 208 0
0.298930 2.316704 19.537878 208 208 208 0
0.373180 2.313714 19.512664 208 208 208 0
0.447365 2.311385 19.493019 208 208 208 0
0.521898 2.311262 19.491986 208 208 208 0
0.595210 2.306437 19.451295 208 208 208 0
0.668915 2.304040 19.431076 209 209 209 0
0.741926 2.299972 19.396766 208 208 208 0
0.814990 2.296790 19.369932 208 208 208 0
0.888343 2.294887 19.353887 209 209 209 0
0.961929 2.293831 19.344984 208 208 208 0
1.035073 2.291947 19.329091 209 209 209 0
1.108238 2.290359 19.315699 209 209 209 0
1.179318 2.284928 19.269897 209 209 209 0
1.250538 2.280392 19.231642 210 210 210 0
1.323178 2.278807 19.218275 209 209 209 0
1.396435 2.278394 19.214794 209 209 209 0
1.470011 2.278518 19.215836 209 209 209 0
1.541026 2.274848 19.184886 209 209 209 0
1.612049 2.271523 19.156845 209 209 209 0
1.680782 2.265401 19.105218 210 210 210 0
1.752320 2.263413 19.088451 209 209 209 0
1.825011 2.263014 19.085082 209 209 209 0
1.896052 2.260677 19.065376 210 210 210 0
1.967772 2.259294 19.053711 210 210 210 0
2.039036 2.257504 19.038621 210 210 210 0
2.106051 2.251295 18.986257 210 210 210 0
2.177017 2.249584 18.971824 210 210 210 0
2.246111 2.246111 18.942530 210 210 210 0
2.318726 2.246266 18.943839 210 210 210 0
2.389655 2.244827 18.931710 211 211 211 0
2.459820 2.242777 18.914420 211 211 211 0
2.527905 2.239001 18.882574 210 210 210 0
2.593893 2.233630 18.837275 211 211 211 0
2.663679 2.231731 18.821263 211 211 211 0
2.734620 2.230874 18.814035 210 210 210 0
2.804997 2.229613 18.803399 211 211 211 0
2.874663 2.227864 18.788649 211 211 211 0
2.943544 2.225607 18.769610 211 211 211 0
3.007822 2.220059 18.722829 211 211 211 0
3.075620 2.217307 18.699618 211 211 211 0
3.145635 2.216243 18.690641 211 211 211 0
3.213927 2.214039 18.672054 211 211 211 0
3.283529 2.212813 18.661716 212 212 212 0
3.350241 2.209733 18.635742 212 212 212 0
3.415643 2.205936 18.603721 212 212 212 0
3.481485 2.202572 18.575352 212 212 212 0
3.549779 2.200863 18.560935 212 212 212 0
3.617205 2.198693 18.542635 212 212 212 0
3.687344 2.198224 18.538680 212 212 212 0
3.755721 2.196743 18.526187 212 212 212 0
3.822248 2.194253 18.505195 212 212 212 0
3.887980 2.191407 18.481187 212 212 212 0
3.949313 2.186227 18.437502 211 211 211 0
4.010055 2.180907 18.392639 203 203 203 0
4.065269 2.172816 18.324404 104 104 104 0
-6.579872 2.631949 21.502850 199 199 199 0
-6.504235 2.634627 21.524727 198 198 198 0
-6.396448 2.624184 21.439410 198 198 198 0
-6.328253 2.629923 21.486302 198 198 198 0
-6.221833 2.619719 21.402935 199 199 199 0
-6.123364 2.612635 21.345061 199 199 199 0
-6.037977 2.611017 21.331838 199 199 199 0
-5.984416 2.623305 21.432234 200 200 200 0
-5.871638 2.609617 21.320398 200 200 200 0
-5.781804 2.605883 21.289897 200 200 200 0
-5.682009 2.597490 21.221324 199 199 199 0
-5.598578 2.596442 21.212760 200 200 200 0
-5.520837 2.598041 21.225824 200 200 200 0
-5.439310 2.597879 21.224505 200 200 200 0
-5.346386 2.592187 21.177999 200 200 200 0
-5.251970 2.585585 21.124064 201 201 201 0
-5.160249 2.580124 21.079448 201 201 201 0
-5.078022 2.579313 21.072816 201 201 201 0
-4.993511 2.577296 21.056342 201 201 201 0
-4.919111 2.580517 21.082659 201 201 201 0
-4.830001 2.576001 21.045757 201 201 201 0
-4.744969 2.573542 21.025674 201 201 201 0
-4.633931 2.556652 20.887676 202 202 202 0
-4.555032 2.557211 20.892246 201 201 201 0
-4.481296 2.560740 20.921081 202 202 202 0
-4.393539 2.556241 20.884319 201 201 201 0
-4.318572 2.559154 20.908121 202 202 202 0
-4.225804 2.551429 20.845009 201 201 201 0
-4.134471 2.544290 20.786682 202 202 202 0
-4.044025 2.537428 20.730617 202 202 202 0
-3.969994 2.540796 20.758138 202 202 202 0
-3.889559 2.540120 20.752613 202 202 202 0
-3.806231 2.537487 20.731103 203 203 203 0
-3.725244 2.536336 20.721699 203 203 203 0
-3.629991 2.525211 20.630812 202 202 202 0
-3.548726 2.523539 20.617146 202 202 202 0
-3.469519 2.523287 20.615088 203 203 203 0
-3.388654 2.521789 20.602854 203 203 203 0
-3.305584 2.518540 20.576306 203 203 203 0
-3.230423 2.521306 20.598906 203 203 203 0
-3.135729 2.508583 20.494962 204 204 204 0
-3.057523 2.508737 20.496217 204 204 204 0
-2.976297 2.506356 20.476763 204 204 204 0
-2.894276 2.503157 20.450631 204 204 204 0
-2.816648 2.503687 20.454963 204 204 204 0
-2.733754 2.499432 20.420200 204 204 204 0
-2.646374 2.490705 20.348900 204 204 204 0
-2.568261 2.490435 20.346688 204 204 204 0
-2.489012 2.489012 20.335069 204 204 204 0
-2.409804 2.487540 20.323038 205 205 205 0
-2.326892 2.482019 20.277929 205 205 205 0
-2.247757 2.480284 20.263757 205 205 205 0
-2.167166 2.476761 20.234979 205 205 205 0
-2.086198 2.472530 20.200412 204 204 204 0
-2.005603 2.468435 20.166952 205 205 205 0
-1.927187 2.466800 20.153592 205 205 205 0
-1.852083 2.469444 20.175196 205 205 205 0
-1.770862 2.463808 20.129154 205 205 205 0
-1.690419 2.458791 20.088158 206 206 206 0
-1.611332 2.455364 20.060160 205 205 205 0
-1.532979 2.452767 20.038943 205 205 205 0
-1.455750 2.451790 20.030963 206 206 206 0
-1.378341 2.450383 20.019472 206 206 206 0
-1.300781 2.448529 20.004324 206 206 206 0
-1.221887 2.443774 19.965474 206 206 206 0
-1.143122 2.438661 19.923699 207 207 207 0
-1.066168 2.436956 19.909774 207 207 207 0
-0.988384 2.432945 19.877005 207 207 207 0
-0.912270 2.432720 19.875164 206 206 206 0
-0.835755 2.431287 19.863453 207 207 207 0
-0.757874 2.425196 19.813696 207 207 207 0
-0.681766 2.424056 19.804379 207 207 207 0
-0.604536 2.418142 19.756065 206 206 206 0
-0.529174 2.419082 19.763742 207 207 207 0
-0.452817 2.415023 19.730579 207 207 207 0
-0.377400 2.415363 19.733357 207 207 207 0
-0.301262 2.410094 19.690311 207 207 207 0
-0.225573 2.406115 19.657801 208 208 208 0
-0.150044 2.400708 19.613626 207 207 207 0
-0.075035 2.401110 19.616913 207 207 207 0
0.000000 2.400053 19.608278 208 208 208 0
0.074907 2.397010 19.583415 208 208 208 0
0.149681 2.394903 19.566199 208 208 208 0
0.224018 2.389530 19.522304 207 207 207 0
0.298473 2.387781 19.508017 208 208 208 0
0.372319 2.382843 19.467673 208 208 208 0
0.446757 2.382704 19.466532 208 208 208 0
0.520885 2.381189 19.454155 208 208 208 0
0.594586 2.378342 19.430900 208 208 208 0
0.667806 2.374422 19.398874 208 208 208 0
0.741842 2.373895 19.394566 209 209 209 0
0.814172 2.368500 19.350488 209 209 209 0
0.887165 2.365772 19.328206 209 209 209 0
0.960795 2.365033 19.322162 209 209 209 0
1.033464 2.362203 19.299044 209 209 209 0
1.106162 2.359812 19.279506 208 208 208 0
1.178115 2.356231 19.250251 209 209 209 0
1.249428 2.351864 19.214574 210 210 210 0
1.321390 2.349138 19.192306 209 209 209 0
1.393819 2.347484 19.178793 209 209 209 0
1.467207 2.347531 19.179174 210 210 210 0
1.539616 2.346082 19.167336 209 209 209 0
1.609743 2.341445 19.129452 209 209 209 0
1.678369 2.335122 19.077792 209 209 209 0
1.750210 2.333613 19.065469 210 210 210 0
1.822430 2.332711 19.058093 210 210 210 0
1.893757 2.330778 19.042301 210 210 210 0
1.964394 2.328171 19.021006 210 210 210 0
2.034733 2.325409 18.998439 210 210 210 0
2.105305 2.323095 18.979535 210 210 210 0
2.173126 2.318001 18.937920 211 211 211 0
2.246225 2.318684 18.943499 210 210 210 0
2.314185 2.314185 18.906744 210 210 210 0
2.385651 2.313358 18.899984 211 211 211 0
2.456782 2.312265 18.891057 211 211 211 0
2.525277 2.308824 18.862943 211 211 211 0
2.593626 2.305446 18.835341 211 211 211 0
2.659722 2.300300 18.793301 210 210 210 0
2.729146 2.298228 18.776375 211 211 211 0
2.801111 2.298348 18.777349 211 211 211 0
2.871325 2.297060 18.766830 211 211 211 0
2.938405 2.293389 18.736841 211 211 211 0
3.005228 2.289697 18.706676 212 212 212 0
3.071103 2.285472 18.672154 211 211 211 0
3.141570 2.284778 18.666487 210 210 210 0
3.209500 2.282311 18.646333 211 211 211 0
3.277329 2.279881 18.626477 211 211 211 0
3.344403 2.277040 18.603269 212 212 212 0
3.413237 2.275491 18.590613 211 211 211 0
3.479638 2.272416 18.565494 212 212 212 0
3.545853 2.269346 18.540409 212 212 212 0
3.612793 2.266850 18.520018 212 212 212 0
3.682102 2.265909 18.512329 212 212 212 0
3.753003 2.265964 18.512779 212 212 212 0
3.818235 2.262658 18.485766 212 212 212 0
3.881707 2.258448 18.451371 213 213 213 0
3.944631 2.254075 18.415644 212 212 212 0
4.005739 2.248836 18.372841 205 205 205 0
4.054463 2.236945 18.275697 118 118 118 0
-6.578257 2.713531 21.497572 198 198 198 0
-6.500363 2.715341 21.511914 199 199 199 0
-6.403099 2.709003 21.461702 199 199 199 0
-6.306106 2.702617 21.411106 199 199 199 0
-6.192154 2.688698 21.300838 199 199 199 0
-6.130875 2.697585 21.371241 199 199 199 0
-6.037673 2.692476 21.330764 199 199 199 0
-5.954745 2.691871 21.325974 199 199 199 0
-5.877241 2.693735 21.340744 199 199 199 0
-5.759002 2.676719 21.205936 200 200 200 0
-5.678410 2.676965 21.207879 199 199 199 0
-5.596153 2.676421 21.203574 200 200 200 0
-5.504555 2.671328 21.163226 200 200 200 0
-5.430280 2.674615 21.189269 200 200 200 0
-5.337389 2.668694 21.142359 201 201 201 0
-5.246374 2.663544 21.101555 200 200 200 0
-5.159135 2.660179 21.074897 201 201 201 0
-5.066142 2.653694 21.023518 200 200 200 0
-4.981803 2.651605 21.006970 200 200 200 0
-4.908099 2.655201 21.035463 201 201 201 0
-4.815704 2.648637 20.983460 201 201 201 0
-4.727986 2.644467 20.950420 201 201 201 0
-4.639182 2.639535 20.911345 202 202 202 0
-4.550088 2.634262 20.869571 201 201 201 0
-4.474376 2.636686 20.888776 201 201 201 0
-4.390930 2.634558 20.871917 201 201 201 0
-4.312300 2.635295 20.877754 202 202 202 0
-4.214814 2.624318 20.790793 202 202 202 0
-4.134665 2.623922 20.787657 202 202 202 0
-4.043660 2.616486 20.728744 202 202 202 0
-3.967573 2.618598 20.745481 203 203 203 0
-3.885665 2.616877 20.731840 202 202 202 0
-3.803891 2.615175 20.718359 203 203 203 0
-3.711560 2.605989 20.645582 203 203 203 0
-3.627244 2.602154 20.615199 203 203 203 0
-3.542203 2.597615 20.579245 203 203 203 0
-3.463920 2.597940 20.581820 203 203 203 0
-3.383365 2.596536 20.570697 203 203 203 0
-3.307263 2.598564 20.586758 203 203 203 0
-3.220065 2.591759 20.532853 203 203 203 0
-3.133722 2.585320 20.481842 203 203 203 0
-3.049578 2.580412 20.442957 204 204 204 0
-2.969361 2.578655 20.429039 204 204 204 0
-2.891787 2.579162 20.433050 204 204 204 0
-2.811553 2.577257 20.417959 204 204 204 0
-2.724668 2.568973 20.352332 203 203 203 0
-2.645383 2.567577 20.341273 204 204 204 0
-2.561888 2.561888 20.296200 204 204 204 0
-2.483374 2.560980 20.289007 204 204 204 0
-2.405852 2.561069 20.289711 204 204 204 0
-2.325501 2.558051 20.265800 204 204 204 0
-2.247332 2.557309 20.259921 205 205 205 0
-2.163725 2.550105 20.202850 205 205 205 0
-2.080378 2.542684 20.144064 204 204 204 0
-2.002808 2.542026 20.138849 205 205 205 0
-1.925884 2.542167 20.139963 205 205 205 0
-1.848410 2.541564 20.135184 205 205 205 0
-1.769115 2.538296 20.109296 205 205 205 0
-1.688885 2.533328 20.069938 205 205 205 0
-1.608442 2.527551 20.024173 206 206 206 0
-1.530625 2.525532 20.008175 205 205 205 0
-1.452712 2.523131 19.989151 206 206 206 0
-1.376548 2.523671 19.993431 205 205 205 0
-1.298723 2.521051 19.972678 206 206 206 0
-1.220582 2.517451 19.944152 206 206 206 0
-1.141623 2.511571 19.897575 206 206 206 0
-1.063772 2.507462 19.865017 206 206 206 0
-0.987082 2.505670 19.850822 206 206 206 0
-0.910650 2.504287 19.839867 207 207 207 0
-0.834449 2.503347 19.832417 206 206 206 0
-0.757566 2.499968 19.805648 207 207 207 0
-0.680240 2.494213 19.760055 207 207 207 0
-0.603674 2.490157 19.727924 207 207 207 0
-0.527466 2.486626 19.699951 207 207 207 0
-0.452568 2.489126 19.719758 207 207 207 0
-0.376792 2.486829 19.701556 207 207 207 0
-0.300872 2.482192 19.664819 207 207 207 0
-0.225237 2.477603 19.628463 208 208 208 0
-0.149914 2.473587 19.596648 208 208 208 0
-0.074888 2.471295 19.578492 208 208 208 0
0.000000 2.471068 19.576695 208 208 208 0
0.074811 2.468779 19.558561 207 207 207 0
0.149454 2.465994 19.536497 208 208 208 0
0.223737 2.461104 19.497758 207 207 207 0
0.298020 2.458663 19.478419 207 207 207 0
0.371897 2.454517 19.445569 209 209 209 0
0.446149 2.453819 19.440036 207 207 207 0
0.520330 2.452985 19.433429 209 209 209 0
0.593755 2.449240 19.403765 208 208 208 0
0.666958 2.445512 19.374231 208 208 208 0
0.739674 2.440924 19.337881 209 209 209 0
0.812856 2.438567 19.319207 209 209 209 0
0.885625 2.435468 19.294656 208 208 208 0
0.959489 2.435627 19.295913 209 209 209 0
1.032084 2.432770 19.273278 208 208 208 0
1.105183 2.431404 19.262457 208 208 208 0
1.176239 2.425993 19.219588 209 209 209 0
1.247015 2.420677 19.177476 209 209 209 0
1.320421 2.420772 19.178231 209 209 209 0
1.392660 2.418831 19.162851 209 209 209 0
1.465122 2.417452 19.151923 209 209 209 0
1.536811 2.414989 19.132411 209 209 209 0
1.607368 2.411052 19.101222 209 209 209 0
1.678002 2.407568 19.073626 210 210 210 0
1.748109 2.403650 19.042584 210 210 210 0
1.819289 2.401462 19.025247 210 210 210 0
1.890557 2.399553 19.010124 210 210 210 0
1.962062 2.398075 18.998417 210 210 210 0
2.032826 2.395831 18.980635 210 210 210 0
2.102499 2.392499 18.954243 209 209 209 0
2.170376 2.387413 18.913951 210 210 210 0
2.241454 2.386064 18.903258 210 210 210 0
2.311516 2.383751 18.884935 210 210 210 0
2.383242 2.383242 18.880901 210 210 210 0
2.453966 2.381790 18.869402 210 210 210 0
2.521792 2.377689 18.836914 211 211 211 0
2.589228 2.373459 18.803399 211 211 211 0
2.656988 2.369746 18.773986 210 210 210 0
2.724374 2.365904 18.743543 211 211 211 0
2.797880 2.367437 18.755691 211 211 211 0
2.867925 2.366038 18.744610 211 211 211 0
2.933810 2.361359 18.707540 211 211 211 0
3.002322 2.358968 18.688592 211 211 211 0
3.067813 2.354368 18.652156 211 211 211 0
3.135878 2.351909 18.632669 211 211 211 0
3.203616 2.349318 18.612146 212 212 212 0
3.274565 2.349145 18.610773 211 211 211 0
3.340486 2.345447 18.581481 211 211 211 0
3.408650 2.343447 18.565631 211 211 211 0
3.475644 2.340740 18.544184 212 212 212 0
3.540447 2.336695 18.512141 211 211 211 0
3.607739 2.334420 18.494115 211 211 211 0
3.677166 2.333586 18.487512 212 212 212 0
3.747497 2.333347 18.485619 211 211 211 0
3.812391 2.329795 18.457473 212 212 212 0
3.877837 2.326702 18.432972 212 212 212 0
3.940081 2.321834 18.394405 212 212 212 0
4.000725 2.316209 18.349847 207 207 207 0
4.047515 2.302897 18.244379 129 129 129 0
-6.564494 2.789910 21.452594 198 198 198 0
-6.492873 2.794401 21.487130 199 199 199 0
-6.404807 2.791839 21.467426 199 199 199 0
-6.282852 2.774246 21.332152 199 199 199 0
-6.184011 2.766531 21.272826 199 199 199 0
-6.114534 2.771922 21.314278 199 199 199 0
-6.037282 2.773886 21.329384 199 199 199 0
-5.951868 2.772103 21.315669 200 200 200 0
-5.849673 2.762345 21.240641 200 200 200 0
-5.755933 2.756362 21.194634 200 200 200 0
-5.668405 2.753225 21.170512 200 200 200 0
-5.586246 2.752643 21.166037 200 200 200 0
-5.506730 2.753365 21.171587 201 201 201 0
-5.416657 2.748751 21.136113 200 200 200 0
-5.333684 2.747655 21.127683 201 201 201 0
-5.247617 2.744907 21.106554 201 201 201 0
-5.145110 2.733339 21.017604 201 201 201 0
-5.069572 2.735959 21.037751 201 201 201 0
-4.981495 2.731787 21.005670 201 201 201 0
-4.894340 2.727993 20.976490 201 201 201 0
-4.815771 2.728937 20.983750 201 201 201 0
-4.721005 2.720579 20.919487 201 201 201 0
-4.626871 2.712304 20.855854 202 202 202 0
-4.544224 2.710590 20.842676 201 201 201 0
-4.466987 2.712100 20.854283 201 201 201 0
-4.384113 2.710179 20.839516 201 201 201 0
-4.305585 2.710924 20.845243 202 202 202 0
-4.210126 2.700836 20.767672 202 202 202 0
-4.126929 2.698377 20.748765 203 203 203 0
-4.043369 2.695580 20.727255 202 202 202 0
-3.958530 2.691800 20.698196 202 202 202 0
-3.878980 2.691537 20.696170 203 203 203 0
-3.795853 2.688729 20.674581 202 202 202 0
-3.713148 2.686107 20.654418 202 202 202 0
-3.621766 2.676957 20.584062 202 202 202 0
-3.539764 2.674489 20.565080 203 203 203 0
-3.463784 2.676560 20.581010 203 203 203 0
-3.380585 2.673021 20.553791 203 203 203 0
-3.297717 2.669580 20.527338 203 203 203 0
-3.208693 2.660868 20.460344 203 203 203 0
-3.127870 2.658689 20.443593 204 204 204 0
-3.043170 2.653020 20.399998 204 204 204 0
-2.965055 2.652944 20.399413 204 204 204 0
-2.887458 2.653340 20.402459 204 204 204 0
-2.807905 2.651910 20.391467 203 203 203 0
-2.723003 2.645203 20.339894 204 204 204 0
-2.641302 2.641302 20.309897 204 204 204 0
-2.559445 2.637004 20.276850 204 204 204 0
-2.479972 2.634970 20.261207 204 204 204 0
-2.403065 2.635619 20.266201 205 205 205 0
-2.321912 2.631501 20.234531 204 204 204 0
-2.240087 2.626309 20.194608 205 205 205 0
-2.160391 2.623332 20.171718 205 205 205 0
-2.078325 2.617150 20.124185 205 205 205 0
-1.999868 2.615212 20.109278 205 205 205 0
-1.921204 2.612837 20.091019 206 206 206 0
-1.845084 2.613869 20.098956 206 206 206 0
-1.766374 2.611161 20.078131 206 206 206 0
-1.685302 2.604557 20.027354 206 206 206 0
-1.605627 2.599586 19.989127 205 205 205 0
-1.526305 2.594719 19.951701 205 205 205 0
-1.450987 2.596504 19.965427 206 206 206 0
-1.374785 2.596816 19.967828 206 206 206 0
-1.296853 2.593706 19.943910 206 206 206 0
-1.217910 2.588059 19.900489 206 206 206 0
-1.139191 2.582167 19.855186 207 207 207 0
-1.062628 2.580667 19.843653 206 206 206 0
-0.985919 2.578558 19.827437 206 206 206 0
-0.909756 2.577641 19.820385 206 206 206 0
-0.832675 2.573723 19.790261 207 207 207 0
-0.756357 2.571613 19.774032 206 206 206 0
-0.679155 2.565695 19.728528 207 207 207 0
-0.602954 2.562555 19.704380 206 206 206 0
-0.526986 2.559648 19.682033 207 207 207 0
-0.451880 2.560651 19.689742 207 207 207 0
-0.376243 2.558455 19.672855 207 207 207 0
-0.300600 2.555096 19.647030 207 207 207 0
-0.224964 2.549589 19.604686 208 208 208 0
-0.149756 2.545850 19.575932 207 207 207 0
-0.074758 2.541787 19.544689 208 208 208 0
0.000000 2.542458 19.549848 207 207 207 0
0.074706 2.540009 19.531022 207 207 207 0
0.149286 2.537866 19.514542 208 208 208 0
0.223638 2.534560 19.489117 208 208 208 0
0.297402 2.527915 19.438024 207 207 207 0
0.371431 2.525730 19.421226 208 208 208 0
0.445142 2.522469 19.396150 208 208 208 0
0.519380 2.522701 19.397932 208 208 208 0
0.592695 2.518955 19.369124 209 209 209 0
0.666291 2.517098 19.354847 209 209 209 0
0.738958 2.512456 19.319155 209 209 209 0
0.811168 2.507247 19.279104 209 209 209 0
0.884660 2.506536 19.273633 209 209 209 0
0.958208 2.506082 19.270139 209 209 209 0
1.030925 2.503676 19.251643 208 208 208 0
1.103459 2.501175 19.232408 209 209 209 0
1.175117 2.497124 19.201260 209 209 209 0
1.245829 2.491658 19.159233 209 209 209 0
1.317730 2.489045 19.139139 209 209 209 0
1.390161 2.487656 19.128461 209 209 209 0
1.462726 2.486635 19.120606 210 210 210 0
1.534266 2.484049 19.100726 209 209 209 0
1.604971 2.480410 19.072737 209 209 209 0
1.674958 2.476025 19.039020 210 210 210 0
1.745369 2.472606 19.012737 210 210 210 0
1.817124 2.471289 19.002604 210 210 210 0
1.887556 2.468342 18.979946 210 210 210 0
1.959725 2.467802 18.975791 210 210 210 0
2.029429 2.464306 18.948915 210 210 210 0
2.101186 2.463459 18.942398 210 210 210 0
2.168561 2.457703 18.898136 210 210 210 0
2.237312 2.453826 18.868325 210 210 210 0
2.308752 2.453049 18.862349 210 210 210 0
2.379660 2.451771 18.852526 210 210 210 0
2.450109 2.450109 18.839746 210 210 210 0
2.518673 2.446711 18.813621 211 211 211 0
2.585405 2.441771 18.775635 211 211 211 0
2.651905 2.436886 18.738066 211 211 211 0
2.721524 2.435048 18.723935 211 211 211 0
2.792951 2.434881 18.722649 211 211 211 0
2.863494 2.433970 18.715645 211 211 211 0
2.931204 2.430754 18.690922 212 212 212 0
2.997228 2.426328 18.656883 212 212 212 0
3.062016 2.421129 18.616911 211 211 211 0
3.131494 2.419791 18.606621 211 211 211 0
3.201106 2.418613 18.597565 212 212 212 0
3.270259 2.417148 18.586299 212 212 212 0
3.336051 2.413313 18.556812 212 212 212 0
3.406986 2.413282 18.556568 211 211 211 0
3.470854 2.408348 18.518628 212 212 212 0
3.535906 2.404416 18.488396 211 211 211 0
3.601616 2.401077 18.462724 212 212 212 0
3.669347 2.399189 18.448202 212 212 212 0
3.741508 2.400212 18.456074 212 212 212 0
3.807215 2.397136 18.432416 211 211 211 0
3.870974 2.392966 18.400350 212 212 212 0
3.935779 2.389580 18.374319 211 211 211 0
3.995980 2.383567 18.328082 209 209 209 0
4.046165 2.371890 18.238293 142 142 142 0
-6.554980 2.867804 21.421503 199 199 199 0
-6.478563 2.870250 21.439773 199 199 199 0
-6.385311 2.865204 21.402081 199 199 199 0
-6.274994 2.852270 21.305472 199 199 199 0
-6.172404 2.842555 21.232901 199 199 199 0
-6.101649 2.847436 21.269365 199 199 199 0
-6.019643 2.847128 21.267065 199 199 199 0
-5.938140 2.847054 21.266507 200 200 200 0
-5.851488 2.844474 21.247235 199 199 199 0
-5.752444 2.835712 21.181787 200 200 200 0
-5.649183 2.824592 21.098723 200 200 200 0
-5.571905 2.826328 21.111697 200 200 200 0
-5.492757 2.827154 21.117864 200 200 200 0
-5.419440 2.831051 21.146969 201 201 201 0
-5.313634 2.817836 21.048264 201 201 201 0
-5.242023 2.822628 21.084052 200 200 200 0
-5.142467 2.812286 21.006808 201 201 201 0
-5.052796 2.807109 20.968134 201 201 201 0
-4.971301 2.806380 20.962686 201 201 201 0
-4.897413 2.809991 20.989662 201 201 201 0
-4.800564 2.800329 20.917489 201 201 201 0
-4.719006 2.799411 20.910630 202 202 202 0
-4.617886 2.786655 20.815353 202 202 202 0
-4.536769 2.785736 20.808483 202 202 202 0
-4.462114 2.788821 20.831532 202 202 202 0
-4.381352 2.788133 20.826391 202 202 202 0
-4.295888 2.784372 20.798296 202 202 202 0
-4.209538 2.779884 20.764771 202 202 202 0
-4.115920 2.770331 20.693415 202 202 202 0
-4.035099 2.769185 20.684858 202 202 202 0
-3.955376 2.768763 20.681703 202 202 202 0
-3.867260 2.762329 20.633643 202 202 202 0
-3.793465 2.766068 20.661573 202 202 202 0
-3.708184 2.761413 20.626804 203 203 203 0
-3.610510 2.747127 20.520090 203 203 203 0
-3.531073 2.746390 20.514587 203 203 203 0
-3.455519 2.748709 20.531904 203 203 203 0
-3.376238 2.748100 20.527361 203 203 203 0
-3.291456 2.742880 20.488364 203 203 203 0
-3.210774 2.740905 20.473613 203 203 203 0
-3.125828 2.735099 20.430246 203 203 203 0
-3.043633 2.731465 20.403100 204 204 204 0
-2.960772 2.727027 20.369950 203 203 203 0
-2.883242 2.727391 20.372669 204 204 204 0
-2.804856 2.726944 20.369326 204 204 204 0
-2.720826 2.720826 20.323629 204 204 204 0
-2.638139 2.715731 20.285573 204 204 204 0
-2.556129 2.711046 20.250574 205 205 205 0
-2.474069 2.706013 20.212979 205 205 205 0
-2.398975 2.708520 20.231706 204 204 204 0
-2.320981 2.707811 20.226414 205 205 205 0
-2.237772 2.700760 20.173743 205 205 205 0
-2.157012 2.696265 20.140171 205 205 205 0
-2.075563 2.690545 20.097440 205 205 205 0
-1.998618 2.690448 20.096714 205 205 205 0
-1.917619 2.684666 20.053531 205 205 205 0
-1.842644 2.687189 20.072377 205 205 205 0
-1.763044 2.682893 20.040282 205 205 205 0
-1.682419 2.676575 19.993094 205 205 205 0
-1.606249 2.677082 19.996874 206 206 206 0
-1.525551 2.669714 19.941841 206 206 206 0
-1.448768 2.668782 19.934883 206 206 206 0
-1.371459 2.666725 19.919516 206 206 206 0
-1.294177 2.664482 19.902764 206 206 206 0
-1.217733 2.663791 19.897601 206 206 206 0
-1.137658 2.654535 19.828461 206 206 206 0
-1.060653 2.651633 19.806780 206 206 206 0
-0.984243 2.649886 19.793732 206 206 206 0
-0.907670 2.647371 19.774944 206 206 206 0
-0.832057 2.647453 19.775559 206 206 206 0
-0.755445 2.644057 19.750194 207 207 207 0
-0.678523 2.638700 19.710178 207 207 207 0
-0.601971 2.633623 19.672253 206 206 206 0
-0.526284 2.631418 19.655782 207 207 207 0
-0.450977 2.630700 19.650423 207 207 207 0
-0.375556 2.628895 19.636937 208 208 208 0
-0.300222 2.626939 19.622324 208 208 208 0
-0.224788 2.622527 19.589371 208 208 208 0
-0.149460 2.615548 19.537238 207 207 207 0
-0.074616 2.611571 19.507536 208 208 208 0
0.000000 2.610687 19.500933 207 207 207 0
0.074613 2.611448 19.506612 208 208 208 0
0.149198 2.610956 19.502942 208 208 208 0
0.223297 2.605137 19.459470 208 208 208 0
0.297074 2.599399 19.416611 208 208 208 0
0.370717 2.595022 19.383919 208 208 208 0
0.444886 2.595167 19.385001 207 207 207 0
0.518365 2.591824 19.360027 208 208 208 0
0.592165 2.590722 19.351800 209 209 209 0
0.665699 2.588829 19.337658 208 208 208 0
0.738251 2.583879 19.300685 208 208 208 0
0.810291 2.578198 19.258251 208 208 208 0
0.882595 2.574236 19.228650 209 209 209 0
0.956558 2.575349 19.236968 208 208 208 0
1.029408 2.573520 19.223302 208 208 208 0
1.102379 2.572219 19.213584 209 209 209 0
1.173771 2.567625 19.179270 209 209 209 0
1.244337 2.561871 19.136288 210 210 210 0
1.316363 2.559595 19.119287 209 209 209 0
1.387743 2.556369 19.095192 209 209 209 0
1.461053 2.556843 19.098730 210 210 210 0
1.532662 2.554437 19.080759 210 210 210 0
1.603117 2.550413 19.050701 209 209 209 0
1.673561 2.546724 19.023148 209 209 209 0
1.742447 2.541068 18.980902 209 209 209 0
1.814437 2.540211 18.974500 210 210 210 0
1.885250 2.537837 18.956766 210 210 210 0
1.955991 2.535544 18.939637 210 210 210 0
2.028025 2.535031 18.935804 210 210 210 0
2.098346 2.532486 18.916798 210 210 210 0
2.163773 2.524402 18.856413 210 210 210 0
2.234724 2.523076 18.846506 211 211 211 0
2.305172 2.521282 18.833106 211 211 211 0
2.374117 2.518003 18.808611 210 210 210 0
2.447471 2.519455 18.819458 211 211 211 0
2.515449 2.515449 18.789537 210 210 210 0
2.583073 2.511321 18.758699 210 210 210 0
2.649077 2.505884 18.718085 211 211 211 0
2.718227 2.503630 18.701252 211 211 211 0
2.789648 2.503531 18.700509 211 211 211 0
2.859747 2.502279 18.691158 211 211 211 0
2.926531 2.498259 18.661128 211 211 211 0
2.992548 2.493790 18.627751 211 211 211 0
3.059464 2.490261 18.601390 212 212 212 0
3.125502 2.486195 18.571014 211 211 211 0
3.195310 2.485241 18.563894 212 212 212 0
3.265468 2.484595 18.559067 211 211 211 0
3.333065 2.482070 18.540206 211 211 211 0
3.401434 2.480212 18.526328 212 212 212 0
3.466331 2.475951 18.494497 212 212 212 0
3.533019 2.473114 18.473304 212 212 212 0
3.599132 2.469993 18.449993 212 212 212 0
3.664065 2.466198 18.421644 211 211 211 0
3.735627 2.466923 18.427065 212 212 212 0
3.801095 2.463673 18.402785 212 212 212 0
3.865942 2.460145 18.376430 212 212 212 0
3.930145 2.456341 18.348015 211 211 211 0
3.992624 2.451611 18.312690 210 210 210 0
4.039228 2.437465 18.207024 152 152 152 0
-6.553732 2.949179 21.417424 199 199 199 0
-6.459499 2.943569 21.376682 199 199 199 0
-6.369828 2.939921 21.350186 199 199 199 0
-6.259704 2.926615 21.253557 199 199 199 0
-6.185121 2.929794 21.276644 199 199 199 0
-6.081616 2.919176 21.199532 200 200 200 0
-6.016524 2.926958 21.256048 200 200 200 0
-5.935211 2.926953 21.256016 200 200 200 0
-5.837434 2.918717 21.196200 200 200 200 0
-5.733589 2.907172 21.112360 199 199 199 0
-5.649045 2.905223 21.098209 200 200 200 0
-5.563073 2.902473 21.078233 200 200 200 0
-5.489527 2.906220 21.105448 200 200 200 0
-5.402632 2.902907 21.081385 201 201 201 0
-5.321001 2.902364 21.077443 200 200 200 0
-5.231265 2.897316 21.040783 201 201 201 0
-5.130274 2.885779 20.957003 201 201 201 0
-5.047652 2.884373 20.946788 201 201 201 0
-4.970864 2.886308 20.960844 201 201 201 0
-4.882752 2.881624 20.926826 201 201 201 0
-4.796202 2.877721 20.898483 201 201 201 0
-4.702158 2.869113 20.835972 202 202 202 0
-4.614053 2.863895 20.798075 201 201 201 0
-4.533230 2.863093 20.792250 201 201 201 0
-4.455360 2.864160 20.800000 202 202 202 0
-4.375935 2.864248 20.800641 202 202 202 0
-4.289107 2.859405 20.765468 202 202 202 0
-4.198151 2.851574 20.708600 202 202 202 0
-4.109179 2.844817 20.659525 202 202 202 0
-4.027795 2.843150 20.647420 202 202 202 0
-3.949375 2.843550 20.650326 203 203 203 0
-3.865377 2.839869 20.623594 203 203 203 0
-3.782950 2.837213 20.604304 202 202 202 0
-3.698305 2.832744 20.571852 203 203 203 0
-3.610592 2.825681 20.520557 202 202 202 0
-3.525788 2.820630 20.483879 203 203 203 0
-3.446761 2.820077 20.479863 203 203 203 0
-3.369304 2.820813 20.485206 203 203 203 0
-3.289507 2.819577 20.476234 204 204 204 0
-3.204023 2.813289 20.430566 203 203 203 0
-3.117997 2.806197 20.379063 203 203 203 0
-3.034223 2.800821 20.340025 204 204 204 0
-2.953934 2.798464 20.322906 204 204 204 0
-2.876567 2.798822 20.325503 204 204 204 0
-2.802865 2.802865 20.354866 204 204 204 0
-2.720265 2.797987 20.319443 204 204 204 0
-2.634311 2.789270 20.256138 205 205 205 0
-2.551251 2.783182 20.211928 205 205 205 0
-2.472640 2.781720 20.201304 204 204 204 0
-2.395742 2.782152 20.204443 205 205 205 0
-2.316222 2.779466 20.184940 205 205 205 0
-2.235776 2.775446 20.155746 204 204 204 0
-2.153865 2.769256 20.110789 205 205 205 0
-2.074944 2.766591 20.091441 205 205 205 0
-1.995672 2.763238 20.067091 205 205 205 0
-1.917104 2.760630 20.048150 205 205 205 0
-1.841088 2.761632 20.055425 205 205 205 0
-1.762310 2.758399 20.031946 205 205 205 0
-1.681685 2.751849 19.984375 205 205 205 0
-1.602637 2.747377 19.951906 206 206 206 0
-1.523760 2.742769 19.918437 206 206 206 0
-1.446284 2.740327 19.900703 205 205 205 0
-1.370072 2.740143 19.899368 206 206 206 0
-1.292003 2.736006 19.869322 206 206 206 0
-1.215487 2.734846 19.860902 206 206 206 0
-1.136779 2.728269 19.813137 206 206 206 0
-1.058905 2.722898 19.774135 206 206 206 0
-0.982600 2.721046 19.760681 207 207 207 0
-0.907122 2.721366 19.763006 207 207 207 0
-0.830523 2.718075 19.739110 206 206 206 0
-0.754627 2.716657 19.728807 206 206 206 0
-0.677292 2.709167 19.674415 206 206 206 0
-0.601430 2.706433 19.654561 208 208 208 0
-0.525952 2.704894 19.643384 207 207 207 0
-0.450186 2.701113 19.615928 207 207 207 0
-0.374839 2.698841 19.599426 207 207 207 0
-0.299699 2.697288 19.588150 207 207 207 0
-0.224296 2.691554 19.546510 207 207 207 0
-0.149296 2.687330 19.515831 208 208 208 0
-0.074547 2.683691 19.489405 207 207 207 0
0.000000 2.682746 19.482544 208 208 208 0
0.074553 2.683908 19.490979 208 208 208 0
0.148818 2.678727 19.453355 208 208 208 0
0.222920 2.675039 19.426570 208 208 208 0
0.296721 2.670486 19.393509 208 208 208 0
0.370431 2.667105 19.368956 209 209 209 0
0.444149 2.664894 19.352895 208 208 208 0
0.517647 2.662185 19.333223 208 208 208 0
0.591552 2.661985 19.331772 209 209 209 0
0.664625 2.658499 19.306457 209 209 209 0
0.737114 2.653609 19.270947 208 208 208 0
0.808994 2.647615 19.227418 208 208 208 0
0.881514 2.644542 19.205099 208 208 208 0
0.954911 2.644369 19.203845 209 209 209 0
1.027941 2.643277 19.195908 209 209 209 0
1.100314 2.640754 19.177588 210 210 210 0
1.171556 2.636001 19.143071 209 209 209 0
1.242915 2.632055 19.114418 209 209 209 0
1.314795 2.629590 19.096512 209 209 209 0
1.385573 2.625296 19.065333 210 210 210 0
1.458510 2.625319 19.065496 209 209 209 0
1.531035 2.624631 19.060501 210 210 210 0
1.600605 2.619172 19.020860 210 210 210 0
1.671571 2.616372 19.000525 210 210 210 0
1.740466 2.610699 18.959322 209 209 209 0
1.811339 2.608328 18.942108 210 210 210 0
1.883646 2.608125 18.940630 210 210 210 0
1.953643 2.604857 18.916900 211 211 211 0
2.024388 2.602784 18.901845 210 210 210 0
2.092812 2.597974 18.866912 210 210 210 0
2.161900 2.594280 18.840088 211 211 211 0
2.231378 2.591278 18.818286 211 211 211 0
2.301381 2.589053 18.802128 210 210 210 0
2.371465 2.587052 18.787598 211 211 211 0
2.443385 2.587114 18.788045 211 211 211 0
2.511412 2.583167 18.759380 210 210 210 0
2.578551 2.578551 18.725859 210 210 210 0
2.646388 2.574864 18.699086 210 210 210 0
2.715229 2.572322 18.680627 211 211 211 0
2.784382 2.570199 18.665204 211 211 211 0
2.854969 2.569473 18.659931 211 211 211 0
2.921386 2.565119 18.628318 211 211 211 0
2.991092 2.563793 18.618685 211 211 211 0
3.055508 2.558100 18.577342 211 211 211 0
3.123721 2.555772 18.560435 212 212 212 0
3.189669 2.551736 18.531123 211 211 211 0
3.259643 2.551025 18.525964 212 212 212 0
3.329311 2.550111 18.519321 212 212 212 0
3.397276 2.547957 18.503683 211 211 211 0
3.460720 2.542570 18.464558 212 212 212 0
3.526952 2.539406 18.441581 211 211 211 0
3.592211 2.535678 18.414513 212 212 212 0
3.660486 2.534183 18.403652 212 212 212 0
3.730019 2.533598 18.399404 212 212 212 0
3.799083 2.532722 18.393043 211 211 211 0
3.863090 2.528568 18.362878 212 212 212 0
3.924453 2.522863 18.321443 213 213 213 0
3.986889 2.518035 18.286387 211 211 211 0
4.036935 2.505684 18.196685 164 164 164 0
-6.533101 3.021559 21.350003 198 198 198 0
-6.467421 3.029045 21.402898 198 198 198 0
-6.354141 3.014144 21.297608 199 199 199 0
-6.266233 3.011047 21.275726 199 199 199 0
-6.162613 3.000219 21.199218 199 199 199 0
-6.088746 3.003782 21.224388 199 199 199 0
-6.012061 3.006031 21.240279 200 200 200 0
-5.926152 3.003666 21.223571 200 200 200 0
-5.827625 2.994752 21.160585 200 200 200 0
-5.740185 2.991364 21.136649 199 199 199 0
-5.641730 2.982057 21.070886 200 200 200 0
-5.554094 2.978282 21.044213 200 200 200 0
-5.483095 2.983449 21.080720 201 201 201 0
-5.399058 2.981569 21.067438 200 200 200 0
-5.313933 2.979023 21.049449 200 200 200 0
-5.216863 2.969599 20.982859 200 200 200 0
-5.126592 2.963811 20.941961 201 201 201 0
-5.041092 2.960641 20.919563 201 201 201 0
-4.955484 2.957305 20.895990 201 201 201 0
-4.876567 2.957918 20.900320 201 201 201 0
-4.794840 2.956818 20.892549 202 202 202 0
-4.704386 2.950208 20.845845 202 202 202 0
-4.608515 2.939915 20.773113 201 201 201 0
-4.527091 2.938638 20.764091 202 202 202 0
-4.441953 2.934862 20.737411 202 202 202 0
-4.369090 2.939206 20.768106 202 202 202 0
-4.287285 2.937584 20.756643 202 202 202 0
-4.193986 2.927877 20.688055 202 202 202 0
-4.104050 2.920189 20.633736 203 203 203 0
-4.021436 2.917512 20.614820 202 202 202 0
-3.942019 2.917094 20.611866 202 202 202 0
-3.858042 2.913216 20.584459 202 202 202 0
-3.779505 2.913368 20.585538 203 203 203 0
-3.695097 2.908906 20.554009 202 202 202 0
-3.605550 2.900116 20.491900 203 203 203 0
-3.521475 2.895435 20.458821 203 203 203 0
-3.443304 2.895506 20.459323 204 204 204 0
-3.364562 2.895088 20.456374 203 203 203 0
-3.280629 2.890078 20.420970 203 203 203 0
-3.202782 2.890316 20.422650 203 203 203 0
-3.115413 2.881757 20.362177 203 203 203 0
-3.032585 2.877068 20.329043 204 204 204 0
-2.952495 2.874798 20.313006 204 204 204 0
-2.874633 2.874633 20.311838 204 204 204 0
-2.794602 2.872229 20.294855 204 204 204 0
-2.713835 2.868911 20.271411 204 204 204 0
-2.630592 2.862703 20.227544 205 205 205 0
-2.550387 2.859525 20.205085 205 205 205 0
-2.469496 2.855355 20.175621 204 204 204 0
-2.391068 2.853855 20.165025 205 205 205 0
-2.314980 2.855142 20.174117 205 205 205 0
-2.232291 2.848095 20.124325 204 204 204 0
-2.151331 2.842831 20.087126 205 205 205 0
-2.068858 2.835102 20.032514 205 205 205 0
-1.991545 2.834121 20.025586 205 205 205 0
-1.915093 2.834338 20.027117 205 205 205 0
-1.837547 2.832884 20.016848 205 205 205 0
-1.759885 2.831119 20.004377 206 206 206 0
-1.679993 2.825442 19.964262 205 205 205 0
-1.600468 2.819872 19.924902 205 205 205 0
-1.522079 2.815847 19.896464 206 206 206 0
-1.445427 2.814780 19.888922 205 205 205 0
-1.367152 2.810257 19.856968 206 206 206 0
-1.292019 2.812041 19.869570 206 206 206 0
-1.212733 2.804445 19.815901 207 207 207 0
-1.135247 2.800275 19.786432 207 207 207 0
-1.058507 2.797482 19.766699 206 206 206 0
-0.981344 2.793057 19.735434 207 207 207 0
-0.904631 2.789278 19.708730 207 207 207 0
-0.829930 2.791583 19.725014 207 207 207 0
-0.753701 2.788692 19.704589 206 206 206 0
-0.676536 2.781313 19.652448 207 207 207 0
-0.600602 2.777784 19.627511 207 207 207 0
-0.524501 2.772364 19.589220 208 208 208 0
-0.449564 2.772312 19.588850 207 207 207 0
-0.374671 2.772568 19.590657 207 207 207 0
-0.299438 2.769804 19.571129 207 207 207 0
-0.224205 2.765190 19.538527 207 207 207 0
-0.149045 2.757332 19.483001 207 207 207 0
-0.074454 2.754788 19.465030 208 208 208 0
0.000000 2.753319 19.454650 208 208 208 0
0.074367 2.751563 19.442240 208 208 208 0
0.148677 2.750520 19.434872 208 208 208 0
0.222667 2.746222 19.404499 208 208 208 0
0.296311 2.740874 19.366716 207 207 207 0
0.370001 2.738004 19.346437 208 208 208 0
0.443253 2.733395 19.313866 209 209 209 0
0.517328 2.734450 19.321325 209 209 209 0
0.590692 2.731952 19.303671 208 208 208 0
0.663758 2.728784 19.281287 209 209 209 0
0.736225 2.724032 19.247705 208 208 208 0
0.807798 2.717137 19.198992 208 208 208 0
0.880494 2.714856 19.182869 209 209 209 0
0.953886 2.714907 19.183232 208 208 208 0
1.026169 2.712018 19.162823 209 209 209 0
1.098918 2.710663 19.153249 209 209 209 0
1.170375 2.706492 19.123773 209 209 209 0
1.241126 2.701275 19.086909 209 209 209 0
1.312388 2.697686 19.061553 209 209 209 0
1.384414 2.695964 19.049382 209 209 209 0
1.456778 2.695039 19.042849 210 210 210 0
1.527555 2.691407 19.017186 209 209 209 0
1.598205 2.687890 18.992334 210 210 210 0
1.669590 2.685863 18.978009 210 210 210 0
1.739269 2.681372 18.946280 210 210 210 0
1.809133 2.677518 18.919043 210 210 210 0
1.879918 2.675268 18.903149 210 210 210 0
1.952017 2.674986 18.901154 210 210 210 0
2.022527 2.672625 18.884476 210 210 210 0
2.092645 2.669927 18.865408 210 210 210 0
2.159456 2.663329 18.818791 211 211 211 0
2.229001 2.660420 18.798237 211 211 211 0
2.298309 2.657419 18.777032 210 210 210 0
2.368121 2.655166 18.761110 210 210 210 0
2.439739 2.655010 18.760005 211 211 211 0
2.509084 2.652460 18.741987 210 210 210 0
2.574581 2.646097 18.697032 211 211 211 0
2.641998 2.641998 18.668064 211 211 211 0
2.711085 2.639740 18.652114 211 211 211 0
2.780380 2.637797 18.638379 211 211 211 0
2.850429 2.636647 18.630257 211 211 211 0
2.918870 2.634103 18.612277 212 212 212 0
2.987136 2.631525 18.594064 211 211 211 0
3.053298 2.627256 18.563903 211 211 211 0
3.118450 2.622333 18.529116 211 211 211 0
3.187203 2.620589 18.516792 211 211 211 0
3.255152 2.618274 18.500438 212 212 212 0
3.324051 2.616806 18.490060 211 211 211 0
3.394310 2.616447 18.487528 212 212 212 0
3.458289 2.611361 18.451589 212 212 212 0
3.524426 2.608075 18.428372 212 212 212 0
3.586943 2.602292 18.387509 212 212 212 0
3.654227 2.600123 18.372182 212 212 212 0
3.725566 2.600867 18.377439 212 212 212 0
3.794303 2.599800 18.369902 211 211 211 0
3.857580 2.595099 18.336683 212 212 212 0
3.920236 2.590156 18.301756 212 212 212 0
3.983119 2.585533 18.269092 212 212 212 0
4.032673 2.572567 18.177477 170 170 170 0
4.089021 2.564301 18.119069 77 77 77 0
-6.532852 3.103105 21.349189 198 198 198 0
-6.430869 3.093329 21.281936 198 198 198 0
-6.337406 3.087454 21.241514 199 199 199 0
-6.252700 3.085748 21.229778 199 199 199 0
-6.156004 3.078002 21.176483 200 200 200 0
-6.069143 3.075033 21.156055 200 200 200 0
-5.995713 3.078880 21.182522 199 199 199 0
-5.896541 3.069432 21.117526 200 200 200 0
-5.823131 3.073319 21.144268 200 200 200 0
-5.729624 3.066559 21.097759 200 200 200 0
-5.639816 3.061615 21.063740 199 199 199 0
-5.540306 3.051183 20.991971 201 201 201 0
-5.477224 3.060802 21.058147 200 200 200 0
-5.381990 3.052472 21.000837 201 201 201 0
-5.295971 3.049196 20.978299 200 200 200 0
-5.206681 3.043906 20.941905 201 201 201 0
-5.117495 3.038513 20.904801 201 201 201 0
-5.029350 3.033576 20.870839 201 201 201 0
-4.953974 3.036306 20.889621 201 201 201 0
-4.870219 3.033907 20.873113 201 201 201 0
-4.785534 3.030838 20.852000 202 202 202 0
-4.696336 3.024759 20.810172 201 201 201 0
-4.598446 3.012775 20.727725 201 201 201 0
-4.527202 3.018135 20.764602 202 202 202 0
-4.438642 3.011936 20.721951 201 201 201 0
-4.358886 3.011594 20.719601 201 201 201 0
-4.271488 3.005862 20.680165 202 202 202 0
-4.189347 3.003683 20.665172 202 202 202 0
-4.100224 2.996318 20.614500 202 202 202 0
-4.016489 2.992678 20.589459 202 202 202 0
-3.934817 2.990461 20.574208 203 203 203 0
-3.851824 2.987129 20.551280 203 203 203 0
-3.775178 2.988682 20.561970 202 202 202 0
-3.689543 2.983035 20.523114 202 202 202 0
-3.600971 2.974715 20.465874 203 203 203 0
-3.514777 2.968034 20.419908 203 203 203 0
-3.437471 2.968725 20.424666 203 203 203 0
-3.360105 2.969395 20.429277 203 203 203 0
-3.280052 2.967666 20.417380 203 203 203 0
-3.195815 2.961975 20.378226 204 204 204 0
-3.107674 2.952290 20.311596 204 204 204 0
-3.025793 2.948208 20.283511 204 204 204 0
-2.947772 2.947772 20.280507 204 204 204 0
-2.867933 2.945445 20.264501 204 204 204 0
-2.792868 2.948027 20.282266 204 204 204 0
-2.709594 2.941845 20.239735 204 204 204 0
-2.627305 2.936399 20.202266 204 204 204 0
-2.547722 2.933740 20.183969 204 204 204 0
-2.464065 2.926077 20.131246 204 204 204 0
-2.387807 2.926989 20.137524 205 205 205 0
-2.311757 2.928226 20.146032 205 205 205 0
-2.229455 2.921355 20.098760 205 205 205 0
-2.149870 2.917680 20.073480 205 205 205 0
-2.068394 2.911073 20.028020 204 204 204 0
-1.990657 2.909422 20.016663 206 206 206 0
-1.910154 2.903435 19.975471 206 206 206 0
-1.834404 2.904474 19.982618 206 206 206 0
-1.757015 2.902894 19.971751 205 205 205 0
-1.676684 2.896090 19.924938 205 205 205 0
-1.597205 2.890181 19.884286 206 206 206 0
-1.520032 2.888061 19.869703 205 205 205 0
-1.442428 2.884856 19.847650 206 206 206 0
-1.366200 2.884199 19.843132 206 206 206 0
-1.289878 2.883258 19.836654 206 206 206 0
-1.210462 2.874848 19.778796 206 206 206 0
-1.134741 2.874677 19.777621 206 206 206 0
-1.056097 2.866548 19.721691 207 207 207 0
-0.979727 2.863816 19.702897 207 207 207 0
-0.903903 2.862359 19.692870 207 207 207 0
-0.828346 2.861560 19.687378 207 207 207 0
-0.752607 2.859907 19.676002 206 206 206 0
-0.676607 2.856786 19.654532 207 207 207 0
-0.599737 2.848751 19.599251 207 207 207 0
-0.523858 2.843803 19.565207 207 207 207 0
-0.448953 2.843371 19.562235 207 207 207 0
-0.374014 2.842504 19.556272 207 207 207 0
-0.299026 2.840749 19.544199 207 207 207 0
-0.223853 2.835467 19.507858 207 207 207 0
-0.148870 2.828530 19.460128 208 208 208 0
-0.074381 2.826465 19.445924 208 208 208 0
0.000000 2.821906 19.414558 208 208 208 0
0.074263 2.821982 19.415083 207 207 207 0
0.148459 2.820715 19.406361 208 208 208 0
0.222283 2.815585 19.371069 208 208 208 0
0.296052 2.812497 19.349824 208 208 208 0
0.369122 2.805326 19.300490 208 208 208 0
0.442503 2.802518 19.281168 208 208 208 0
0.516063 2.801486 19.274071 209 209 209 0
0.590088 2.802917 19.283915 208 208 208 0
0.662757 2.798307 19.252196 208 208 208 0
0.734993 2.792972 19.215496 209 209 209 0
0.807270 2.788752 19.186461 208 208 208 0
0.878906 2.783201 19.148272 209 209 209 0
0.952536 2.784335 19.156069 209 209 209 0
