ply
format ascii 1.0
element vertex 1097
property float x
property float y
property float z
property uchar red
property uchar green
property uchar blue
property uchar alpha
end_header
6.486435 -8.506800 27.800000 206 206 206 0
6.592770 -8.506800 27.800000 205 205 205 0
6.699105 -8.506800 27.800000 206 206 206 0
6.805440 -8.506800 27.800000 205 205 205 0
6.911775 -8.506800 27.800000 206 206 206 0
7.018110 -8.506800 27.800000 206 206 206 0
7.124445 -8.506800 27.800000 206 206 206 0
7.230780 -8.506800 27.800000 206 206 206 0
7.337115 -8.506800 27.800000 206 206 206 0
7.443450 -8.506800 27.800000 206 206 206 0
9.374862 -10.563224 34.520341 206 206 206 0
9.637333 -10.708147 34.993946 206 206 206 0
9.769012 -10.705766 34.986164 206 206 206 0
7.305578 -7.897922 25.810203 206 206 206 0
8.199748 -8.746397 28.582998 206 206 206 0
14.592471 -15.360496 50.197699 206 206 206 0
10.558345 -10.969709 35.848723 206 206 206 0
11.544443 -11.840454 38.694295 206 206 206 0
11.195682 -11.337400 37.050326 205 205 205 0
-8.506800 -8.400465 27.800000 197 197 197 0
-8.400465 -8.400465 27.800000 197 197 197 0
-8.294130 -8.400465 27.800000 198 198 198 0
-8.187795 -8.400465 27.800000 198 198 198 0
-8.081460 -8.400465 27.800000 197 197 197 0
-7.975125 -8.400465 27.800000 197 197 197 0
-7.868790 -8.400465 27.800000 197 197 197 0
-7.762455 -8.400465 27.800000 197 197 197 0
-7.656120 -8.400465 27.800000 197 197 197 0
-7.549785 -8.400465 27.800000 198 198 198 0
-7.443450 -8.400465 27.800000 198 198 198 0
-7.337115 -8.400465 27.800000 198 198 198 0
-7.230780 -8.400465 27.800000 198 198 198 0
-7.124445 -8.400465 27.800000 198 198 198 0
-7.018110 -8.400465 27.800000 198 198 198 0
-6.911775 -8.400465 27.800000 198 198 198 0
-6.805440 -8.400465 27.800000 198 198 198 0
-6.699105 -8.400465 27.800000 198 198 198 0
-6.592770 -8.400465 27.800000 199 199 199 0
-6.486435 -8.400465 27.800000 199 199 199 0
-6.380100 -8.400465 27.800000 199 199 199 0
-6.273765 -8.400465 27.800000 199 199 199 0
-6.167430 -8.400465 27.800000 199 199 199 0
-6.061095 -8.400465 27.800000 199 199 199 0
-5.954760 -8.400465 27.800000 199 199 199 0
-5.848425 -8.400465 27.800000 199 199 199 0
-5.742090 -8.400465 27.800000 200 200 200 0
-5.635755 -8.400465 27.800000 200 200 200 0
-5.529420 -8.400465 27.800000 199 199 199 0
-5.423085 -8.400465 27.800000 200 200 200 0
-5.316750 -8.400465 27.800000 199 199 199 0
-5.210415 -8.400465 27.800000 200 200 200 0
-5.104080 -8.400465 27.800000 200 200 200 0
-4.997745 -8.400465 27.800000 200 200 200 0
-4.891410 -8.400465 27.800000 200 200 200 0
-4.785075 -8.400465 27.800000 200 200 200 0
-4.678740 -8.400465 27.800000 200 200 200 0
-4.572405 -8.400465 27.800000 201 201 201 0
-4.466070 -8.400465 27.800000 200 200 200 0
-4.359735 -8.400465 27.800000 201 201 201 0
-4.253400 -8.400465 27.800000 201 201 201 0
-4.147065 -8.400465 27.800000 201 201 201 0
-4.040730 -8.400465 27.800000 201 201 201 0
-3.934395 -8.400465 27.800000 200 200 200 0
-3.828060 -8.400465 27.800000 201 201 201 0
-3.721725 -8.400465 27.800000 200 200 200 0
-3.615390 -8.400465 27.800000 201 201 201 0
-3.509055 -8.400465 27.800000 201 201 201 0
-3.402720 -8.400465 27.800000 201 201 201 0
-3.296385 -8.400465 27.800000 201 201 201 0
-3.190050 -8.400465 27.800000 201 201 201 0
-3.083715 -8.400465 27.800000 201 201 201 0
-2.977380 -8.400465 27.800000 201 201 201 0
-2.871045 -8.400465 27.800000 201 201 201 0
-2.764710 -8.400465 27.800000 201 201 201 0
-2.658375 -8.400465 27.800000 201 201 201 0
-2.552040 -8.400465 27.800000 202 202 202 0
-2.445705 -8.400465 27.800000 202 202 202 0
-2.339370 -8.400465 27.800000 201 201 201 0
-2.233035 -8.400465 27.800000 202 202 202 0
-2.126700 -8.400465 27.800000 202 202 202 0
-2.020365 -8.400465 27.800000 202 202 202 0
-1.914030 -8.400465 27.800000 202 202 202 0
-1.807695 -8.400465 27.800000 202 202 202 0
-1.701360 -8.400465 27.800000 202 202 202 0
-1.595025 -8.400465 27.800000 202 202 202 0
-1.488690 -8.400465 27.800000 202 202 202 0
-1.382355 -8.400465 27.800000 202 202 202 0
-1.276020 -8.400465 27.800000 202 202 202 0
-1.169685 -8.400465 27.800000 203 203 203 0
-1.063350 -8.400465 27.800000 203 203 203 0
-0.957015 -8.400465 27.800000 203 203 203 0
-0.850680 -8.400465 27.800000 203 203 203 0
-0.744345 -8.400465 27.800000 202 202 202 0
-0.638010 -8.400465 27.800000 202 202 202 0
-0.531675 -8.400465 27.800000 203 203 203 0
-0.425340 -8.400465 27.800000 203 203 203 0
-0.319005 -8.400465 27.800000 203 203 203 0
-0.212670 -8.400465 27.800000 202 202 202 0
-0.106335 -8.400465 27.800000 203 203 203 0
0.000000 -8.400465 27.800000 203 203 203 0
0.106335 -8.400465 27.800000 203 203 203 0
0.212670 -8.400465 27.800000 204 204 204 0
0.319005 -8.400465 27.800000 203 203 203 0
0.425340 -8.400465 27.800000 204 204 204 0
0.531675 -8.400465 27.800000 204 204 204 0
0.638010 -8.400465 27.800000 203 203 203 0
0.744345 -8.400465 27.800000 204 204 204 0
0.850680 -8.400465 27.800000 203 203 203 0
0.957015 -8.400465 27.800000 203 203 203 0
1.063350 -8.400465 27.800000 203 203 203 0
1.169685 -8.400465 27.800000 204 204 204 0
1.276020 -8.400465 27.800000 204 204 204 0
1.382355 -8.400465 27.800000 204 204 204 0
1.488690 -8.400465 27.800000 204 204 204 0
1.595025 -8.400465 27.800000 204 204 204 0
1.701360 -8.400465 27.800000 204 204 204 0
1.807695 -8.400465 27.800000 204 204 204 0
1.914030 -8.400465 27.800000 204 204 204 0
2.020365 -8.400465 27.800000 204 204 204 0
2.126700 -8.400465 27.800000 204 204 204 0
2.233035 -8.400465 27.800000 205 205 205 0
2.339370 -8.400465 27.800000 204 204 204 0
2.445705 -8.400465 27.800000 205 205 205 0
2.552040 -8.400465 27.800000 205 205 205 0
2.658375 -8.400465 27.800000 204 204 204 0
2.764710 -8.400465 27.800000 205 205 205 0
2.871045 -8.400465 27.800000 204 204 204 0
2.977380 -8.400465 27.800000 204 204 204 0
3.083715 -8.400465 27.800000 204 204 204 0
3.190050 -8.400465 27.800000 204 204 204 0
3.296385 -8.400465 27.800000 204 204 204 0
3.402720 -8.400465 27.800000 205 205 205 0
3.509055 -8.400465 27.800000 204 204 204 0
3.615390 -8.400465 27.800000 205 205 205 0
3.721725 -8.400465 27.800000 205 205 205 0
3.828060 -8.400465 27.800000 205 205 205 0
3.934395 -8.400465 27.800000 205 205 205 0
4.040730 -8.400465 27.800000 205 205 205 0
4.147065 -8.400465 27.800000 205 205 205 0
4.253400 -8.400465 27.800000 205 205 205 0
4.359735 -8.400465 27.800000 205 205 205 0
4.466070 -8.400465 27.800000 205 205 205 0
4.572405 -8.400465 27.800000 205 205 205 0
4.678740 -8.400465 27.800000 205 205 205 0
4.785075 -8.400465 27.800000 205 205 205 0
4.891410 -8.400465 27.800000 205 205 205 0
4.997745 -8.400465 27.800000 205 205 205 0
5.104080 -8.400465 27.800000 205 205 205 0
5.210415 -8.400465 27.800000 205 205 205 0
5.316750 -8.400465 27.800000 205 205 205 0
5.423085 -8.400465 27.800000 205 205 205 0
5.529420 -8.400465 27.800000 205 205 205 0
5.635755 -8.400465 27.800000 206 206 206 0
5.742090 -8.400465 27.800000 206 206 206 0
5.848425 -8.400465 27.800000 206 206 206 0
5.954760 -8.400465 27.800000 206 206 206 0
6.061095 -8.400465 27.800000 205 205 205 0
6.167430 -8.400465 27.800000 205 205 205 0
6.273765 -8.400465 27.800000 206 206 206 0
6.380100 -8.400465 27.800000 206 206 206 0
6.486435 -8.400465 27.800000 205 205 205 0
6.592770 -8.400465 27.800000 205 205 205 0
6.699105 -8.400465 27.800000 205 205 205 0
6.805440 -8.400465 27.800000 205 205 205 0
6.911775 -8.400465 27.800000 206 206 206 0
7.018110 -8.400465 27.800000 206 206 206 0
7.124445 -8.400465 27.800000 206 206 206 0
7.230780 -8.400465 27.800000 206 206 206 0
7.337115 -8.400465 27.800000 206 206 206 0
7.443450 -8.400465 27.800000 206 206 206 0
7.549785 -8.400465 27.800000 206 206 206 0
9.608927 -10.543128 34.890801 206 206 206 0
9.752185 -10.553735 34.925904 206 206 206 0
7.868790 -8.400465 27.800000 206 206 206 0
9.973544 -10.505466 34.766165 206 206 206 0
3.957471 -4.113687 13.613590 206 206 206 0
10.295045 -10.562449 34.954742 206 206 206 0
10.152030 -10.282184 34.027249 206 206 206 0
11.609273 -11.609273 38.419037 207 207 207 0
-8.506800 -8.294130 27.800000 197 197 197 0
-8.400465 -8.294130 27.800000 197 197 197 0
-8.294130 -8.294130 27.800000 198 198 198 0
-8.187795 -8.294130 27.800000 197 197 197 0
-8.081460 -8.294130 27.800000 197 197 197 0
-7.975125 -8.294130 27.800000 197 197 197 0
-7.868790 -8.294130 27.800000 198 198 198 0
-7.762455 -8.294130 27.800000 198 198 198 0
-7.656120 -8.294130 27.800000 198 198 198 0
-7.549785 -8.294130 27.800000 198 198 198 0
-7.443450 -8.294130 27.800000 198 198 198 0
-7.337115 -8.294130 27.800000 199 199 199 0
-7.230780 -8.294130 27.800000 198 198 198 0
-7.124445 -8.294130 27.800000 198 198 198 0
-7.018110 -8.294130 27.800000 198 198 198 0
-6.911775 -8.294130 27.800000 198 198 198 0
-6.805440 -8.294130 27.800000 199 199 199 0
-6.699105 -8.294130 27.800000 199 199 199 0
-6.592770 -8.294130 27.800000 199 199 199 0
-6.486435 -8.294130 27.800000 199 199 199 0
-6.380100 -8.294130 27.800000 198 198 198 0
-6.273765 -8.294130 27.800000 199 199 199 0
-6.167430 -8.294130 27.800000 199 199 199 0
-6.061095 -8.294130 27.800000 198 198 198 0
-5.954760 -8.294130 27.800000 199 199 199 0
-5.848425 -8.294130 27.800000 199 199 199 0
-5.742090 -8.294130 27.800000 200 200 200 0
-5.635755 -8.294130 27.800000 200 200 200 0
-5.529420 -8.294130 27.800000 199 199 199 0
-5.423085 -8.294130 27.800000 200 200 200 0
-5.316750 -8.294130 27.800000 200 200 200 0
-5.210415 -8.294130 27.800000 199 199 199 0
-5.104080 -8.294130 27.800000 200 200 200 0
-4.997745 -8.294130 27.800000 200 200 200 0
-4.891410 -8.294130 27.800000 200 200 200 0
-4.785075 -8.294130 27.800000 200 200 200 0
-4.678740 -8.294130 27.800000 200 200 200 0
-4.572405 -8.294130 27.800000 201 201 201 0
-4.466070 -8.294130 27.800000 201 201 201 0
-4.359735 -8.294130 27.800000 200 200 200 0
-4.253400 -8.294130 27.800000 200 200 200 0
-4.147065 -8.294130 27.800000 200 200 200 0
-4.040730 -8.294130 27.800000 201 201 201 0
-3.934395 -8.294130 27.800000 200 200 200 0
-3.828060 -8.294130 27.800000 201 201 201 0
-3.721725 -8.294130 27.800000 201 201 201 0
-3.615390 -8.294130 27.800000 201 201 201 0
-3.509055 -8.294130 27.800000 201 201 201 0
-3.402720 -8.294130 27.800000 201 201 201 0
-3.296385 -8.294130 27.800000 201 201 201 0
-3.190050 -8.294130 27.800000 201 201 201 0
-3.083715 -8.294130 27.800000 202 202 202 0
-2.977380 -8.294130 27.800000 202 202 202 0
-2.871045 -8.294130 27.800000 201 201 201 0
-2.764710 -8.294130 27.800000 201 201 201 0
-2.658375 -8.294130 27.800000 202 202 202 0
-2.552040 -8.294130 27.800000 202 202 202 0
-2.445705 -8.294130 27.800000 201 201 201 0
-2.339370 -8.294130 27.800000 202 202 202 0
-2.233035 -8.294130 27.800000 202 202 202 0
-2.126700 -8.294130 27.800000 202 202 202 0
-2.020365 -8.294130 27.800000 202 202 202 0
-1.914030 -8.294130 27.800000 202 202 202 0
-1.807695 -8.294130 27.800000 202 202 202 0
-1.701360 -8.294130 27.800000 202 202 202 0
-1.595025 -8.294130 27.800000 203 203 203 0
-1.488690 -8.294130 27.800000 202 202 202 0
-1.382355 -8.294130 27.800000 202 202 202 0
-1.276020 -8.294130 27.800000 202 202 202 0
-1.169685 -8.294130 27.800000 203 203 203 0
-1.063350 -8.294130 27.800000 203 203 203 0
-0.957015 -8.294130 27.800000 203 203 203 0
-0.850680 -8.294130 27.800000 203 203 203 0
-0.744345 -8.294130 27.800000 202 202 202 0
-0.638010 -8.294130 27.800000 203 203 203 0
-0.531675 -8.294130 27.800000 203 203 203 0
-0.425340 -8.294130 27.800000 202 202 202 0
-0.319005 -8.294130 27.800000 203 203 203 0
-0.212670 -8.294130 27.800000 203 203 203 0
-0.106335 -8.294130 27.800000 202 202 202 0
0.000000 -8.294130 27.800000 203 203 203 0
0.106335 -8.294130 27.800000 203 203 203 0
0.212670 -8.294130 27.800000 204 204 204 0
0.319005 -8.294130 27.800000 203 203 203 0
0.425340 -8.294130 27.800000 204 204 204 0
0.531675 -8.294130 27.800000 204 204 204 0
0.638010 -8.294130 27.800000 204 204 204 0
0.744345 -8.294130 27.800000 204 204 204 0
0.850680 -8.294130 27.800000 204 204 204 0
0.957015 -8.294130 27.800000 204 204 204 0
1.063350 -8.294130 27.800000 204 204 204 0
1.169685 -8.294130 27.800000 204 204 204 0
1.276020 -8.294130 27.800000 204 204 204 0
1.382355 -8.294130 27.800000 204 204 204 0
1.488690 -8.294130 27.800000 204 204 204 0
1.595025 -8.294130 27.800000 204 204 204 0
1.701360 -8.294130 27.800000 204 204 204 0
1.807695 -8.294130 27.800000 204 204 204 0
1.914030 -8.294130 27.800000 204 204 204 0
2.020365 -8.294130 27.800000 204 204 204 0
2.126700 -8.294130 27.800000 204 204 204 0
2.233035 -8.294130 27.800000 205 205 205 0
2.339370 -8.294130 27.800000 205 205 205 0
2.445705 -8.294130 27.800000 204 204 204 0
2.552040 -8.294130 27.800000 204 204 204 0
2.658375 -8.294130 27.800000 204 204 204 0
2.764710 -8.294130 27.800000 205 205 205 0
2.871045 -8.294130 27.800000 204 204 204 0
2.977380 -8.294130 27.800000 205 205 205 0
3.083715 -8.294130 27.800000 205 205 205 0
3.190050 -8.294130 27.800000 205 205 205 0
3.296385 -8.294130 27.800000 205 205 205 0
3.402720 -8.294130 27.800000 204 204 204 0
3.509055 -8.294130 27.800000 205 205 205 0
3.615390 -8.294130 27.800000 205 205 205 0
3.721725 -8.294130 27.800000 205 205 205 0
3.828060 -8.294130 27.800000 205 205 205 0
3.934395 -8.294130 27.800000 205 205 205 0
4.040730 -8.294130 27.800000 205 205 205 0
4.147065 -8.294130 27.800000 206 206 206 0
4.253400 -8.294130 27.800000 205 205 205 0
4.359735 -8.294130 27.800000 205 205 205 0
4.466070 -8.294130 27.800000 205 205 205 0
4.572405 -8.294130 27.800000 205 205 205 0
4.678740 -8.294130 27.800000 205 205 205 0
4.785075 -8.294130 27.800000 205 205 205 0
4.891410 -8.294130 27.800000 206 206 206 0
4.997745 -8.294130 27.800000 205 205 205 0
5.104080 -8.294130 27.800000 205 205 205 0
5.210415 -8.294130 27.800000 206 206 206 0
5.316750 -8.294130 27.800000 205 205 205 0
5.423085 -8.294130 27.800000 206 206 206 0
5.529420 -8.294130 27.800000 205 205 205 0
5.635755 -8.294130 27.800000 206 206 206 0
5.742090 -8.294130 27.800000 206 206 206 0
5.848425 -8.294130 27.800000 206 206 206 0
5.954760 -8.294130 27.800000 206 206 206 0
6.061095 -8.294130 27.800000 205 205 205 0
6.167430 -8.294130 27.800000 205 205 205 0
6.273765 -8.294130 27.800000 206 206 206 0
6.380100 -8.294130 27.800000 205 205 205 0
6.486435 -8.294130 27.800000 205 205 205 0
6.592770 -8.294130 27.800000 206 206 206 0
6.699105 -8.294130 27.800000 205 205 205 0
6.805440 -8.294130 27.800000 206 206 206 0
6.911775 -8.294130 27.800000 206 206 206 0
7.018110 -8.294130 27.800000 206 206 206 0
7.124445 -8.294130 27.800000 206 206 206 0
7.230780 -8.294130 27.800000 206 206 206 0
7.337115 -8.294130 27.800000 206 206 206 0
7.443450 -8.294130 27.800000 206 206 206 0
7.549785 -8.294130 27.800000 207 207 207 0
7.656120 -8.294130 27.800000 206 206 206 0
7.762455 -8.294130 27.800000 206 206 206 0
7.277977 -7.671381 25.712689 206 206 206 0
6.295177 -6.546984 21.943970 206 206 206 0
10.416485 -10.690603 35.832423 206 206 206 0
10.288079 -10.421691 34.931091 206 206 206 0
10.642416 -10.642416 35.670911 206 206 206 0
11.608024 -11.461087 38.414905 206 206 206 0
-8.506800 -8.187795 27.800000 197 197 197 0
-8.400465 -8.187795 27.800000 197 197 197 0
-8.294130 -8.187795 27.800000 198 198 198 0
-8.187795 -8.187795 27.800000 197 197 197 0
-8.081460 -8.187795 27.800000 197 197 197 0
-7.975125 -8.187795 27.800000 197 197 197 0
-7.868790 -8.187795 27.800000 198 198 198 0
-7.762455 -8.187795 27.800000 197 197 197 0
-7.656120 -8.187795 27.800000 198 198 198 0
-7.549785 -8.187795 27.800000 198 198 198 0
-7.443450 -8.187795 27.800000 198 198 198 0
-7.337115 -8.187795 27.800000 199 199 199 0
-7.230780 -8.187795 27.800000 198 198 198 0
-7.124445 -8.187795 27.800000 198 198 198 0
-7.018110 -8.187795 27.800000 199 199 199 0
-6.911775 -8.187795 27.800000 199 199 199 0
-6.805440 -8.187795 27.800000 198 198 198 0
-6.699105 -8.187795 27.800000 198 198 198 0
-6.592770 -8.187795 27.800000 199 199 199 0
-6.486435 -8.187795 27.800000 199 199 199 0
-6.380100 -8.187795 27.800000 198 198 198 0
-6.273765 -8.187795 27.800000 199 199 199 0
-6.167430 -8.187795 27.800000 199 199 199 0
-6.061095 -8.187795 27.800000 199 199 199 0
-5.954760 -8.187795 27.800000 199 199 199 0
-5.848425 -8.187795 27.800000 199 199 199 0
-5.742090 -8.187795 27.800000 199 199 199 0
-5.635755 -8.187795 27.800000 200 200 200 0
-5.529420 -8.187795 27.800000 199 199 199 0
-5.423085 -8.187795 27.800000 200 200 200 0
-5.316750 -8.187795 27.800000 200 200 200 0
-5.210415 -8.187795 27.800000 200 200 200 0
-5.104080 -8.187795 27.800000 200 200 200 0
-4.997745 -8.187795 27.800000 200 200 200 0
-4.891410 -8.187795 27.800000 201 201 201 0
-4.785075 -8.187795 27.800000 199 199 199 0
-4.678740 -8.187795 27.800000 200 200 200 0
-4.572405 -8.187795 27.800000 201 201 201 0
-4.466070 -8.187795 27.800000 200 200 200 0
-4.359735 -8.187795 27.800000 200 200 200 0
-4.253400 -8.187795 27.800000 200 200 200 0
-4.147065 -8.187795 27.800000 200 200 200 0
-4.040730 -8.187795 27.800000 201 201 201 0
-3.934395 -8.187795 27.800000 200 200 200 0
-3.828060 -8.187795 27.800000 201 201 201 0
-3.721725 -8.187795 27.800000 201 201 201 0
-3.615390 -8.187795 27.800000 200 200 200 0
-3.509055 -8.187795 27.800000 200 200 200 0
-3.402720 -8.187795 27.800000 202 202 202 0
-3.296385 -8.187795 27.800000 202 202 202 0
-3.190050 -8.187795 27.800000 201 201 201 0
-3.083715 -8.187795 27.800000 201 201 201 0
-2.977380 -8.187795 27.800000 201 201 201 0
-2.871045 -8.187795 27.800000 201 201 201 0
-2.764710 -8.187795 27.800000 201 201 201 0
-2.658375 -8.187795 27.800000 202 202 202 0
-2.552040 -8.187795 27.800000 202 202 202 0
-2.445705 -8.187795 27.800000 202 202 202 0
-2.339370 -8.187795 27.800000 202 202 202 0
-2.233035 -8.187795 27.800000 202 202 202 0
-2.126700 -8.187795 27.800000 202 202 202 0
-2.020365 -8.187795 27.800000 203 203 203 0
-1.914030 -8.187795 27.800000 203 203 203 0
-1.807695 -8.187795 27.800000 203 203 203 0
-1.701360 -8.187795 27.800000 202 202 202 0
-1.595025 -8.187795 27.800000 202 202 202 0
-1.488690 -8.187795 27.800000 202 202 202 0
-1.382355 -8.187795 27.800000 202 202 202 0
-1.276020 -8.187795 27.800000 202 202 202 0
-1.169685 -8.187795 27.800000 203 203 203 0
-1.063350 -8.187795 27.800000 203 203 203 0
-0.957015 -8.187795 27.800000 203 203 203 0
-0.850680 -8.187795 27.800000 203 203 203 0
-0.744345 -8.187795 27.800000 202 202 202 0
-0.638010 -8.187795 27.800000 203 203 203 0
-0.531675 -8.187795 27.800000 203 203 203 0
-0.425340 -8.187795 27.800000 203 203 203 0
-0.319005 -8.187795 27.800000 203 203 203 0
-0.212670 -8.187795 27.800000 203 203 203 0
-0.106335 -8.187795 27.800000 203 203 203 0
0.000000 -8.187795 27.800000 203 203 203 0
0.106335 -8.187795 27.800000 203 203 203 0
0.212670 -8.187795 27.800000 203 203 203 0
0.319005 -8.187795 27.800000 203 203 203 0
0.425340 -8.187795 27.800000 203 203 203 0
0.531675 -8.187795 27.800000 203 203 203 0
0.638010 -8.187795 27.800000 204 204 204 0
0.744345 -8.187795 27.800000 204 204 204 0
0.850680 -8.187795 27.800000 204 204 204 0
0.957015 -8.187795 27.800000 204 204 204 0
1.063350 -8.187795 27.800000 203 203 203 0
1.169685 -8.187795 27.800000 204 204 204 0
1.276020 -8.187795 27.800000 204 204 204 0
1.382355 -8.187795 27.800000 204 204 204 0
1.488690 -8.187795 27.800000 204 204 204 0
1.595025 -8.187795 27.800000 204 204 204 0
1.701360 -8.187795 27.800000 204 204 204 0
1.807695 -8.187795 27.800000 204 204 204 0
1.914030 -8.187795 27.800000 205 205 205 0
2.020365 -8.187795 27.800000 204 204 204 0
2.126700 -8.187795 27.800000 204 204 204 0
2.233035 -8.187795 27.800000 205 205 205 0
2.339370 -8.187795 27.800000 204 204 204 0
2.445705 -8.187795 27.800000 204 204 204 0
2.552040 -8.187795 27.800000 204 204 204 0
2.658375 -8.187795 27.800000 204 204 204 0
2.764710 -8.187795 27.800000 205 205 205 0
2.871045 -8.187795 27.800000 204 204 204 0
2.977380 -8.187795 27.800000 205 205 205 0
3.083715 -8.187795 27.800000 205 205 205 0
3.190050 -8.187795 27.800000 204 204 204 0
3.296385 -8.187795 27.800000 204 204 204 0
3.402720 -8.187795 27.800000 205 205 205 0
3.509055 -8.187795 27.800000 205 205 205 0
3.615390 -8.187795 27.800000 204 204 204 0
3.721725 -8.187795 27.800000 205 205 205 0
3.828060 -8.187795 27.800000 205 205 205 0
3.934395 -8.187795 27.800000 205 205 205 0
4.040730 -8.187795 27.800000 205 205 205 0
4.147065 -8.187795 27.800000 206 206 206 0
4.253400 -8.187795 27.800000 206 206 206 0
4.359735 -8.187795 27.800000 205 205 205 0
4.466070 -8.187795 27.800000 206 206 206 0
4.572405 -8.187795 27.800000 205 205 205 0
4.678740 -8.187795 27.800000 205 205 205 0
4.785075 -8.187795 27.800000 206 206 206 0
4.891410 -8.187795 27.800000 206 206 206 0
4.997745 -8.187795 27.800000 206 206 206 0
5.104080 -8.187795 27.800000 206 206 206 0
5.210415 -8.187795 27.800000 205 205 205 0
5.316750 -8.187795 27.800000 205 205 205 0
5.423085 -8.187795 27.800000 205 205 205 0
5.529420 -8.187795 27.800000 205 205 205 0
5.635755 -8.187795 27.800000 206 206 206 0
5.742090 -8.187795 27.800000 206 206 206 0
5.848425 -8.187795 27.800000 206 206 206 0
5.954760 -8.187795 27.800000 206 206 206 0
6.061095 -8.187795 27.800000 205 205 205 0
6.167430 -8.187795 27.800000 206 206 206 0
6.273765 -8.187795 27.800000 206 206 206 0
6.380100 -8.187795 27.800000 206 206 206 0
6.486435 -8.187795 27.800000 206 206 206 0
6.592770 -8.187795 27.800000 206 206 206 0
6.699105 -8.187795 27.800000 206 206 206 0
6.805440 -8.187795 27.800000 206 206 206 0
6.911775 -8.187795 27.800000 206 206 206 0
7.018110 -8.187795 27.800000 206 206 206 0
7.124445 -8.187795 27.800000 206 206 206 0
7.230780 -8.187795 27.800000 206 206 206 0
7.337115 -8.187795 27.800000 206 206 206 0
7.443450 -8.187795 27.800000 206 206 206 0
7.549785 -8.187795 27.800000 206 206 206 0
7.656120 -8.187795 27.800000 207 207 207 0
7.762455 -8.187795 27.800000 206 206 206 0
11.448744 -11.912882 40.447778 206 206 206 0
10.291330 -10.565766 35.873917 206 206 206 0
10.422899 -10.560042 35.854485 206 206 206 0
21.230776 -20.958587 71.160638 206 206 206 0
18.612144 -18.140951 61.593926 206 206 206 0
-8.506800 -8.081460 27.800000 197 197 197 0
-8.400465 -8.081460 27.800000 197 197 197 0
-8.294130 -8.081460 27.800000 197 197 197 0
-8.187795 -8.081460 27.800000 198 198 198 0
-8.081460 -8.081460 27.800000 197 197 197 0
-7.975125 -8.081460 27.800000 198 198 198 0
-7.868790 -8.081460 27.800000 198 198 198 0
-7.762455 -8.081460 27.800000 198 198 198 0
-7.656120 -8.081460 27.800000 198 198 198 0
-7.549785 -8.081460 27.800000 198 198 198 0
-7.443450 -8.081460 27.800000 198 198 198 0
-7.337115 -8.081460 27.800000 199 199 199 0
-7.230780 -8.081460 27.800000 199 199 199 0
-7.124445 -8.081460 27.800000 198 198 198 0
-7.018110 -8.081460 27.800000 198 198 198 0
-6.911775 -8.081460 27.800000 199 199 199 0
-6.805440 -8.081460 27.800000 199 199 199 0
-6.699105 -8.081460 27.800000 198 198 198 0
-6.592770 -8.081460 27.800000 199 199 199 0
-6.486435 -8.081460 27.800000 198 198 198 0
-6.380100 -8.081460 27.800000 199 199 199 0
-6.273765 -8.081460 27.800000 199 199 199 0
-6.167430 -8.081460 27.800000 199 199 199 0
-6.061095 -8.081460 27.800000 199 199 199 0
-5.954760 -8.081460 27.800000 199 199 199 0
-5.848425 -8.081460 27.800000 199 199 199 0
-5.742090 -8.081460 27.800000 200 200 200 0
-5.635755 -8.081460 27.800000 200 200 200 0
-5.529420 -8.081460 27.800000 200 200 200 0
-5.423085 -8.081460 27.800000 199 199 199 0
-5.316750 -8.081460 27.800000 199 199 199 0
-5.210415 -8.081460 27.800000 200 200 200 0
-5.104080 -8.081460 27.800000 200 200 200 0
-4.997745 -8.081460 27.800000 200 200 200 0
-4.891410 -8.081460 27.800000 200 200 200 0
-4.785075 -8.081460 27.800000 200 200 200 0
-4.678740 -8.081460 27.800000 200 200 200 0
-4.572405 -8.081460 27.800000 200 200 200 0
-4.466070 -8.081460 27.800000 201 201 201 0
-4.359735 -8.081460 27.800000 201 201 201 0
-4.253400 -8.081460 27.800000 201 201 201 0
-4.147065 -8.081460 27.800000 201 201 201 0
-4.040730 -8.081460 27.800000 201 201 201 0
-3.934395 -8.081460 27.800000 201 201 201 0
-3.828060 -8.081460 27.800000 201 201 201 0
-3.721725 -8.081460 27.800000 202 202 202 0
-3.615390 -8.081460 27.800000 201 201 201 0
-3.509055 -8.081460 27.800000 201 201 201 0
-3.402720 -8.081460 27.800000 200 200 200 0
-3.296385 -8.081460 27.800000 201 201 201 0
-3.190050 -8.081460 27.800000 201 201 201 0
-3.083715 -8.081460 27.800000 201 201 201 0
-2.977380 -8.081460 27.800000 202 202 202 0
-2.871045 -8.081460 27.800000 202 202 202 0
-2.764710 -8.081460 27.800000 202 202 202 0
-2.658375 -8.081460 27.800000 202 202 202 0
-2.552040 -8.081460 27.800000 202 202 202 0
-2.445705 -8.081460 27.800000 202 202 202 0
-2.339370 -8.081460 27.800000 202 202 202 0
-2.233035 -8.081460 27.800000 202 202 202 0
-2.126700 -8.081460 27.800000 202 202 202 0
-2.020365 -8.081460 27.800000 202 202 202 0
-1.914030 -8.081460 27.800000 202 202 202 0
-1.807695 -8.081460 27.800000 203 203 203 0
-1.701360 -8.081460 27.800000 202 202 202 0
-1.595025 -8.081460 27.800000 203 203 203 0
-1.488690 -8.081460 27.800000 202 202 202 0
-1.382355 -8.081460 27.800000 202 202 202 0
-1.276020 -8.081460 27.800000 203 203 203 0
-1.169685 -8.081460 27.800000 203 203 203 0
-1.063350 -8.081460 27.800000 203 203 203 0
-0.957015 -8.081460 27.800000 202 202 202 0
-0.850680 -8.081460 27.800000 203 203 203 0
-0.744345 -8.081460 27.800000 203 203 203 0
-0.638010 -8.081460 27.800000 202 202 202 0
-0.531675 -8.081460 27.800000 203 203 203 0
-0.425340 -8.081460 27.800000 203 203 203 0
-0.319005 -8.081460 27.800000 203 203 203 0
-0.212670 -8.081460 27.800000 203 203 203 0
-0.106335 -8.081460 27.800000 203 203 203 0
0.000000 -8.081460 27.800000 203 203 203 0
0.106335 -8.081460 27.800000 203 203 203 0
0.212670 -8.081460 27.800000 203 203 203 0
0.319005 -8.081460 27.800000 203 203 203 0
0.425340 -8.081460 27.800000 203 203 203 0
0.531675 -8.081460 27.800000 204 204 204 0
0.638010 -8.081460 27.800000 204 204 204 0
0.744345 -8.081460 27.800000 204 204 204 0
0.850680 -8.081460 27.800000 204 204 204 0
0.957015 -8.081460 27.800000 204 204 204 0
1.063350 -8.081460 27.800000 204 204 204 0
1.169685 -8.081460 27.800000 204 204 204 0
1.276020 -8.081460 27.800000 204 204 204 0
1.382355 -8.081460 27.800000 204 204 204 0
1.488690 -8.081460 27.800000 204 204 204 0
1.595025 -8.081460 27.800000 204 204 204 0
1.701360 -8.081460 27.800000 204 204 204 0
1.807695 -8.081460 27.800000 204 204 204 0
1.914030 -8.081460 27.800000 204 204 204 0
2.020365 -8.081460 27.800000 204 204 204 0
2.126700 -8.081460 27.800000 204 204 204 0
2.233035 -8.081460 27.800000 204 204 204 0
2.339370 -8.081460 27.800000 205 205 205 0
2.445705 -8.081460 27.800000 205 205 205 0
2.552040 -8.081460 27.800000 205 205 205 0
2.658375 -8.081460 27.800000 205 205 205 0
2.764710 -8.081460 27.800000 205 205 205 0
2.871045 -8.081460 27.800000 205 205 205 0
2.977380 -8.081460 27.800000 205 205 205 0
3.083715 -8.081460 27.800000 205 205 205 0
3.190050 -8.081460 27.800000 205 205 205 0
3.296385 -8.081460 27.800000 205 205 205 0
3.402720 -8.081460 27.800000 204 204 204 0
3.509055 -8.081460 27.800000 205 205 205 0
3.615390 -8.081460 27.800000 205 205 205 0
3.721725 -8.081460 27.800000 205 205 205 0
3.828060 -8.081460 27.800000 205 205 205 0
3.934395 -8.081460 27.800000 205 205 205 0
4.040730 -8.081460 27.800000 205 205 205 0
4.147065 -8.081460 27.800000 206 206 206 0
4.253400 -8.081460 27.800000 206 206 206 0
4.359735 -8.081460 27.800000 206 206 206 0
4.466070 -8.081460 27.800000 205 205 205 0
4.572405 -8.081460 27.800000 205 205 205 0
4.678740 -8.081460 27.800000 205 205 205 0
4.785075 -8.081460 27.800000 205 205 205 0
4.891410 -8.081460 27.800000 205 205 205 0
4.997745 -8.081460 27.800000 206 206 206 0
5.104080 -8.081460 27.800000 205 205 205 0
5.210415 -8.081460 27.800000 206 206 206 0
5.316750 -8.081460 27.800000 206 206 206 0
5.423085 -8.081460 27.800000 205 205 205 0
5.529420 -8.081460 27.800000 206 206 206 0
5.635755 -8.081460 27.800000 206 206 206 0
5.742090 -8.081460 27.800000 206 206 206 0
5.848425 -8.081460 27.800000 205 205 205 0
5.954760 -8.081460 27.800000 206 206 206 0
6.061095 -8.081460 27.800000 206 206 206 0
6.167430 -8.081460 27.800000 205 205 205 0
6.273765 -8.081460 27.800000 206 206 206 0
6.380100 -8.081460 27.800000 206 206 206 0
6.486435 -8.081460 27.800000 205 205 205 0
6.592770 -8.081460 27.800000 206 206 206 0
6.699105 -8.081460 27.800000 206 206 206 0
6.805440 -8.081460 27.800000 206 206 206 0
6.911775 -8.081460 27.800000 206 206 206 0
7.018110 -8.081460 27.800000 206 206 206 0
7.124445 -8.081460 27.800000 206 206 206 0
7.230780 -8.081460 27.800000 206 206 206 0
7.337115 -8.081460 27.800000 206 206 206 0
7.443450 -8.081460 27.800000 206 206 206 0
7.549785 -8.081460 27.800000 206 206 206 0
7.656120 -8.081460 27.800000 206 206 206 0
7.762455 -8.081460 27.800000 206 206 206 0
7.868790 -8.081460 27.800000 206 206 206 0
11.809174 -11.966630 41.164877 206 206 206 0
10.163881 -10.163881 34.963470 206 206 206 0
10.602127 -10.464437 35.997374 206 206 206 0
10.357670 -10.092089 34.716507 206 206 206 0
19.148237 -18.421089 63.368038 207 207 207 0
-8.506800 -7.975125 27.800000 197 197 197 0
-8.400465 -7.975125 27.800000 197 197 197 0
-8.294130 -7.975125 27.800000 197 197 197 0
-8.187795 -7.975125 27.800000 197 197 197 0
-8.081460 -7.975125 27.800000 197 197 197 0
-7.975125 -7.975125 27.800000 197 197 197 0
-7.868790 -7.975125 27.800000 198 198 198 0
-7.762455 -7.975125 27.800000 198 198 198 0
-7.656120 -7.975125 27.800000 198 198 198 0
-7.549785 -7.975125 27.800000 198 198 198 0
-7.443450 -7.975125 27.800000 198 198 198 0
-7.337115 -7.975125 27.800000 198 198 198 0
-7.230780 -7.975125 27.800000 198 198 198 0
-7.124445 -7.975125 27.800000 199 199 199 0
-7.018110 -7.975125 27.800000 199 199 199 0
-6.911775 -7.975125 27.800000 199 199 199 0
-6.805440 -7.975125 27.800000 198 198 198 0
-6.699105 -7.975125 27.800000 198 198 198 0
-6.592770 -7.975125 27.800000 199 199 199 0
-6.486435 -7.975125 27.800000 198 198 198 0
-6.380100 -7.975125 27.800000 199 199 199 0
-6.273765 -7.975125 27.800000 199 199 199 0
-6.167430 -7.975125 27.800000 199 199 199 0
-6.061095 -7.975125 27.800000 199 199 199 0
-5.954760 -7.975125 27.800000 199 199 199 0
-5.848425 -7.975125 27.800000 200 200 200 0
-5.742090 -7.975125 27.800000 200 200 200 0
-5.635755 -7.975125 27.800000 200 200 200 0
-5.529420 -7.975125 27.800000 200 200 200 0
-5.423085 -7.975125 27.800000 199 199 199 0
-5.316750 -7.975125 27.800000 200 200 200 0
-5.210415 -7.975125 27.800000 199 199 199 0
-5.104080 -7.975125 27.800000 200 200 200 0
-4.997745 -7.975125 27.800000 200 200 200 0
-4.891410 -7.975125 27.800000 201 201 201 0
-4.785075 -7.975125 27.800000 200 200 200 0
-4.678740 -7.975125 27.800000 200 200 200 0
-4.572405 -7.975125 27.800000 200 200 200 0
-4.466070 -7.975125 27.800000 200 200 200 0
-4.359735 -7.975125 27.800000 200 200 200 0
-4.253400 -7.975125 27.800000 200 200 200 0
-4.147065 -7.975125 27.800000 200 200 200 0
-4.040730 -7.975125 27.800000 201 201 201 0
-3.934395 -7.975125 27.800000 200 200 200 0
-3.828060 -7.975125 27.800000 201 201 201 0
-3.721725 -7.975125 27.800000 201 201 201 0
-3.615390 -7.975125 27.800000 201 201 201 0
-3.509055 -7.975125 27.800000 201 201 201 0
-3.402720 -7.975125 27.800000 201 201 201 0
-3.296385 -7.975125 27.800000 201 201 201 0
-3.190050 -7.975125 27.800000 201 201 201 0
-3.083715 -7.975125 27.800000 201 201 201 0
-2.977380 -7.975125 27.800000 201 201 201 0
-2.871045 -7.975125 27.800000 202 202 202 0
-2.764710 -7.975125 27.800000 202 202 202 0
-2.658375 -7.975125 27.800000 201 201 201 0
-2.552040 -7.975125 27.800000 202 202 202 0
-2.445705 -7.975125 27.800000 202 202 202 0
-2.339370 -7.975125 27.800000 202 202 202 0
-2.233035 -7.975125 27.800000 202 202 202 0
-2.126700 -7.975125 27.800000 201 201 201 0
-2.020365 -7.975125 27.800000 202 202 202 0
-1.914030 -7.975125 27.800000 202 202 202 0
-1.807695 -7.975125 27.800000 203 203 203 0
-1.701360 -7.975125 27.800000 202 202 202 0
-1.595025 -7.975125 27.800000 202 202 202 0
-1.488690 -7.975125 27.800000 203 203 203 0
-1.382355 -7.975125 27.800000 202 202 202 0
-1.276020 -7.975125 27.800000 202 202 202 0
-1.169685 -7.975125 27.800000 203 203 203 0
-1.063350 -7.975125 27.800000 203 203 203 0
-0.957015 -7.975125 27.800000 202 202 202 0
-0.850680 -7.975125 27.800000 203 203 203 0
-0.744345 -7.975125 27.800000 203 203 203 0
-0.638010 -7.975125 27.800000 203 203 203 0
-0.531675 -7.975125 27.800000 203 203 203 0
-0.425340 -7.975125 27.800000 204 204 204 0
-0.319005 -7.975125 27.800000 203 203 203 0
-0.212670 -7.975125 27.800000 204 204 204 0
-0.106335 -7.975125 27.800000 203 203 203 0
0.000000 -7.975125 27.800000 203 203 203 0
0.106335 -7.975125 27.800000 203 203 203 0
0.212670 -7.975125 27.800000 203 203 203 0
0.319005 -7.975125 27.800000 204 204 204 0
0.425340 -7.975125 27.800000 203 203 203 0
0.531675 -7.975125 27.800000 204 204 204 0
0.638010 -7.975125 27.800000 204 204 204 0
0.744345 -7.975125 27.800000 204 204 204 0
0.850680 -7.975125 27.800000 203 203 203 0
0.957015 -7.975125 27.800000 204 204 204 0
1.063350 -7.975125 27.800000 203 203 203 0
1.169685 -7.975125 27.800000 204 204 204 0
1.276020 -7.975125 27.800000 204 204 204 0
1.382355 -7.975125 27.800000 204 204 204 0
1.488690 -7.975125 27.800000 204 204 204 0
1.595025 -7.975125 27.800000 204 204 204 0
1.701360 -7.975125 27.800000 204 204 204 0
1.807695 -7.975125 27.800000 204 204 204 0
1.914030 -7.975125 27.800000 205 205 205 0
2.020365 -7.975125 27.800000 205 205 205 0
2.126700 -7.975125 27.800000 205 205 205 0
2.233035 -7.975125 27.800000 204 204 204 0
2.339370 -7.975125 27.800000 204 204 204 0
2.445705 -7.975125 27.800000 204 204 204 0
2.552040 -7.975125 27.800000 204 204 204 0
2.658375 -7.975125 27.800000 204 204 204 0
2.764710 -7.975125 27.800000 205 205 205 0
2.871045 -7.975125 27.800000 204 204 204 0
2.977380 -7.975125 27.800000 205 205 205 0
3.083715 -7.975125 27.800000 205 205 205 0
3.190050 -7.975125 27.800000 205 205 205 0
3.296385 -7.975125 27.800000 205 205 205 0
3.402720 -7.975125 27.800000 205 205 205 0
3.509055 -7.975125 27.800000 205 205 205 0
3.615390 -7.975125 27.800000 205 205 205 0
3.721725 -7.975125 27.800000 205 205 205 0
3.828060 -7.975125 27.800000 205 205 205 0
3.934395 -7.975125 27.800000 205 205 205 0
4.040730 -7.975125 27.800000 205 205 205 0
4.147065 -7.975125 27.800000 205 205 205 0
4.253400 -7.975125 27.800000 205 205 205 0
4.359735 -7.975125 27.800000 205 205 205 0
4.466070 -7.975125 27.800000 205 205 205 0
4.572405 -7.975125 27.800000 206 206 206 0
4.678740 -7.975125 27.800000 205 205 205 0
4.785075 -7.975125 27.800000 206 206 206 0
4.891410 -7.975125 27.800000 205 205 205 0
4.997745 -7.975125 27.800000 206 206 206 0
5.104080 -7.975125 27.800000 205 205 205 0
5.210415 -7.975125 27.800000 205 205 205 0
5.316750 -7.975125 27.800000 206 206 206 0
5.423085 -7.975125 27.800000 205 205 205 0
5.529420 -7.975125 27.800000 205 205 205 0
5.635755 -7.975125 27.800000 206 206 206 0
5.742090 -7.975125 27.800000 206 206 206 0
5.848425 -7.975125 27.800000 205 205 205 0
5.954760 -7.975125 27.800000 206 206 206 0
6.061095 -7.975125 27.800000 206 206 206 0
6.167430 -7.975125 27.800000 206 206 206 0
6.273765 -7.975125 27.800000 206 206 206 0
6.380100 -7.975125 27.800000 206 206 206 0
6.486435 -7.975125 27.800000 206 206 206 0
6.592770 -7.975125 27.800000 206 206 206 0
6.699105 -7.975125 27.800000 206 206 206 0
6.805440 -7.975125 27.800000 206 206 206 0
6.911775 -7.975125 27.800000 206 206 206 0
7.018110 -7.975125 27.800000 206 206 206 0
7.124445 -7.975125 27.800000 206 206 206 0
7.230780 -7.975125 27.800000 206 206 206 0
7.337115 -7.975125 27.800000 206 206 206 0
7.443450 -7.975125 27.800000 206 206 206 0
7.549785 -7.975125 27.800000 207 207 207 0
7.656120 -7.975125 27.800000 206 206 206 0
7.762455 -7.975125 27.800000 206 206 206 0
7.868790 -7.975125 27.800000 206 206 206 0
7.975125 -7.975125 27.800000 206 206 206 0
7.826894 -7.723909 26.924301 206 206 206 0
10.559567 -10.285293 35.852872 206 206 206 0
5.793357 -5.570535 19.417988 206 206 206 0
10.832229 -10.283761 35.847534 206 206 206 0
-8.506800 -7.868790 27.800000 197 197 197 0
-8.400465 -7.868790 27.800000 198 198 198 0
-8.294130 -7.868790 27.800000 197 197 197 0
-8.187795 -7.868790 27.800000 197 197 197 0
-8.081460 -7.868790 27.800000 198 198 198 0
-7.975125 -7.868790 27.800000 197 197 197 0
-7.868790 -7.868790 27.800000 198 198 198 0
-7.762455 -7.868790 27.800000 198 198 198 0
-7.656120 -7.868790 27.800000 198 198 198 0
-7.549785 -7.868790 27.800000 198 198 198 0
-7.443450 -7.868790 27.800000 199 199 199 0
-7.337115 -7.868790 27.800000 198 198 198 0
-7.230780 -7.868790 27.800000 198 198 198 0
-7.124445 -7.868790 27.800000 199 199 199 0
-7.018110 -7.868790 27.800000 198 198 198 0
-6.911775 -7.868790 27.800000 198 198 198 0
-6.805440 -7.868790 27.800000 199 199 199 0
-6.699105 -7.868790 27.800000 198 198 198 0
-6.592770 -7.868790 27.800000 199 199 199 0
-6.486435 -7.868790 27.800000 199 199 199 0
-6.380100 -7.868790 27.800000 199 199 199 0
-6.273765 -7.868790 27.800000 199 199 199 0
-6.167430 -7.868790 27.800000 199 199 199 0
-6.061095 -7.868790 27.800000 199 199 199 0
-5.954760 -7.868790 27.800000 199 199 199 0
-5.848425 -7.868790 27.800000 199 199 199 0
-5.742090 -7.868790 27.800000 200 200 200 0
-5.635755 -7.868790 27.800000 200 200 200 0
-5.529420 -7.868790 27.800000 200 200 200 0
-5.423085 -7.868790 27.800000 200 200 200 0
-5.316750 -7.868790 27.800000 200 200 200 0
-5.210415 -7.868790 27.800000 200 200 200 0
-5.104080 -7.868790 27.800000 200 200 200 0
-4.997745 -7.868790 27.800000 200 200 200 0
-4.891410 -7.868790 27.800000 200 200 200 0
-4.785075 -7.868790 27.800000 201 201 201 0
-4.678740 -7.868790 27.800000 201 201 201 0
-4.572405 -7.868790 27.800000 200 200 200 0
-4.466070 -7.868790 27.800000 200 200 200 0
-4.359735 -7.868790 27.800000 200 200 200 0
-4.253400 -7.868790 27.800000 201 201 201 0
-4.147065 -7.868790 27.800000 201 201 201 0
-4.040730 -7.868790 27.800000 201 201 201 0
-3.934395 -7.868790 27.800000 200 200 200 0
-3.828060 -7.868790 27.800000 202 202 202 0
-3.721725 -7.868790 27.800000 201 201 201 0
-3.615390 -7.868790 27.800000 201 201 201 0
-3.509055 -7.868790 27.800000 201 201 201 0
-3.402720 -7.868790 27.800000 201 201 201 0
-3.296385 -7.868790 27.800000 202 202 202 0
-3.190050 -7.868790 27.800000 201 201 201 0
-3.083715 -7.868790 27.800000 201 201 201 0
-2.977380 -7.868790 27.800000 202 202 202 0
-2.871045 -7.868790 27.800000 202 202 202 0
-2.764710 -7.868790 27.800000 201 201 201 0
-2.658375 -7.868790 27.800000 201 201 201 0
-2.552040 -7.868790 27.800000 202 202 202 0
-2.445705 -7.868790 27.800000 202 202 202 0
-2.339370 -7.868790 27.800000 202 202 202 0
-2.233035 -7.868790 27.800000 202 202 202 0
-2.126700 -7.868790 27.800000 202 202 202 0
-2.020365 -7.868790 27.800000 202 202 202 0
-1.914030 -7.868790 27.800000 202 202 202 0
-1.807695 -7.868790 27.800000 202 202 202 0
-1.701360 -7.868790 27.800000 202 202 202 0
-1.595025 -7.868790 27.800000 203 203 203 0
-1.488690 -7.868790 27.800000 202 202 202 0
-1.382355 -7.868790 27.800000 202 202 202 0
-1.276020 -7.868790 27.800000 202 202 202 0
-1.169685 -7.868790 27.800000 202 202 202 0
-1.063350 -7.868790 27.800000 203 203 203 0
-0.957015 -7.868790 27.800000 203 203 203 0
-0.850680 -7.868790 27.800000 203 203 203 0
-0.744345 -7.868790 27.800000 203 203 203 0
-0.638010 -7.868790 27.800000 203 203 203 0
-0.531675 -7.868790 27.800000 203 203 203 0
-0.425340 -7.868790 27.800000 203 203 203 0
-0.319005 -7.868790 27.800000 203 203 203 0
-0.212670 -7.868790 27.800000 202 202 202 0
-0.106335 -7.868790 27.800000 203 203 203 0
0.000000 -7.868790 27.800000 203 203 203 0
0.106335 -7.868790 27.800000 203 203 203 0
0.212670 -7.868790 27.800000 204 204 204 0
0.319005 -7.868790 27.800000 203 203 203 0
0.425340 -7.868790 27.800000 203 203 203 0
0.531675 -7.868790 27.800000 204 204 204 0
0.638010 -7.868790 27.800000 203 203 203 0
0.744345 -7.868790 27.800000 204 204 204 0
0.850680 -7.868790 27.800000 204 204 204 0
0.957015 -7.868790 27.800000 204 204 204 0
1.063350 -7.868790 27.800000 204 204 204 0
1.169685 -7.868790 27.800000 204 204 204 0
1.276020 -7.868790 27.800000 204 204 204 0
1.382355 -7.868790 27.800000 204 204 204 0
1.488690 -7.868790 27.800000 204 204 204 0
1.595025 -7.868790 27.800000 204 204 204 0
1.701360 -7.868790 27.800000 205 205 205 0
1.807695 -7.868790 27.800000 204 204 204 0
1.914030 -7.868790 27.800000 204 204 204 0
2.020365 -7.868790 27.800000 205 205 205 0
2.126700 -7.868790 27.800000 205 205 205 0
2.233035 -7.868790 27.800000 204 204 204 0
2.339370 -7.868790 27.800000 204 204 204 0
2.445705 -7.868790 27.800000 204 204 204 0
2.552040 -7.868790 27.800000 205 205 205 0
2.658375 -7.868790 27.800000 205 205 205 0
2.764710 -7.868790 27.800000 205 205 205 0
2.871045 -7.868790 27.800000 204 204 204 0
2.977380 -7.868790 27.800000 206 206 206 0
3.083715 -7.868790 27.800000 205 205 205 0
3.190050 -7.868790 27.800000 205 205 205 0
3.296385 -7.868790 27.800000 205 205 205 0
3.402720 -7.868790 27.800000 205 205 205 0
3.509055 -7.868790 27.800000 206 206 206 0
3.615390 -7.868790 27.800000 205 205 205 0
3.721725 -7.868790 27.800000 205 205 205 0
3.828060 -7.868790 27.800000 205 205 205 0
3.934395 -7.868790 27.800000 206 206 206 0
4.040730 -7.868790 27.800000 205 205 205 0
4.147065 -7.868790 27.800000 205 205 205 0
4.253400 -7.868790 27.800000 206 206 206 0
4.359735 -7.868790 27.800000 205 205 205 0
4.466070 -7.868790 27.800000 205 205 205 0
4.572405 -7.868790 27.800000 206 206 206 0
4.678740 -7.868790 27.800000 206 206 206 0
4.785075 -7.868790 27.800000 205 205 205 0
4.891410 -7.868790 27.800000 205 205 205 0
4.997745 -7.868790 27.800000 205 205 205 0
5.104080 -7.868790 27.800000 205 205 205 0
5.210415 -7.868790 27.800000 206 206 206 0
5.316750 -7.868790 27.800000 206 206 206 0
5.423085 -7.868790 27.800000 205 205 205 0
5.529420 -7.868790 27.800000 206 206 206 0
5.635755 -7.868790 27.800000 205 205 205 0
5.742090 -7.868790 27.800000 206 206 206 0
5.848425 -7.868790 27.800000 206 206 206 0
5.954760 -7.868790 27.800000 206 206 206 0
6.061095 -7.868790 27.800000 206 206 206 0
6.167430 -7.868790 27.800000 206 206 206 0
6.273765 -7.868790 27.800000 206 206 206 0
6.380100 -7.868790 27.800000 206 206 206 0
6.486435 -7.868790 27.800000 206 206 206 0
6.592770 -7.868790 27.800000 205 205 205 0
6.699105 -7.868790 27.800000 206 206 206 0
6.805440 -7.868790 27.800000 205 205 205 0
6.911775 -7.868790 27.800000 206 206 206 0
7.018110 -7.868790 27.800000 206 206 206 0
7.124445 -7.868790 27.800000 206 206 206 0
7.230780 -7.868790 27.800000 206 206 206 0
7.337115 -7.868790 27.800000 207 207 207 0
7.443450 -7.868790 27.800000 206 206 206 0
7.549785 -7.868790 27.800000 207 207 207 0
7.656120 -7.868790 27.800000 206 206 206 0
7.762455 -7.868790 27.800000 206 206 206 0
7.868790 -7.868790 27.800000 207 207 207 0
7.975125 -7.868790 27.800000 206 206 206 0
8.081460 -7.868790 27.800000 206 206 206 0
10.230298 -9.831714 34.734904 206 206 206 0
10.713732 -10.164310 35.909944 206 206 206 0
19.148237 -17.936323 63.368038 206 206 206 0
-8.506800 -7.762455 27.800000 197 197 197 0
-8.400465 -7.762455 27.800000 198 198 198 0
-8.294130 -7.762455 27.800000 197 197 197 0
-8.187795 -7.762455 27.800000 197 197 197 0
-8.081460 -7.762455 27.800000 197 197 197 0
-7.975125 -7.762455 27.800000 198 198 198 0
-7.868790 -7.762455 27.800000 198 198 198 0
-7.762455 -7.762455 27.800000 198 198 198 0
-7.656120 -7.762455 27.800000 197 197 197 0
-7.549785 -7.762455 27.800000 198 198 198 0
-7.443450 -7.762455 27.800000 198 198 198 0
-7.337115 -7.762455 27.800000 198 198 198 0
-7.230780 -7.762455 27.800000 198 198 198 0
-7.124445 -7.762455 27.800000 199 199 199 0
-7.018110 -7.762455 27.800000 199 199 199 0
-6.911775 -7.762455 27.800000 198 198 198 0
-6.805440 -7.762455 27.800000 198 198 198 0
-6.699105 -7.762455 27.800000 198 198 198 0
-6.592770 -7.762455 27.800000 199 199 199 0
-6.486435 -7.762455 27.800000 199 199 199 0
-6.380100 -7.762455 27.800000 199 199 199 0
-6.273765 -7.762455 27.800000 199 199 199 0
-6.167430 -7.762455 27.800000 199 199 199 0
-6.061095 -7.762455 27.800000 199 199 199 0
-5.954760 -7.762455 27.800000 199 199 199 0
-5.848425 -7.762455 27.800000 200 200 200 0
-5.742090 -7.762455 27.800000 200 200 200 0
-5.635755 -7.762455 27.800000 199 199 199 0
-5.529420 -7.762455 27.800000 200 200 200 0
-5.423085 -7.762455 27.800000 200 200 200 0
-5.316750 -7.762455 27.800000 201 201 201 0
-5.210415 -7.762455 27.800000 201 201 201 0
-5.104080 -7.762455 27.800000 199 199 199 0
-4.997745 -7.762455 27.800000 200 200 200 0
-4.891410 -7.762455 27.800000 200 200 200 0
-4.785075 -7.762455 27.800000 201 201 201 0
-4.678740 -7.762455 27.800000 200 200 200 0
-4.572405 -7.762455 27.800000 200 200 200 0
-4.466070 -7.762455 27.800000 200 200 200 0
-4.359735 -7.762455 27.800000 200 200 200 0
-4.253400 -7.762455 27.800000 201 201 201 0
-4.147065 -7.762455 27.800000 201 201 201 0
-4.040730 -7.762455 27.800000 201 201 201 0
-3.934395 -7.762455 27.800000 202 202 202 0
-3.828060 -7.762455 27.800000 202 202 202 0
-3.721725 -7.762455 27.800000 201 201 201 0
-3.615390 -7.762455 27.800000 201 201 201 0
-3.509055 -7.762455 27.800000 201 201 201 0
-3.402720 -7.762455 27.800000 201 201 201 0
-3.296385 -7.762455 27.800000 201 201 201 0
-3.190050 -7.762455 27.800000 201 201 201 0
-3.083715 -7.762455 27.800000 201 201 201 0
-2.977380 -7.762455 27.800000 202 202 202 0
-2.871045 -7.762455 27.800000 202 202 202 0
-2.764710 -7.762455 27.800000 202 202 202 0
-2.658375 -7.762455 27.800000 201 201 201 0
-2.552040 -7.762455 27.800000 202 202 202 0
-2.445705 -7.762455 27.800000 201 201 201 0
-2.339370 -7.762455 27.800000 202 202 202 0
-2.233035 -7.762455 27.800000 203 203 203 0
-2.126700 -7.762455 27.800000 202 202 202 0
-2.020365 -7.762455 27.800000 203 203 203 0
-1.914030 -7.762455 27.800000 203 203 203 0
-1.807695 -7.762455 27.800000 202 202 202 0
-1.701360 -7.762455 27.800000 202 202 202 0
-1.595025 -7.762455 27.800000 202 202 202 0
-1.488690 -7.762455 27.800000 202 202 202 0
-1.382355 -7.762455 27.800000 202 202 202 0
-1.276020 -7.762455 27.800000 203 203 203 0
-1.169685 -7.762455 27.800000 203 203 203 0
-1.063350 -7.762455 27.800000 202 202 202 0
-0.957015 -7.762455 27.800000 203 203 203 0
-0.850680 -7.762455 27.800000 203 203 203 0
-0.744345 -7.762455 27.800000 203 203 203 0
-0.638010 -7.762455 27.800000 203 203 203 0
-0.531675 -7.762455 27.800000 203 203 203 0
-0.425340 -7.762455 27.800000 204 204 204 0
-0.319005 -7.762455 27.800000 203 203 203 0
-0.212670 -7.762455 27.800000 204 204 204 0
-0.106335 -7.762455 27.800000 203 203 203 0
0.000000 -7.762455 27.800000 203 203 203 0
0.106335 -7.762455 27.800000 203 203 203 0
0.212670 -7.762455 27.800000 203 203 203 0
0.319005 -7.762455 27.800000 204 204 204 0
0.425340 -7.762455 27.800000 203 203 203 0
0.531675 -7.762455 27.800000 204 204 204 0
0.638010 -7.762455 27.800000 204 204 204 0
0.744345 -7.762455 27.800000 204 204 204 0
0.850680 -7.762455 27.800000 204 204 204 0
0.957015 -7.762455 27.800000 204 204 204 0
1.063350 -7.762455 27.800000 204 204 204 0
1.169685 -7.762455 27.800000 204 204 204 0
1.276020 -7.762455 27.800000 204 204 204 0
1.382355 -7.762455 27.800000 205 205 205 0
1.488690 -7.762455 27.800000 204 204 204 0
1.595025 -7.762455 27.800000 205 205 205 0
1.701360 -7.762455 27.800000 204 204 204 0
1.807695 -7.762455 27.800000 204 204 204 0
1.914030 -7.762455 27.800000 204 204 204 0
2.020365 -7.762455 27.800000 205 205 205 0
2.126700 -7.762455 27.800000 204 204 204 0
2.233035 -7.762455 27.800000 205 205 205 0
2.339370 -7.762455 27.800000 204 204 204 0
2.445705 -7.762455 27.800000 204 204 204 0
2.552040 -7.762455 27.800000 205 205 205 0
2.658375 -7.762455 27.800000 205 205 205 0
2.764710 -7.762455 27.800000 205 205 205 0
2.871045 -7.762455 27.800000 205 205 205 0
2.977380 -7.762455 27.800000 206 206 206 0
3.083715 -7.762455 27.800000 205 205 205 0
3.190050 -7.762455 27.800000 205 205 205 0
3.296385 -7.762455 27.800000 205 205 205 0
3.402720 -7.762455 27.800000 204 204 204 0
3.509055 -7.762455 27.800000 204 204 204 0
3.615390 -7.762455 27.800000 205 205 205 0
3.721725 -7.762455 27.800000 205 205 205 0
3.828060 -7.762455 27.800000 206 206 206 0
3.934395 -7.762455 27.800000 205 205 205 0
4.040730 -7.762455 27.800000 206 206 206 0
