ply
format ascii 1.0
element vertex 1125
property float x
property float y
property float z
property uchar red
property uchar green
property uchar blue
property uchar alpha
end_header
4.301446 1.843477 22.950223 204 204 204 0
4.406407 1.850691 23.040034 204 204 204 0
4.505805 1.855332 23.097809 203 203 203 0
4.607631 1.860774 23.165565 203 203 203 0
4.698494 1.861667 23.176687 203 203 203 0
4.816554 1.873104 23.319069 203 203 203 0
4.924733 1.880353 23.409308 203 203 203 0
5.031521 1.886820 23.489828 202 202 202 0
5.134663 1.891718 23.550801 203 203 203 0
5.264601 1.906149 23.730452 203 203 203 0
5.389399 1.918261 23.881241 202 202 202 0
5.492938 1.922528 23.934370 202 202 202 0
5.618597 1.934271 24.080562 202 202 202 0
5.753409 1.948735 24.260632 201 201 201 0
5.883921 1.961307 24.417141 201 201 201 0
6.029938 1.978573 24.632099 200 200 200 0
6.196776 2.002035 24.924189 200 200 200 0
6.461972 2.056082 25.597037 204 204 204 0
6.576104 2.061167 25.660340 210 210 210 0
6.651322 2.054085 25.572172 211 211 211 0
6.741690 2.051819 25.543963 211 211 211 0
6.819432 2.045830 25.469402 209 209 209 0
6.896407 2.039782 25.394115 211 211 211 0
6.980521 2.035985 25.346846 210 210 210 0
7.079797 2.036654 25.355170 209 209 209 0
7.178884 2.037251 25.362602 209 209 209 0
7.276689 2.037473 25.365365 210 210 210 0
7.363249 2.034582 25.329375 209 209 209 0
7.432940 2.027165 25.237042 209 209 209 0
7.517382 2.023911 25.196520 210 210 210 0
7.618170 2.025083 25.211119 209 209 209 0
-8.701444 2.392897 28.436093 136 136 136 0
-8.514175 2.371036 28.176304 144 144 144 0
-8.314610 2.345146 27.868644 153 153 153 0
-8.112360 2.317817 27.543876 157 157 157 0
-7.963394 2.305193 27.393856 161 161 161 0
-7.819416 2.293695 27.257222 168 168 168 0
-7.703418 2.290205 27.215749 170 170 170 0
-7.536000 2.271123 26.988987 171 171 171 0
-7.411703 2.264687 26.912502 176 176 176 0
-7.239856 2.243336 26.658773 178 178 178 0
-7.123462 2.238802 26.604900 179 179 179 0
-7.014956 2.236653 26.579356 180 180 180 0
-6.901071 2.232699 26.532375 184 184 184 0
-6.766893 2.221965 26.404811 186 186 186 0
-6.646630 2.215543 26.328502 186 186 186 0
-6.523631 2.207998 26.238836 186 186 186 0
-6.414556 2.205004 26.203252 187 187 187 0
-6.298094 2.199334 26.135880 190 190 190 0
-6.190022 2.196459 26.101717 191 191 191 0
-6.068353 2.188586 26.008157 193 193 193 0
-5.974340 2.190591 26.031984 193 193 193 0
-5.852282 2.182207 25.932345 193 193 193 0
-5.753915 2.182520 25.936061 194 194 194 0
-5.651837 2.181411 25.922886 195 195 195 0
-5.546200 2.178864 25.892622 196 196 196 0
-5.435577 2.174231 25.837560 197 197 197 0
-5.320848 2.167753 25.760581 197 197 197 0
-5.225844 2.169218 25.777993 198 198 198 0
-5.130558 2.170621 25.794659 199 199 199 0
-5.021603 2.166182 25.741910 199 199 199 0
-4.913916 2.162123 25.693678 200 200 200 0
-4.812757 2.160830 25.678309 200 200 200 0
-4.719980 2.163324 25.707950 200 200 200 0
-4.610679 2.158190 25.646940 201 201 201 0
-4.528657 2.165879 25.738317 202 202 202 0
-4.410121 2.156059 25.621619 202 202 202 0
-4.320318 2.160159 25.670338 203 203 203 0
-4.215379 2.156706 25.629302 203 203 203 0
-4.121220 2.158734 25.653406 204 204 204 0
-4.027987 2.161359 25.684598 204 204 204 0
-3.930992 2.162046 25.692760 205 205 205 0
-3.832175 2.161740 25.689126 205 205 205 0
-3.729060 2.158930 25.655730 205 205 205 0
-3.644180 2.166810 25.749376 205 205 205 0
-3.540005 2.163337 25.708100 207 207 207 0
-3.446696 2.166495 25.745627 207 207 207 0
-3.340490 2.161493 25.686196 207 207 207 0
-3.240101 2.160067 25.669247 202 202 202 0
-3.138969 2.158041 25.645173 199 199 199 0
-3.033057 2.152492 25.579227 200 200 200 0
-2.934105 2.151677 25.569540 201 201 201 0
-2.833049 2.149209 25.540218 201 201 201 0
-2.726705 2.142411 25.459426 202 202 202 0
-2.634320 2.146483 25.507817 201 201 201 0
-2.538373 2.147854 25.524109 201 201 201 0
-2.434066 2.141978 25.454284 202 202 202 0
-2.339162 2.144232 25.481068 202 202 202 0
-2.237049 2.139786 25.428230 202 202 202 0
-2.141394 2.141394 25.447343 203 203 203 0
-2.042400 2.139657 25.426700 203 203 203 0
-1.948445 2.143290 25.469873 204 204 204 0
-1.850584 2.142782 25.463837 203 203 203 0
-1.751123 2.140261 25.433885 204 204 204 0
-1.653464 2.139778 25.428135 204 204 204 0
-1.555432 2.138719 25.415555 207 207 207 0
-1.460204 2.141632 25.450171 205 205 205 0
-1.344839 2.113318 25.113703 192 192 192 0
-1.245274 2.107387 25.043223 169 169 169 0
-1.130375 2.072354 24.626910 165 165 165 0
-1.041022 2.082044 24.742054 167 167 167 0
-0.944750 2.078449 24.699337 169 169 169 0
-0.843742 2.062481 24.509575 172 172 172 0
-0.744514 2.047414 24.330530 171 171 171 0
-0.646053 2.030454 24.128981 175 175 175 0
-0.554580 2.033462 24.164726 177 177 177 0
-0.456806 2.009946 23.885275 177 177 177 0
-0.365460 2.010030 23.886274 179 179 179 0
-0.272652 1.999448 23.760527 178 178 178 0
-0.181636 1.997995 23.743255 179 179 179 0
-0.090617 1.993584 23.690836 183 183 183 0
0.000000 1.979971 23.529065 185 185 185 0
0.089664 1.972613 23.441632 186 186 186 0
0.178787 1.966656 23.370837 187 187 187 0
0.266962 1.957722 23.264667 186 186 186 0
0.355800 1.956902 23.254926 187 187 187 0
0.444632 1.956379 23.248715 187 187 187 0
0.531967 1.950544 23.179369 188 188 188 0
0.619060 1.945617 23.120825 189 189 189 0
0.705022 1.938810 23.039929 191 191 191 0
0.790790 1.933043 22.971398 193 193 193 0
0.878024 1.931652 22.954871 194 194 194 0
0.965640 1.931280 22.950450 195 195 195 0
1.051941 1.928558 22.918101 194 194 194 0
1.136642 1.923548 22.858564 195 195 195 0
1.218755 1.915186 22.759190 195 195 195 0
1.307057 1.917017 22.780957 195 195 195 0
1.393801 1.916476 22.774518 196 196 196 0
1.480570 1.916032 22.769242 196 196 196 0
1.564148 1.911737 22.718200 196 196 196 0
1.648094 1.908319 22.677586 196 196 196 0
1.731737 1.904911 22.637086 197 197 197 0
1.819340 1.905975 22.649730 197 197 197 0
1.906084 1.906084 22.651034 199 199 199 0
1.992602 1.905967 22.649638 198 198 198 0
2.076977 1.903895 22.625019 199 199 199 0
2.161191 1.901848 22.600692 201 201 201 0
2.246770 1.901113 22.591957 200 200 200 0
2.333509 1.901378 22.595104 200 200 200 0
2.419517 1.901049 22.591197 201 201 201 0
2.508601 1.903076 22.615288 201 201 201 0
2.592113 1.900883 22.589217 202 202 202 0
2.678280 1.900715 22.587227 202 202 202 0
2.766428 1.901919 22.601535 201 201 201 0
2.856719 1.904479 22.631959 201 201 201 0
2.944894 1.905520 22.644321 202 202 202 0
3.031068 1.905243 22.641030 202 202 202 0
3.120546 1.907000 22.661915 202 202 202 0
3.211826 1.909734 22.694405 202 202 202 0
3.300997 1.911103 22.710675 202 202 202 0
3.385671 1.909866 22.695970 203 203 203 0
3.479914 1.913953 22.744534 203 203 203 0
3.571821 1.916587 22.775841 202 202 202 0
3.663234 1.918837 22.802579 203 203 203 0
3.761871 1.924678 22.871992 204 204 204 0
3.848512 1.924256 22.866973 204 204 204 0
3.939403 1.925930 22.886872 203 203 203 0
4.035757 1.930145 22.936953 203 203 203 0
4.133703 1.934925 22.993757 204 204 204 0
4.222308 1.935224 22.997320 204 204 204 0
4.324917 1.941800 23.075455 203 203 203 0
4.425883 1.947388 23.141872 202 202 202 0
4.538215 1.957661 23.263950 202 202 202 0
4.624674 1.956593 23.251252 202 202 202 0
4.736531 1.966107 23.364317 203 203 203 0
4.840684 1.972130 23.435892 203 203 203 0
4.955899 1.982359 23.557451 203 203 203 0
5.056637 1.986536 23.607083 202 202 202 0
5.168633 1.994911 23.706605 202 202 202 0
5.299886 2.010302 23.889504 201 201 201 0
5.420625 2.021250 24.019606 201 201 201 0
5.519960 2.023985 24.052115 201 201 201 0
5.670093 2.044952 24.301268 201 201 201 0
5.800516 2.058248 24.459271 200 200 200 0
5.948784 2.077353 24.686310 200 200 200 0
6.136031 2.109261 25.065486 201 201 201 0
6.362001 2.153293 25.588744 203 203 203 0
6.487821 2.162607 25.699429 209 209 209 0
6.566182 2.156060 25.621626 210 210 210 0
6.651710 2.152024 25.573662 211 211 211 0
6.737432 2.148167 25.527827 209 209 209 0
6.823897 2.144653 25.486077 209 209 209 0
6.909744 2.141047 25.443224 209 209 209 0
6.995606 2.137546 25.401619 209 209 209 0
7.092033 2.137325 25.398990 209 209 209 0
7.193097 2.138488 25.412813 210 210 210 0
7.275123 2.134036 25.359907 209 209 209 0
7.367318 2.132645 25.343372 208 208 208 0
7.443682 2.126766 25.273516 209 209 209 0
7.527837 2.123236 25.231565 209 209 209 0
7.620252 2.122096 25.218010 209 209 209 0
-8.658745 2.489389 28.296553 138 138 138 0
-8.483650 2.469923 28.075287 145 145 145 0
-8.286489 2.443452 27.774389 156 156 156 0
-8.110723 2.422683 27.538316 158 158 158 0
-7.944551 2.404272 27.329037 164 164 164 0
-7.786745 2.387935 27.143339 168 168 168 0
-7.664194 2.382114 27.077173 169 169 169 0
-7.540758 2.375855 27.006028 172 172 172 0
-7.391236 2.361089 26.838186 178 178 178 0
-7.235946 2.344039 26.644376 178 178 178 0
-7.110111 2.336179 26.555037 178 178 178 0
-7.001645 2.333882 26.528919 181 181 181 0
-6.886122 2.329129 26.474901 185 185 185 0
-6.755733 2.319132 26.361263 186 186 186 0
-6.627377 2.309541 26.252238 186 186 186 0
-6.515774 2.305582 26.207235 186 186 186 0
-6.399650 2.299874 26.142363 188 188 188 0
-6.305658 2.302066 26.167270 192 192 192 0
-6.185268 2.294535 26.081672 191 191 191 0
-6.073635 2.290059 26.030793 192 192 192 0
-5.957030 2.283528 25.956560 193 193 193 0
-5.849795 2.280429 25.921326 194 194 194 0
-5.742114 2.277045 25.882865 194 194 194 0
-5.644259 2.277508 25.888127 197 197 197 0
-5.536710 2.274006 25.848321 197 197 197 0
-5.436287 2.273356 25.840937 197 197 197 0
-5.328224 2.269429 25.796290 198 198 198 0
-5.211336 2.261523 25.706429 198 198 198 0
-5.115341 2.262555 25.718154 198 198 198 0
-5.038021 2.272049 25.826074 199 199 199 0
-4.919093 2.262783 25.720745 199 199 199 0
-4.803561 2.254733 25.629244 200 200 200 0
-4.703946 2.253974 25.620622 202 202 202 0
-4.614104 2.257966 25.665995 202 202 202 0
-4.522560 2.261280 25.703667 203 203 203 0
-4.409587 2.253789 25.618516 202 202 202 0
-4.310327 2.253125 25.610973 203 203 203 0
-4.209314 2.251493 25.592423 204 204 204 0
-4.120779 2.256617 25.650665 204 204 204 0
-4.028490 2.259885 25.687807 204 204 204 0
-3.919380 2.253644 25.616863 206 206 206 0
-3.825442 2.256030 25.643985 206 206 206 0
-3.726012 2.255218 25.634759 206 206 206 0
-3.633052 2.258384 25.670742 205 205 205 0
-3.542118 2.263020 25.723444 206 206 206 0
-3.441309 2.261431 25.705386 207 207 207 0
-3.346291 2.263668 25.730806 207 207 207 0
-3.241940 2.259534 25.683816 208 208 208 0
-3.144430 2.260059 25.689791 204 204 204 0
-3.038940 2.254698 25.628844 200 200 200 0
-2.934105 2.249480 25.569540 201 201 201 0
-2.837170 2.250169 25.577372 201 201 201 0
-2.735785 2.247252 25.544209 201 201 201 0
-2.640023 2.248908 25.563040 201 201 201 0
-2.538215 2.245344 25.522522 201 201 201 0
-2.434280 2.239538 25.456523 202 202 202 0
-2.340588 2.243064 25.496602 201 201 201 0
-2.236949 2.236949 25.427095 202 202 202 0
-2.145661 2.243191 25.498056 203 203 203 0
-2.049020 2.244165 25.509120 203 203 203 0
-1.949304 2.241700 25.481101 204 204 204 0
-1.845600 2.234148 25.395259 204 204 204 0
-1.752401 2.239179 25.452450 203 203 203 0
-1.654495 2.238434 25.443982 203 203 203 0
-1.557117 2.238355 25.443080 205 205 205 0
-1.462566 2.242601 25.491347 205 205 205 0
-1.359362 2.233238 25.384919 203 203 203 0
-1.257066 2.224039 25.280354 192 192 192 0
-1.151917 2.207840 25.096221 170 170 170 0
-1.046961 2.189100 24.883201 163 163 163 0
-0.946672 2.177346 24.749603 167 167 167 0
-0.849895 2.171953 24.688300 172 172 172 0
-0.749533 2.154907 24.494538 173 173 173 0
-0.651518 2.140701 24.333062 171 171 171 0
-0.554184 2.124373 24.147467 172 172 172 0
-0.459738 2.114793 24.038566 178 178 178 0
-0.366573 2.107795 23.959024 177 177 177 0
-0.274543 2.104833 23.925357 178 178 178 0
-0.182929 2.103689 23.912349 180 180 180 0
-0.090672 2.085462 23.705165 180 180 180 0
0.000000 2.077415 23.613698 181 181 181 0
0.089772 2.064745 23.469678 184 184 184 0
0.179192 2.060703 23.423729 186 186 186 0
0.268863 2.061283 23.430330 186 186 186 0
0.358408 2.060845 23.425345 188 188 188 0
0.446878 2.055640 23.366179 188 188 188 0
0.533555 2.045294 23.248577 188 188 188 0
0.619699 2.036153 23.144678 189 189 189 0
0.707339 2.033599 23.115646 188 188 188 0
0.794111 2.029396 23.067870 189 189 189 0
0.883042 2.030996 23.086059 193 193 193 0
0.971188 2.030665 23.082299 194 194 194 0
1.055762 2.023544 23.001348 194 194 194 0
1.139423 2.015902 22.914490 194 194 194 0
1.225731 2.013701 22.889467 194 194 194 0
1.312045 2.011803 22.867893 196 196 196 0
1.399411 2.011654 22.866199 197 197 197 0
1.488379 2.013689 22.889328 196 196 196 0
1.571344 2.007828 22.822709 196 196 196 0
1.654978 2.003395 22.772316 196 196 196 0
1.740358 2.001412 22.749783 197 197 197 0
1.827843 2.001924 22.755596 197 197 197 0
1.916270 2.003373 22.772070 197 197 197 0
2.001540 2.001540 22.751230 198 198 198 0
2.082733 1.995952 22.687723 198 198 198 0
2.170122 1.996512 22.694084 199 199 199 0
2.256677 1.996292 22.691578 199 199 199 0
2.348751 2.000788 22.742688 199 199 199 0
2.435433 2.000535 22.739808 199 199 199 0
2.518652 1.997551 22.705897 200 200 200 0
2.601796 1.994710 22.673604 200 200 200 0
2.687809 1.994181 22.667583 200 200 200 0
2.782431 1.999872 22.732277 200 200 200 0
2.870999 2.000999 22.745091 200 200 200 0
2.954901 1.998904 22.721271 201 201 201 0
3.041040 1.998398 22.715516 201 201 201 0
3.132173 2.001111 22.746357 201 201 201 0
3.229163 2.007317 22.816906 201 201 201 0
3.313488 2.005532 22.796617 201 201 201 0
3.405089 2.008130 22.826139 203 203 203 0
3.492948 2.008445 22.829727 202 202 202 0
3.586472 2.011923 22.869263 202 202 202 0
3.684970 2.017960 22.937876 203 203 203 0
3.770897 2.016992 22.926872 204 204 204 0
3.860937 2.018217 22.940802 204 204 204 0
3.961987 2.025016 23.018082 203 203 203 0
4.056585 2.028293 23.055329 202 202 202 0
4.150366 2.031030 23.086445 202 202 202 0
4.247094 2.035066 23.132319 202 202 202 0
4.346820 2.040344 23.192316 202 202 202 0
4.451959 2.047901 23.278217 202 202 202 0
4.556741 2.055001 23.358917 203 203 203 0
4.652865 2.057998 23.392985 202 202 202 0
4.765555 2.068071 23.507484 202 202 202 0
4.882826 2.079722 23.639920 202 202 202 0
4.969701 2.078238 23.623056 201 201 201 0
5.087649 2.089570 23.751864 200 200 200 0
5.221038 2.106735 23.946970 202 202 202 0
5.331475 2.114205 24.031889 201 201 201 0
5.443531 2.122055 24.121109 202 202 202 0
5.587303 2.141800 24.345549 200 200 200 0
5.719757 2.156630 24.514119 199 199 199 0
5.861374 2.174381 24.715894 199 199 199 0
6.059021 2.212024 25.143775 200 200 200 0
6.267779 2.252483 25.603672 201 201 201 0
6.401542 2.265161 25.747779 211 211 211 0
6.485107 2.259962 25.688679 210 210 210 0
6.568313 2.254794 25.629942 212 212 212 0
6.658472 2.252130 25.599660 210 210 210 0
6.744343 2.248114 25.554013 211 211 211 0
6.834218 2.245529 25.524623 209 209 209 0
6.909477 2.238281 25.442241 209 209 209 0
7.002203 2.236815 25.425574 209 209 209 0
7.104165 2.238298 25.442438 208 208 208 0
7.197118 2.236942 25.427021 209 209 209 0
7.295186 2.237190 25.429843 209 209 209 0
7.371872 2.230961 25.359037 208 208 208 0
7.450485 2.225469 25.296612 208 208 208 0
7.531009 2.220682 25.242195 208 208 208 0
7.625563 2.220101 25.235585 209 209 209 0
-8.624401 2.587320 28.184318 140 140 140 0
-8.441594 2.564535 27.936111 148 148 148 0
-8.264062 2.542788 27.699219 157 157 157 0
-8.068715 2.514924 27.395688 159 159 159 0
-7.906452 2.496774 27.197976 166 166 166 0
-7.775555 2.488178 27.104331 169 169 169 0
-7.640878 2.478123 26.994799 169 169 169 0
-7.520415 2.472465 26.933172 174 174 174 0
-7.374712 2.458237 26.778186 178 178 178 0
-7.218363 2.440010 26.579632 178 178 178 0
-7.096796 2.433187 26.505309 179 179 179 0
-6.986739 2.430170 26.472440 183 183 183 0
-6.884232 2.429729 26.467635 185 185 185 0
-6.767026 2.424009 26.405329 185 185 185 0
-6.609429 2.403429 26.181141 186 186 186 0
-6.487939 2.395547 26.095278 187 187 187 0
-6.398504 2.399439 26.137679 190 190 190 0
-6.290574 2.396409 26.104674 191 191 191 0
-6.175478 2.390507 26.040386 191 191 191 0
-6.054976 2.382286 25.950826 192 192 192 0
-5.943244 2.377298 25.896488 193 193 193 0
-5.832295 2.372459 25.843781 194 194 194 0
-5.736895 2.373887 25.859341 195 195 195 0
-5.649670 2.378808 25.912945 196 196 196 0
-5.519675 2.365575 25.768789 197 197 197 0
-5.405699 2.358850 25.695538 198 198 198 0
-5.300335 2.355704 25.661266 197 197 197 0
-5.214967 2.361495 25.724341 198 198 198 0
-5.118022 2.362164 25.731635 199 199 199 0
-5.011558 2.358380 25.690418 200 200 200 0
-4.907427 2.355565 25.659751 201 201 201 0
-4.795884 2.349004 25.588282 202 202 202 0
-4.707295 2.353648 25.638864 201 201 201 0
-4.606801 2.352409 25.625373 203 203 203 0
-4.507502 2.351740 25.618085 203 203 203 0
-4.412631 2.353403 25.636198 203 203 203 0
-4.302494 2.346815 25.564430 203 203 203 0
-4.202742 2.345716 25.552467 204 204 204 0
-4.108579 2.347759 25.574722 204 204 204 0
-4.018075 2.352044 25.621392 205 205 205 0
-3.926509 2.355906 25.663460 205 205 205 0
-3.811530 2.345557 25.550728 205 205 205 0
-3.718682 2.348641 25.584327 206 206 206 0
-3.624048 2.350734 25.607121 206 206 206 0
-3.534713 2.356475 25.669667 206 206 206 0
-3.444693 2.362075 25.730666 207 207 207 0
-3.338883 2.356859 25.673840 206 206 206 0
-3.247443 2.361777 25.727419 207 207 207 0
-3.146340 2.359755 25.705395 207 207 207 0
-3.042885 2.355782 25.662110 207 207 207 0
-2.942409 2.353927 25.641911 202 202 202 0
-2.839764 2.350149 25.600756 200 200 200 0
-2.740364 2.348883 25.586962 201 201 201 0
-2.643137 2.349455 25.593194 201 201 201 0
-2.542512 2.346934 25.565731 202 202 202 0
-2.437968 2.340450 25.495095 201 201 201 0
-2.337307 2.337307 25.460864 202 202 202 0
-2.242739 2.340250 25.492916 202 202 202 0
-2.149192 2.344573 25.540009 202 202 202 0
-2.048272 2.340883 25.499812 202 202 202 0
-1.951873 2.342248 25.514679 203 203 203 0
-1.854344 2.342329 25.515570 204 204 204 0
-1.754681 2.339575 25.485562 203 203 203 0
-1.659727 2.343145 25.524450 204 204 204 0
-1.562209 2.343314 25.526291 204 204 204 0
-1.467012 2.347219 25.568838 205 205 205 0
-1.362623 2.335925 25.445808 205 205 205 0
-1.266005 2.337240 25.460126 203 203 203 0
-1.162507 2.325014 25.326955 188 188 188 0
-1.056144 2.304314 25.101457 170 170 170 0
-0.944717 2.267320 24.698471 165 165 165 0
-0.852109 2.272290 24.752611 167 167 167 0
-0.761933 2.285799 24.899769 174 174 174 0
-0.653738 2.241388 24.415990 172 172 172 0
-0.558399 2.233596 24.331106 172 172 172 0
-0.461987 2.217540 24.156205 172 172 172 0
-0.368990 2.213939 24.116979 175 175 175 0
-0.276835 2.214679 24.125043 179 179 179 0
-0.183942 2.207305 24.044722 179 179 179 0
-0.091753 2.202069 23.987681 180 180 180 0
0.000000 2.189734 23.853315 180 180 180 0
0.090573 2.173759 23.679292 180 180 180 0
0.180333 2.163991 23.572884 182 182 182 0
0.270386 2.163089 23.563063 186 186 186 0
0.360609 2.163656 23.569240 187 187 187 0
0.447649 2.148714 23.406470 187 187 187 0
0.537435 2.149740 23.417651 187 187 187 0
0.624155 2.139961 23.311125 188 188 188 0
0.711452 2.134357 23.250071 188 188 188 0
0.799616 2.132308 23.227760 189 189 189 0
0.888097 2.131432 23.218216 189 189 189 0
0.973474 2.123944 23.136642 191 191 191 0
1.060399 2.120798 23.102379 191 191 191 0
1.145887 2.115484 23.044491 193 193 193 0
1.231518 2.111173 22.997529 195 195 195 0
1.318246 2.109194 22.975968 196 196 196 0
1.406034 2.109051 22.974415 195 195 195 0
1.493286 2.108168 22.964792 196 196 196 0
1.576704 2.102272 22.900565 196 196 196 0
1.663607 2.101399 22.891055 197 197 197 0
1.748396 2.098075 22.854853 197 197 197 0
1.837368 2.099849 22.874171 197 197 197 0
1.925319 2.100347 22.879602 197 197 197 0
2.010750 2.098174 22.855925 197 197 197 0
2.095066 2.095066 22.822068 198 198 198 0
2.178471 2.091332 22.781394 198 198 198 0
2.269124 2.094576 22.816736 198 198 198 0
2.357747 2.095775 22.829791 198 198 198 0
2.447375 2.097750 22.851311 198 198 198 0
2.526164 2.090619 22.773626 200 200 200 0
2.614313 2.091450 22.782685 199 199 199 0
2.703200 2.092800 22.797386 200 200 200 0
2.795943 2.096957 22.842674 199 199 199 0
2.884603 2.097893 22.852866 201 201 201 0
2.968450 2.095376 22.825451 200 200 200 0
3.054407 2.094451 22.815369 201 201 201 0
3.149510 2.099674 22.872261 201 201 201 0
3.242769 2.103418 22.913045 201 201 201 0
3.334417 2.105948 22.940606 202 202 202 0
3.416490 2.102455 22.902565 202 202 202 0
3.512154 2.107293 22.955258 202 202 202 0
3.604750 2.110097 22.985811 202 202 202 0
3.697616 2.112924 23.016598 203 203 203 0
3.792459 2.116721 23.057964 202 202 202 0
3.877912 2.115225 23.041663 202 202 202 0
3.985757 2.125737 23.156176 201 201 201 0
4.081411 2.129432 23.196425 200 200 200 0
4.184887 2.136964 23.278472 201 201 201 0
4.272693 2.136346 23.271747 201 201 201 0
4.380649 2.145624 23.372811 203 203 203 0
4.480084 2.150440 23.425277 201 201 201 0
4.588282 2.159192 23.520607 201 201 201 0
4.676255 2.158272 23.510585 201 201 201 0
4.797018 2.172235 23.662686 201 201 201 0
4.917104 2.185380 23.805877 201 201 201 0
5.017538 2.189471 23.850446 200 200 200 0
5.134944 2.200690 23.972662 202 202 202 0
5.275753 2.221370 24.197925 201 201 201 0
5.365074 2.220031 24.183342 201 201 201 0
5.508464 2.240731 24.408834 199 199 199 0
5.658547 2.263419 24.655977 199 199 199 0
5.776377 2.272673 24.756786 198 198 198 0
5.977459 2.313855 25.205394 197 197 197 0
6.203262 2.363148 25.742348 202 202 202 0
6.320162 2.370061 25.817653 211 211 211 0
6.398056 2.362359 25.733760 210 210 210 0
6.480308 2.356476 25.669669 209 209 209 0
6.564492 2.351460 25.615031 210 210 210 0
6.658538 2.350072 25.599916 209 209 209 0
6.758348 2.350730 25.607079 209 209 209 0
6.842119 2.345870 25.554134 209 209 209 0
6.919360 2.338938 25.478632 209 209 209 0
7.011087 2.337029 25.457834 210 210 210 0
7.106441 2.336364 25.450591 208 208 208 0
7.198096 2.334518 25.430476 209 209 209 0
7.288711 2.332388 25.407273 209 209 209 0
7.373607 2.328507 25.365004 208 208 208 0
7.456425 2.324080 25.316780 209 209 209 0
7.537167 2.319128 25.262835 209 209 209 0
7.630969 2.318269 25.253475 208 208 208 0
-8.589662 2.684269 28.070792 141 141 141 0
-8.439191 2.670630 27.928159 151 151 151 0
-8.238844 2.640655 27.614693 156 156 156 0
-8.064533 2.618355 27.381490 160 160 160 0
-7.899584 2.598547 27.174353 168 168 168 0
-7.782449 2.594150 27.128363 169 169 169 0
-7.637443 2.580217 26.982665 170 170 170 0
-7.505484 2.570371 26.879699 176 176 176 0
-7.364843 2.557237 26.742350 177 177 177 0
-7.202363 2.536043 26.520716 177 177 177 0
-7.080698 2.528821 26.445185 180 180 180 0
-6.976714 2.527795 26.434458 185 185 185 0
-6.884216 2.530962 26.467575 185 185 185 0
-6.753209 2.519854 26.351417 185 185 185 0
-6.620665 2.507828 26.225649 186 186 186 0
-6.491535 2.496744 26.109742 189 189 189 0
-6.382428 2.493136 26.072010 191 191 191 0
-6.274647 2.489939 26.038580 191 191 191 0
-6.169812 2.487828 26.016497 192 192 192 0
-6.056566 2.482199 25.957639 192 192 192 0
-5.942574 2.476072 25.893568 193 193 193 0
-5.832438 2.471372 25.844413 195 195 195 0
-5.736630 2.472686 25.858149 196 196 196 0
-5.625448 2.467302 25.801850 197 197 197 0
-5.518971 2.463826 25.765505 197 197 197 0
-5.417335 2.462425 25.750848 197 197 197 0
-5.296999 2.452314 25.645118 197 197 197 0
-5.211803 2.458398 25.708733 198 198 198 0
-5.103137 2.453431 25.656796 199 199 199 0
-4.999792 2.450879 25.630103 201 201 201 0
-4.890588 2.445294 25.571704 201 201 201 0
-4.796603 2.447247 25.592122 201 201 201 0
-4.702181 2.449052 25.611006 202 202 202 0
-4.600512 2.447081 25.590387 201 201 201 0
-4.505894 2.448856 25.608947 203 203 203 0
-4.406664 2.448147 25.601532 203 203 203 0
-4.312890 2.450506 25.626205 204 204 204 0
-4.199544 2.441595 25.533022 204 204 204 0
-4.107019 2.444654 25.565012 204 204 204 0
-4.014819 2.448060 25.600629 204 204 204 0
-3.918125 2.448828 25.608661 206 206 206 0
-3.816474 2.446458 25.583872 205 205 205 0
-3.720006 2.447373 25.593440 205 205 205 0
-3.624553 2.449022 25.610690 206 206 206 0
-3.530223 2.451544 25.637059 206 206 206 0
-3.443553 2.459680 25.722148 207 207 207 0
-3.343742 2.458634 25.711202 207 207 207 0
-3.240074 2.454602 25.669036 208 208 208 0
-3.142484 2.455065 25.673887 208 208 208 0
-3.054935 2.463657 25.763738 209 209 209 0
-2.949737 2.458114 25.705771 208 208 208 0
-2.840853 2.449011 25.610577 204 204 204 0
-2.743187 2.449274 25.613324 202 202 202 0
-2.645739 2.449758 25.618387 201 201 201 0
-2.546481 2.448540 25.605642 202 202 202 0
-2.443579 2.443579 25.553770 202 202 202 0
-2.337427 2.434820 25.462172 202 202 202 0
-2.245141 2.440370 25.520214 202 202 202 0
-2.152114 2.445585 25.574740 201 201 201 0
-2.053201 2.444287 25.561168 202 202 202 0
-1.956751 2.445939 25.578447 202 202 202 0
-1.856464 2.442716 25.544745 204 204 204 0
-1.756080 2.439000 25.505885 203 203 203 0
-1.660147 2.441392 25.530900 204 204 204 0
-1.564774 2.444959 25.568197 204 204 204 0
-1.468970 2.448283 25.602960 205 205 205 0
-1.365656 2.438672 25.502453 205 205 205 0
-1.269691 2.441713 25.534251 205 205 205 0
-1.170979 2.439539 25.511520 203 203 203 0
-1.072121 2.436639 25.481194 191 191 191 0
-0.967960 2.419901 25.306149 172 172 172 0
-0.860320 2.389779 24.991150 166 166 166 0
-0.760294 2.375917 24.846193 165 165 165 0
-0.663322 2.369007 24.773928 170 170 170 0
-0.564575 2.352398 24.600240 173 173 173 0
-0.466384 2.331919 24.386079 171 171 171 0
-0.372507 2.328171 24.346882 172 172 172 0
-0.277880 2.315663 24.216088 175 175 175 0
-0.185109 2.313859 24.197223 178 178 178 0
-0.091985 2.299617 24.048285 179 179 179 0
0.000000 2.282319 23.867391 181 181 181 0
0.091119 2.277985 23.822061 179 179 179 0
0.181702 2.271271 23.751859 180 180 180 0
0.271851 2.265423 23.690695 181 181 181 0
0.362656 2.266599 23.702999 183 183 183 0
0.451956 2.259781 23.631697 186 186 186 0
0.539030 2.245957 23.487128 186 186 186 0
0.626856 2.238770 23.411971 187 187 187 0
0.715080 2.234624 23.368616 188 188 188 0
0.803878 2.232994 23.351575 190 190 190 0
0.892339 2.230848 23.329130 189 189 189 0
0.979955 2.227171 23.290674 190 190 190 0
1.065218 2.219204 23.207358 189 189 189 0
1.150048 2.211631 23.128170 190 190 190 0
1.238772 2.212093 23.132996 191 191 191 0
1.325104 2.208507 23.095496 192 192 192 0
1.414098 2.209528 23.106177 194 194 194 0
1.498941 2.204325 23.051769 194 194 194 0
1.582416 2.197799 22.983523 196 196 196 0
1.668982 2.196029 22.965006 197 197 197 0
1.758107 2.197634 22.981795 198 198 198 0
1.846519 2.198237 22.988098 198 198 198 0
1.932848 2.196418 22.969076 197 197 197 0
2.017216 2.192626 22.929425 197 197 197 0
2.100482 2.188002 22.881067 199 199 199 0
2.189362 2.189362 22.895288 198 198 198 0
2.280199 2.192499 22.928097 198 198 198 0
2.368255 2.192829 22.931545 198 198 198 0
2.454191 2.191242 22.914948 198 198 198 0
2.539586 2.189299 22.894625 199 199 199 0
2.625007 2.187506 22.875877 200 200 200 0
2.718795 2.192577 22.928905 200 200 200 0
2.806907 2.192896 22.932248 200 200 200 0
2.894292 2.192645 22.929623 200 200 200 0
2.984454 2.194451 22.948509 201 201 201 0
3.070445 2.193175 22.935164 200 200 200 0
3.163647 2.196977 22.974925 201 201 201 0
3.255881 2.199920 23.005697 201 201 201 0
3.345779 2.201170 23.018775 201 201 201 0
3.435621 2.202321 23.030813 201 201 201 0
3.524993 2.203121 23.039171 201 201 201 0
3.626338 2.211182 23.123467 200 200 200 0
3.717452 2.212769 23.140069 200 200 200 0
3.807528 2.213679 23.149585 200 200 200 0
3.902502 2.217331 23.187771 200 200 200 0
4.007971 2.226651 23.285234 201 201 201 0
4.109935 2.233661 23.358542 200 200 200 0
4.201732 2.234964 23.372172 201 201 201 0
4.298806 2.238962 23.413977 202 202 202 0
4.416584 2.253359 23.564541 202 202 202 0
4.507955 2.253977 23.571004 200 200 200 0
4.604214 2.256967 23.602274 199 199 199 0
4.715943 2.267280 23.710122 199 199 199 0
4.830318 2.278452 23.826946 201 201 201 0
4.944022 2.288899 23.936199 200 200 200 0
5.047611 2.294368 23.993395 200 200 200 0
5.169856 2.307971 24.135648 199 199 199 0
5.290798 2.320525 24.266931 198 198 198 0
5.412399 2.332931 24.396661 199 199 199 0
5.562736 2.357092 24.649323 199 199 199 0
5.728597 2.386915 24.961206 198 198 198 0
5.902788 2.419175 25.298565 197 197 197 0
6.129237 2.471466 25.845400 203 203 203 0
6.236385 2.474756 25.879802 211 211 211 0
6.313354 2.466154 25.789844 210 210 210 0
6.402299 2.462423 25.750825 210 210 210 0
6.483484 2.455865 25.682251 209 209 209 0
6.569381 2.451262 25.634108 208 208 208 0
6.669203 2.451913 25.640919 209 209 209 0
6.766177 2.451513 25.636742 209 209 209 0
6.846846 2.445302 25.571788 208 208 208 0
6.922509 2.437503 25.490230 209 209 209 0
7.015927 2.436086 25.475406 209 209 209 0
7.112279 2.435712 25.471498 208 208 208 0
7.211040 2.436162 25.476207 210 210 210 0
7.301466 2.433822 25.451734 208 208 208 0
7.379317 2.427407 25.384646 208 208 208 0
7.457916 2.421401 25.321843 208 208 208 0
7.545073 2.418292 25.289333 209 209 209 0
7.633035 2.415517 25.260313 208 208 208 0
-8.570530 2.785422 28.008269 142 142 142 0
-8.416248 2.769904 27.852230 153 153 153 0
-8.221857 2.740619 27.557759 156 156 156 0
-8.020469 2.708210 27.231879 161 161 161 0
-7.867956 2.691669 27.065554 167 167 167 0
-7.753546 2.687896 27.027612 169 169 169 0
-7.628696 2.680353 26.951762 172 172 172 0
-7.491770 2.668302 26.830585 177 177 177 0
-7.345607 2.652580 26.672503 177 177 177 0
-7.206604 2.639038 26.536332 179 179 179 0
-7.084974 2.631562 26.461156 181 181 181 0
-6.979896 2.630106 26.446514 184 184 184 0
-6.857667 2.622049 26.365501 185 185 185 0
-6.727938 2.610842 26.252806 186 186 186 0
-6.620812 2.608199 26.226231 186 186 186 0
-6.491606 2.596642 26.110030 189 189 189 0
-6.374774 2.589752 26.040745 191 191 191 0
-6.268528 2.587012 26.013189 192 192 192 0
-6.165290 2.585444 25.997427 192 192 192 0
-6.048698 2.578133 25.923916 192 192 192 0
-5.926882 2.568316 25.825196 193 193 193 0
-5.830450 2.569351 25.835605 196 196 196 0
-5.725187 2.566463 25.806569 196 196 196 0
-5.634629 2.570182 25.843959 196 196 196 0
-5.514805 2.560445 25.746057 197 197 197 0
-5.405504 2.555329 25.694611 197 197 197 0
-5.289625 2.546856 25.609415 197 197 197 0
-5.196892 2.549419 25.635182 199 199 199 0
-5.103218 2.551609 25.657203 200 200 200 0
-4.997716 2.547855 25.619458 201 201 201 0
-4.895735 2.545782 25.598615 201 201 201 0
-4.785148 2.539058 25.531000 201 201 201 0
-4.683052 2.536653 25.506820 202 202 202 0
-4.595870 2.542396 25.564564 202 202 202 0
-4.504518 2.546032 25.601123 202 202 202 0
-4.393841 2.538664 25.527035 203 203 203 0
-4.292803 2.536656 25.506852 204 204 204 0
-4.193021 2.535315 25.493366 204 204 204 0
-4.107365 2.542655 25.567166 205 205 205 0
-4.008670 2.542083 25.561420 204 204 204 0
-3.912791 2.543314 25.573795 204 204 204 0
-3.811761 2.541174 25.552280 205 205 205 0
-3.711692 2.539578 25.536233 206 206 206 0
-3.623988 2.546586 25.606698 206 206 206 0
-3.524876 2.545744 25.598230 206 206 206 0
-3.435295 2.551933 25.660467 207 207 207 0
-3.329379 2.545996 25.600764 208 208 208 0
-3.237733 2.550941 25.650492 207 207 207 0
-3.143532 2.554120 25.682449 208 208 208 0
-3.048540 2.556840 25.709804 208 208 208 0
-2.959867 2.565218 25.794046 208 208 208 0
-2.849462 2.554690 25.688183 209 209 209 0
-2.751390 2.554862 25.689912 206 206 206 0
-2.649516 2.551385 25.654957 202 202 202 0
-2.542915 2.542915 25.569779 201 201 201 0
-2.446580 2.544443 25.585147 201 201 201 0
-2.348378 2.544076 25.581462 201 201 201 0
-2.251243 2.544883 25.589576 202 202 202 0
-2.151296 2.542440 25.565010 203 203 203 0
-2.054520 2.543691 25.577587 203 203 203 0
-1.956751 2.543777 25.578447 203 203 203 0
-1.851024 2.532981 25.469892 203 203 203 0
-1.761855 2.544901 25.589756 203 203 203 0
-1.665074 2.546583 25.606669 204 204 204 0
-1.567363 2.546965 25.610508 204 204 204 0
-1.465283 2.539823 25.538694 206 206 206 0
-1.368680 2.541835 25.558922 205 205 205 0
-1.272521 2.545042 25.591169 206 206 206 0
-1.175366 2.546626 25.607096 205 205 205 0
-1.074670 2.540128 25.541764 205 205 205 0
-0.976503 2.538907 25.529482 196 196 196 0
-0.865406 2.500062 25.138881 176 176 176 0
-0.767453 2.494223 25.080167 165 165 165 0
-0.668293 2.482230 24.959574 165 165 165 0
-0.566953 2.456797 24.703841 166 166 166 0
-0.470841 2.448373 24.619140 172 172 172 0
-0.376270 2.445754 24.592804 174 174 174 0
-0.280129 2.427786 24.412125 172 172 172 0
-0.185647 2.413414 24.267610 174 174 174 0
-0.092529 2.405762 24.190669 175 175 175 0
0.000000 2.399016 24.122831 179 179 179 0
0.091444 2.377548 23.906966 180 180 180 0
0.182936 2.378164 23.913158 181 181 181 0
0.273540 2.370683 23.837937 182 182 182 0
0.364976 2.372344 23.854638 181 181 181 0
0.454953 2.365756 23.788392 182 182 182 0
0.540059 2.340257 23.532000 183 183 183 0
0.630131 2.340486 23.534303 186 186 186 0
0.718535 2.335238 23.481523 188 188 188 0
0.809132 2.337493 23.504200 188 188 188 0
0.898314 2.335616 23.485326 189 189 189 0
0.984550 2.327118 23.399883 190 190 190 0
1.068821 2.315778 23.285854 190 190 190 0
1.155679 2.311359 23.241414 190 190 190 0
1.244325 2.310890 23.236701 191 191 191 0
1.334032 2.312321 23.251096 191 191 191 0
1.421463 2.309877 23.226518 191 191 191 0
1.507802 2.306050 23.188035 191 191 191 0
1.591232 2.298447 23.111582 192 192 192 0
1.676619 2.294321 23.070097 194 194 194 0
1.767439 2.297670 23.103774 195 195 195 0
1.856102 2.298031 23.107401 195 195 195 0
1.935777 2.287737 23.003891 197 197 197 0
2.025625 2.289837 23.025003 196 196 196 0
2.113699 2.289840 23.025039 197 197 197 0
2.201178 2.289226 23.018860 197 197 197 0
2.291021 2.291021 23.036914 198 198 198 0
2.378359 2.290271 23.029374 198 198 198 0
2.464364 2.288338 23.009931 198 198 198 0
2.548168 2.284565 22.971991 199 199 199 0
2.639635 2.287683 23.003352 200 200 200 0
2.734395 2.293364 23.060469 200 200 200 0
2.817711 2.289390 23.020511 200 200 200 0
2.909223 2.292115 23.047914 199 199 199 0
2.994462 2.289883 23.025471 199 199 199 0
3.088152 2.294055 23.067425 200 200 200 0
3.183258 2.299019 23.117340 199 199 199 0
3.274627 2.301089 23.138152 198 198 198 0
3.361941 2.300275 23.129966 199 199 199 0
3.454002 2.302668 23.154027 199 199 199 0
3.548556 2.306561 23.193173 198 198 198 0
3.648033 2.313387 23.261808 198 198 198 0
3.739344 2.314832 23.276342 200 200 200 0
3.832248 2.317173 23.299879 200 200 200 0
3.934955 2.325201 23.380599 200 200 200 0
4.030450 2.328704 23.415829 200 200 200 0
4.129640 2.334144 23.470531 200 200 200 0
4.223871 2.336610 23.495320 200 200 200 0
4.326999 2.343791 23.567535 201 201 201 0
4.439354 2.355575 23.686027 200 200 200 0
4.532177 2.356732 23.697655 199 199 199 0
4.641809 2.366412 23.794997 199 199 199 0
4.755896 2.377948 23.910989 199 199 199 0
4.868096 2.388123 24.013299 200 200 200 0
4.972000 2.393926 24.071655 200 200 200 0
5.105275 2.413403 24.267498 198 198 198 0
5.223195 2.425055 24.384663 196 196 196 0
5.355565 2.442889 24.563994 197 197 197 0
5.493659 2.462675 24.762945 198 198 198 0
5.628869 2.480519 24.942368 197 197 197 0
5.853576 2.536549 25.505776 199 199 199 0
6.057203 2.581759 25.960368 206 206 206 0
6.145341 2.577079 25.913308 209 209 209 0
6.228897 2.570656 25.848727 210 210 210 0
6.309632 2.563288 25.774642 209 209 209 0
6.397694 2.559078 25.732303 210 210 210 0
6.490013 2.556672 25.708111 209 209 209 0
6.576734 2.552165 25.662798 209 209 209 0
6.677960 2.553337 25.674585 208 208 208 0
6.771909 2.551734 25.658459 209 209 209 0
6.857270 2.546986 25.610720 209 209 209 0
6.928969 2.537369 25.514017 208 208 208 0
7.027595 2.537743 25.517776 209 209 209 0
7.120911 2.536215 25.502411 209 209 209 0
7.219347 2.536527 25.505555 209 209 209 0
7.294630 2.528805 25.427903 209 209 209 0
7.386930 2.527108 25.410837 208 208 208 0
7.458854 2.518574 25.325027 208 208 208 0
7.555548 2.518516 25.324444 208 208 208 0
7.641305 2.514860 25.287683 208 208 208 0
-8.591538 2.899644 28.076922 144 144 144 0
-8.394152 2.868887 27.779107 155 155 155 0
-8.210143 2.841973 27.518495 156 156 156 0
-8.021093 2.812591 27.233996 164 164 164 0
-7.869543 2.795759 27.071011 167 167 167 0
-7.731550 2.783358 26.950935 168 168 168 0
-7.612084 2.777382 26.893073 173 173 173 0
-7.497115 2.772905 26.849726 177 177 177 0
-7.335420 2.750783 26.635514 178 178 178 0
-7.204892 2.739888 26.530026 178 178 178 0
-7.068013 2.726234 26.397807 183 183 183 0
-6.956582 2.722141 26.358176 184 184 184 0
-6.844908 2.717831 26.316448 185 185 185 0
-6.729950 2.712069 26.260656 185 185 185 0
-6.591738 2.696620 26.111063 187 187 187 0
-6.466651 2.686147 26.009657 191 191 191 0
-6.370703 2.687640 26.024114 190 190 190 0
-6.266482 2.685635 26.004697 191 191 191 0
-6.154263 2.680082 25.950930 192 192 192 0
-6.037946 2.672534 25.877837 192 192 192 0
-5.924484 2.666018 25.814745 195 195 195 0
-5.818672 2.662782 25.783415 195 195 195 0
-5.713545 2.659754 25.754090 196 196 196 0
-5.614398 2.659452 25.751166 196 196 196 0
-5.499163 2.651382 25.673030 196 196 196 0
-5.404390 2.653064 25.689316 197 197 197 0
-5.289890 2.644945 25.610701 199 199 199 0
-5.193192 2.645589 25.616931 200 200 200 0
-5.098478 2.647287 25.633372 200 200 200 0
-4.999716 2.646909 25.629713 200 200 200 0
-4.892377 2.641884 25.581059 200 200 200 0
-4.771382 2.629129 25.457553 201 201 201 0
-4.693576 2.640136 25.564137 201 201 201 0
-4.589887 2.636744 25.531288 202 202 202 0
-4.505167 2.644337 25.604814 202 202 202 0
-4.389774 2.633865 25.503410 203 203 203 0
-4.298155 2.637504 25.538648 203 203 203 0
-4.190662 2.631346 25.479019 203 203 203 0
-4.094706 2.632311 25.488364 204 204 204 0
-4.003256 2.636290 25.526896 204 204 204 0
-3.910545 2.639618 25.559120 205 205 205 0
-3.807790 2.636163 25.525660 205 205 205 0
-3.707625 2.634365 25.508258 206 206 206 0
-3.615327 2.638212 25.545500 206 206 206 0
-3.521900 2.641425 25.576617 206 206 206 0
-3.421592 2.639514 25.558109 206 206 206 0
-3.322521 2.638472 25.548025 208 208 208 0
-3.231267 2.643764 25.599259 208 208 208 0
-3.139922 2.649310 25.652961 208 208 208 0
-3.046768 2.653637 25.694860 208 208 208 0
-2.942795 2.648515 25.645272 208 208 208 0
-2.854274 2.657428 25.731570 209 209 209 0
-2.762339 2.663684 25.792147 210 210 210 0
-2.658751 2.658751 25.744383 207 207 207 0
-2.554170 2.652408 25.682959 203 203 203 0
-2.444199 2.639735 25.560252 202 202 202 0
-2.349784 2.643507 25.596776 202 202 202 0
-2.251644 2.643234 25.594131 202 202 202 0
-2.158116 2.648597 25.646062 203 203 203 0
-2.056458 2.644017 25.601713 202 202 202 0
-1.958392 2.643829 25.599895 203 203 203 0
-1.861575 2.645396 25.615068 203 203 203 0
-1.762336 2.643505 25.596753 203 203 203 0
-1.665699 2.645523 25.616293 204 204 204 0
-1.569809 2.649052 25.650466 203 203 203 0
-1.464648 2.636366 25.527630 205 205 205 0
-1.368896 2.640014 25.562956 205 205 205 0
-1.273388 2.644729 25.608606 205 205 205 0
-1.178069 2.650655 25.665989 205 205 205 0
-1.080070 2.651080 25.670103 206 206 206 0
-0.982064 2.651573 25.674875 206 206 206 0
-0.877579 2.632736 25.492484 197 197 197 0
-0.775815 2.618374 25.353419 170 170 170 0
-0.672035 2.592135 25.099346 165 165 165 0
-0.573550 2.580974 24.991279 164 164 164 0
-0.478217 2.582370 25.004789 166 166 166 0
-0.381310 2.573842 24.922215 170 170 170 0
-0.282290 2.540613 24.600460 174 174 174 0
-0.187038 2.525011 24.449388 175 175 175 0
-0.092747 2.504167 24.247563 172 172 172 0
0.000000 2.502031 24.226881 175 175 175 0
0.092549 2.498824 24.195831 178 178 178 0
0.184707 2.493548 24.144736 180 180 180 0
0.276106 2.484955 24.061531 181 181 181 0
0.365668 2.468261 23.899891 181 181 181 0
0.456601 2.465644 23.874551 182 182 182 0
0.544353 2.449590 23.719099 181 181 181 0
0.632976 2.441479 23.640561 183 183 183 0
0.724681 2.445800 23.682400 184 184 184 0
0.813040 2.439121 23.617733 186 186 186 0
0.903175 2.438572 23.612415 188 188 188 0
0.985143 2.418079 23.413978 189 189 189 0
1.076571 2.422286 23.454717 190 190 190 0
1.163130 2.415732 23.391255 190 190 190 0
1.252550 2.415632 23.390287 191 191 191 0
1.343735 2.418723 23.420220 191 191 191 0
1.428493 2.410581 23.341384 190 190 190 0
1.509744 2.397829 23.217901 191 191 191 0
1.598249 2.397373 23.213488 191 191 191 0
1.686828 2.397072 23.210573 192 192 192 0
1.777616 2.399782 23.236816 193 193 193 0
1.865851 2.398952 23.228776 192 192 192 0
1.949170 2.392163 23.163039 194 194 194 0
2.032008 2.385401 23.097562 194 194 194 0
2.125565 2.391260 23.154299 194 194 194 0
2.214877 2.392067 23.162116 195 195 195 0
2.303140 2.391722 23.158769 196 196 196 0
2.385603 2.385603 23.099524 195 195 195 0
2.477425 2.388945 23.131883 195 195 195 0
2.563780 2.386968 23.112737 196 196 196 0
2.652441 2.387197 23.114953 197 197 197 0
2.751437 2.396413 23.204191 196 196 196 0
2.836310 2.393136 23.172466 196 196 196 0
2.924251 2.392569 23.166971 197 197 197 0
3.011806 2.391728 23.158828 198 198 198 0
3.107895 2.397519 23.214898 197 197 197 0
3.197980 2.398485 23.224254 197 197 197 0
3.294859 2.404357 23.281112 197 197 197 0
3.378434 2.400466 23.243437 198 198 198 0
3.473869 2.404987 23.287209 199 199 199 0
3.574853 2.413026 23.365051 199 199 199 0
3.669136 2.416260 23.396373 199 199 199 0
3.756291 2.414758 23.381830 199 199 199 0
3.858484 2.422769 23.459393 200 200 200 0
3.955554 2.427272 23.502992 200 200 200 0
4.059351 2.435610 23.583737 199 199 199 0
4.146554 2.433847 23.566663 199 199 199 0
4.258701 2.446488 23.689063 198 198 198 0
4.358798 2.451824 23.740731 198 198 198 0
4.474508 2.465545 23.873591 198 198 198 0
4.576269 2.471185 23.928203 198 198 198 0
4.685922 2.480782 24.021132 199 199 199 0
4.797172 2.490839 24.118513 198 198 198 0
5.925377 3.018588 29.228643 199 199 199 0
5.027968 2.513984 24.342621 198 198 198 0
5.165222 2.535654 24.552449 197 197 197 0
5.275830 2.543704 24.630393 196 196 196 0
5.406021 2.560747 24.795416 195 195 195 0
5.584440 2.599653 25.172144 194 194 194 0
5.789833 2.649584 25.655623 196 196 196 0
5.974205 2.688392 26.031396 205 205 205 0
6.054522 2.679871 25.948879 209 209 209 0
6.146073 2.676516 25.916395 210 210 210 0
6.235150 2.672207 25.874674 210 210 210 0
6.323146 2.667577 25.829845 209 209 209 0
6.403958 2.660106 25.757499 209 209 209 0
6.497051 2.657884 25.735989 208 208 208 0
6.584713 2.653541 25.693933 209 209 209 0
6.683796 2.653860 25.697023 209 209 209 0
6.781081 2.653467 25.693212 209 209 209 0
6.868540 2.649294 25.652809 208 208 208 0
6.934953 2.637236 25.536050 208 208 208 0
7.023719 2.633895 25.503701 208 208 208 0
7.123434 2.634695 25.511449 208 208 208 0
7.221713 2.634949 25.513912 208 208 208 0
7.310755 2.631872 25.484112 208 208 208 0
7.382096 2.622587 25.394207 209 209 209 0
7.463090 2.616928 25.339410 208 208 208 0
7.557544 2.616073 25.331134 208 208 208 0
7.650003 2.614558 25.316464 207 207 207 0
-8.552059 2.993221 27.947907 144 144 144 0
-8.362190 2.963814 27.673334 154 154 154 0
-8.187964 2.939269 27.444156 157 157 157 0
-8.004369 2.910680 27.177215 166 166 166 0
-7.867185 2.898436 27.062898 168 168 168 0
-7.718912 2.881727 26.906884 169 169 169 0
-7.618380 2.882630 26.915315 175 175 175 0
-7.475896 2.867467 26.773735 177 177 177 0
-7.325027 2.848622 26.597776 177 177 177 0
-7.188802 2.835020 26.470778 179 179 179 0
-7.062949 2.825179 26.378893 184 184 184 0
-6.955481 2.822514 26.354004 184 184 184 0
-6.840962 2.816867 26.301277 184 184 184 0
-6.713935 2.805824 26.198167 185 185 185 0
-6.590938 2.796155 26.107894 189 189 189 0
-6.471294 2.787634 26.028331 191 191 191 0
-6.373118 2.788239 26.033980 190 190 190 0
-6.253361 2.779271 25.950247 191 191 191 0
-6.146249 2.775725 25.917137 192 192 192 0
-6.031768 2.768680 25.851356 194 194 194 0
-5.930753 2.767685 25.842060 196 196 196 0
-5.814420 2.759386 25.764575 195 195 195 0
-5.707154 2.755178 25.725283 196 196 196 0
-5.614860 2.758177 25.753287 195 195 195 0
-5.507274 2.753637 25.710895 197 197 197 0
-5.395077 2.746585 25.645049 198 198 198 0
-5.285794 2.740782 25.590869 199 199 199 0
-5.180294 2.736759 25.553308 200 200 200 0
-5.086259 2.738755 25.571939 200 200 200 0
-4.985670 2.737230 25.557706 201 201 201 0
-4.882000 2.733920 25.526795 201 201 201 0
-4.778814 2.730751 25.497208 201 201 201 0
-4.687963 2.734645 25.533569 201 201 201 0
-4.584066 2.730933 25.498907 202 202 202 0
-4.498950 2.738491 25.569482 203 203 203 0
-4.386211 2.729198 25.482706 202 202 202 0
-4.279007 2.723005 25.424881 205 205 205 0
-4.192089 2.729732 25.487697 205 205 205 0
-4.098434 2.732290 25.511574 204 204 204 0
-3.999430 2.731318 25.502500 205 205 205 0
-3.905458 2.733820 25.525867 205 205 205 0
-3.796513 2.725701 25.450059 206 206 206 0
-3.709151 2.733058 25.518753 205 205 205 0
-3.617313 2.737426 25.559535 206 206 206 0
-3.521948 2.739293 25.576961 206 206 206 0
-3.415247 2.732197 25.510713 208 208 208 0
-3.317822 2.732324 25.511899 207 207 207 0
-3.231494 2.741873 25.601059 207 207 207 0
-3.132585 2.741012 25.593019 208 208 208 0
-3.041145 2.746841 25.647439 208 208 208 0
-2.949708 2.753060 25.705513 208 208 208 0
-2.851627 2.753295 25.707706 208 208 208 0
-2.756387 2.756387 25.736570 209 209 209 0
-2.662057 2.760652 25.776394 209 209 209 0
-2.561211 2.758227 25.753756 208 208 208 0
-2.459060 2.754147 25.715658 205 205 205 0
-2.357297 2.750180 25.678621 202 202 202 0
-2.258006 2.748877 25.666448 200 200 200 0
-2.159439 2.748377 25.661781 201 201 201 0
-2.058710 2.744947 25.629753 201 201 201 0
-1.957537 2.740552 25.588718 202 202 202 0
-1.860595 2.741929 25.601577 203 203 203 0
-1.762355 2.741442 25.597028 203 203 203 0
-1.670860 2.752005 25.695655 203 203 203 0
-1.569390 2.746432 25.643624 203 203 203 0
-1.474688 2.752751 25.702625 203 203 203 0
-1.374002 2.748004 25.658298 203 203 203 0
-1.275773 2.747819 25.656576 204 204 204 0
-1.179013 2.751030 25.686555 204 204 204 0
-1.078553 2.745407 25.634055 206 206 206 0
-0.983545 2.753925 25.713584 204 204 204 0
-0.882690 2.746147 25.640963 205 205 205 0
-0.785890 2.750615 25.682677 199 199 199 0
-0.682815 2.731260 25.501965 177 177 177 0
-0.576609 2.690840 25.124557 167 167 167 0
-0.480902 2.693050 25.145191 165 165 165 0
-0.380247 2.661731 24.852768 168 168 168 0
-0.283993 2.650598 24.748818 168 168 168 0
-0.188106 2.633490 24.589073 171 171 171 0
-0.093503 2.618090 24.445285 173 173 173 0
0.000000 2.607777 24.348988 173 173 173 0
0.093430 2.616034 24.426089 174 174 174 0
0.185943 2.603208 24.306330 176 176 176 0
0.278522 2.599534 24.272030 178 178 178 0
0.368825 2.581774 24.106203 181 181 181 0
0.458153 2.565657 23.955716 181 181 181 0
0.547187 2.553539 23.842572 181 181 181 0
0.639124 2.556496 23.870178 183 183 183 0
0.728836 2.550926 23.818170 183 183 183 0
0.819640 2.549992 23.809454 183 183 183 0
0.907478 2.540939 23.724921 184 184 184 0
0.994492 2.531435 23.636180 186 186 186 0
1.081974 2.524607 23.572425 187 187 187 0
1.170951 2.522048 23.548536 189 189 189 0
1.260539 2.521078 23.539475 189 189 189 0
1.347514 2.515360 23.486087 191 191 191 0
1.436966 2.514690 23.479836 190 190 190 0
1.521307 2.505682 23.395725 190 190 190 0
1.608966 2.502836 23.369153 192 192 192 0
1.696980 2.500813 23.350259 192 192 192 0
1.789940 2.505916 23.397905 193 193 193 0
1.877980 2.503973 23.379768 193 193 193 0
1.959918 2.494441 23.290764 192 192 192 0
2.048003 2.493221 23.279370 194 194 194 0
2.137847 2.494155 23.288093 194 194 194 0
2.226118 2.493252 23.279666 195 195 195 0
2.320446 2.498942 23.332794 194 194 194 0
2.401904 2.490864 23.257363 194 194 194 0
2.488531 2.488531 23.235581 194 194 194 0
2.578488 2.489574 23.245326 196 196 196 0
2.673671 2.495426 23.299966 195 195 195 0
2.756825 2.490035 23.249629 196 196 196 0
2.852409 2.495858 23.303996 196 196 196 0
2.934693 2.490042 23.249694 198 198 198 0
3.031728 2.496717 23.312015 197 197 197 0
3.126037 2.500830 23.350416 197 197 197 0
3.218736 2.503461 23.374988 197 197 197 0
3.308757 2.503924 23.379310 197 197 197 0
3.408222 2.511322 23.448382 198 198 198 0
3.497252 2.510848 23.443955 198 198 198 0
3.599441 2.519609 23.525760 199 199 199 0
3.690534 2.520364 23.532814 197 197 197 0
3.778349 2.518899 23.519135 197 197 197 0
3.877030 2.524578 23.572153 198 198 198 0
3.984433 2.535548 23.674587 199 199 199 0
4.090778 2.545373 23.766321 198 198 198 0
4.177173 2.542627 23.740682 196 196 196 0
4.287444 2.554222 23.848942 197 197 197 0
4.393755 2.563024 23.931128 198 198 198 0
4.499364 2.571065 24.006209 197 197 197 0
4.610283 2.581758 24.106054 197 197 197 0
4.726705 2.595054 24.230196 196 196 196 0
4.842866 2.607697 24.348244 195 195 195 0
4.946213 2.613094 24.398632 196 196 196 0
