ply
format ascii 1.0
element vertex 1097
property float x
property float y
property float z
property uchar red
property uchar green
property uchar blue
property uchar alpha
end_header
-3.973170 -4.405037 22.581247 184 184 184 0
-3.865643 -4.381062 22.458345 187 187 187 0
-3.760701 -4.358995 22.345225 187 187 187 0
-3.663762 -4.345392 22.275494 187 187 187 0
-3.573521 -4.339276 22.244140 188 188 188 0
-3.486262 -4.336570 22.230271 189 189 189 0
-3.393548 -4.326773 22.180049 190 190 190 0
-3.298146 -4.312960 22.109238 193 193 193 0
-3.195838 -4.289151 21.987189 194 194 194 0
-3.104352 -4.278972 21.935010 194 194 194 0
-3.018428 -4.276106 21.920318 194 194 194 0
-2.929818 -4.269163 21.884728 195 195 195 0
-2.842679 -4.264019 21.858355 195 195 195 0
-2.751315 -4.252032 21.796911 195 195 195 0
-2.660398 -4.240009 21.735277 196 196 196 0
-2.571767 -4.230971 21.688947 198 198 198 0
-2.485926 -4.226075 21.663847 200 200 200 0
-2.402394 -4.224899 21.657821 200 200 200 0
-2.322309 -4.229921 21.683560 201 201 201 0
-2.233080 -4.218040 21.622660 200 200 200 0
-2.147743 -4.212881 21.596213 201 201 201 0
-2.059010 -4.200381 21.532134 202 202 202 0
-1.974955 -4.196780 21.513674 201 201 201 0
-1.894991 -4.201936 21.540104 202 202 202 0
-1.811698 -4.199846 21.529393 201 201 201 0
-1.728378 -4.197489 21.517309 202 202 202 0
-1.641110 -4.184830 21.452414 203 203 203 0
-1.558813 -4.184183 21.449099 203 203 203 0
-1.476075 -4.182211 21.438992 203 203 203 0
-1.395405 -4.186215 21.459514 204 204 204 0
-1.313356 -4.186323 21.460068 204 204 204 0
-1.229244 -4.179428 21.424726 205 205 205 0
-1.146780 -4.177555 21.415121 206 206 206 0
-1.063844 -4.173542 21.394549 206 206 206 0
-0.982226 -4.174462 21.399267 206 206 206 0
-0.900863 -4.176727 21.410877 206 206 206 0
-0.818817 -4.175967 21.406982 206 206 206 0
-0.736734 -4.174827 21.401140 206 206 206 0
-0.655242 -4.177165 21.413121 206 206 206 0
-0.573162 -4.175897 21.406621 207 207 207 0
-0.492004 -4.182036 21.438094 207 207 207 0
-0.409991 -4.181903 21.437413 207 207 207 0
-0.328425 -4.187416 21.465673 207 207 207 0
-0.246329 -4.187586 21.466546 207 207 207 0
-0.164159 -4.186053 21.458684 207 207 207 0
-0.082246 -4.194538 21.502180 207 207 207 0
0.000000 -4.197516 21.517449 207 207 207 0
0.082372 -4.200967 21.535138 207 207 207 0
0.164647 -4.198495 21.522466 207 207 207 0
0.247298 -4.204058 21.550983 208 208 208 0
0.330333 -4.211741 21.590367 208 208 208 0
0.413487 -4.217567 21.620235 208 208 208 0
0.496654 -4.221558 21.640693 208 208 208 0
0.579520 -4.222216 21.644066 209 209 209 0
0.663564 -4.230218 21.685083 209 209 209 0
0.747290 -4.234641 21.707760 209 209 209 0
0.832421 -4.245349 21.762652 207 207 207 0
0.917139 -4.252191 21.797724 207 207 207 0
1.001659 -4.257051 21.822638 208 208 208 0
1.087043 -4.264551 21.861086 207 207 207 0
1.174640 -4.279047 21.935393 208 208 208 0
1.260694 -4.286359 21.972875 208 208 208 0
1.346831 -4.293023 22.007037 208 208 208 0
1.433539 -4.300617 22.045968 208 208 208 0
1.520975 -4.309428 22.091134 208 208 208 0
1.610726 -4.323529 22.163418 207 207 207 0
1.699825 -4.334553 22.219930 206 206 206 0
1.789069 -4.344883 22.272884 206 206 206 0
1.880289 -4.358852 22.344491 207 207 207 0
1.972500 -4.373804 22.421139 207 207 207 0
2.064683 -4.387451 22.491101 206 206 206 0
2.155081 -4.396366 22.536800 206 206 206 0
2.249246 -4.411983 22.616853 205 205 205 0
2.347811 -4.434754 22.733585 205 205 205 0
2.445171 -4.453705 22.830730 204 204 204 0
2.539927 -4.466767 22.897692 205 205 205 0
2.640676 -4.489150 23.012429 204 204 204 0
2.740074 -4.507863 23.108360 203 203 203 0
2.844698 -4.533738 23.240997 202 202 202 0
2.950141 -4.559309 23.372082 201 201 201 0
3.058508 -4.587762 23.517939 201 201 201 0
3.168599 -4.617102 23.668342 199 199 199 0
3.281025 -4.648119 23.827341 198 198 198 0
3.399800 -4.686211 24.022612 196 196 196 0
3.518989 -4.722854 24.210452 195 195 195 0
3.646838 -4.768943 24.446713 193 193 193 0
3.790724 -4.833173 24.775971 192 192 192 0
3.945861 -4.908267 25.160921 187 187 187 0
4.113899 -4.995448 25.607834 169 169 169 0
4.245708 -5.035607 25.813699 99 99 99 0
-9.335183 -5.834489 30.507133 195 195 195 0
-9.275690 -5.870690 30.696417 196 196 196 0
-9.158539 -5.870858 30.697298 193 193 193 0
-9.059557 -5.882829 30.759891 189 189 189 0
-8.996695 -5.918878 30.948384 180 180 180 0
-8.818342 -5.878895 30.739320 163 163 163 0
-8.674320 -5.861027 30.645894 136 136 136 0
-8.606412 -5.894803 30.822500 108 108 108 0
-8.421316 -5.848136 30.578489 91 91 91 0
-5.959733 -4.885027 25.542623 83 83 83 0
-5.802125 -4.835104 25.281589 116 116 116 0
-5.511181 -4.670493 24.420876 136 136 136 0
-5.350846 -4.612799 24.119208 146 146 146 0
-5.229123 -4.586950 23.984053 152 152 152 0
-5.059486 -4.517398 23.620381 154 154 154 0
-4.947527 -4.497752 23.517658 165 165 165 0
-4.828209 -4.470564 23.375496 167 167 167 0
-4.730054 -4.462315 23.332365 168 168 168 0
-4.598735 -4.421861 23.120839 171 171 171 0
-4.476525 -4.388750 22.947714 176 176 176 0
-4.357611 -4.357611 22.784892 177 177 177 0
-4.254094 -4.340912 22.697580 178 178 178 0
-4.156442 -4.329627 22.638574 179 179 179 0
-4.067852 -4.327502 22.627460 181 181 181 0
-3.962328 -4.306879 22.519627 187 187 187 0
-3.856290 -4.284767 22.404010 186 186 186 0
-3.751667 -4.263258 22.291543 186 186 186 0
-3.657419 -4.252812 22.236927 187 187 187 0
-3.560897 -4.239163 22.165557 187 187 187 0
-3.473573 -4.236065 22.149360 190 190 190 0
-3.384353 -4.230442 22.119956 192 192 192 0
-3.285111 -4.211680 22.021858 193 193 193 0
-3.192478 -4.200629 21.964073 194 194 194 0
-3.094439 -4.181675 21.864965 194 194 194 0
-3.007861 -4.177584 21.843577 195 195 195 0
-2.924423 -4.177746 21.844426 194 194 194 0
-2.834231 -4.167987 21.793396 196 196 196 0
-2.747666 -4.163130 21.768002 197 197 197 0
-2.656716 -4.151118 21.705193 199 199 199 0
-2.567040 -4.140386 21.649080 200 200 200 0
-2.481860 -4.136433 21.628409 199 199 199 0
-2.398019 -4.134515 21.618379 200 200 200 0
-2.314442 -4.132932 21.610102 201 201 201 0
-2.230213 -4.130025 21.594900 200 200 200 0
-2.140290 -4.115942 21.521266 201 201 201 0
-2.054994 -4.109987 21.490131 201 201 201 0
-1.972508 -4.109391 21.487014 202 202 202 0
-1.889088 -4.106714 21.473012 201 201 201 0
-1.808376 -4.109945 21.489910 202 202 202 0
-1.724136 -4.105086 21.464504 202 202 202 0
-1.638724 -4.096810 21.421229 203 203 203 0
-1.554333 -4.090349 21.387448 205 205 205 0
-1.472056 -4.089044 21.380621 205 205 205 0
-1.391065 -4.091367 21.392768 206 206 206 0
-1.309343 -4.091696 21.394487 205 205 205 0
-1.227733 -4.092443 21.398395 206 206 206 0
-1.144071 -4.085967 21.364531 207 207 207 0
-1.062085 -4.084944 21.359183 206 206 206 0
-0.981131 -4.088047 21.375411 206 206 206 0
-0.898831 -4.085596 21.362592 207 207 207 0
-0.817592 -4.087961 21.374962 208 208 208 0
-0.735274 -4.084855 21.358717 207 207 207 0
-0.653954 -4.087213 21.371048 208 208 208 0
-0.572559 -4.089705 21.384078 207 207 207 0
-0.490969 -4.091406 21.392971 208 208 208 0
-0.409076 -4.090762 21.389607 208 208 208 0
-0.327534 -4.094177 21.407462 208 208 208 0
-0.245697 -4.094948 21.411492 207 207 207 0
-0.163806 -4.095155 21.412573 208 208 208 0
-0.082083 -4.104156 21.459641 207 207 207 0
0.000000 -4.106295 21.470822 207 207 207 0
0.082203 -4.110139 21.490924 207 207 207 0
0.164541 -4.113525 21.508626 208 208 208 0
0.246838 -4.113962 21.510913 209 209 209 0
0.329505 -4.118813 21.536278 208 208 208 0
0.412490 -4.124900 21.568104 208 208 208 0
0.495813 -4.131773 21.604042 209 209 209 0
0.578974 -4.135531 21.623691 208 208 208 0
0.662172 -4.138578 21.639622 208 208 208 0
0.745938 -4.144100 21.668499 209 209 209 0
0.830851 -4.154257 21.721605 209 209 209 0
0.914558 -4.157082 21.736374 208 208 208 0
0.999386 -4.164106 21.773105 208 208 208 0
1.084544 -4.171323 21.810840 208 208 208 0
1.170962 -4.182008 21.866708 208 208 208 0
1.257697 -4.192323 21.920641 208 208 208 0
1.343851 -4.199534 21.958348 209 209 209 0
1.429610 -4.204734 21.985539 208 208 208 0
1.517657 -4.215714 22.042948 208 208 208 0
1.606514 -4.227669 22.105457 208 208 208 0
1.695664 -4.239161 22.165545 207 207 207 0
1.784526 -4.248872 22.216322 207 207 207 0
1.875367 -4.262199 22.286006 206 206 206 0
1.967474 -4.277117 22.364011 207 207 207 0
2.059735 -4.291115 22.437204 206 206 206 0
2.150347 -4.300693 22.487286 206 206 206 0
2.241096 -4.309801 22.534906 206 206 206 0
2.339761 -4.332891 22.655638 205 205 205 0
2.437093 -4.351951 22.755300 205 205 205 0
2.532949 -4.367154 22.834791 204 204 204 0
2.631890 -4.386484 22.935861 205 205 205 0
2.732277 -4.406899 23.042607 204 204 204 0
2.833658 -4.427591 23.150804 202 202 202 0
2.934752 -4.446594 23.250163 202 202 202 0
3.044664 -4.477446 23.411484 201 201 201 0
3.155113 -4.507304 23.567601 201 201 201 0
3.261364 -4.529673 23.684564 199 199 199 0
3.379502 -4.566895 23.879188 197 197 197 0
3.502782 -4.608923 24.098946 198 198 198 0
3.623982 -4.646131 24.293496 195 195 195 0
3.759314 -4.699143 24.570681 194 194 194 0
3.904326 -4.761373 24.896067 190 190 190 0
4.073469 -4.849368 25.356174 185 185 185 0
4.227830 -4.916081 25.705000 145 145 145 0
4.335535 -4.926744 25.760752 78 78 78 0
-9.330521 -5.714944 30.491899 195 195 195 0
-9.202363 -5.707795 30.453753 196 196 196 0
-9.190280 -5.773381 30.803688 197 197 197 0
-9.047809 -5.757697 30.720004 195 195 195 0
-8.939856 -5.763854 30.752858 196 196 196 0
-8.888074 -5.806875 30.982392 196 196 196 0
-8.787667 -5.818860 31.046341 194 194 194 0
-8.645777 -5.803330 30.963479 188 188 188 0
-8.581930 -5.840480 31.161692 177 177 177 0
-8.463182 -5.840787 31.163332 161 161 161 0
-8.299975 -5.809983 30.998974 130 130 130 0
-8.214792 -5.833693 31.125480 97 97 97 0
-7.949563 -5.728361 30.563486 81 81 81 0
-6.790138 -5.366400 28.632251 76 76 76 0
-5.965649 -4.792079 25.567981 106 106 106 0
-5.700493 -4.655403 24.838750 130 130 130 0
-5.522903 -4.586817 24.472815 141 141 141 0
-5.340171 -4.511524 24.071088 152 152 152 0
-5.153977 -4.430612 23.639385 152 152 152 0
-5.025932 -4.397691 23.463737 162 162 162 0
-4.926768 -4.389302 23.418979 166 166 166 0
-4.816457 -4.370489 23.318600 167 167 167 0
-4.695321 -4.340957 23.161035 169 169 169 0
-4.575030 -4.311086 23.001661 175 175 175 0
-4.460436 -4.285517 22.865237 178 178 178 0
-4.338351 -4.251584 22.684190 178 178 178 0
-4.243549 -4.243549 22.641316 178 178 178 0
-4.143496 -4.229819 22.568060 180 180 180 0
-4.051902 -4.224324 22.538742 184 184 184 0
-3.950765 -4.208424 22.453910 186 186 186 0
-3.850763 -4.193053 22.371899 187 187 187 0
-3.738448 -4.163272 22.213003 187 187 187 0
-3.641456 -4.149567 22.139877 188 188 188 0
-3.552139 -4.144162 22.111044 189 189 189 0
-3.461573 -4.137002 22.072840 193 193 193 0
-3.372354 -4.131134 22.041531 194 194 194 0
-3.279619 -4.120548 21.985048 194 194 194 0
-3.184726 -4.106620 21.910737 194 194 194 0
-3.093160 -4.096346 21.855923 194 194 194 0
-3.002717 -4.087032 21.806225 194 194 194 0
-2.915475 -4.081665 21.777593 195 195 195 0
-2.831196 -4.080253 21.770059 197 197 197 0
-2.740147 -4.068703 21.708434 199 199 199 0
-2.653650 -4.063402 21.680148 199 199 199 0
-2.559636 -4.045876 21.586639 199 199 199 0
-2.478841 -4.048773 21.602099 200 200 200 0
-2.392010 -4.041671 21.564207 201 201 201 0
-2.310962 -4.044183 21.577609 200 200 200 0
-2.225463 -4.038804 21.548907 200 200 200 0
-2.137372 -4.028125 21.491929 201 201 201 0
-2.052645 -4.023184 21.465565 202 202 202 0
-1.967319 -4.016610 21.430492 202 202 202 0
-1.885290 -4.016488 21.429842 202 202 202 0
-1.803497 -4.016880 21.431933 203 203 203 0
-1.717827 -4.008263 21.385956 205 205 205 0
-1.634973 -4.005683 21.372192 204 204 204 0
-1.551723 -4.001811 21.351535 205 205 205 0
-1.469328 -3.999837 21.340999 205 205 205 0
-1.389405 -4.004757 21.367249 206 206 206 0
-1.307990 -4.005719 21.372385 206 206 206 0
-1.224854 -4.001188 21.348211 206 206 206 0
-1.142200 -3.997699 21.329595 206 206 206 0
-1.060532 -3.997389 21.327942 206 206 206 0
-0.978892 -3.997144 21.326631 206 206 206 0
-0.897737 -3.999008 21.336580 207 207 207 0
-0.816270 -3.999725 21.340401 207 207 207 0
-0.734583 -3.999396 21.338646 207 207 207 0
-0.652726 -3.997948 21.330923 207 207 207 0
-0.571658 -4.001606 21.350437 208 208 208 0
-0.489970 -4.001419 21.349443 208 208 208 0
-0.408718 -4.005436 21.370876 207 207 207 0
-0.326938 -4.004985 21.368467 208 208 208 0
-0.245184 -4.004679 21.366833 209 209 209 0
-0.163492 -4.005546 21.371462 208 208 208 0
-0.081851 -4.010680 21.398852 208 208 208 0
0.000000 -4.015370 21.423877 209 209 209 0
0.081975 -4.016770 21.431346 209 209 209 0
0.164003 -4.018062 21.438239 208 208 208 0
0.246267 -4.022363 21.461187 208 208 208 0
0.328882 -4.028799 21.495524 208 208 208 0
0.411949 -4.037102 21.539824 209 209 209 0
0.494888 -4.041589 21.563769 209 209 209 0
0.577215 -4.040504 21.557977 209 209 209 0
0.661025 -4.048780 21.602134 209 209 209 0
0.743944 -4.050362 21.610575 209 209 209 0
0.828594 -4.060111 21.662589 209 209 209 0
0.913910 -4.071053 21.720969 210 210 210 0
0.997370 -4.072595 21.729199 209 209 209 0
1.081796 -4.077537 21.755566 208 208 208 0
1.167907 -4.087674 21.809650 209 209 209 0
1.253807 -4.095768 21.852839 208 208 208 0
1.340786 -4.106158 21.908272 208 208 208 0
1.426381 -4.111335 21.935892 208 208 208 0
1.515104 -4.124450 22.005867 209 209 209 0
1.602551 -4.132894 22.050923 208 208 208 0
1.690711 -4.142242 22.100797 208 208 208 0
1.780085 -4.153532 22.161033 208 208 208 0
1.870861 -4.166918 22.232457 207 207 207 0
1.960983 -4.177746 22.290229 207 207 207 0
2.053119 -4.191785 22.365131 207 207 207 0
2.144864 -4.203933 22.429947 208 208 208 0
2.236324 -4.214611 22.486922 207 207 207 0
2.331616 -4.231451 22.576772 206 206 206 0
2.428628 -4.250099 22.676263 205 205 205 0
2.525669 -4.267510 22.769163 205 205 205 0
2.624054 -4.285955 22.867575 205 205 205 0
2.723172 -4.304369 22.965819 204 204 204 0
2.823515 -4.323507 23.067934 204 204 204 0
2.923420 -4.340836 23.160391 202 202 202 0
3.031219 -4.368521 23.308104 202 202 202 0
3.140027 -4.396038 23.454918 202 202 202 0
3.247382 -4.420048 23.583021 201 201 201 0
3.363249 -4.454033 23.764348 198 198 198 0
3.487728 -4.497334 23.995379 198 198 198 0
3.601494 -4.524954 24.142745 198 198 198 0
3.734719 -4.575031 24.409928 194 194 194 0
3.873728 -4.629578 24.700963 192 192 192 0
4.026066 -4.697077 25.061100 188 188 188 0
4.202631 -4.789045 25.551794 178 178 178 0
4.335027 -4.827643 25.757735 110 110 110 0
-9.311164 -5.586698 30.428639 195 195 195 0
-9.221653 -5.603030 30.517592 197 197 197 0
-9.102040 -5.601255 30.507927 196 196 196 0
-9.086126 -5.664078 30.850100 197 197 197 0
-8.958610 -5.658070 30.817372 196 196 196 0
-8.854018 -5.666572 30.863680 195 195 195 0
-8.739585 -5.668920 30.876472 196 196 196 0
-8.655975 -5.691600 31.000000 197 197 197 0
-8.547846 -5.698564 31.037931 195 195 195 0
-8.425528 -5.696132 31.024683 194 194 194 0
-8.325979 -5.709243 31.096095 193 193 193 0
-8.257073 -5.744051 31.285680 187 187 187 0
-8.170232 -5.767223 31.411888 176 176 176 0
-8.036603 -5.757566 31.359292 158 158 158 0
-7.975591 -5.800430 31.592756 131 131 131 0
-7.691389 -5.679795 30.935702 93 93 93 0
-6.790138 -5.256881 28.632251 88 88 88 0
-5.800433 -4.564275 24.859885 117 117 117 0
-5.633381 -4.506705 24.546323 135 135 135 0
-5.448908 -4.433010 24.144934 151 151 151 0
-5.314632 -4.398316 23.955972 152 152 152 0
-5.157818 -4.343426 23.657004 157 157 157 0
-5.011673 -4.295720 23.397166 165 165 165 0
-4.896495 -4.273305 23.275080 167 167 167 0
-4.794105 -4.261426 23.210383 167 167 167 0
-4.695559 -4.252582 23.162212 174 174 174 0
-4.568633 -4.217200 22.969498 177 177 177 0
-4.449546 -4.187808 22.809410 178 178 178 0
-4.336806 -4.163334 22.676112 178 178 178 0
-4.228046 -4.141760 22.558605 179 179 179 0
-4.127321 -4.127321 22.479965 184 184 184 0
-4.033691 -4.119514 22.437441 185 185 185 0
-3.945717 -4.117270 22.425220 186 186 186 0
-3.843212 -4.099426 22.328030 187 187 187 0
-3.728560 -4.067520 22.154250 187 187 187 0
-3.631418 -4.053676 22.078843 188 188 188 0
-3.541030 -4.046891 22.041890 192 192 192 0
-3.453268 -4.042851 22.019884 193 193 193 0
-3.365744 -4.038892 21.998325 193 193 193 0
-3.277084 -4.033334 21.968051 193 193 193 0
-3.178939 -4.015502 21.870926 193 193 193 0
-3.083157 -3.999771 21.785245 194 194 194 0
-2.994476 -3.992635 21.746378 195 195 195 0
-2.905042 -3.984058 21.699662 197 197 197 0
-2.822496 -3.984700 21.703161 198 198 198 0
-2.737529 -3.981860 21.687690 199 199 199 0
-2.645085 -3.967628 21.610174 200 200 200 0
-2.554461 -3.955294 21.542996 199 199 199 0
-2.469293 -3.950869 21.518896 200 200 200 0
-2.387265 -3.951336 21.521437 200 200 200 0
-2.305273 -3.951897 21.524496 200 200 200 0
-2.218261 -3.943575 21.479167 201 201 201 0
-2.133216 -3.938245 21.450139 202 202 202 0
-2.046471 -3.929225 21.401007 202 202 202 0
-1.961718 -3.923437 21.369480 203 203 203 0
-1.882665 -3.929040 21.400000 204 204 204 0
-1.800449 -3.928252 21.395707 205 205 205 0
-1.715509 -3.921164 21.357103 205 205 205 0
-1.632601 -3.918243 21.341192 205 205 205 0
-1.549239 -3.913866 21.317353 205 205 205 0
-1.468431 -3.915815 21.327969 206 206 206 0
-1.387027 -3.916313 21.330679 205 205 205 0
-1.305013 -3.915040 21.323747 205 205 205 0
-1.222796 -3.912946 21.312341 206 206 206 0
-1.138775 -3.904370 21.265631 207 207 207 0
-1.058813 -3.909463 21.293374 206 206 206 0
-0.976788 -3.907151 21.280781 207 207 207 0
-0.896247 -3.910895 21.301171 206 206 206 0
-0.814930 -3.911665 21.305364 207 207 207 0
-0.733247 -3.910653 21.299850 207 207 207 0
-0.651552 -3.909314 21.292558 207 207 207 0
-0.570148 -3.909583 21.294027 208 208 208 0
-0.488982 -3.911855 21.306402 209 209 209 0
-0.407549 -3.912471 21.309752 209 209 209 0
-0.326462 -3.917547 21.337399 209 209 209 0
-0.244823 -3.917165 21.335323 208 208 208 0
-0.163433 -3.922400 21.363833 209 209 209 0
-0.081690 -3.921125 21.356891 209 209 209 0
0.000000 -3.927738 21.392907 209 209 209 0
0.081855 -3.929040 21.400000 209 209 209 0
0.163880 -3.933132 21.422285 210 210 210 0
0.245900 -3.934407 21.429235 209 209 209 0
0.328133 -3.937597 21.446606 208 208 208 0
0.410737 -3.943074 21.476440 209 209 209 0
0.493844 -3.950753 21.518262 209 209 209 0
0.576261 -3.951506 21.522363 209 209 209 0
0.659507 -3.957044 21.552530 209 209 209 0
0.742634 -3.960714 21.572517 210 210 210 0
0.827098 -3.970070 21.623473 209 209 209 0
0.911558 -3.977708 21.665077 209 209 209 0
0.994883 -3.979533 21.675015 209 209 209 0
1.080408 -3.989199 21.727665 209 209 209 0
1.164966 -3.994171 21.754741 208 208 208 0
1.250775 -4.002480 21.800000 208 208 208 0
1.337668 -4.013005 21.857327 208 208 208 0
1.423746 -4.019990 21.895371 208 208 208 0
1.510733 -4.028621 21.942381 209 209 209 0
1.598896 -4.039316 22.000634 209 209 209 0
1.688183 -4.051640 22.067757 209 209 209 0
1.775906 -4.059214 22.109011 208 208 208 0
1.865212 -4.069552 22.165318 208 208 208 0
1.956929 -4.084025 22.244146 207 207 207 0
2.048423 -4.096847 22.313979 207 207 207 0
2.140813 -4.110360 22.387584 207 207 207 0
2.231036 -4.118836 22.433746 207 207 207 0
2.326210 -4.135484 22.524424 207 207 207 0
2.420703 -4.149776 22.602268 206 206 206 0
2.515196 -4.163084 22.674748 205 205 205 0
2.614519 -4.183231 22.784483 205 205 205 0
2.713661 -4.201798 22.885609 205 205 205 0
2.815053 -4.222579 22.998798 205 205 205 0
2.913585 -4.237941 23.082470 203 203 203 0
3.020013 -4.263547 23.221934 203 203 203 0
3.130155 -4.292784 23.381175 202 202 202 0
3.236841 -4.315788 23.506472 201 201 201 0
3.346277 -4.341116 23.644424 200 200 200 0
3.466567 -4.378822 23.849791 199 199 199 0
3.586763 -4.414478 24.043996 198 198 198 0
3.709602 -4.451522 24.245762 196 196 196 0
3.845077 -4.501554 24.518266 193 193 193 0
3.988532 -4.558322 24.827464 191 191 191 0
4.155038 -4.638182 25.262431 186 186 186 0
4.319532 -4.712216 25.665667 159 159 159 0
4.430712 -4.726093 25.741245 81 81 81 0
-9.402184 -5.523783 30.726091 196 196 196 0
-9.181299 -5.462292 30.384047 196 196 196 0
-9.134868 -5.504343 30.617958 197 197 197 0
-9.050092 -5.524082 30.727755 196 196 196 0
-8.954847 -5.537866 30.804426 197 197 197 0
-8.878520 -5.563872 30.949088 197 197 197 0
-8.738564 -5.550169 30.872864 196 196 196 0
-8.655975 -5.573025 31.000000 197 197 197 0
-8.549341 -5.580820 31.043359 195 195 195 0
-8.461908 -5.601545 31.158641 196 196 196 0
-8.323944 -5.588934 31.088492 196 196 196 0
-8.214783 -5.595577 31.125446 197 197 197 0
-8.127475 -5.617520 31.247501 196 196 196 0
-8.063707 -5.656630 31.465056 195 195 195 0
-7.943425 -5.656682 31.465341 191 191 191 0
-7.636246 -5.521593 30.713909 145 145 145 0
-6.984158 -5.128991 28.530058 74 74 74 0
-6.447287 -4.809881 26.755002 75 75 75 0
-5.947160 -4.508331 25.077631 108 108 108 0
-5.738800 -4.421698 24.595736 132 132 132 0
-5.574874 -4.366985 24.291391 142 142 142 0
-5.442041 -4.335186 24.114507 151 151 151 0
-5.260215 -4.262588 23.710682 154 154 154 0
-5.135961 -4.234915 23.556753 162 162 162 0
-4.994030 -4.191418 23.314798 166 166 166 0
-4.868468 -4.160327 23.141857 167 167 167 0
-4.777878 -4.158523 23.131822 170 170 170 0
-4.682649 -4.152538 23.098526 177 177 177 0
-4.550793 -4.113216 22.879802 177 177 177 0
-4.438605 -4.090479 22.753325 177 177 177 0
-4.323536 -4.064124 22.606723 178 178 178 0
-4.212943 -4.040986 22.478020 183 183 183 0
-4.120348 -4.034507 22.441981 186 186 186 0
-4.028858 -4.028858 22.410556 186 186 186 0
-3.928245 -4.013642 22.325916 187 187 187 0
-3.831250 -4.001528 22.258536 186 186 186 0
-3.722482 -3.976288 22.118134 187 187 187 0
-3.625713 -3.962989 22.044160 191 191 191 0
-3.535045 -3.955884 22.004639 192 192 192 0
-3.445543 -3.949769 21.970626 194 194 194 0
-3.358613 -3.946371 21.951721 193 193 193 0
-3.265705 -3.935593 21.891773 194 194 194 0
-3.170542 -3.921459 21.813152 194 194 194 0
-3.075428 -3.906624 21.730632 195 195 195 0
-2.986677 -3.899273 21.689738 196 196 196 0
-2.904319 -3.900085 21.694259 198 198 198 0
-2.815161 -3.891546 21.646756 199 199 199 0
-2.730333 -3.888657 21.630687 199 199 199 0
-2.645269 -3.885238 21.611672 199 199 199 0
-2.551721 -3.868739 21.519892 199 199 199 0
-2.465806 -3.863095 21.488501 200 200 200 0
-2.380317 -3.857755 21.458796 200 200 200 0
-2.301340 -3.862964 21.487771 200 200 200 0
-2.216964 -3.859160 21.466608 201 201 201 0
-2.131214 -3.852579 21.430002 203 203 203 0
-2.043967 -3.842657 21.374814 204 204 204 0
-1.960571 -3.839451 21.356978 204 204 204 0
-1.879246 -3.840198 21.361135 204 204 204 0
-1.796938 -3.838913 21.353987 204 204 204 0
-1.714113 -3.836347 21.339716 204 204 204 0
-1.631057 -3.832983 21.321002 204 204 204 0
-1.545168 -3.822258 21.261346 205 205 205 0
-1.466008 -3.827909 21.292778 206 206 206 0
-1.383403 -3.824703 21.274946 206 206 206 0
-1.302403 -3.825809 21.281094 206 206 206 0
-1.220896 -3.825474 21.279233 206 206 206 0
-1.138509 -3.822138 21.260676 206 206 206 0
-1.057042 -3.821613 21.257758 207 207 207 0
-0.975000 -3.818751 21.241835 207 207 207 0
-0.895016 -3.824158 21.271913 207 207 207 0
-0.813018 -3.821186 21.255380 208 208 208 0
-0.731470 -3.819897 21.248208 207 207 207 0
-0.650006 -3.818787 21.242034 208 208 208 0
-0.569196 -3.821744 21.258484 208 208 208 0
-0.488490 -3.826502 21.284948 208 208 208 0
-0.407166 -3.827363 21.289743 208 208 208 0
-0.325774 -3.827839 21.292390 208 208 208 0
-0.244211 -3.825976 21.282024 208 208 208 0
-0.162980 -3.830036 21.304607 209 209 209 0
-0.081562 -3.833428 21.323476 208 208 208 0
0.000000 -3.839069 21.354853 209 209 209 0
0.081707 -3.840232 21.361326 210 210 210 0
0.163435 -3.840729 21.364088 209 209 209 0
0.245299 -3.843013 21.376793 210 210 210 0
0.327707 -3.850562 21.418787 210 210 210 0
0.410076 -3.854715 21.441886 210 210 210 0
0.492777 -3.860090 21.471783 209 209 209 0
0.575452 -3.863749 21.492138 210 210 210 0
0.658162 -3.866700 21.508552 210 210 210 0
0.741649 -3.873056 21.543910 209 209 209 0
0.826086 -3.882605 21.597024 209 209 209 0
0.909908 -3.887791 21.625869 209 209 209 0
0.994212 -3.893998 21.660396 210 210 210 0
1.077975 -3.897295 21.678739 210 210 210 0
1.162938 -3.904148 21.716860 210 210 210 0
1.248285 -3.911293 21.756600 209 209 209 0
1.335019 -3.921618 21.814036 209 209 209 0
1.420659 -3.927705 21.847894 209 209 209 0
1.507754 -3.936912 21.899108 209 209 209 0
1.596143 -3.948353 21.962750 209 209 209 0
1.685080 -3.959938 22.027189 209 209 209 0
1.771675 -3.965178 22.056335 209 209 209 0
1.859365 -3.972281 22.095846 208 208 208 0
1.950586 -3.985981 22.172053 208 208 208 0
2.044016 -4.002865 22.265970 208 208 208 0
2.134776 -4.013378 22.324453 208 208 208 0
2.225739 -4.023451 22.380482 208 208 208 0
2.319792 -4.038157 22.462282 208 208 208 0
2.415093 -4.053906 22.549885 206 206 206 0
2.509309 -4.066811 22.621673 205 205 205 0
2.606401 -4.083362 22.713738 205 205 205 0
2.706298 -4.103097 22.823511 206 206 206 0
2.807870 -4.124059 22.940115 205 205 205 0
2.906430 -4.139461 23.025786 205 205 205 0
3.008991 -4.159487 23.137183 203 203 203 0
3.118009 -4.187041 23.290452 203 203 203 0
3.225452 -4.211007 23.423762 202 202 202 0
3.332240 -4.232845 23.545239 202 202 202 0
3.448255 -4.264947 23.723805 200 200 200 0
3.567807 -4.299665 23.916924 199 199 199 0
3.687302 -4.332579 24.100010 198 198 198 0
3.819541 -4.378498 24.355432 194 194 194 0
3.956370 -4.427366 24.627262 193 193 193 0
4.107802 -4.489923 24.975238 189 189 189 0
4.280462 -4.572311 25.433521 181 181 181 0
4.439802 -4.637126 25.794056 132 132 132 0
-9.348764 -5.375539 30.551515 196 196 196 0
-9.209338 -5.362400 30.476838 197 197 197 0
-9.134278 -5.386882 30.615982 197 197 197 0
-9.003022 -5.378428 30.567937 197 197 197 0
-8.898124 -5.385706 30.609301 196 196 196 0
-8.811726 -5.404526 30.716258 197 197 197 0
-8.706448 -5.412116 30.759400 196 196 196 0
-8.635459 -5.441522 30.926525 197 197 197 0
-8.556141 -5.466423 31.068051 196 196 196 0
-8.441984 -5.469454 31.085276 196 196 196 0
-8.338517 -5.479597 31.142920 196 196 196 0
-8.204328 -5.469552 31.085832 196 196 196 0
-8.148873 -5.512473 31.329768 195 195 195 0
-8.040525 -5.520361 31.374599 196 196 196 0
-7.879632 -5.491865 31.212644 178 178 178 0
-7.658784 -5.420062 30.804559 87 87 87 0
-6.130048 -4.405972 25.041044 70 70 70 0
-6.024375 -4.398750 25.000000 90 90 90 0
-5.875165 -4.358993 24.774046 128 128 128 0
-5.659338 -4.267697 24.255170 137 137 137 0
-5.536693 -4.244798 24.125025 149 149 149 0
-5.392191 -4.204081 23.893614 153 153 153 0
-5.217529 -4.138040 23.518273 159 159 159 0
-5.100164 -4.115922 23.392566 165 165 165 0
-4.966015 -4.079227 23.184010 167 167 167 0
-4.852123 -4.058139 23.064162 168 168 168 0
-4.760490 -4.055232 23.047641 175 175 175 0
-4.657325 -4.042207 22.973611 177 177 177 0
-4.537087 -4.013577 22.810893 177 177 177 0
-4.418149 -3.984997 22.648464 177 177 177 0
-4.300598 -3.956550 22.486789 181 181 181 0
-4.200580 -3.943402 22.412060 184 184 184 0
-4.110691 -3.939413 22.389387 186 186 186 0
-4.012021 -3.926659 22.316903 186 186 186 0
-3.923197 -3.923197 22.297224 187 187 187 0
-3.821785 -3.906714 22.203546 187 187 187 0
-3.711597 -3.880306 22.053457 190 190 190 0
-3.617711 -3.870110 21.995509 192 192 192 0
-3.525992 -3.861801 21.948286 192 192 192 0
-3.435558 -3.854529 21.906955 193 193 193 0
-3.350868 -3.853498 21.901099 193 193 193 0
-3.254979 -3.839206 21.819868 193 193 193 0
-3.164475 -3.830680 21.771413 194 194 194 0
-3.069997 -3.816753 21.692260 197 197 197 0
-2.981799 -3.810077 21.654315 198 198 198 0
-2.897925 -3.808701 21.646496 199 199 199 0
-2.812342 -3.804933 21.625081 199 199 199 0
-2.724352 -3.797582 21.583303 199 199 199 0
-2.639850 -3.794784 21.567398 199 199 199 0
-2.549179 -3.782653 21.498456 199 199 199 0
-2.459802 -3.771697 21.436187 199 199 199 0
-2.375897 -3.768664 21.418946 200 200 200 0
-2.293539 -3.767957 21.414931 202 202 202 0
-2.208379 -3.762423 21.383479 203 203 203 0
-2.127000 -3.763155 21.387636 203 203 203 0
-2.038598 -3.751021 21.318674 203 203 203 0
-1.955635 -3.748300 21.303212 204 204 204 0
-1.874864 -3.749728 21.311325 204 204 204 0
-1.794084 -3.751266 21.320070 204 204 204 0
-1.711712 -3.749464 21.309829 205 205 205 0
-1.628780 -3.746194 21.291244 206 206 206 0
-1.544105 -3.738361 21.246722 205 205 205 0
-1.462598 -3.737751 21.243257 205 205 205 0
-1.381949 -3.739392 21.252583 205 205 205 0
-1.299776 -3.736855 21.238167 206 206 206 0
-1.218878 -3.737893 21.244062 206 206 206 0
-1.136866 -3.735418 21.229998 207 207 207 0
-1.053959 -3.729392 21.195748 207 207 207 0
-0.972923 -3.729540 21.196590 207 207 207 0
-0.892856 -3.733760 21.220575 207 207 207 0
-0.812515 -3.737568 21.242218 207 207 207 0
-0.730562 -3.733983 21.221843 208 208 208 0
-0.648640 -3.729678 21.197374 207 207 207 0
-0.568530 -3.736056 21.233626 207 207 207 0
-0.487637 -3.738553 21.247814 208 208 208 0
-0.406443 -3.739277 21.251932 209 209 209 0
-0.325397 -3.742062 21.267761 209 209 209 0
-0.244142 -3.743512 21.275998 209 209 209 0
-0.162730 -3.742798 21.271940 209 209 209 0
-0.081441 -3.746280 21.291731 209 209 209 0
0.000000 -3.750675 21.316711 209 209 209 0
0.081561 -3.751813 21.323176 210 210 210 0
0.163319 -3.756337 21.348889 209 209 209 0
0.245002 -3.756695 21.350923 210 210 210 0
0.326977 -3.760233 21.371031 210 210 210 0
0.409077 -3.763511 21.389661 210 210 210 0
0.491773 -3.770258 21.428008 210 210 210 0
0.574648 -3.776260 21.462118 210 210 210 0
0.656813 -3.776673 21.464464 210 210 210 0
0.739756 -3.780978 21.488932 209 209 209 0
0.824249 -3.791544 21.548988 210 210 210 0
0.907832 -3.796389 21.576522 210 210 210 0
0.991942 -3.802444 21.610936 209 209 209 0
1.076379 -3.808727 21.646643 210 210 210 0
1.161101 -3.815045 21.682550 210 210 210 0
1.246753 -3.823375 21.729893 209 209 209 0
1.332023 -3.829566 21.765080 209 209 209 0
1.418070 -3.837130 21.808069 209 209 209 0
1.504605 -3.845102 21.853380 209 209 209 0
1.592610 -3.855791 21.914132 209 209 209 0
1.682257 -3.869190 21.990284 209 209 209 0
1.767422 -3.871496 22.003390 209 209 209 0
1.856208 -3.881163 22.058328 209 209 209 0
1.946176 -3.892353 22.121926 209 209 209 0
2.038688 -3.907486 22.207932 208 208 208 0
2.129791 -3.918816 22.272328 207 207 207 0
2.220699 -3.928929 22.329806 208 208 208 0
2.315281 -3.944553 22.418604 208 208 208 0
2.409525 -3.958506 22.497902 208 208 208 0
2.503460 -3.971005 22.568940 207 207 207 0
2.599116 -3.985311 22.650249 206 206 206 0
2.697766 -4.003136 22.751556 206 206 206 0
2.799631 -4.024470 22.872803 205 205 205 0
2.899398 -4.041585 22.970076 205 205 205 0
2.999570 -4.058242 23.064744 204 204 204 0
3.106970 -4.083446 23.207989 202 202 202 0
3.215486 -4.108677 23.351389 203 203 203 0
3.321053 -4.128876 23.466190 202 202 202 0
3.433158 -4.155929 23.619941 201 201 201 0
3.550230 -4.187451 23.799094 198 198 198 0
3.670803 -4.221423 23.992175 198 198 198 0
3.793887 -4.256556 24.191848 197 197 197 0
3.931247 -4.305651 24.470878 194 194 194 0
4.071631 -4.355698 24.755318 193 193 193 0
4.241340 -4.434128 25.201070 188 188 188 0
4.413594 -4.511674 25.641798 169 169 169 0
4.529162 -4.529162 25.741190 85 85 85 0
-9.358713 -5.264276 30.584029 196 196 196 0
-9.267324 -5.278855 30.668732 196 196 196 0
-9.107227 -5.254169 30.525311 196 196 196 0
-9.016947 -5.269645 30.615219 197 197 197 0
-8.919363 -5.281202 30.682363 196 196 196 0
-8.818370 -5.291022 30.739417 196 196 196 0
-8.728219 -5.307701 30.836315 196 196 196 0
-8.645778 -5.329589 30.963482 197 197 197 0
-8.522386 -5.326491 30.945484 196 196 196 0
-8.442684 -5.350997 31.087854 196 196 196 0
-8.311603 -5.343173 31.042401 195 195 195 0
-8.236543 -5.371659 31.207894 197 197 197 0
-8.130418 -5.380424 31.258818 195 195 195 0
-8.015837 -5.383771 31.278265 191 191 191 0
-7.775899 -5.301749 30.801738 130 130 130 0
-6.594072 -4.565127 26.522162 85 85 85 0
-6.130048 -4.310190 25.041044 91 91 91 0
-6.024375 -4.303125 25.000000 114 114 114 0
-5.740393 -4.166414 24.205746 131 131 131 0
-5.676104 -4.187290 24.327030 143 143 143 0
-5.488231 -4.116173 23.913859 152 152 152 0
-5.376770 -4.100926 23.825278 154 154 154 0
-5.230908 -4.058463 23.578582 163 163 163 0
-5.076012 -4.007378 23.281789 166 166 166 0
-4.945986 -3.974453 23.090502 166 166 166 0
-4.836799 -3.957381 22.991320 171 171 171 0
-4.743536 -3.952947 22.965558 176 176 176 0
-4.636173 -3.936373 22.869271 177 177 177 0
-4.526464 -3.917132 22.757486 178 178 178 0
-4.412055 -3.892990 22.617226 178 178 178 0
-4.299043 -3.869139 22.478657 183 183 183 0
-4.195903 -3.853381 22.387107 185 185 185 0
-4.096102 -3.840096 22.309923 185 185 185 0
-4.002378 -3.832064 22.263264 186 186 186 0
-3.914287 -3.829194 22.246586 187 187 187 0
-3.811103 -3.811103 22.141486 189 189 189 0
-3.710256 -3.794580 22.045488 192 192 192 0
-3.608442 -3.776276 21.939150 193 193 193 0
-3.521774 -3.773330 21.922031 193 193 193 0
-3.433531 -3.768510 21.894030 193 193 193 0
-3.343943 -3.761935 21.855834 194 194 194 0
-3.253635 -3.754195 21.810863 194 194 194 0
-3.156878 -3.738408 21.719144 196 196 196 0
-3.067073 -3.730224 21.671596 198 198 198 0
-2.976714 -3.720893 21.617386 198 198 198 0
-2.888289 -3.713514 21.574521 198 198 198 0
-2.806423 -3.714384 21.579573 199 199 199 0
-2.722121 -3.711983 21.565625 200 200 200 0
-2.632031 -3.701293 21.503519 199 199 199 0
-2.545153 -3.694576 21.464496 199 199 199 0
-2.456304 -3.684456 21.405698 201 201 201 0
-2.374360 -3.684351 21.405089 202 202 202 0
-2.293311 -3.685678 21.412798 203 203 203 0
-2.208330 -3.680550 21.383008 203 203 203 0
-2.123088 -3.674576 21.348298 204 204 204 0
-2.035272 -3.663490 21.283895 204 204 204 0
-1.952483 -3.660905 21.268873 203 203 203 0
-1.872056 -3.662719 21.279410 204 204 204 0
-1.791152 -3.663720 21.285231 204 204 204 0
-1.708863 -3.661849 21.274357 205 205 205 0
-1.625890 -3.658252 21.253459 205 205 205 0
-1.542954 -3.654365 21.230881 205 205 205 0
-1.460590 -3.651474 21.214084 205 205 205 0
-1.379558 -3.651770 21.215802 205 205 205 0
-1.298892 -3.653133 21.223723 206 206 206 0
-1.217332 -3.651995 21.217112 206 206 206 0
-1.134168 -3.645541 21.179614 207 207 207 0
-1.052938 -3.644786 21.175229 207 207 207 0
-0.972029 -3.645111 21.177113 208 208 208 0
-0.891488 -3.646996 21.188067 207 207 207 0
-0.811276 -3.650742 21.209831 208 208 208 0
-0.729612 -3.648061 21.194252 208 208 208 0
-0.648525 -3.647950 21.193611 207 207 207 0
-0.567214 -3.646378 21.184477 208 208 208 0
-0.486470 -3.648525 21.196952 208 208 208 0
-0.405738 -3.651642 21.215056 209 209 209 0
-0.324814 -3.654161 21.229695 209 209 209 0
-0.243858 -3.657864 21.251205 209 209 209 0
-0.162488 -3.655978 21.240247 210 210 210 0
-0.081271 -3.657209 21.247401 209 209 209 0
0.000000 -3.659838 21.262673 210 210 210 0
0.081494 -3.667247 21.305717 209 209 209 0
0.163079 -3.669288 21.317575 210 210 210 0
0.244755 -3.671318 21.329371 210 210 210 0
0.326486 -3.672969 21.338961 210 210 210 0
0.408402 -3.675622 21.354379 210 210 210 0
0.490844 -3.681333 21.387558 210 210 210 0
0.573368 -3.685936 21.414298 210 210 210 0
0.656053 -3.690299 21.439648 210 210 210 0
0.739134 -3.695671 21.470858 210 210 210 0
0.822822 -3.702701 21.511697 210 210 210 0
0.906902 -3.710052 21.554408 210 210 210 0
0.989969 -3.712383 21.567948 209 209 209 0
1.074131 -3.718147 21.601434 210 210 210 0
1.159131 -3.725778 21.645769 210 210 210 0
1.244412 -3.733235 21.689092 210 210 210 0
1.329533 -3.739311 21.724392 210 210 210 0
1.415855 -3.747851 21.774008 209 209 209 0
1.501577 -3.753942 21.809396 209 209 209 0
1.588698 -3.762705 21.860304 209 209 209 0
1.677711 -3.774851 21.930867 210 210 210 0
1.765757 -3.783765 21.982658 210 210 210 0
1.853402 -3.791049 22.024979 210 210 210 0
1.942772 -3.801075 22.083224 209 209 209 0
2.032847 -3.811588 22.144301 209 209 209 0
2.125090 -3.825161 22.223158 208 208 208 0
2.215372 -3.834298 22.276239 208 208 208 0
2.308360 -3.847267 22.351586 208 208 208 0
2.403996 -3.863565 22.446274 207 207 207 0
2.498471 -3.876938 22.523967 208 208 208 0
2.592406 -3.888609 22.591772 207 207 207 0
2.691503 -3.907021 22.698743 206 206 206 0
2.793479 -3.928330 22.822541 205 205 205 0
2.891562 -3.943039 22.907999 205 205 205 0
2.991043 -3.958733 22.999178 206 206 206 0
3.095640 -3.980109 23.123364 204 204 204 0
3.203593 -4.004491 23.265017 202 202 202 0
3.312055 -4.028175 23.402616 202 202 202 0
3.420062 -4.050074 23.529841 202 202 202 0
3.536435 -4.080502 23.706619 200 200 200 0
3.653076 -4.109710 23.876312 198 198 198 0
3.778544 -4.147183 24.094018 198 198 198 0
3.910459 -4.189778 24.341484 196 196 196 0
4.050641 -4.239043 24.627703 194 194 194 0
4.205042 -4.300611 24.985396 190 190 190 0
4.382486 -4.382486 25.461065 183 183 183 0
4.535132 -4.436542 25.775117 132 132 132 0
-9.349678 -5.142323 30.554503 198 198 198 0
-9.163341 -5.103633 30.324615 197 197 197 0
-9.126505 -5.148285 30.589929 196 196 196 0
-8.993151 -5.138943 30.534422 197 197 197 0
-8.903247 -5.154512 30.626926 196 196 196 0
-8.811908 -5.169653 30.716892 198 198 198 0
-8.721544 -5.185783 30.812733 196 196 196 0
-8.607398 -5.188021 30.826028 196 196 196 0
-8.522824 -5.208392 30.947072 196 196 196 0
-8.429460 -5.223891 31.039160 197 197 197 0
-8.342293 -5.243727 31.157024 197 197 197 0
-8.173022 -5.211782 30.967215 197 197 197 0
-8.136544 -5.264822 31.282366 196 196 196 0
-7.956799 -5.225361 31.047895 170 170 170 0
-8.071514 -5.381009 31.972723 91 91 91 0
-7.110330 -4.813147 28.598614 81 81 81 0
-6.130048 -4.214408 25.041044 90 90 90 0
-5.984182 -4.179429 24.833208 122 122 122 0
-5.792735 -4.110973 24.426461 137 137 137 0
-5.607829 -4.044991 24.034411 151 151 151 0
-5.479898 -4.018592 23.877551 151 151 151 0
-5.346263 -3.987043 23.690097 159 159 159 0
-5.195730 -3.941589 23.420015 166 166 166 0
-5.057071 -3.903704 23.194914 166 166 166 0
-4.936337 -3.878550 23.045456 168 168 168 0
-4.826692 -3.861354 22.943278 175 175 175 0
-4.713150 -3.840345 22.818448 176 176 176 0
-4.621557 -3.836764 22.797174 177 177 177 0
-4.516096 -3.821312 22.705360 177 177 177 0
-4.396538 -3.793092 22.537681 182 182 182 0
-4.285406 -3.771158 22.407354 185 185 185 0
-4.180809 -3.754196 22.306569 186 186 186 0
-4.084698 -3.744306 22.247808 185 185 185 0
-3.994354 -3.739395 22.218630 186 186 186 0
-3.899780 -3.730224 22.164136 187 187 187 0
-3.804823 -3.720272 22.105001 191 191 191 0
-3.701332 -3.701332 21.992467 193 193 193 0
-3.600899 -3.684641 21.893290 192 192 192 0
-3.506999 -3.673999 21.830061 193 193 193 0
-3.425090 -3.675707 21.840205 193 193 193 0
-3.337609 -3.671370 21.814439 194 194 194 0
-3.248626 -3.665116 21.777281 195 195 195 0
-3.153428 -3.651338 21.695411 198 198 198 0
-3.062609 -3.642021 21.640054 199 199 199 0
-2.973189 -3.633898 21.591787 198 198 198 0
-2.885052 -3.626923 21.550345 198 198 198 0
-2.801739 -3.625780 21.543555 199 199 199 0
-2.716985 -3.622646 21.524934 199 199 199 0
-2.627094 -3.612255 21.463190 200 200 200 0
-2.540091 -3.605290 21.421805 200 200 200 0
-2.453631 -3.598658 21.382403 202 202 202 0
-2.368246 -3.593202 21.349979 203 203 203 0
-2.288296 -3.595893 21.365974 203 203 203 0
-2.205752 -3.594558 21.358040 203 203 203 0
-2.117038 -3.582679 21.287457 204 204 204 0
-2.033854 -3.579582 21.269057 204 204 204 0
-1.951182 -3.577167 21.254706 204 204 204 0
-1.869508 -3.576451 21.250449 204 204 204 0
-1.789466 -3.578933 21.265197 204 204 204 0
-1.705874 -3.574212 21.237150 204 204 204 0
-1.623954 -3.572700 21.228163 205 205 205 0
-1.539807 -3.565870 21.187581 205 205 205 0
-1.458443 -3.565083 21.182906 206 206 206 0
-1.376355 -3.562331 21.166556 206 206 206 0
-1.296386 -3.565062 21.182782 206 206 206 0
-1.215038 -3.564112 21.177134 207 207 207 0
-1.132239 -3.558467 21.143594 208 208 208 0
-1.051521 -3.558996 21.146736 208 208 208 0
-0.969988 -3.556621 21.132626 208 208 208 0
-0.890321 -3.561283 21.160325 209 209 209 0
-0.809275 -3.560812 21.157527 209 209 209 0
-0.728615 -3.562116 21.165274 209 209 209 0
-0.647248 -3.559865 21.151903 209 209 209 0
-0.566317 -3.559709 21.150976 209 209 209 0
-0.486015 -3.564112 21.177138 208 208 208 0
-0.405112 -3.564983 21.182308 209 209 209 0
-0.324407 -3.568474 21.203053 210 210 210 0
-0.243025 -3.564374 21.178690 209 209 209 0
-0.162145 -3.567182 21.195380 209 209 209 0
-0.081142 -3.570251 21.213612 209 209 209 0
0.000000 -3.577238 21.255131 210 210 210 0
0.081347 -3.579288 21.267307 210 210 210 0
0.162672 -3.578777 21.264274 210 210 210 0
0.244567 -3.586979 21.313007 210 210 210 0
0.326154 -3.587697 21.317270 210 210 210 0
0.408181 -3.591997 21.342822 210 210 210 0
0.490362 -3.595990 21.366550 210 210 210 0
0.572450 -3.598254 21.380001 211 211 211 0
0.654584 -3.600211 21.391625 210 210 210 0
0.737386 -3.604996 21.420061 210 210 210 0
0.821279 -3.613628 21.471347 210 210 210 0
0.905015 -3.620058 21.509556 210 210 210 0
0.987821 -3.622009 21.521148 210 210 210 0
1.072384 -3.629606 21.566286 211 211 211 0
1.156667 -3.635238 21.599753 211 211 211 0
1.242862 -3.645728 21.662079 211 211 211 0
1.327458 -3.650510 21.690493 210 210 210 0
1.413387 -3.658178 21.736057 210 210 210 0
1.498861 -3.663883 21.769950 209 209 209 0
1.586691 -3.674441 21.832688 209 209 209 0
1.674038 -3.682884 21.882852 210 210 210 0
1.762910 -3.693716 21.947212 209 209 209 0
1.851154 -3.702308 21.998267 209 209 209 0
1.937623 -3.706757 22.024703 210 210 210 0
2.030081 -3.721816 22.114176 210 210 210 0
2.119513 -3.730342 22.164837 208 208 208 0
2.211496 -3.742532 22.237266 208 208 208 0
2.304161 -3.754929 22.310925 209 209 209 0
2.399732 -3.771008 22.406465 208 208 208 0
2.493848 -3.783770 22.482293 208 208 208 0
2.587516 -3.795024 22.549162 208 208 208 0
2.685020 -3.810996 22.644067 206 206 206 0
2.785819 -3.830501 22.759961 206 206 206 0
2.884471 -3.845961 22.851821 205 205 205 0
2.983956 -3.861590 22.944680 206 206 206 0
3.086366 -3.880003 23.054088 205 205 205 0
3.194604 -3.904516 23.199740 203 203 203 0
3.301653 -3.926291 23.329118 203 203 203 0
3.410830 -3.949383 23.466326 204 204 204 0
3.524595 -3.976466 23.627248 202 202 202 0
3.644553 -4.009009 23.820611 200 200 200 0
3.763553 -4.038935 23.998425 199 199 199 0
3.893409 -4.078810 24.235352 197 197 197 0
4.025702 -4.119323 24.476070 194 194 194 0
4.173504 -4.173504 24.798001 193 193 193 0
4.341249 -4.244776 25.221488 188 188 188 0
4.522190 -4.325573 25.701563 167 167 167 0
4.624944 -4.329734 25.726289 85 85 85 0
-9.268870 -4.982018 30.290426 196 196 196 0
-9.221978 -5.019558 30.518666 196 196 196 0
-9.092594 -5.012584 30.476264 197 197 197 0
-9.023666 -5.039190 30.638031 198 198 198 0
-8.944037 -5.060442 30.767241 197 197 197 0
-8.834257 -5.064974 30.794795 198 198 198 0
-8.722013 -5.068197 30.814389 197 197 197 0
-8.581528 -5.054873 30.733380 196 196 196 0
-8.518353 -5.087350 30.930840 196 196 196 0
-8.398098 -5.086172 30.923677 198 198 198 0
-8.299723 -5.098401 30.998032 197 197 197 0
-8.207477 -5.114805 31.097763 197 197 197 0
-8.061047 -5.097427 30.992108 189 189 189 0
-7.728647 -4.960176 30.157630 115 115 115 0
-8.071514 -5.258714 31.972723 80 80 80 0
-7.110330 -4.703757 28.598614 77 77 77 0
-6.130048 -4.118626 25.041044 110 110 110 0
-5.902383 -4.028610 24.493755 131 131 131 0
-5.759881 -3.994756 24.287925 142 142 142 0
-5.614071 -3.957460 24.061165 150 150 150 0
-5.460369 -3.913264 23.792455 152 152 152 0
-5.311891 -3.871378 23.537793 163 163 163 0
-5.212542 -3.864471 23.495795 166 166 166 0
-5.036696 -3.799613 23.101460 166 166 166 0
-4.924107 -3.781011 22.988362 171 171 171 0
-4.800723 -3.753293 22.819838 175 175 175 0
-4.706240 -3.747561 22.784992 176 176 176 0
-4.614851 -3.744124 22.764095 176 176 176 0
-4.506524 -3.726549 22.657236 180 180 180 0
-4.390146 -3.701496 22.504914 185 185 185 0
-4.283220 -3.683569 22.395920 185 185 185 0
-4.171068 -3.660325 22.254598 186 186 186 0
-4.073779 -3.649427 22.188341 185 185 185 0
-3.983165 -3.644172 22.156392 186 186 186 0
-3.896399 -3.642286 22.144920 190 190 190 0
-3.797453 -3.628677 22.062179 191 191 191 0
-3.694720 -3.610749 21.953181 193 193 193 0
-3.596467 -3.596467 21.866342 193 193 193 0
-3.504688 -3.588133 21.815673 192 192 192 0
-3.413857 -3.580386 21.768575 194 194 194 0
-3.328406 -3.578036 21.754287 195 195 195 0
-3.243863 -3.576567 21.745354 197 197 197 0
-3.146122 -3.560086 21.645148 198 198 198 0
-3.058652 -3.554650 21.612099 198 198 198 0
-2.965325 -3.541916 21.534675 198 198 198 0
-2.880259 -3.538604 21.514543 199 199 199 0
-2.796648 -3.536938 21.504409 199 199 199 0
-2.713229 -3.535420 21.495179 199 199 199 0
-2.624221 -3.526297 21.439714 200 200 200 0
-2.533127 -3.513692 21.363074 202 202 202 0
-2.451662 -3.514049 21.365244 203 203 203 0
-2.366737 -3.509300 21.336374 204 204 204 0
-2.282622 -3.505455 21.312997 203 203 203 0
-2.201136 -3.505512 21.313345 203 203 203 0
-2.117185 -3.501498 21.288939 203 203 203 0
-2.032704 -3.496251 21.257037 204 204 204 0
-1.947547 -3.489355 21.215108 204 204 204 0
-1.865026 -3.486788 21.199503 204 204 204 0
-1.785296 -3.489441 21.215635 205 205 205 0
-1.703428 -3.487972 21.206701 205 205 205 0
-1.619524 -3.481978 21.170255 205 205 205 0
-1.536409 -3.477136 21.140819 207 207 207 0
-1.456395 -3.479166 21.153159 207 207 207 0
-1.375998 -3.480466 21.161062 207 207 207 0
-1.293161 -3.475370 21.130083 207 207 207 0
-1.213693 -3.479254 21.153693 208 208 208 0
-1.131264 -3.474596 21.125376 208 208 208 0
-1.050386 -3.474354 21.123902 208 208 208 0
-0.969778 -3.475037 21.128057 209 209 209 0
-0.888356 -3.472664 21.113628 209 209 209 0
-0.808690 -3.477365 21.142209 209 209 209 0
-0.727778 -3.477163 21.140980 209 209 209 0
-0.646589 -3.475418 21.130373 209 209 209 0
-0.565758 -3.475373 21.130101 209 209 209 0
-0.485267 -3.477745 21.144522 209 209 209 0
-0.404369 -3.477576 21.143492 209 209 209 0
-0.323910 -3.482036 21.170607 210 210 210 0
-0.242857 -3.480955 21.164035 210 210 210 0
-0.161929 -3.481481 21.167237 209 209 209 0
-0.080999 -3.482964 21.176254 210 210 210 0
0.000000 -3.487400 21.203221 210 210 210 0
0.081230 -3.492882 21.236553 210 210 210 0
0.162494 -3.493615 21.241009 210 210 210 0
0.243892 -3.495783 21.254190 210 210 210 0
0.325425 -3.498324 21.269638 210 210 210 0
0.407524 -3.504703 21.308422 210 210 210 0
0.489516 -3.508198 21.329673 211 211 211 0
0.572229 -3.515120 21.371757 210 210 210 0
0.654199 -3.516321 21.379060 211 211 211 0
0.736888 -3.520688 21.405615 211 211 211 0
0.819966 -3.525853 21.437016 210 210 210 0
0.903500 -3.531866 21.473571 211 211 211 0
0.986937 -3.536523 21.501885 211 211 211 0
1.071185 -3.543150 21.542178 210 210 210 0
1.155266 -3.548317 21.573592 210 210 210 0
1.240986 -3.557492 21.629380 211 211 211 0
1.325522 -3.562342 21.658863 210 210 210 0
1.411229 -3.569580 21.702875 211 211 211 0
1.495811 -3.573325 21.725643 210 210 210 0
1.583440 -3.583576 21.787965 209 209 209 0
1.671097 -3.592859 21.844406 210 210 210 0
1.759341 -3.602460 21.902781 210 210 210 0
1.845668 -3.607442 21.933074 209 209 209 0
1.935583 -3.618699 22.001513 210 210 210 0
2.026146 -3.630179 22.071311 210 210 210 0
2.116620 -3.640586 22.134587 209 209 209 0
2.208582 -3.652654 22.207960 209 209 209 0
2.300129 -3.663169 22.271887 208 208 208 0
2.393463 -3.675675 22.347925 208 208 208 0
2.488826 -3.690328 22.437018 208 208 208 0
2.581301 -3.699864 22.494996 209 209 209 0
2.677715 -3.714250 22.582461 207 207 207 0
2.777104 -3.731734 22.688759 206 206 206 0
2.877242 -3.749133 22.794548 206 206 206 0
2.976497 -3.764394 22.887331 206 206 206 0
3.077468 -3.780889 22.987621 207 207 207 0
3.182141 -3.800890 23.109227 204 204 204 0
3.291055 -3.824740 23.254234 203 203 203 0
3.401262 -3.848796 23.400494 202 202 202 0
3.513125 -3.873446 23.550363 202 202 202 0
3.627256 -3.899301 23.707558 200 200 200 0
3.748595 -3.931453 23.903044 199 199 199 0
3.874996 -3.967257 24.120732 199 199 199 0
4.003808 -4.003808 24.342958 195 195 195 0
4.149021 -4.054725 24.652532 193 193 193 0
4.301331 -4.110160 24.989576 191 191 191 0
4.479608 -4.187460 25.459553 182 182 182 0
4.635806 -4.241270 25.786712 126 126 126 0
-9.287735 -4.876061 30.352075 196 196 196 0
-9.144855 -4.861822 30.263440 197 197 197 0
-9.081513 -4.890046 30.439126 197 197 197 0
-9.016219 -4.917937 30.612744 197 197 197 0
-8.924192 -4.931790 30.698976 197 197 197 0
-8.778375 -4.915890 30.600000 196 196 196 0
-8.627251 -4.896548 30.479601 196 196 196 0
-8.583257 -4.938312 30.739571 196 196 196 0
-8.467540 -4.939398 30.746331 197 197 197 0
-8.386227 -4.960866 30.879965 197 197 197 0
-8.314294 -4.988576 31.052451 195 195 195 0
-8.191290 -4.986003 31.036430 197 197 197 0
