ply
format ascii 1.0
element vertex 1125
property float x
property float y
property float z
property uchar red
property uchar green
property uchar blue
property uchar alpha
end_header
0.661043 1.468984 19.202406 214 214 214 0
0.735592 1.471183 19.231151 214 214 214 0
0.809020 1.470946 19.228054 214 214 214 0
0.885762 1.476270 19.297645 214 214 214 0
0.962115 1.480177 19.348720 214 214 214 0
1.039333 1.484762 19.408647 215 215 215 0
1.115500 1.487333 19.442261 214 214 214 0
1.192781 1.490977 19.489892 214 214 214 0
1.268938 1.492868 19.514619 213 213 213 0
1.348510 1.498344 19.586200 213 213 213 0
1.427136 1.502249 19.637241 212 212 212 0
1.504115 1.504115 19.661638 213 213 213 0
1.583799 1.508380 19.717382 213 213 213 0
1.666170 1.514700 19.800000 213 213 213 0
1.746867 1.519015 19.856405 213 213 213 0
1.831181 1.525984 19.947505 213 213 213 0
1.911102 1.528882 19.985384 213 213 213 0
1.993992 1.533840 20.050192 211 211 211 0
2.082600 1.542667 20.165578 212 212 212 0
2.170386 1.550276 20.265042 212 212 212 0
2.253512 1.554146 20.315635 212 212 212 0
2.338868 1.559245 20.382293 212 212 212 0
2.432515 1.569364 20.514566 210 210 210 0
2.518855 1.574284 20.578877 210 210 210 0
2.613468 1.583920 20.704833 210 210 210 0
2.704535 1.590903 20.796120 210 210 210 0
2.803266 1.601866 20.939430 210 210 210 0
2.899298 1.610721 21.055174 209 209 209 0
2.993337 1.618020 21.150586 209 209 209 0
3.102018 1.632641 21.341716 208 208 208 0
3.205475 1.643833 21.488016 208 208 208 0
3.304216 1.652108 21.596184 208 208 208 0
3.427029 1.671722 21.852570 205 205 205 0
3.539449 1.685452 22.032052 206 206 206 0
3.662451 1.703465 22.267522 206 206 206 0
3.801198 1.727817 22.585849 203 203 203 0
3.933686 1.748305 22.853657 204 204 204 0
4.166425 1.811489 23.679599 206 206 206 0
4.261976 1.813607 23.707278 212 212 212 0
4.343641 1.809851 23.658177 213 213 213 0
4.426616 1.806782 23.618067 212 212 212 0
4.514533 1.805813 23.605401 212 212 212 0
4.606104 1.806315 23.611967 211 211 211 0
4.704328 1.809357 23.651722 211 211 211 0
4.812141 1.815902 23.737287 211 211 211 0
4.910262 1.818616 23.772752 212 212 212 0
4.992614 1.815496 23.731972 210 210 210 0
5.072238 1.811514 23.679918 211 211 211 0
5.159805 1.810458 23.666114 210 210 210 0
5.255252 1.812156 23.688314 210 210 210 0
5.342517 1.811023 23.673501 210 210 210 0
5.418034 1.806011 23.607992 210 210 210 0
5.502332 1.804043 23.582266 211 211 211 0
5.592947 1.804176 23.584005 210 210 210 0
5.691121 1.806705 23.617060 210 210 210 0
5.776612 1.805191 23.597270 210 210 210 0
5.861347 1.803491 23.575051 210 210 210 0
5.943244 1.800983 23.542261 210 210 210 0
6.038872 1.802648 23.564030 210 210 210 0
6.136286 1.804790 23.592026 210 210 210 0
6.220465 1.803033 23.569061 209 209 209 0
6.312200 1.803486 23.574976 209 209 209 0
6.385819 1.798822 23.514016 209 209 209 0
6.477115 1.799199 23.518938 210 210 210 0
6.568961 1.799715 23.525692 209 209 209 0
6.661578 1.800427 23.534987 210 210 210 0
6.743237 1.798196 23.505835 210 210 210 0
6.825315 1.796135 23.478895 210 210 210 0
6.918825 1.797097 23.491469 210 210 210 0
7.002148 1.795423 23.469578 210 210 210 0
7.101371 1.797815 23.500855 210 210 210 0
-6.616225 1.736759 21.621649 138 138 138 0
-6.470554 1.720021 21.413268 150 150 150 0
-6.317743 1.700931 21.175609 152 152 152 0
-6.165115 1.681395 20.932399 160 160 160 0
-6.015529 1.662186 20.693255 165 165 165 0
-5.885970 1.648072 20.517542 166 166 166 0
-5.785640 1.641871 20.440345 167 167 167 0
-5.709614 1.642492 20.448077 176 176 176 0
-5.608692 1.635868 20.365619 179 179 179 0
-5.513726 1.630820 20.302774 179 179 179 0
-5.379636 1.613891 20.092010 179 179 179 0
-5.266769 1.602930 19.955553 180 180 180 0
-5.159491 1.593372 19.836568 185 185 185 0
-5.075499 1.590828 19.804892 188 188 188 0
-4.998360 1.590387 19.799406 188 188 188 0
-4.904452 1.584515 19.726303 189 189 189 0
-4.826160 1.583584 19.714704 189 189 189 0
-4.709220 1.569740 19.542358 189 189 189 0
-4.619081 1.564528 19.477468 192 192 192 0
-4.528525 1.559001 19.408659 194 194 194 0
-4.448942 1.557130 19.385368 195 195 195 0
-4.370406 1.555568 19.365931 196 196 196 0
-4.300167 1.556957 19.383219 196 196 196 0
-4.212508 1.551977 19.321216 196 196 196 0
-4.116497 1.543686 19.218006 196 196 196 0
-4.023776 1.536351 19.126685 197 197 197 0
-3.941345 1.532745 19.081797 199 199 199 0
-3.867330 1.532338 19.076730 201 201 201 0
-3.793558 1.532014 19.072689 201 201 201 0
-3.723502 1.533207 19.087541 202 202 202 0
-3.641226 1.529315 19.039090 201 201 201 0
-3.549987 1.521423 18.940841 202 202 202 0
-3.475945 1.520726 18.932164 202 202 202 0
-3.394032 1.516482 18.879331 202 202 202 0
-3.323833 1.517402 18.890781 202 202 202 0
-3.252433 1.517802 18.895760 204 204 204 0
-3.174277 1.514996 18.860827 204 204 204 0
-3.095134 1.511577 18.818266 207 207 207 0
-3.016626 1.508313 18.777630 207 207 207 0
-2.939514 1.505605 18.743911 207 207 207 0
-2.869680 1.506582 18.756077 208 208 208 0
-2.797274 1.506224 18.751626 206 206 206 0
-2.724274 1.505520 18.742856 207 207 207 0
-2.651937 1.505153 18.738291 207 207 207 0
-2.576972 1.503234 18.714392 208 208 208 0
-2.496161 1.497697 18.645461 208 208 208 0
-2.427214 1.499161 18.663695 208 208 208 0
-2.355999 1.499272 18.665077 209 209 209 0
-2.285242 1.499690 18.670274 209 209 209 0
-2.213912 1.499747 18.670981 209 209 209 0
-2.140918 1.498643 18.657239 209 209 209 0
-2.068237 1.497689 18.645367 209 209 209 0
-1.992371 1.494279 18.602908 210 210 210 0
-1.923155 1.495787 18.621687 210 210 210 0
-1.852739 1.496443 18.629854 211 211 211 0
-1.781898 1.496794 18.634227 211 211 211 0
-1.709975 1.496228 18.627178 210 210 210 0
-1.638608 1.496120 18.625835 211 211 211 0
-1.566252 1.495059 18.612619 211 211 211 0
-1.496753 1.496753 18.633717 211 211 211 0
-1.424786 1.496025 18.624656 212 212 212 0
-1.353737 1.496236 18.627273 212 212 212 0
-1.283409 1.497311 18.640658 212 212 212 0
-1.211138 1.496112 18.625727 212 212 212 0
-1.141044 1.497620 18.644505 213 213 213 0
-1.070611 1.498856 18.659890 213 213 213 0
-0.999512 1.499268 18.665023 213 213 213 0
-0.929003 1.500697 18.682819 213 213 213 0
-0.858172 1.501801 18.696555 213 213 213 0
-0.786681 1.501845 18.697108 213 213 213 0
-0.715518 1.502587 18.706344 213 213 213 0
-0.644324 1.503422 18.716742 213 213 213 0
-0.573428 1.505248 18.739470 213 213 213 0
-0.502336 1.507009 18.761392 214 214 214 0
-0.430881 1.508084 18.774781 214 214 214 0
-0.359421 1.509569 18.793270 214 214 214 0
-0.287579 1.509787 18.795983 214 214 214 0
-0.216004 1.512025 18.823845 214 214 214 0
-0.144189 1.513988 18.848279 214 214 214 0
-0.072144 1.515019 18.861115 214 214 214 0
0.000000 1.516627 18.881137 214 214 214 0
0.072369 1.519753 18.920053 214 214 214 0
0.144932 1.521783 18.945328 214 214 214 0
0.217770 1.524391 18.977784 214 214 214 0
0.290906 1.527258 19.013478 215 215 215 0
0.364090 1.529176 19.037362 214 214 214 0
0.437405 1.530918 19.059042 214 214 214 0
0.511100 1.533301 19.088711 214 214 214 0
0.585390 1.536648 19.130383 214 214 214 0
0.659369 1.538528 19.153786 214 214 214 0
0.733722 1.540817 19.182281 214 214 214 0
0.809051 1.544552 19.228785 214 214 214 0
0.884758 1.548327 19.275784 214 214 214 0
0.960718 1.551929 19.320625 213 213 213 0
1.036912 1.555368 19.363438 214 214 214 0
1.112693 1.557770 19.393335 215 215 215 0
1.189568 1.561307 19.437378 214 214 214 0
1.266775 1.564840 19.481352 213 213 213 0
1.345380 1.569610 19.540743 213 213 213 0
1.426483 1.576640 19.628255 213 213 213 0
1.501702 1.576787 19.630086 213 213 213 0
1.584586 1.584586 19.727181 213 213 213 0
1.662647 1.587072 19.758136 213 213 213 0
1.745637 1.593842 19.842418 213 213 213 0
1.830128 1.601362 19.936038 214 214 214 0
1.907196 1.602044 19.944529 212 212 212 0
1.991247 1.608315 20.022592 212 212 212 0
2.079001 1.617001 20.130729 212 212 212 0
2.160851 1.620638 20.176016 211 211 211 0
2.244645 1.625433 20.235702 211 211 211 0
2.336150 1.635305 20.358602 212 212 212 0
2.424442 1.642364 20.446481 212 212 212 0
2.519879 1.653671 20.587247 210 210 210 0
2.601643 1.655591 20.611154 211 211 211 0
2.697780 1.666276 20.744176 210 210 210 0
2.793259 1.675956 20.864683 210 210 210 0
2.887506 1.684379 20.969544 211 211 211 0
2.983360 1.693258 21.080093 209 209 209 0
3.090020 1.707642 21.259166 208 208 208 0
3.206034 1.726326 21.491768 208 208 208 0
3.300126 1.732566 21.569453 207 207 207 0
3.415579 1.749443 21.779555 206 206 206 0
3.540237 1.770118 22.036956 206 206 206 0
3.650905 1.783000 22.197327 206 206 206 0
4.643592 2.216260 27.591157 205 205 205 0
3.917633 1.828229 22.760398 205 205 205 0
4.137310 1.888772 23.514122 204 204 204 0
4.254567 1.900977 23.666067 211 211 211 0
4.338541 1.898112 23.630397 213 213 213 0
4.428179 1.897791 23.626405 212 212 212 0
4.504509 1.891894 23.552988 212 212 212 0
4.590050 1.890021 23.529671 212 212 212 0
4.697152 1.896927 23.615644 212 212 212 0
4.801599 1.902520 23.685284 211 211 211 0
4.893636 1.903081 23.692260 211 211 211 0
4.984448 1.903153 23.693158 210 210 210 0
5.070879 1.901580 23.673574 210 210 210 0
5.147012 1.896267 23.607438 211 211 211 0
5.236353 1.895921 23.603123 211 211 211 0
5.329691 1.897009 23.616667 211 211 211 0
5.414635 1.895122 23.593180 210 210 210 0
5.498188 1.892819 23.564503 211 211 211 0
5.576006 1.888647 23.512569 210 210 210 0
5.672745 1.890915 23.540801 210 210 210 0
5.768370 1.892746 23.563601 210 210 210 0
5.846992 1.889028 23.517313 210 210 210 0
5.937980 1.889357 23.521411 209 209 209 0
6.023081 1.887832 23.502415 210 210 210 0
6.115874 1.888726 23.513550 210 210 210 0
6.216671 1.892030 23.554687 210 210 210 0
6.299446 1.889834 23.527341 209 209 209 0
6.377439 1.886285 23.483158 210 210 210 0
6.468536 1.886656 23.487787 210 210 210 0
6.555706 1.885888 23.478219 210 210 210 0
6.642851 1.885133 23.468826 210 210 210 0
6.732302 1.885045 23.467720 210 210 210 0
6.816898 1.883617 23.449941 210 210 210 0
6.899476 1.881675 23.425773 210 210 210 0
6.991683 1.882376 23.434498 210 210 210 0
7.077547 1.881373 23.422015 210 210 210 0
-6.596998 1.814174 21.558816 144 144 144 0
-6.459179 1.798759 21.375623 150 150 150 0
-6.313502 1.780731 21.161393 152 152 152 0
-6.171023 1.763150 20.952460 163 163 163 0
-6.001190 1.737187 20.643928 167 167 167 0
-5.881572 1.725261 20.502212 166 166 166 0
-5.773264 1.716376 20.396622 169 169 169 0
-5.694349 1.716105 20.393407 177 177 177 0
-5.590907 1.708333 20.301043 178 178 178 0
-5.494406 1.702492 20.231632 179 179 179 0
-5.376402 1.689726 20.079932 180 180 180 0
-5.250198 1.673976 19.892764 182 182 182 0
-5.149387 1.665978 19.797721 187 187 187 0
-5.069745 1.664692 19.782439 188 188 188 0
-4.991381 1.663794 19.771760 187 187 187 0
-4.896539 1.657290 19.694474 188 188 188 0
-4.819546 1.656719 19.687690 188 188 188 0
-4.711749 1.645373 19.552852 190 190 190 0
-4.610420 1.635955 19.440943 194 194 194 0
-4.523027 1.631256 19.385095 195 195 195 0
-4.438910 1.627600 19.341658 195 195 195 0
-4.364634 1.627490 19.340350 195 195 195 0
-4.296133 1.629568 19.365036 196 196 196 0
-4.202224 1.621911 19.274048 196 196 196 0
-4.112968 1.615809 19.201531 196 196 196 0
-4.025637 1.610255 19.135529 198 198 198 0
-3.941730 1.605890 19.083660 200 200 200 0
-3.868154 1.605649 19.080795 201 201 201 0
-3.787133 1.602248 19.040385 201 201 201 0
-3.712271 1.601372 19.029967 201 201 201 0
-3.633750 1.598850 19.000000 202 202 202 0
-3.551087 1.594366 18.946709 202 202 202 0
-3.472072 1.591366 18.911068 202 202 202 0
-3.389554 1.586600 18.854426 203 203 203 0
-3.319260 1.587472 18.864790 203 203 203 0
-3.245458 1.586669 18.855242 205 205 205 0
-3.170367 1.585183 18.837591 206 206 206 0
-3.089863 1.580860 18.786218 206 206 206 0
-3.011240 1.577316 18.744102 207 207 207 0
-2.938951 1.576998 18.740320 206 206 206 0
-2.863997 1.575198 18.718936 207 207 207 0
-2.796946 1.577765 18.749430 208 208 208 0
-2.718567 1.573907 18.703589 207 207 207 0
-2.648733 1.574922 18.715652 207 207 207 0
-2.570087 1.570609 18.664394 208 208 208 0
-2.497447 1.569824 18.655069 208 208 208 0
-2.422882 1.567747 18.630386 209 209 209 0
-2.349305 1.566203 18.612040 209 209 209 0
-2.283118 1.569644 18.652924 208 208 208 0
-2.210709 1.568890 18.643972 208 208 208 0
-2.135454 1.565999 18.609617 209 209 209 0
-2.063559 1.565459 18.603193 210 210 210 0
-1.990739 1.564152 18.587668 211 211 211 0
-1.920680 1.564999 18.597726 211 211 211 0
-1.851755 1.566870 18.619964 211 211 211 0
-1.778625 1.565190 18.600000 212 212 212 0
-1.707334 1.565056 18.598406 212 212 212 0
-1.636948 1.565776 18.606968 212 212 212 0
-1.565563 1.565563 18.604430 213 213 213 0
-1.494169 1.565320 18.601546 212 212 212 0
-1.422900 1.565190 18.600000 213 213 213 0
-1.351845 1.565294 18.601236 212 212 212 0
-1.280754 1.565366 18.602095 212 212 212 0
-1.210620 1.566685 18.617762 212 212 212 0
-1.139148 1.566329 18.613534 213 213 213 0
-1.067847 1.566176 18.611716 212 212 212 0
-0.998902 1.569703 18.653636 212 212 212 0
-0.927534 1.569673 18.653276 213 213 213 0
-0.856542 1.570327 18.661045 213 213 213 0
-0.785375 1.570751 18.666080 213 213 213 0
-0.715036 1.573078 18.693739 213 213 213 0
-0.644030 1.574295 18.708202 214 214 214 0
-0.572836 1.575298 18.720119 213 213 213 0
-0.501564 1.576345 18.732558 214 214 214 0
-0.430451 1.578321 18.756046 214 214 214 0
-0.358900 1.579159 18.766003 214 214 214 0
-0.287251 1.579882 18.774588 214 214 214 0
-0.215681 1.581659 18.795708 214 214 214 0
-0.143974 1.583712 18.820102 214 214 214 0
-0.072104 1.586289 18.850735 214 214 214 0
0.000000 1.586659 18.855123 214 214 214 0
0.072234 1.589155 18.884793 214 214 214 0
0.144717 1.591890 18.917290 214 214 214 0
0.217436 1.594528 18.948638 214 214 214 0
0.290163 1.595896 18.964899 214 214 214 0
0.363375 1.598850 19.000000 214 214 214 0
0.436938 1.602105 19.038681 214 214 214 0
0.510658 1.604925 19.072191 214 214 214 0
0.584856 1.608355 19.112957 214 214 214 0
0.658961 1.610792 19.141919 214 214 214 0
0.732807 1.612176 19.158359 214 214 214 0
0.807485 1.614971 19.191570 213 213 213 0
0.883194 1.619189 19.241701 214 214 214 0
0.959305 1.623440 19.292212 214 214 214 0
1.035962 1.627940 19.345697 214 214 214 0
1.112984 1.632376 19.398408 214 214 214 0
1.189174 1.635114 19.430940 214 214 214 0
1.266257 1.638686 19.473392 214 214 214 0
1.343997 1.642663 19.520659 213 213 213 0
1.423787 1.648596 19.591155 213 213 213 0
1.502214 1.652435 19.636780 213 213 213 0
1.579860 1.655092 19.668353 213 213 213 0
1.661660 1.661660 19.746402 214 214 214 0
1.743735 1.667920 19.820797 212 212 212 0
1.825703 1.673561 19.887830 214 214 214 0
1.903454 1.675039 19.905396 214 214 214 0
1.988780 1.682814 19.997790 213 213 213 0
2.073591 1.689593 20.078344 212 212 212 0
2.157968 1.695546 20.149095 212 212 212 0
2.242326 1.701075 20.214792 212 212 212 0
2.330932 1.709350 20.313133 212 212 212 0
2.423836 1.720142 20.441375 212 212 212 0
2.509162 1.725049 20.499688 211 211 211 0
2.602418 1.734945 20.617294 210 210 210 0
2.693372 1.742770 20.710282 210 210 210 0
2.789807 1.753593 20.838896 210 210 210 0
2.884166 1.762546 20.945285 211 211 211 0
2.985583 1.775211 21.095798 209 209 209 0
3.081799 1.784199 21.202605 208 208 208 0
3.193619 1.801529 21.408543 208 208 208 0
3.292801 1.811041 21.521578 208 208 208 0
3.401356 1.825118 21.688861 207 207 207 0
3.535088 1.851713 22.004902 207 207 207 0
3.633050 1.858770 22.088766 206 206 206 0
3.769261 1.884631 22.396085 205 205 205 0
3.900246 1.906787 22.659384 203 203 203 0
4.095458 1.958697 23.276259 202 202 202 0
4.257117 1.992693 23.680252 210 210 210 0
4.333591 1.986229 23.603439 214 214 214 0
4.415408 1.982428 23.558267 212 212 212 0
4.497200 1.978768 23.514772 212 212 212 0
4.583042 1.976999 23.493744 212 212 212 0
4.682789 1.981180 23.543435 211 211 211 0
4.788926 1.987856 23.622772 210 210 210 0
4.887476 1.991194 23.662437 211 211 211 0
4.972537 1.989015 23.636538 211 211 211 0
5.058023 1.987080 23.613552 211 211 211 0
5.137739 1.982987 23.564910 211 211 211 0
5.233169 1.984995 23.588772 210 210 210 0
5.322364 1.984610 23.584201 210 210 210 0
5.400805 1.980295 23.532918 210 210 210 0
5.488463 1.979446 23.522825 211 211 211 0
5.576212 1.978656 23.513441 210 210 210 0
5.665265 1.978347 23.509763 210 210 210 0
5.749078 1.976245 23.484795 210 210 210 0
5.848967 1.979650 23.525255 211 211 211 0
5.923838 1.974613 23.465391 210 210 210 0
6.017136 1.975776 23.479215 210 210 210 0
6.103572 1.974685 23.466252 210 210 210 0
6.197351 1.975967 23.481487 210 210 210 0
6.295090 1.978457 23.511075 210 210 210 0
6.371411 1.974240 23.460962 210 210 210 0
6.451667 1.971343 23.426534 210 210 210 0
6.545649 1.972661 23.442204 210 210 210 0
6.634462 1.972408 23.439189 210 210 210 0
6.715768 1.969959 23.410084 210 210 210 0
6.807125 1.970483 23.416322 210 210 210 0
6.889939 1.968554 23.393393 209 209 209 0
6.980819 1.968949 23.398085 210 210 210 0
7.061722 1.966555 23.369643 210 210 210 0
-6.578123 1.891211 21.497136 147 147 147 0
-6.428612 1.871621 21.274465 150 150 150 0
-6.300472 1.857832 21.117722 156 156 156 0
-6.147016 1.836122 20.870947 165 165 165 0
-6.016763 1.820862 20.697499 167 167 167 0
-5.873388 1.801172 20.473682 166 166 166 0
-5.774255 1.794701 20.400125 173 173 173 0
-5.676153 1.788377 20.328240 178 178 178 0
-5.585416 1.784230 20.281102 178 178 178 0
-5.483160 1.776235 20.190223 178 178 178 0
-5.371142 1.764804 20.060286 179 179 179 0
-5.242396 1.747465 19.863205 185 185 185 0
-5.144308 1.739987 19.778193 187 187 187 0
-5.047355 1.732674 19.695075 188 188 188 0
-4.973032 1.733026 19.699079 187 187 187 0
-4.897066 1.732808 19.696596 188 188 188 0
-4.804443 1.726597 19.625994 188 188 188 0
-4.696364 1.714545 19.489007 193 193 193 0
-4.607078 1.709077 19.426852 194 194 194 0
-4.507667 1.699612 19.319264 195 195 195 0
-4.434369 1.699842 19.321870 196 196 196 0
-4.364452 1.701397 19.339547 196 196 196 0
-4.283398 1.698589 19.307633 196 196 196 0
-4.187883 1.689848 19.208271 196 196 196 0
-4.105578 1.686220 19.167032 198 198 198 0
-4.014239 1.678682 19.081351 200 200 200 0
-3.933253 1.675274 19.042617 201 201 201 0
-3.863369 1.676556 19.057191 201 201 201 0
-3.783344 1.673402 19.021335 200 200 200 0
-3.706915 1.671746 19.002514 201 201 201 0
-3.626640 1.668255 18.962825 201 201 201 0
-3.536205 1.659851 18.867308 202 202 202 0
-3.466762 1.661157 18.882147 203 203 203 0
-3.385632 1.656798 18.832605 203 203 203 0
-3.310931 1.655466 18.817456 204 204 204 0
-3.241675 1.656856 18.833263 205 205 205 0
-3.165238 1.654556 18.807119 206 206 206 0
-3.085993 1.650648 18.762688 206 206 206 0
-3.006594 1.646468 18.715184 206 206 206 0
-2.933090 1.645392 18.702947 207 207 207 0
-2.862125 1.645722 18.706697 207 207 207 0
-2.792826 1.647051 18.721813 208 208 208 0
-2.716814 1.644388 18.691533 207 207 207 0
-2.643397 1.643193 18.677953 207 207 207 0
-2.568150 1.640763 18.650330 208 208 208 0
-2.494216 1.639056 18.630930 208 208 208 0
-2.421173 1.637853 18.617251 208 208 208 0
-2.347682 1.636263 18.599183 209 209 209 0
-2.275890 1.635796 18.593874 209 209 209 0
-2.207984 1.638182 18.620989 210 210 210 0
-2.135544 1.637251 18.610409 210 210 210 0
-2.059394 1.633312 18.565640 210 210 210 0
-1.988903 1.633742 18.570527 211 211 211 0
-1.919545 1.635168 18.586734 211 211 211 0
-1.848073 1.634834 18.582937 211 211 211 0
-1.776667 1.634534 18.579523 212 212 212 0
-1.705836 1.634759 18.582086 212 212 212 0
-1.633013 1.633013 18.562245 212 212 212 0
-1.562497 1.633520 18.568003 212 212 212 0
-1.492104 1.634210 18.575842 213 213 213 0
-1.420359 1.633413 18.566790 213 213 213 0
-1.351365 1.635863 18.594636 212 212 212 0
-1.280147 1.635743 18.593274 212 212 212 0
-1.207803 1.634086 18.574434 213 213 213 0
-1.137711 1.635460 18.590051 213 213 213 0
-1.067071 1.636175 18.598186 213 213 213 0
-0.995965 1.636228 18.598785 212 212 212 0
-0.925886 1.638106 18.620133 214 214 214 0
-0.855707 1.640106 18.642864 214 214 214 0
-0.784425 1.640162 18.643505 213 213 213 0
-0.713765 1.641660 18.660527 213 213 213 0
-0.642378 1.641633 18.660222 214 214 214 0
-0.571891 1.644187 18.689257 214 214 214 0
-0.500965 1.646028 18.710180 214 214 214 0
-0.429916 1.648013 18.732742 214 214 214 0
-0.358280 1.648086 18.733576 215 215 215 0
-0.286971 1.650081 18.756254 214 214 214 0
-0.215461 1.651871 18.776592 214 214 214 0
-0.143890 1.654731 18.809104 215 215 215 0
-0.071970 1.655320 18.815805 215 215 215 0
0.000000 1.658648 18.853627 214 214 214 0
0.072114 1.658626 18.853374 215 215 215 0
0.144524 1.662030 18.892070 214 214 214 0
0.217213 1.665299 18.929226 214 214 214 0
0.289805 1.666381 18.941530 215 215 215 0
0.362791 1.668837 18.969445 215 215 215 0
0.436445 1.673038 19.017201 214 214 214 0
0.509500 1.674073 19.028959 215 215 215 0
0.583774 1.678351 19.077587 215 215 215 0
0.657763 1.680951 19.107139 214 214 214 0
0.731898 1.683365 19.134584 215 215 215 0
0.807507 1.688423 19.192081 214 214 214 0
0.881585 1.689706 19.206655 214 214 214 0
0.958122 1.695138 19.268407 214 214 214 0
1.033561 1.697993 19.300855 214 214 214 0
1.109757 1.701628 19.342173 214 214 214 0
1.187123 1.706489 19.397432 215 215 215 0
1.263376 1.709274 19.429086 214 214 214 0
1.341412 1.714026 19.483105 214 214 214 0
1.420392 1.719422 19.544440 213 213 213 0
1.497845 1.722522 19.579671 213 213 213 0
1.579073 1.729461 19.658552 213 213 213 0
1.657428 1.732766 19.696118 213 213 213 0
1.741011 1.741011 19.789840 213 213 213 0
1.823139 1.747175 19.859899 214 214 214 0
1.903444 1.751169 19.905300 214 214 214 0
1.983452 1.754592 19.944210 213 213 213 0
2.070252 1.763548 20.046010 212 212 212 0
2.157400 1.772150 20.143787 212 212 212 0
2.245051 1.780558 20.239362 212 212 212 0
2.328922 1.785507 20.295618 212 212 212 0
2.419320 1.794979 20.403290 212 212 212 0
2.506770 1.801741 20.480145 211 211 211 0
2.598624 1.811162 20.587237 210 210 210 0
2.686827 1.817559 20.659952 210 210 210 0
2.788955 1.832742 20.832533 211 211 211 0
2.881127 1.840720 20.923220 210 210 210 0
2.979174 1.851919 21.050516 209 209 209 0
3.074791 1.861058 21.154393 208 208 208 0
3.187806 1.879988 21.369572 208 208 208 0
3.277968 1.884832 21.424629 209 209 209 0
3.391582 1.902595 21.626540 208 208 208 0
3.507728 1.920898 21.834595 207 207 207 0
3.623709 1.938263 22.031975 207 207 207 0
3.766933 1.969079 22.382254 206 206 206 0
4.775452 2.440787 27.744095 205 205 205 0
4.076421 2.038211 23.168065 204 204 204 0
4.246603 2.078125 23.621765 210 210 210 0
4.322885 2.071382 23.545125 214 214 214 0
4.408213 2.069161 23.519878 213 213 213 0
4.487427 2.064216 23.463670 211 211 211 0
4.577604 2.064410 23.465868 213 213 213 0
4.672047 2.066482 23.489427 212 212 212 0
4.775668 2.072460 23.557369 211 211 211 0
4.879883 2.078469 23.625674 211 211 211 0
4.969021 2.077954 23.619826 211 211 211 0
5.054754 2.076060 23.598293 211 211 211 0
5.128651 2.069456 23.523224 211 211 211 0
5.219761 2.069905 23.528335 210 210 210 0
5.308092 2.069256 23.520957 212 212 212 0
5.399308 2.069735 23.526395 211 211 211 0
5.483460 2.067534 23.501384 211 211 211 0
5.559508 2.062398 23.443002 211 211 211 0
5.658635 2.065851 23.482248 211 211 211 0
5.751340 2.066888 23.494037 211 211 211 0
5.824056 2.060820 23.425062 210 210 210 0
5.914200 2.061009 23.427212 209 209 209 0
5.998353 2.059136 23.405924 211 211 211 0
6.087281 2.058933 23.403620 211 211 211 0
6.180957 2.060319 23.419370 211 211 211 0
6.267102 2.059191 23.406544 210 210 210 0
6.364017 2.061583 23.433738 210 210 210 0
6.440344 2.057332 23.385418 210 210 210 0
6.531249 2.057791 23.390633 209 209 209 0
6.621918 2.058164 23.394869 210 210 210 0
6.710901 2.058010 23.393120 210 210 210 0
6.789954 2.054855 23.357256 210 210 210 0
6.873754 2.053199 23.338438 209 209 209 0
6.958966 2.052003 23.324839 210 210 210 0
7.054408 2.053815 23.345440 210 210 210 0
-6.541363 1.962409 21.377004 148 148 148 0
-6.416621 1.949353 21.234785 149 149 149 0
-6.269201 1.928985 21.012909 160 160 160 0
-6.131388 1.911082 20.817886 166 166 166 0
-5.974716 1.886753 20.552860 166 166 166 0
-5.850121 1.872039 20.392577 167 167 167 0
-5.764583 1.869595 20.365954 175 175 175 0
-5.650339 1.857646 20.235792 177 177 177 0
-5.565805 1.855268 20.209894 178 178 178 0
-5.470644 1.849232 20.144137 178 178 178 0
-5.352333 1.835086 19.990039 180 180 180 0
-5.247730 1.825297 19.883413 186 186 186 0
-5.137810 1.813345 19.753209 187 187 187 0
-5.048819 1.808532 19.700788 187 187 187 0
-4.956626 1.802409 19.634090 188 188 188 0
-4.889410 1.805321 19.665801 188 188 188 0
-4.801358 1.800509 19.613390 190 190 190 0
-4.697344 1.789464 19.493076 194 194 194 0
-4.594159 1.778384 19.372378 194 194 194 0
-4.505705 1.772737 19.310855 195 195 195 0
-4.428665 1.771466 19.297016 196 196 196 0
-4.351249 1.770000 19.281043 196 196 196 0
-4.277168 1.769862 19.279547 195 195 195 0
-4.183750 1.761579 19.189315 196 196 196 0
-4.098566 1.756528 19.134296 199 199 199 0
-4.007311 1.748645 19.048419 201 201 201 0
-3.927450 1.745533 19.014525 201 201 201 0
-3.852436 1.744499 19.003261 201 201 201 0
-3.781890 1.745488 19.014029 201 201 201 0
-3.706321 1.744151 18.999468 202 202 202 0
-3.620502 1.737841 18.930727 202 202 202 0
-3.535271 1.731562 18.862326 202 202 202 0
-3.461150 1.730575 18.851579 202 202 202 0
-3.378438 1.725160 18.792592 204 204 204 0
-3.309741 1.726821 18.810690 205 205 205 0
-3.234345 1.724984 18.790677 206 206 206 0
-3.161276 1.724332 18.783576 206 206 206 0
-3.083067 1.720782 18.744897 206 206 206 0
-3.005436 1.717392 18.707972 206 206 206 0
-2.929373 1.714755 18.679250 207 207 207 0
-2.858973 1.715384 18.686098 207 207 207 0
-2.783826 1.713124 18.661479 206 206 206 0
-2.714640 1.714509 18.676573 207 207 207 0
-2.637868 1.711050 18.638885 207 207 207 0
-2.566694 1.711130 18.639755 207 207 207 0
-2.491596 1.708523 18.611362 208 208 208 0
-2.416679 1.705891 18.582688 209 209 209 0
-2.345981 1.706168 18.585711 209 209 209 0
-2.275563 1.706673 18.591204 210 210 210 0
-2.202170 1.704906 18.571955 210 210 210 0
-2.132115 1.705692 18.580522 210 210 210 0
-2.058814 1.703846 18.560416 210 210 210 0
-1.987347 1.703440 18.555994 211 211 211 0
-1.917049 1.704043 18.562561 211 211 211 0
-1.846523 1.704483 18.567353 211 211 211 0
-1.774942 1.703945 18.561488 211 211 211 0
-1.704374 1.704374 18.566168 212 212 212 0
-1.631454 1.702387 18.544518 212 212 212 0
-1.561006 1.702916 18.550285 212 212 212 0
-1.490279 1.703176 18.553110 212 212 212 0
-1.419596 1.703516 18.556817 212 212 212 0
-1.350670 1.706109 18.585065 213 213 213 0
-1.278478 1.704637 18.569035 213 213 213 0
-1.207308 1.704435 18.566827 213 213 213 0
-1.136425 1.704638 18.569043 212 212 212 0
-1.065912 1.705459 18.577988 214 214 214 0
-0.996030 1.707480 18.600000 213 213 213 0
-0.924885 1.707480 18.600000 214 214 214 0
-0.854569 1.709138 18.618058 213 213 213 0
-0.783482 1.709415 18.621074 213 213 213 0
-0.712638 1.710332 18.631066 214 214 214 0
-0.642059 1.712158 18.650956 213 213 213 0
-0.570996 1.712989 18.660014 214 214 214 0
-0.500243 1.715117 18.683195 215 215 215 0
-0.429198 1.716792 18.701433 214 214 214 0
-0.357921 1.718019 18.714801 214 214 214 0
-0.286545 1.719271 18.728439 214 214 214 0
-0.215242 1.721935 18.757457 214 214 214 0
-0.143702 1.724427 18.784609 214 214 214 0
-0.071914 1.725932 18.801007 214 214 214 0
0.000000 1.728634 18.830440 215 215 215 0
0.072049 1.729186 18.836454 214 214 214 0
0.144341 1.732097 18.868157 214 214 214 0
0.216910 1.735284 18.902874 215 215 215 0
0.289534 1.737204 18.923791 214 214 214 0
0.362406 1.739551 18.949355 214 214 214 0
0.435929 1.743716 18.994725 214 214 214 0
0.508591 1.743740 18.994991 215 215 215 0
0.583009 1.749028 19.052594 215 215 215 0
0.657237 1.752632 19.091857 214 214 214 0
0.731296 1.755111 19.118856 215 215 215 0
0.805266 1.756944 19.138824 215 215 215 0
0.880167 1.760334 19.175755 214 214 214 0
0.956779 1.766360 19.241398 214 214 214 0
1.031930 1.769023 19.270401 214 214 214 0
1.109114 1.774582 19.330963 214 214 214 0
1.186371 1.779556 19.385142 214 214 214 0
1.261694 1.781215 19.403210 214 214 214 0
1.340673 1.787564 19.472380 214 214 214 0
1.417669 1.790740 19.506971 215 215 215 0
1.497137 1.796564 19.570413 214 214 214 0
1.574960 1.799954 19.607343 214 214 214 0
1.655667 1.806182 19.675190 213 213 213 0
1.739181 1.814798 19.769038 213 213 213 0
1.818290 1.818290 19.807084 214 214 214 0
1.898905 1.822948 19.857826 213 213 213 0
1.982341 1.829853 19.933042 213 213 213 0
2.067042 1.837371 20.014934 213 213 213 0
2.151679 1.844296 20.090372 212 212 212 0
2.238149 1.852261 20.177134 212 212 212 0
2.323681 1.858945 20.249945 212 212 212 0
2.413741 1.868703 20.356241 212 212 212 0
2.500227 1.875170 20.426693 212 212 212 0
2.588858 1.882806 20.509865 211 211 211 0
2.676351 1.889189 20.579398 210 210 210 0
2.779102 1.905670 20.758934 210 210 210 0
2.878838 1.919226 20.906597 210 210 210 0
2.964804 1.923116 20.948978 210 210 210 0
3.065677 1.936217 21.091686 209 209 209 0
3.174532 1.953558 21.280589 209 209 209 0
3.273837 1.964302 21.397628 209 209 209 0
3.384945 1.981431 21.584220 208 208 208 0
3.507244 2.004139 21.831582 207 207 207 0
4.457411 2.487857 27.100841 207 207 207 0
3.745293 2.042887 22.253671 206 206 206 0
3.878605 2.068589 22.533653 205 205 205 0
4.026638 2.100854 22.885124 205 205 205 0
4.232756 2.161407 23.544743 208 208 208 0
4.318027 2.159014 23.518666 214 214 214 0
4.401578 2.155875 23.484476 213 213 213 0
4.484702 2.152657 23.449420 212 212 212 0
4.574988 2.152935 23.452455 212 212 212 0
4.659521 2.150548 23.426448 212 212 212 0
4.763599 2.157101 23.497837 211 211 211 0
4.861973 2.160877 23.538965 212 212 212 0
4.960973 2.164788 23.581569 211 211 211 0
5.045122 2.162195 23.553325 211 211 211 0
5.120650 2.156063 23.486529 212 212 212 0
5.206766 2.154524 23.469757 211 211 211 0
5.304916 2.157932 23.506884 211 211 211 0
5.376662 2.150665 23.427719 210 210 210 0
5.465479 2.150352 23.424316 210 210 210 0
5.557565 2.151316 23.434811 211 211 211 0
5.642544 2.149541 23.415475 210 210 210 0
5.736593 2.151222 23.433796 211 211 211 0
5.818842 2.148495 23.404090 211 211 211 0
5.904813 2.147205 23.390031 210 210 210 0
5.988348 2.145080 23.366881 210 210 210 0
6.074445 2.143922 23.354268 211 211 211 0
6.165477 2.144514 23.360715 211 211 211 0
6.263032 2.147325 23.391341 210 210 210 0
6.346281 2.145222 23.368430 210 210 210 0
6.426171 2.142057 23.333956 211 211 211 0
6.512928 2.141237 23.325018 210 210 210 0
6.607522 2.142980 23.344012 211 211 211 0
6.695202 2.142465 23.338394 211 211 211 0
6.776704 2.140012 23.311674 210 210 210 0
6.857154 2.137295 23.282078 210 210 210 0
6.944125 2.136654 23.275095 210 210 210 0
7.038058 2.138144 23.291330 211 211 211 0
-6.524157 2.038799 21.320776 148 148 148 0
-6.406257 2.027297 21.200487 150 150 150 0
-6.253987 2.004483 20.961915 162 162 162 0
-6.129851 1.990211 20.812666 165 165 165 0
-5.956167 1.959265 20.489050 166 166 166 0
-5.851045 1.950348 20.395800 170 170 170 0
-5.736812 1.938112 20.267838 177 177 177 0
-5.647843 1.934193 20.226852 178 178 178 0
-5.555073 1.928845 20.170925 178 178 178 0
-5.450821 1.919303 20.071145 178 178 178 0
-5.348278 1.910099 19.974894 182 182 182 0
-5.234945 1.896719 19.834971 186 186 186 0
-5.129499 1.885845 19.721257 187 187 187 0
-5.033092 1.878019 19.639418 188 188 188 0
-4.950706 1.875267 19.610640 188 188 188 0
-4.871776 1.873760 19.594877 189 189 189 0
-4.794962 1.873032 19.587263 191 191 191 0
-4.691675 1.861776 19.469553 193 193 193 0
-4.598055 1.854054 19.388803 195 195 195 0
-4.505705 1.846601 19.310855 195 195 195 0
-4.419326 1.841386 19.256322 195 195 195 0
-4.336785 1.837621 19.216951 195 195 195 0
-4.267979 1.839646 19.238130 196 196 196 0
-4.180825 1.833695 19.175896 198 198 198 0
-4.091100 1.826384 19.099441 200 200 200 0
-4.001146 1.818703 19.019112 200 200 200 0
-3.921975 1.815729 18.988019 200 200 200 0
-3.848181 1.815180 18.982271 201 201 201 0
-3.775220 1.815010 18.980492 201 201 201 0
-3.698710 1.813093 18.960454 202 202 202 0
-3.621031 1.810515 18.933494 202 202 202 0
-3.530902 1.801481 18.839015 201 201 201 0
-3.455077 1.799519 18.818501 204 204 204 0
-3.373476 1.794402 18.764989 205 205 205 0
-3.305572 1.796507 18.786998 206 206 206 0
-3.228345 1.793525 18.755816 206 206 206 0
-3.156467 1.793447 18.755001 206 206 206 0
-3.080904 1.791223 18.731747 206 206 206 0
-3.000761 1.786167 18.678873 206 206 206 0
-2.925696 1.783961 18.655803 206 206 206 0
-2.854175 1.783859 18.654739 207 207 207 0
-2.781606 1.783081 18.646599 207 207 207 0
-2.711423 1.783831 18.654440 207 207 207 0
-2.634653 1.780171 18.616166 208 208 208 0
-2.559778 1.777624 18.589530 208 208 208 0
-2.485257 1.775184 18.564013 209 209 209 0
-2.415078 1.775793 18.570380 210 210 210 0
-2.342569 1.774673 18.558675 210 210 210 0
-2.274113 1.776651 18.579352 210 210 210 0
-2.201351 1.775283 18.565054 210 210 210 0
-2.130901 1.775751 18.569943 210 210 210 0
-2.054666 1.771264 18.523019 210 210 210 0
-1.984018 1.771444 18.524908 211 211 211 0
-1.913458 1.771720 18.527790 211 211 211 0
-1.844500 1.773557 18.547006 211 211 211 0
-1.771573 1.771573 18.526250 212 212 212 0
-1.700724 1.771587 18.526403 212 212 212 0
-1.629771 1.771491 18.525393 212 212 212 0
-1.560177 1.772928 18.540428 212 212 212 0
-1.489096 1.772733 18.538387 212 212 212 0
-1.417872 1.772341 18.534281 212 212 212 0
-1.347909 1.773565 18.547082 213 213 213 0
-1.277082 1.773724 18.548751 213 213 213 0
-1.205259 1.772440 18.535316 213 213 213 0
-1.135896 1.774838 18.560398 213 213 213 0
-1.064497 1.774161 18.553320 213 213 213 0
-0.993946 1.774904 18.561086 213 213 213 0
-0.923929 1.776787 18.580784 213 213 213 0
-0.853084 1.777258 18.585702 213 213 213 0
-0.782543 1.778508 18.598773 214 214 214 0
-0.711970 1.779926 18.613604 214 214 214 0
-0.641039 1.780664 18.621323 214 214 214 0
-0.570373 1.782416 18.639643 214 214 214 0
-0.499604 1.784300 18.659351 214 214 214 0
-0.429079 1.787827 18.696231 214 214 214 0
-0.357377 1.786887 18.686399 214 214 214 0
-0.285950 1.787186 18.689530 214 214 214 0
-0.214985 1.791544 18.735096 214 214 214 0
-0.143609 1.795108 18.772376 214 214 214 0
-0.071834 1.795861 18.780250 215 215 215 0
0.000000 1.797590 18.798325 214 214 214 0
0.071952 1.798789 18.810863 214 214 214 0
0.144098 1.801228 18.836367 215 215 215 0
0.216500 1.804168 18.867117 214 214 214 0
0.289053 1.806583 18.892369 214 214 214 0
0.362055 1.810274 18.930967 215 215 215 0
0.435239 1.813496 18.964666 214 214 214 0
0.508337 1.815490 18.985521 214 214 214 0
0.582200 1.819376 19.026156 215 215 215 0
0.655990 1.822195 19.055631 215 215 215 0
0.729304 1.823259 19.066762 215 215 215 0
0.804990 1.829523 19.132271 215 215 215 0
0.879553 1.832403 19.162384 214 214 214 0
0.955299 1.837113 19.211641 215 215 215 0
1.030822 1.840754 19.249719 214 214 214 0
1.107078 1.845130 19.295481 214 214 214 0
1.182940 1.848343 19.329081 215 215 215 0
1.261646 1.855362 19.402479 214 214 214 0
1.338423 1.858920 19.439691 215 215 215 0
1.417485 1.865112 19.504436 215 215 215 0
1.494471 1.868088 19.535566 214 214 214 0
1.572281 1.871763 19.573989 214 214 214 0
1.653659 1.879158 19.651322 213 213 213 0
1.733719 1.884478 19.706955 213 213 213 0
1.815287 1.890924 19.774364 214 214 214 0
1.896139 1.896139 19.828901 213 213 213 0
1.980406 1.904236 19.913583 213 213 213 0
2.062825 1.910024 19.974103 213 213 213 0
2.148135 1.917978 20.057287 212 212 212 0
2.237205 1.928625 20.168631 212 212 212 0
2.320766 1.933972 20.224544 212 212 212 0
2.409500 1.943145 20.320474 212 212 212 0
2.495989 1.949991 20.392065 212 212 212 0
2.590477 1.962482 20.522690 212 212 212 0
2.677897 1.969042 20.591286 210 210 210 0
2.771646 1.979747 20.703241 210 210 210 0
2.865839 1.990166 20.812193 211 211 211 0
2.959584 1.999719 20.912093 211 211 211 0
3.062295 2.014668 21.068421 209 209 209 0
3.169371 2.031648 21.245996 209 209 209 0
3.272663 2.045414 21.389952 209 209 209 0
3.377656 2.059546 21.537739 209 209 209 0
3.494816 2.080248 21.754226 207 207 207 0
3.614519 2.101464 21.976099 207 207 207 0
3.730641 2.119682 22.166613 206 206 206 0
3.859639 2.144244 22.423466 205 205 205 0
4.009781 2.179229 22.789321 204 204 204 0
4.223774 2.246688 23.494781 209 209 209 0
4.310785 2.245201 23.479222 214 214 214 0
4.394561 2.242123 23.447038 212 212 212 0
4.478232 2.239116 23.415592 212 212 212 0
4.551791 2.231270 23.333545 211 211 211 0
4.651272 2.236188 23.384977 211 211 211 0
4.750153 2.240638 23.431511 212 212 212 0
4.854251 2.247338 23.501578 212 212 212 0
4.951080 2.250491 23.534545 212 212 212 0
5.036908 2.248620 23.514978 211 211 211 0
5.115109 2.243469 23.461114 211 211 211 0
5.201227 2.241908 23.444793 211 211 211 0
5.290547 2.241757 23.443214 210 210 210 0
5.371162 2.237984 23.403756 211 211 211 0
5.455140 2.235713 23.380005 211 211 211 0
5.540248 2.233971 23.361790 210 210 210 0
5.630378 2.234277 23.364988 210 210 210 0
5.721872 2.235106 23.373660 210 210 210 0
5.806821 2.233393 23.355739 210 210 210 0
5.892658 2.232067 23.341880 210 210 210 0
5.975312 2.229594 23.316015 210 210 210 0
6.063042 2.229059 23.310426 211 211 211 0
6.157910 2.231127 23.332046 210 210 210 0
6.252214 2.232934 23.350940 210 210 210 0
6.329755 2.228787 23.307576 210 210 210 0
6.415508 2.227607 23.295235 210 210 210 0
6.504769 2.227661 23.295798 211 211 211 0
6.591830 2.226970 23.288573 210 210 210 0
6.680221 2.226740 23.286173 210 210 210 0
6.767411 2.226122 23.279709 210 210 210 0
6.845764 2.222651 23.243404 210 210 210 0
6.931413 2.221607 23.232489 211 211 211 0
7.020913 2.221808 23.234594 209 209 209 0
-6.497122 2.111565 21.232424 148 148 148 0
-6.394839 2.104631 21.162702 153 153 153 0
-6.242977 2.080992 20.925012 164 164 164 0
-6.108535 2.062622 20.740293 164 164 164 0
-5.954141 2.036943 20.482082 166 166 166 0
-5.814057 2.015540 20.266865 173 173 173 0
-5.716724 2.008579 20.196869 177 177 177 0
-5.638225 2.008135 20.192409 178 178 178 0
-5.556979 2.006687 20.177847 178 178 178 0
-5.460334 1.999559 20.106172 180 180 180 0
-5.353177 1.988323 19.993190 184 184 184 0
-5.223532 1.968287 19.791728 186 186 186 0
-5.109970 1.953812 19.646173 187 187 187 0
-5.031833 1.952652 19.634506 188 188 188 0
-4.946910 1.948783 19.595605 188 188 188 0
-4.873119 1.949248 19.600279 189 189 189 0
-4.777537 1.940875 19.516084 194 194 194 0
-4.682939 1.932642 19.433300 194 194 194 0
-4.589121 1.924470 19.351131 195 195 195 0
-4.493244 1.915153 19.257449 195 195 195 0
-4.411962 1.911850 19.224234 194 194 194 0
-4.336290 1.910908 19.214757 195 195 195 0
-4.258658 1.909054 19.196116 196 196 196 0
-4.178937 1.906182 19.167239 199 199 199 0
-4.090404 1.899116 19.096191 200 200 200 0
-4.001437 1.891588 19.020496 200 200 200 0
-3.922054 1.888396 18.988398 200 200 200 0
-3.844218 1.885843 18.962721 201 201 201 0
-3.764677 1.882338 18.927484 201 201 201 0
-3.690130 1.881243 18.916469 201 201 201 0
-3.613621 1.879083 18.894752 201 201 201 0
-3.531429 1.873819 18.841823 203 203 203 0
-3.449070 1.868246 18.785783 205 205 205 0
-3.374158 1.866556 18.768786 205 205 205 0
-3.300345 1.865413 18.757291 205 205 205 0
-3.232999 1.867955 18.782858 205 205 205 0
-3.154302 1.863906 18.742139 206 206 206 0
-3.077409 1.860759 18.710496 206 206 206 0
-3.001791 1.858252 18.685288 206 206 206 0
-2.920722 1.852165 18.624084 206 206 206 0
-2.848476 1.851510 18.617492 206 206 206 0
-2.777067 1.851378 18.616171 207 207 207 0
-2.704085 1.850163 18.603956 208 208 208 0
-2.629158 1.847517 18.577341 209 209 209 0
-2.558284 1.847650 18.578681 209 209 209 0
-2.487163 1.847607 18.578246 209 209 209 0
-2.410223 1.843111 18.533046 210 210 210 0
-2.340847 1.844303 18.545032 210 210 210 0
-2.268227 1.842935 18.531270 210 210 210 0
-2.199445 1.844695 18.548973 210 210 210 0
-2.127306 1.843665 18.538616 210 210 210 0
-2.053365 1.840948 18.511294 211 211 211 0
-1.982395 1.840796 18.509762 211 211 211 0
-1.911761 1.840955 18.511362 211 211 211 0
-1.841719 1.841719 18.519042 211 211 211 0
-1.770908 1.841744 18.519296 212 212 212 0
-1.699416 1.841034 18.512157 211 211 211 0
-1.629478 1.842018 18.522054 212 212 212 0
-1.557469 1.840645 18.508247 212 212 212 0
-1.487763 1.841992 18.521793 213 213 213 0
-1.416170 1.841021 18.512027 213 213 213 0
-1.346463 1.842528 18.527180 213 213 213 0
-1.275208 1.841968 18.521544 213 213 213 0
-1.204485 1.842154 18.523417 213 213 213 0
-1.134208 1.843088 18.532810 214 214 214 0
-1.064350 1.844873 18.550756 214 214 214 0
-0.993890 1.845796 18.560044 214 214 214 0
-0.922443 1.844886 18.550889 214 214 214 0
-0.852812 1.847758 18.579772 213 213 213 0
-0.782548 1.849658 18.598878 214 214 214 0
-0.711262 1.849282 18.595095 214 214 214 0
-0.640642 1.850743 18.609785 215 215 215 0
-0.569791 1.851822 18.620634 214 214 214 0
-0.499064 1.853666 18.639175 214 214 214 0
-0.428120 1.855185 18.654448 214 214 214 0
-0.357081 1.856823 18.670925 214 214 214 0
-0.286035 1.859230 18.695122 215 215 215 0
-0.214673 1.860499 18.707878 214 214 214 0
-0.143323 1.863199 18.735034 215 215 215 0
-0.071778 1.866225 18.765459 214 214 214 0
0.000000 1.867477 18.778047 214 214 214 0
0.071885 1.869005 18.793409 215 215 215 0
0.143917 1.870926 18.812734 215 215 215 0
0.216353 1.875059 18.854287 215 215 215 0
0.288968 1.878290 18.886778 214 214 214 0
0.361782 1.881266 18.916702 214 214 214 0
0.434678 1.883607 18.940237 214 214 214 0
0.507705 1.885761 18.961902 215 215 215 0
0.581927 1.891263 19.017228 215 215 215 0
0.655594 1.893938 19.044120 214 214 214 0
0.729501 1.896702 19.071915 215 215 215 0
0.803850 1.900009 19.105166 215 215 215 0
0.878744 1.903945 19.144746 215 215 215 0
0.953390 1.906780 19.173250 214 214 214 0
1.029981 1.912821 19.233997 214 214 214 0
1.105811 1.916739 19.273389 214 214 214 0
1.181444 1.919846 19.304640 215 215 215 0
1.259289 1.925971 19.366222 214 214 214 0
1.337311 1.931671 19.423541 214 214 214 0
1.415577 1.937106 19.478188 214 214 214 0
1.493391 1.941409 19.521455 214 214 214 0
1.571905 1.946168 19.569310 214 214 214 0
1.649443 1.949342 19.601229 214 214 214 0
1.734536 1.960780 19.716242 213 213 213 0
1.813562 1.964692 19.755577 213 213 213 0
1.894941 1.970738 19.816374 213 213 213 0
1.977764 1.977764 19.887019 214 214 214 0
2.060082 1.983783 19.947537 214 214 214 0
2.148407 1.994950 20.059826 212 212 212 0
2.233753 2.002675 20.137507 212 212 212 0
2.319238 2.010007 20.211227 213 213 213 0
2.407795 2.019441 20.306095 212 212 212 0
2.493862 2.026263 20.374689 213 213 213 0
2.584931 2.036613 20.478760 212 212 212 0
2.673156 2.044178 20.554832 210 210 210 0
2.769771 2.057544 20.689234 212 212 212 0
2.864717 2.068962 20.804046 211 211 211 0
2.957712 2.078392 20.898866 210 210 210 0
3.054154 2.089684 21.012411 209 209 209 0
3.167746 2.111831 21.235100 209 209 209 0
3.267328 2.123763 21.355085 208 208 208 0
3.372777 2.138834 21.506630 209 209 209 0
3.493756 2.162801 21.747626 208 208 208 0
3.605137 2.179850 21.919059 207 207 207 0
3.722990 2.199948 22.121150 206 206 206 0
4.725154 2.730089 27.451873 206 206 206 0
3.992407 2.256578 22.690578 206 206 206 0
4.205559 2.326479 23.393458 204 204 204 0
4.300700 2.329546 23.424291 214 214 214 0
4.385381 2.326937 23.398060 214 214 214 0
4.468092 2.323408 23.362571 213 213 213 0
4.549245 2.319223 23.320491 213 213 213 0
4.635692 2.317846 23.306648 211 211 211 0
4.738436 2.324516 23.373715 212 212 212 0
4.844362 2.332471 23.453703 211 211 211 0
4.938417 2.334524 23.474353 212 212 212 0
5.013547 2.327718 23.405913 211 211 211 0
5.106647 2.329348 23.422301 210 210 210 0
5.185038 2.324327 23.371818 210 210 210 0
5.278105 2.325945 23.388082 211 211 211 0
5.371877 2.327813 23.406870 211 211 211 0
5.449322 2.322662 23.355073 211 211 211 0
5.527886 2.318146 23.309659 211 211 211 0
5.615319 2.317433 23.302496 211 211 211 0
5.711558 2.320320 23.331526 210 210 210 0
5.798722 2.319489 23.323164 211 211 211 0
5.878246 2.315673 23.284793 211 211 211 0
5.963330 2.314128 23.269260 210 210 210 0
6.048387 2.312619 23.254084 210 210 210 0
6.148316 2.316757 23.295694 210 210 210 0
6.234306 2.315600 23.284058 210 210 210 0
6.322030 2.315110 23.279131 210 210 210 0
6.406197 2.313349 23.261426 212 212 212 0
6.486890 2.310399 23.231766 211 211 211 0
6.576607 2.310700 23.234788 210 210 210 0
6.672160 2.313015 23.258073 210 210 210 0
6.760874 2.312931 23.257221 210 210 210 0
6.832800 2.307179 23.199390 210 210 210 0
6.919748 2.306583 23.193389 210 210 210 0
7.012777 2.308003 23.207667 210 210 210 0
-6.484951 2.188671 21.192651 148 148 148 0
-6.360384 2.173802 21.048676 156 156 156 0
-6.239389 2.159788 20.912984 164 164 164 0
-6.095799 2.137488 20.697051 164 164 164 0
-5.961990 2.118075 20.509082 166 166 166 0
-5.816179 2.093825 20.274263 174 174 174 0
-5.717038 2.085946 20.197981 176 176 176 0
-5.628834 2.081898 20.158775 178 178 178 0
-5.537552 2.076582 20.107307 179 179 179 0
-5.441292 2.069224 20.036058 180 180 180 0
-5.329948 2.055837 19.906435 186 186 186 0
-5.221607 2.043238 19.784436 187 187 187 0
-5.097483 2.024000 19.598165 187 187 187 0
-5.020020 2.022993 19.588412 187 187 187 0
-4.940199 2.020990 19.569019 187 187 187 0
-4.861858 2.019541 19.554986 191 191 191 0
-4.772676 2.013473 19.496225 194 194 194 0
-4.673935 2.003115 19.395933 194 194 194 0
-4.585221 1.996790 19.334689 195 195 195 0
-4.489482 1.987148 19.241325 194 194 194 0
-4.406950 1.983127 19.202396 195 195 195 0
-4.329540 1.981315 19.184846 195 195 195 0
-4.252992 1.979841 19.170573 197 197 197 0
-4.164664 1.972735 19.101771 200 200 200 0
-4.081314 1.967776 19.053752 200 200 200 0
-4.000168 1.963719 19.014465 200 200 200 0
-3.909441 1.954720 18.927333 201 201 201 0
-3.836392 1.954388 18.924117 201 201 201 0
-3.759819 1.952214 18.903060 201 201 201 0
-3.689085 1.953045 18.911110 201 201 201 0
-3.610239 1.949529 18.877066 202 202 202 0
-3.524642 1.942150 18.805613 204 204 204 0
-3.447105 1.938997 18.775083 204 204 204 0
-3.370216 1.936082 18.746856 205 205 205 0
-3.295008 1.934026 18.726956 205 205 205 0
-3.226154 1.935693 18.743091 206 206 206 0
-3.150921 1.933520 18.722050 206 206 206 0
-3.071814 1.928813 18.676477 205 205 205 0
-2.993870 1.924631 18.635977 206 206 206 0
-2.919536 1.922621 18.616522 206 206 206 0
-2.846309 1.921258 18.603324 206 206 206 0
-2.774869 1.921063 18.601435 207 207 207 0
-2.705255 1.922155 18.612007 209 209 209 0
-2.630035 1.919215 18.583536 209 209 209 0
-2.558209 1.918657 18.578132 209 209 209 0
-2.479288 1.912594 18.519427 209 209 209 0
-2.409162 1.913158 18.524887 210 210 210 0
-2.340829 1.915224 18.544895 210 210 210 0
-2.268206 1.913799 18.531092 210 210 210 0
-2.199453 1.915652 18.549041 211 211 211 0
-2.123552 1.911197 18.505897 211 211 211 0
-2.050627 1.909204 18.486605 211 211 211 0
-1.980913 1.910166 18.495916 211 211 211 0
-1.909508 1.909508 18.489548 211 211 211 0
-1.839711 1.910469 18.498854 211 211 211 0
-1.768395 1.909866 18.493016 212 212 212 0
-1.697367 1.909538 18.489842 212 212 212 0
-1.625661 1.908384 18.478666 212 212 212 0
-1.555670 1.909232 18.486870 213 213 213 0
-1.484636 1.908817 18.482859 212 212 212 0
-1.415122 1.910415 18.498333 213 213 213 0
-1.344940 1.911230 18.506222 212 212 212 0
-1.275604 1.913406 18.527293 213 213 213 0
-1.204061 1.912332 18.516889 213 213 213 0
-1.132703 1.911437 18.508224 213 213 213 0
-1.062704 1.912867 18.522073 213 213 213 0
-0.992294 1.913710 18.530237 213 213 213 0
-0.922277 1.915498 18.547545 214 214 214 0
-0.852044 1.917100 18.563056 214 214 214 0
-0.781283 1.917694 18.568810 214 214 214 0
-0.710900 1.919429 18.585612 214 214 214 0
-0.640236 1.920708 18.597993 214 214 214 0
-0.568830 1.919801 18.589213 214 214 214 0
-0.498543 1.922952 18.619719 214 214 214 0
-0.427579 1.924107 18.630904 214 214 214 0
-0.356638 1.925848 18.647764 214 214 214 0
-0.285686 1.928382 18.672304 214 214 214 0
-0.214358 1.929218 18.680399 214 214 214 0
-0.143167 1.932748 18.714580 215 215 215 0
-0.071685 1.935505 18.741273 215 215 215 0
0.000000 1.937379 18.759417 215 215 215 0
0.071873 1.940570 18.790313 215 215 215 0
0.143773 1.940932 18.793822 215 215 215 0
0.215993 1.943938 18.822925 215 215 215 0
0.288553 1.947731 18.859654 215 215 215 0
0.361210 1.950533 18.886790 215 215 215 0
0.433972 1.952873 18.909442 214 214 214 0
0.507420 1.957192 18.951268 215 215 215 0
0.581388 1.962185 18.999614 215 215 215 0
0.654991 1.964974 19.026618 215 215 215 0
0.728964 1.968204 19.057895 215 215 215 0
0.802900 1.970755 19.082593 215 215 215 0
0.877197 1.973693 19.111041 215 215 215 0
0.952366 1.977991 19.152662 214 214 214 0
