ply
format ascii 1.0
element vertex 1133
property float x
property float y
property float z
property uchar red
property uchar green
property uchar blue
property uchar alpha
end_header
4.074837 2.078999 21.741161 211 211 211 0
4.157372 2.078686 21.737895 211 211 211 0
4.226962 2.072040 21.668392 210 210 210 0
4.312995 2.073555 21.684237 211 211 211 0
4.398183 2.074615 21.695317 212 212 212 0
4.470238 2.069555 21.642401 211 211 211 0
4.539559 2.063436 21.578416 211 211 211 0
4.617274 2.061283 21.555900 211 211 211 0
4.694900 2.059167 21.533770 211 211 211 0
4.776415 2.058800 21.529932 211 211 211 0
4.853092 2.056395 21.504785 211 211 211 0
4.916913 2.048714 21.424455 211 211 211 0
5.002929 2.050381 21.441888 210 210 210 0
5.073265 2.045671 21.392642 211 211 211 0
5.148043 2.042874 21.363391 211 211 211 0
5.232665 2.044010 21.375265 211 211 211 0
5.302828 2.039549 21.328619 211 211 211 0
5.385578 2.039992 21.333247 211 211 211 0
5.442989 2.030966 21.238862 211 211 211 0
5.520826 2.029715 21.225781 211 211 211 0
5.602371 2.029845 21.227132 211 211 211 0
5.680657 2.028806 21.216272 211 211 211 0
5.755912 2.026730 21.194558 211 211 211 0
5.831975 2.024991 21.176380 211 211 211 0
5.901836 2.021177 21.136489 212 212 212 0
5.971833 2.017511 21.098156 212 212 212 0
6.049328 2.016443 21.086981 212 212 212 0
6.125658 2.015019 21.072095 212 212 212 0
6.196072 2.011712 21.037507 212 212 212 0
6.268393 2.009100 21.010200 212 212 212 0
6.332879 2.004076 20.957654 211 211 211 0
-6.328996 2.886910 29.028762 77 77 77 0
-6.088042 2.826591 28.422232 108 108 108 0
-5.871446 2.775592 27.909426 129 129 129 0
-5.716023 2.752159 27.673798 143 143 143 0
-5.540839 2.718148 27.331800 135 135 135 0
-5.327252 2.663626 26.783568 80 80 80 0
-5.158955 2.630056 26.446010 180 180 180 0
-5.006113 2.603179 26.175756 202 202 202 0
-4.905499 2.602918 26.173130 202 202 202 0
-4.804444 2.602407 26.167993 202 202 202 0
-4.702851 2.601577 26.159649 203 203 203 0
-4.603967 2.602242 26.166336 203 203 203 0
-4.492921 2.595910 26.102666 203 203 203 0
-4.360530 2.576677 25.909269 194 194 194 0
-4.251483 2.570664 25.848811 189 189 189 0
-4.137588 2.561364 25.755295 190 190 190 0
-4.027513 2.554033 25.681574 191 191 191 0
-3.911112 2.542223 25.562822 192 192 192 0
-3.809620 2.539747 25.537925 193 193 193 0
-3.704183 2.534441 25.484576 193 193 193 0
-3.604613 2.532971 25.469794 194 194 194 0
-3.513967 2.537865 25.519003 196 196 196 0
-3.392872 2.520419 25.343584 197 197 197 0
-3.299201 2.522918 25.368710 197 197 197 0
-3.194579 2.516941 25.308606 198 198 198 0
-3.090083 2.510692 25.245775 198 198 198 0
-2.998997 2.515287 25.291981 200 200 200 0
-2.900551 2.513811 25.277137 200 200 200 0
-2.786302 2.498064 25.118789 201 201 201 0
-2.692797 2.500454 25.142825 202 202 202 0
-2.599810 2.503520 25.173658 201 201 201 0
-2.497285 2.497285 25.110956 202 202 202 0
-2.391334 2.486987 25.007416 202 202 202 0
-2.301529 2.493323 25.071120 202 202 202 0
-2.203184 2.490555 25.043291 204 204 204 0
-2.099663 2.481420 24.951434 205 205 205 0
-2.010116 2.488715 25.024785 205 205 205 0
-1.915166 2.489716 25.034849 205 205 205 0
-1.822436 2.493860 25.076520 205 205 205 0
-1.721197 2.486173 24.999227 205 205 205 0
-1.623387 2.482827 24.965583 205 205 205 0
-1.530233 2.486628 25.003800 206 206 206 0
-1.435060 2.487437 25.011933 207 207 207 0
-1.343943 2.495894 25.096974 207 207 207 0
-1.245128 2.490255 25.040274 208 208 208 0
-1.148691 2.488831 25.025951 208 208 208 0
-1.049170 2.479856 24.935709 204 204 204 0
-0.951923 2.475000 24.886875 200 200 200 0
-0.856010 2.472919 24.865952 201 201 201 0
-0.757996 2.463485 24.771095 200 200 200 0
-0.661463 2.456863 24.704508 201 201 201 0
-0.567063 2.457274 24.708634 200 200 200 0
-0.471820 2.453466 24.670347 200 200 200 0
-0.377420 2.453233 24.668002 202 202 202 0
-0.282647 2.449605 24.631521 203 203 203 0
-0.187933 2.443125 24.566363 203 203 203 0
-0.093750 2.437503 24.509831 203 203 203 0
0.000000 2.425939 24.393557 186 186 186 0
0.091838 2.387787 24.009927 74 74 74 0
0.124559 1.619269 16.282240 75 75 75 0
0.247436 2.144448 21.563074 72 72 72 0
0.257223 1.671948 16.811941 76 76 76 0
0.358128 1.862268 18.725670 77 77 77 0
0.482178 2.089436 21.009915 87 87 87 0
0.546942 2.031500 20.427349 85 85 85 0
0.665896 2.164163 21.761313 66 66 66 0
0.660667 1.908595 19.191498 82 82 82 0
0.748792 1.946858 19.576254 85 85 85 0
0.829159 1.959831 19.706693 84 84 84 0
0.956447 2.072301 20.837617 144 144 144 0
1.032506 2.065011 20.764316 211 211 211 0
1.113904 2.068679 20.801200 214 214 214 0
1.193806 2.069263 20.807074 214 214 214 0
1.274430 2.070949 20.824019 214 214 214 0
1.358499 2.077705 20.891952 214 214 214 0
1.442965 2.084283 20.958098 214 214 214 0
1.524873 2.086668 20.982085 215 215 215 0
1.607763 2.090092 21.016514 214 214 214 0
1.687322 2.089066 21.006191 214 214 214 0
1.773517 2.095974 21.075661 215 215 215 0
1.864785 2.108017 21.196756 214 214 214 0
1.950599 2.113149 21.248352 214 214 214 0
2.030526 2.111747 21.234254 214 214 214 0
2.111322 2.111322 21.229983 214 214 214 0
2.200670 2.119164 21.308835 215 215 215 0
2.284055 2.120909 21.326381 214 214 214 0
2.370457 2.125237 21.369906 215 215 215 0
2.456921 2.129331 21.411075 215 215 215 0
2.542291 2.132244 21.440363 215 215 215 0
2.632278 2.138726 21.505536 215 215 215 0
2.718311 2.141700 21.535443 214 214 214 0
2.803075 2.143528 21.553823 214 214 214 0
2.889542 2.146517 21.583878 215 215 215 0
2.982650 2.154136 21.660495 215 215 215 0
3.077815 2.162789 21.747503 215 215 215 0
3.166346 2.166447 21.784285 214 214 214 0
3.245610 2.163740 21.757065 215 215 215 0
3.341772 2.172152 21.841649 214 214 214 0
3.439809 2.181342 21.934058 215 215 215 0
3.526352 2.182980 21.950524 213 213 213 0
3.608909 2.182131 21.941992 212 212 212 0
3.681304 2.175316 21.873462 195 195 195 0
3.756087 2.170183 21.821854 210 210 210 0
3.841658 2.171372 21.833804 211 211 211 0
3.917848 2.167320 21.793061 210 210 210 0
3.995931 2.164463 21.764332 212 212 212 0
4.076170 2.162866 21.748272 212 212 212 0
4.148528 2.157235 21.691649 212 212 212 0
4.235470 2.159259 21.712009 211 211 211 0
4.314370 2.157185 21.691151 211 211 211 0
4.390341 2.153752 21.656632 211 211 211 0
4.473001 2.153667 21.655776 211 211 211 0
4.544462 2.148291 21.601721 211 211 211 0
4.609891 2.140307 21.521435 211 211 211 0
4.695671 2.141885 21.537307 210 210 210 0
4.779735 2.142640 21.544893 210 210 210 0
4.853477 2.138820 21.506488 211 211 211 0
4.933096 2.137675 21.494973 211 211 211 0
4.998705 2.130596 21.423786 211 211 211 0
5.077013 2.129070 21.408447 211 211 211 0
5.152939 2.126610 21.383708 211 211 211 0
5.232185 2.125575 21.373303 211 211 211 0
5.302166 2.120866 21.325957 211 211 211 0
5.384053 2.120991 21.327206 211 211 211 0
5.461250 2.119291 21.310118 212 212 212 0
5.516555 2.109271 21.209360 211 211 211 0
5.605755 2.112314 21.239956 210 210 210 0
5.686369 2.112080 21.237604 211 211 211 0
5.763616 2.110620 21.222927 211 211 211 0
5.829680 2.105162 21.168048 212 212 212 0
5.896155 2.100000 21.116143 212 212 212 0
5.974110 2.099011 21.106199 211 211 211 0
6.048272 2.096734 21.083301 212 212 212 0
6.127409 2.096219 21.078120 212 212 212 0
6.204903 2.095162 21.067491 211 211 211 0
6.269469 2.089823 21.013807 211 211 211 0
6.334467 2.084761 20.962908 211 211 211 0
-6.109141 2.945479 28.520734 97 97 97 0
-5.914622 2.903541 28.114660 125 125 125 0
-5.748401 2.874200 27.830552 138 138 138 0
-5.529371 2.816849 27.275229 114 114 114 0
-5.307237 2.755681 26.682939 77 77 77 0
-5.149014 2.725948 26.395046 185 185 185 0
-4.996745 2.698242 26.126770 202 202 202 0
-4.897025 2.698361 26.127917 202 202 202 0
-4.805231 2.702942 26.172282 202 202 202 0
-4.707115 2.704087 26.183368 203 203 203 0
-4.619308 2.711333 26.253528 203 203 203 0
-4.502321 2.701393 26.157277 203 203 203 0
-4.388939 2.693213 26.078071 203 203 203 0
-4.252488 2.670167 25.854919 193 193 193 0
-4.133118 2.657004 25.727468 191 191 191 0
-4.034795 2.657060 25.728007 192 192 192 0
-3.915689 2.643090 25.592738 192 192 192 0
-3.797185 2.628820 25.454567 192 192 192 0
-3.723833 2.645882 25.619768 194 194 194 0
-3.613694 2.637020 25.533965 194 194 194 0
-3.513973 2.635480 25.519048 196 196 196 0
-3.410808 2.631195 25.477556 196 196 196 0
-3.301194 2.621537 25.384038 198 198 198 0
-3.203100 2.620718 25.376111 198 198 198 0
-3.097707 2.613690 25.308060 198 198 198 0
-2.998854 2.611905 25.290774 198 198 198 0
-2.899722 2.609750 25.269908 201 201 201 0
-2.804224 2.610829 25.280358 200 200 200 0
-2.687507 2.591524 25.093434 201 201 201 0
-2.597771 2.597771 25.153917 201 201 201 0
-2.502558 2.598810 25.163978 202 202 202 0
-2.399138 2.591069 25.089028 203 203 203 0
-2.297645 2.584851 25.028813 203 203 203 0
-2.201183 2.583998 25.020556 203 203 203 0
-2.105627 2.584179 25.022311 204 204 204 0
-2.012812 2.587901 25.058346 204 204 204 0
-1.918339 2.589758 25.076330 205 205 205 0
-1.826176 2.595092 25.127976 206 206 206 0
-1.723688 2.585533 25.035417 206 206 206 0
-1.625894 2.582303 25.004142 207 207 207 0
-1.531440 2.584305 25.023530 206 206 206 0
-1.437645 2.587762 25.056998 207 207 207 0
-1.336447 2.577433 24.956990 208 208 208 0
-1.248597 2.593239 25.110036 208 208 208 0
-1.148657 2.584478 25.025204 205 205 205 0
-1.048412 2.573376 24.917706 200 200 200 0
-0.952443 2.571596 24.900471 201 201 201 0
-0.853954 2.561862 24.806216 200 200 200 0
-0.758458 2.559795 24.786198 200 200 200 0
-0.660403 2.547270 24.664920 200 200 200 0
-0.566378 2.548700 24.678769 200 200 200 0
-0.471300 2.545021 24.643150 200 200 200 0
-0.377087 2.545336 24.646201 202 202 202 0
-0.282652 2.543870 24.632003 203 203 203 0
-0.187507 2.531341 24.510685 203 203 203 0
-0.093794 2.532428 24.521212 203 203 203 0
0.000000 2.522140 24.421594 192 192 192 0
0.089993 2.429806 23.527538 93 93 93 0
0.169675 2.290618 22.179790 87 87 87 0
0.210075 1.890677 18.307206 76 76 76 0
0.306445 2.068503 20.029082 79 79 79 0
0.310234 1.675262 16.221367 96 96 96 0
0.482178 2.169799 21.009915 85 85 85 0
0.497036 1.917139 18.563433 96 96 96 0
0.521287 1.759345 17.035532 77 77 77 0
0.670966 2.012899 19.490672 84 84 84 0
0.748792 2.021738 19.576254 85 85 85 0
0.834601 2.048566 19.836034 81 81 81 0
0.962339 2.165263 20.965989 141 141 141 0
1.033506 2.146513 20.784439 210 210 210 0
1.114210 2.148833 20.806908 214 214 214 0
1.197197 2.154955 20.866182 214 214 214 0
1.278173 2.156916 20.885173 214 214 214 0
1.358799 2.158092 20.896562 214 214 214 0
1.444057 2.166085 20.973951 214 214 214 0
1.524230 2.166012 20.973242 214 214 214 0
1.608786 2.171861 21.029878 215 215 215 0
1.693570 2.177447 21.083969 214 214 214 0
1.775837 2.179436 21.103232 215 215 215 0
1.861216 2.184905 21.156188 214 214 214 0
1.948123 2.191639 21.221386 215 215 215 0
2.021778 2.183520 21.142772 214 214 214 0
2.116136 2.197526 21.278389 215 215 215 0
2.201426 2.201426 21.316160 214 214 214 0
2.291196 2.209367 21.393049 214 214 214 0
2.370153 2.206695 21.367171 214 214 214 0
2.455572 2.210015 21.399319 215 215 215 0
2.542796 2.214694 21.444626 215 215 215 0
2.633079 2.221660 21.512084 214 214 214 0
2.721268 2.226492 21.558863 215 215 215 0
2.807873 2.229782 21.590721 216 216 216 0
2.890143 2.229539 21.588368 215 215 215 0
2.983838 2.237878 21.669118 214 214 214 0
3.077538 2.245771 21.745540 215 215 215 0
3.161493 2.246324 21.750895 215 215 215 0
3.249602 2.249724 21.783824 215 215 215 0
3.344779 2.257726 21.861304 215 215 215 0
3.438160 2.264154 21.923549 215 215 215 0
3.530340 2.269504 21.975350 214 214 214 0
3.611417 2.267634 21.957238 212 212 212 0
3.683608 2.260396 21.887154 197 197 197 0
3.760472 2.256283 21.847332 211 211 211 0
3.845264 2.257003 21.854298 211 211 211 0
3.925450 2.255046 21.835352 211 211 211 0
4.000330 2.250186 21.788292 211 211 211 0
4.079763 2.248033 21.767443 211 211 211 0
4.147880 2.239855 21.688261 211 211 211 0
4.234905 2.242008 21.709111 211 211 211 0
4.318575 2.242337 21.712293 211 211 211 0
4.398610 2.240801 21.697422 211 211 211 0
4.472287 2.236144 21.652323 211 211 211 0
4.549100 2.233194 21.623765 210 210 210 0
4.622030 2.228479 21.578102 211 211 211 0
4.696211 2.224521 21.539783 211 211 211 0
4.780534 2.225421 21.548499 210 210 210 0
4.854381 2.221496 21.510494 211 211 211 0
4.928980 2.218041 21.477038 210 210 210 0
4.998895 2.212626 21.424602 211 211 211 0
5.079561 2.212067 21.419189 211 211 211 0
5.150467 2.207343 21.373451 211 211 211 0
5.233690 2.207963 21.379451 211 211 211 0
5.314839 2.207703 21.376931 211 211 211 0
5.380922 2.201286 21.314803 211 211 211 0
5.454554 2.198104 21.283988 211 211 211 0
5.521684 2.192433 21.229080 211 211 211 0
5.603244 2.192574 21.230441 212 212 212 0
5.692492 2.195675 21.260474 211 211 211 0
5.764089 2.191977 21.224666 211 211 211 0
5.825947 2.184730 21.154492 211 211 211 0
5.897091 2.181116 21.119494 212 212 212 0
5.977671 2.181042 21.118781 212 212 212 0
6.053427 2.179234 21.101270 211 211 211 0
6.127764 2.176969 21.079341 212 212 212 0
6.205703 2.176026 21.070208 211 211 211 0
6.274318 2.171879 21.030058 211 211 211 0
6.345524 2.168723 20.999499 211 211 211 0
-6.154586 3.077293 28.732893 86 86 86 0
-5.952429 3.030327 28.294373 117 117 117 0
-5.742975 2.977839 27.804284 125 125 125 0
-5.516822 2.914547 27.213326 82 82 82 0
-5.290740 2.848860 26.600000 80 80 80 0
-5.115747 2.808645 26.224511 191 191 191 0
-4.993460 2.796338 26.109595 202 202 202 0
-4.884464 2.791122 26.060901 203 203 203 0
-4.783138 2.790164 26.051949 203 203 203 0
-4.690621 2.794413 26.091621 203 203 203 0
-4.600672 2.800409 26.147610 203 203 203 0
-4.485199 2.790790 26.057799 203 203 203 0
-4.393875 2.796103 26.107400 204 204 204 0
-4.283796 2.789449 26.045272 201 201 201 0
-4.153018 2.768679 25.851342 194 194 194 0
-4.034832 2.755495 25.728245 192 192 192 0
-3.927342 2.749139 25.668900 193 193 193 0
-3.820483 2.742911 25.610742 194 194 194 0
-3.735154 2.752219 25.697655 194 194 194 0
-3.619621 2.739172 25.575840 193 193 193 0
-3.514799 2.733732 25.525046 195 195 195 0
-3.400228 2.720182 25.398527 198 198 198 0
-3.301583 2.718950 25.387025 197 197 197 0
-3.203304 2.717955 25.377729 198 198 198 0
-3.107457 2.719025 25.387717 199 199 199 0
-3.006010 2.715106 25.351130 198 198 198 0
-2.894118 2.701177 25.221075 200 200 200 0
-2.791445 2.695188 25.165156 201 201 201 0
-2.692830 2.692830 25.143141 201 201 201 0
-2.599298 2.695568 25.168704 202 202 202 0
-2.501934 2.694391 25.157712 201 201 201 0
-2.406106 2.694839 25.161897 202 202 202 0
-2.298228 2.681266 25.035163 203 203 203 0
-2.199505 2.677659 25.001483 204 204 204 0
-2.107754 2.682595 25.047577 203 203 203 0
-2.012448 2.683264 25.053821 203 203 203 0
-1.926344 2.696881 25.180964 205 205 205 0
-1.820562 2.682933 25.050729 207 207 207 0
-1.722056 2.678754 25.011707 206 206 206 0
-1.627523 2.680625 25.029183 207 207 207 0
-1.534853 2.685992 25.079290 207 207 207 0
-1.439756 2.687544 25.093783 207 207 207 0
-1.345411 2.690822 25.124392 207 207 207 0
-1.240613 2.672089 24.949476 205 205 205 0
-1.146637 2.675485 24.981188 200 200 200 0
-1.046810 2.664609 24.879631 199 199 199 0
-0.951566 2.664385 24.877542 200 200 200 0
-0.853880 2.656517 24.804081 200 200 200 0
-0.756525 2.647836 24.723025 200 200 200 0
-0.660099 2.640397 24.653571 202 202 202 0
-0.565616 2.639539 24.645556 201 201 201 0
-0.471835 2.642274 24.671095 201 201 201 0
-0.376234 2.633639 24.590471 203 203 203 0
-0.282577 2.637382 24.625416 203 203 203 0
-0.188209 2.634931 24.602532 203 203 203 0
-0.093544 2.619233 24.455955 203 203 203 0
0.000000 2.613468 24.402129 196 196 196 0
0.091711 2.567902 23.976677 105 105 105 0
0.224188 2.092420 19.537064 86 86 86 0
0.288665 2.020654 18.866985 82 82 82 0
0.372486 2.085921 19.476390 71 71 71 0
0.503412 2.349255 21.935154 71 71 71 0
0.497036 1.988144 18.563433 77 77 77 0
0.499931 1.749760 16.337630 66 66 66 0
0.714223 2.222026 20.747210 78 78 78 0
0.815212 2.282595 21.312742 85 85 85 0
0.865201 2.202329 20.563292 77 77 77 0
0.962374 2.245540 20.966765 149 149 149 0
1.033358 2.225695 20.781468 211 211 211 0
1.114742 2.229484 20.816845 214 214 214 0
1.196232 2.232966 20.849360 214 214 214 0
1.280231 2.240403 20.918800 214 214 214 0
1.361131 2.241862 20.932422 214 214 214 0
1.443033 2.244718 20.959081 214 214 214 0
1.525965 2.248790 20.997106 214 214 214 0
1.612463 2.257449 21.077954 215 215 215 0
1.694629 2.259506 21.097161 214 214 214 0
1.778133 2.263079 21.130519 214 214 214 0
1.862534 2.267433 21.171173 215 215 215 0
1.946447 2.270855 21.203127 214 214 214 0
2.030559 2.274227 21.234609 214 214 214 0
2.111052 2.273441 21.227270 214 214 214 0
2.203992 2.285622 21.341004 214 214 214 0
2.290428 2.290428 21.385887 214 214 214 0
2.373145 2.291312 21.394136 215 215 215 0
2.462339 2.298183 21.458289 215 215 215 0
2.547217 2.300712 21.481906 214 214 214 0
2.635863 2.306380 21.534831 215 215 215 0
2.725223 2.312310 21.590200 215 215 215 0
2.806397 2.311150 21.579369 214 214 214 0
2.893248 2.314599 21.611566 214 214 214 0
2.986556 2.322877 21.688861 214 214 214 0
3.075441 2.327361 21.730729 214 214 214 0
3.166330 2.333085 21.784176 214 214 214 0
3.254111 2.336285 21.814051 214 214 214 0
3.345438 2.341806 21.865606 215 215 215 0
3.439046 2.348617 21.929195 214 214 214 0
3.531107 2.354071 21.980126 213 213 213 0
3.611572 2.351722 21.958185 211 211 211 0
3.681979 2.343077 21.877474 196 196 196 0
3.758406 2.338564 21.835327 210 210 210 0
3.841164 2.338100 21.830997 211 211 211 0
3.923927 2.337658 21.826876 212 212 212 0
4.001588 2.334260 21.795143 211 211 211 0
4.079109 2.330919 21.763952 211 211 211 0
4.150250 2.324140 21.700654 211 211 211 0
4.235449 2.325344 21.711900 210 210 210 0
4.323018 2.327779 21.734630 211 211 211 0
4.397184 2.323040 21.690387 211 211 211 0
4.471733 2.318677 21.649641 210 210 210 0
4.549100 2.315905 21.623765 210 210 210 0
4.622992 2.311496 21.582597 212 212 212 0
4.702593 2.310046 21.569055 212 212 212 0
4.780632 2.307891 21.548939 212 212 212 0
4.858790 2.305866 21.530032 211 211 211 0
4.930412 2.300859 21.483278 211 211 211 0
5.000447 2.295287 21.431254 210 210 210 0
5.082175 2.295176 21.430214 210 210 210 0
5.159805 2.293247 21.412201 210 210 210 0
5.238838 2.291992 21.400484 212 212 212 0
5.317625 2.290669 21.388134 211 211 211 0
5.386803 2.285310 21.338099 210 210 210 0
5.459419 2.281548 21.302973 211 211 211 0
5.531719 2.277766 21.267661 211 211 211 0
5.614408 2.278311 21.272741 211 211 211 0
5.688110 2.275244 21.244106 211 211 211 0
5.761645 2.272198 21.215669 211 211 211 0
5.828122 2.266492 21.162388 211 211 211 0
5.911683 2.267495 21.171754 212 212 212 0
5.984452 2.264387 21.142739 211 211 211 0
6.056406 2.261058 21.111656 212 212 212 0
6.133384 2.259668 21.098672 211 211 211 0
6.213068 2.259297 21.095215 212 212 212 0
6.277337 2.253403 21.040178 212 212 212 0
6.346399 2.249357 21.002395 211 211 211 0
-6.217769 3.219916 29.027868 75 75 75 0
-5.989876 3.158298 28.472377 103 103 103 0
-5.738074 3.081558 27.780556 95 95 95 0
-5.301761 2.956751 26.655410 85 85 85 0
-5.095504 2.897444 26.120745 192 192 192 0
-4.988783 2.893494 26.085141 203 203 203 0
-4.875813 2.885685 26.014744 203 203 203 0
-4.779312 2.887501 26.031114 203 203 203 0
-4.688844 2.893116 26.081733 203 203 203 0
-4.591513 2.894650 26.095558 203 203 203 0
-4.501296 2.900835 26.151321 204 204 204 0
-4.378408 2.885769 26.015498 203 203 203 0
-4.286155 2.890663 26.059616 205 205 205 0
-4.167561 2.877602 25.941868 202 202 202 0
-4.050383 2.864905 25.827407 194 194 194 0
-3.928682 2.848294 25.677659 194 194 194 0
-3.815954 2.837504 25.580385 194 194 194 0
-3.725170 2.842893 25.628968 194 194 194 0
-3.623162 2.839776 25.600864 195 195 195 0
-3.526700 2.840953 25.611474 193 193 193 0
-3.414981 2.829555 25.508726 197 197 197 0
-3.313547 2.826261 25.479023 198 198 198 0
-3.206452 2.817791 25.402670 197 197 197 0
-3.116970 2.824754 25.465441 198 198 198 0
-3.006786 2.812799 25.357669 199 199 199 0
-2.913992 2.816859 25.394266 200 200 200 0
-2.804374 2.804374 25.281716 200 200 200 0
-2.695287 2.791548 25.166082 202 202 202 0
-2.594924 2.787141 25.126353 201 201 201 0
-2.508071 2.797464 25.219419 202 202 202 0
-2.410618 2.796317 25.209081 202 202 202 0
-2.300191 2.779397 25.056542 203 203 203 0
-2.208869 2.785096 25.107922 203 203 203 0
-2.113435 2.785892 25.115094 203 203 203 0
-2.022844 2.793451 25.183240 204 204 204 0
-1.927519 2.794903 25.196332 205 205 205 0
-1.827588 2.789477 25.147412 205 205 205 0
-1.729998 2.787219 25.127055 205 205 205 0
-1.631241 2.782705 25.086368 206 206 206 0
-1.536941 2.785705 25.113411 206 206 206 0
-1.440409 2.784792 25.105175 206 206 206 0
-1.344522 2.785081 25.107785 206 206 206 0
-1.242385 2.771474 24.985120 199 199 199 0
-1.143978 2.764613 24.923263 198 198 198 0
-1.047049 2.760403 24.885310 199 199 199 0
-0.952079 2.761030 24.890962 200 200 200 0
-0.854430 2.753165 24.820057 199 199 199 0
-0.758276 2.748750 24.780257 200 200 200 0
-0.660314 2.735585 24.661572 201 201 201 0
-0.564719 2.729474 24.606478 201 201 201 0
-0.470846 2.730906 24.619394 202 202 202 0
-0.376453 2.729281 24.604742 203 203 203 0
-0.281937 2.725388 24.569643 203 203 203 0
-0.187102 2.712975 24.457738 204 204 204 0
-0.093602 2.714449 24.471032 203 203 203 0
0.000000 2.706985 24.403745 197 197 197 0
0.092800 2.691201 24.261449 118 118 118 0
0.128654 1.865482 16.817507 79 79 79 0
0.207453 2.005379 18.078695 74 74 74 0
0.423454 2.456034 22.141391 87 87 87 0
0.387627 1.873530 16.890060 88 88 88 0
0.432586 1.792142 16.156344 93 93 93 0
0.626217 2.270035 20.464597 92 92 92 0
0.657523 2.118684 19.100152 95 95 95 0
0.671507 1.947371 17.555747 77 77 77 0
0.672665 1.773388 15.987275 82 82 82 0
0.958238 2.315741 20.876640 148 148 148 0
1.036267 2.311672 20.839957 211 211 211 0
1.115108 2.309866 20.823672 214 214 214 0
1.197759 2.315667 20.875972 215 215 215 0
1.278297 2.316913 20.887203 214 214 214 0
1.360499 2.320851 20.922705 215 215 215 0
1.445724 2.329222 20.998167 214 214 214 0
1.528421 2.332854 21.030910 215 215 215 0
1.610031 2.334546 21.046162 215 215 215 0
1.692097 2.336705 21.065633 215 215 215 0
1.779156 2.345252 21.142679 214 214 214 0
1.865013 2.351539 21.199356 213 213 213 0
1.945603 2.350937 21.193934 214 214 214 0
2.030220 2.355056 21.231063 215 215 215 0
2.114884 2.358909 21.265798 216 216 216 0
2.202583 2.365737 21.327358 214 214 214 0
2.298115 2.380191 21.457659 214 214 214 0
2.373309 2.373309 21.395617 214 214 214 0
2.460145 2.378140 21.439172 215 215 215 0
2.548681 2.384250 21.494257 214 214 214 0
2.633583 2.386685 21.516202 214 214 214 0
2.727566 2.396952 21.608760 215 215 215 0
2.811069 2.397676 21.615294 215 215 215 0
2.891917 2.396160 21.601619 215 215 215 0
2.988893 2.407719 21.705831 214 214 214 0
3.082906 2.416332 21.783472 214 214 214 0
3.164743 2.415199 21.773258 215 215 215 0
3.253237 2.419074 21.808192 214 214 214 0
3.346842 2.426460 21.874783 215 215 215 0
3.445816 2.437285 21.972367 215 215 215 0
3.539085 2.443654 22.029783 214 214 214 0
3.615348 2.438258 21.981137 211 211 211 0
3.687978 2.430713 21.913119 196 196 196 0
3.759291 2.422654 21.840472 211 211 211 0
3.847986 2.425904 21.869768 211 211 211 0
3.928226 2.423799 21.850793 211 211 211 0
4.005838 2.420194 21.818288 211 211 211 0
4.084024 2.417075 21.790175 210 210 210 0
4.156363 2.410691 21.732618 211 211 211 0
4.242710 2.412521 21.749121 211 211 211 0
4.326192 2.412684 21.750590 211 211 211 0
4.402473 2.408900 21.716479 211 211 211 0
4.476494 2.404043 21.672690 211 211 211 0
4.546014 2.396989 21.609097 211 211 211 0
4.629616 2.397480 21.613519 211 211 211 0
4.699996 2.391226 21.557141 212 212 212 0
4.781285 2.390642 21.551882 211 211 211 0
4.864406 2.390979 21.554916 210 210 210 0
4.930919 2.383277 21.485485 210 210 210 0
4.997588 2.375902 21.418997 210 210 210 0
5.079508 2.375899 21.418965 211 211 211 0
5.167648 2.378759 21.444748 211 211 211 0
5.232434 2.370947 21.374321 211 211 211 0
5.315685 2.371613 21.380330 211 211 211 0
5.388191 2.367538 21.343596 210 210 210 0
5.457568 2.362231 21.295749 211 211 211 0
5.535336 2.360658 21.281569 211 211 211 0
5.612785 2.358997 21.266591 212 212 212 0
5.697603 2.360436 21.279564 211 211 211 0
5.773469 2.358178 21.259208 211 211 211 0
5.839655 2.352083 21.204266 211 211 211 0
5.915657 2.350056 21.185986 212 212 212 0
5.977674 2.342602 21.118791 211 211 211 0
6.063325 2.344486 21.135775 211 211 211 0
6.140397 2.343046 21.122795 211 211 211 0
6.209363 2.338591 21.082635 212 212 212 0
6.278053 2.334148 21.042577 212 212 212 0
6.350228 2.331096 21.015066 212 212 212 0
-6.025376 3.286568 28.641119 71 71 71 0
-5.273237 3.042252 26.512001 98 98 98 0
-5.093565 2.996214 26.110801 195 195 195 0
-4.968155 2.980893 25.977281 202 202 202 0
-4.869424 2.981280 25.980656 202 202 202 0
-4.773937 2.983710 26.001834 202 202 202 0
-4.685093 2.990485 26.060868 202 202 202 0
-4.587420 2.991795 26.072291 203 203 203 0
-4.475474 2.983649 26.001300 204 204 204 0
-4.374721 2.982764 25.993588 203 203 203 0
-4.278255 2.984829 26.011582 204 204 204 0
-4.180305 2.985932 26.021197 204 204 204 0
-4.066520 2.975502 25.930303 202 202 202 0
-3.949009 2.961757 25.810518 197 197 197 0
-3.835611 2.950470 25.712158 195 195 195 0
-3.725868 2.941475 25.633766 195 195 195 0
-3.633873 2.946383 25.676541 194 194 194 0
-3.531322 2.942768 25.645037 196 196 196 0
-3.405328 2.918853 25.436624 196 196 196 0
-3.310390 2.920932 25.454747 198 198 198 0
-3.210852 2.918956 25.437528 198 198 198 0
-3.114460 2.919807 25.444937 198 198 198 0
-3.026813 2.929174 25.526572 199 199 199 0
-2.908752 2.908752 25.348605 199 199 199 0
-2.805796 2.902547 25.294531 200 200 200 0
-2.702985 2.896055 25.237953 199 199 199 0
-2.609694 2.899660 25.269366 201 201 201 0
-2.510576 2.896818 25.244605 202 202 202 0
-2.415610 2.898732 25.261283 202 202 202 0
-2.303842 2.879802 25.096317 203 203 203 0
-2.217891 2.892901 25.210465 204 204 204 0
-2.117591 2.887624 25.164476 203 203 203 0
-2.023129 2.890184 25.186785 205 205 205 0
-1.928980 2.893471 25.215431 205 205 205 0
-1.831606 2.892009 25.202693 206 206 206 0
-1.734403 2.890672 25.191041 205 205 205 0
-1.632942 2.881663 25.112530 206 206 206 0
-1.539403 2.886380 25.153637 207 207 207 0
-1.443750 2.887500 25.163396 205 205 205 0
-1.340796 2.873135 25.038213 200 200 200 0
-1.240409 2.862483 24.945383 197 197 197 0
-1.141282 2.853206 24.864537 198 198 198 0
-1.046902 2.855187 24.881806 200 200 200 0
-0.950973 2.852920 24.862044 199 199 199 0
-0.853358 2.844527 24.788902 200 200 200 0
-0.758119 2.842947 24.775135 200 200 200 0
-0.659136 2.824870 24.617605 200 200 200 0
-0.564917 2.824586 24.615132 201 201 201 0
-0.471256 2.827537 24.640848 203 203 203 0
-0.376806 2.826044 24.627835 202 202 202 0
-0.282099 2.820989 24.583780 204 204 204 0
-0.187102 2.806532 24.457797 202 202 202 0
-0.093403 2.802102 24.419193 204 204 204 0
0.000000 2.794621 24.353996 201 201 201 0
0.092364 2.770935 24.147580 138 138 138 0
0.129251 1.938758 16.895498 71 71 71 0
0.194797 1.947967 16.975744 93 93 93 0
0.288665 2.164987 18.866985 82 82 82 0
0.313175 1.879047 16.375139 83 83 83 0
0.481950 2.409750 21.000000 79 79 79 0
0.543848 2.330778 20.311787 91 91 91 0
0.492401 1.846503 16.091526 95 95 95 0
0.712522 2.375075 20.697821 88 88 88 0
0.634317 1.902952 16.583462 95 95 95 0
0.829192 2.261432 19.707465 84 84 84 0
0.962704 2.406761 20.973953 145 145 145 0
1.036169 2.391159 20.837986 211 211 211 0
1.116977 2.393522 20.858578 215 215 215 0
1.196321 2.392641 20.850903 214 214 214 0
1.281413 2.402649 20.938120 214 214 214 0
1.360551 2.400973 20.923509 214 214 214 0
1.448008 2.413347 21.031347 214 214 214 0
1.530713 2.416915 21.062439 215 215 215 0
1.609876 2.414815 21.044136 214 214 214 0
1.696265 2.423235 21.117517 214 214 214 0
1.781138 2.428825 21.166229 214 214 214 0
1.862667 2.429565 21.172682 214 214 214 0
1.950877 2.438596 21.251382 215 215 215 0
2.036311 2.443573 21.294757 215 215 215 0
2.117994 2.443839 21.297073 214 214 214 0
2.206753 2.451948 21.367741 214 214 214 0
2.290806 2.454435 21.389415 215 215 215 0
2.375352 2.457260 21.414033 214 214 214 0
2.458805 2.458805 21.427495 215 215 215 0
2.546626 2.464476 21.476918 214 214 214 0
2.636043 2.471290 21.536296 215 215 215 0
2.723679 2.476071 21.577964 215 215 215 0
2.805535 2.475472 21.572743 215 215 215 0
2.901217 2.486758 21.671090 215 215 215 0
2.989862 2.491552 21.712871 214 214 214 0
3.078280 2.495903 21.750785 215 215 215 0
3.168630 2.501550 21.800000 214 214 214 0
3.257638 2.505875 21.837691 214 214 214 0
3.351164 2.513373 21.903033 214 214 214 0
3.445569 2.521148 21.970791 215 215 215 0
3.533081 2.523629 21.992410 214 214 214 0
3.614852 2.521990 21.978125 212 212 212 0
3.683989 2.511810 21.889416 198 198 198 0
3.765313 2.510209 21.875458 211 211 211 0
3.847613 2.509313 21.867649 211 211 211 0
3.929589 2.508249 21.858375 211 211 211 0
3.998136 2.498835 21.776340 212 212 212 0
4.082498 2.499489 21.782035 211 211 211 0
4.152215 2.491329 21.710929 211 211 211 0
4.242886 2.495815 21.750024 211 211 211 0
4.326585 2.496107 21.752563 210 210 210 0
4.407266 2.494679 21.740121 211 211 211 0
4.472165 2.484536 21.651731 211 211 211 0
4.552503 2.483183 21.639942 211 211 211 0
4.628042 2.479308 21.606174 210 210 210 0
4.706719 2.477220 21.587978 210 210 210 0
4.784431 2.474706 21.566063 211 211 211 0
4.863242 2.472835 21.549760 211 211 211 0
4.928412 2.464206 21.474563 211 211 211 0
5.003816 2.460893 21.445692 211 211 211 0
5.088769 2.462308 21.458020 211 211 211 0
5.161104 2.457668 21.417590 211 211 211 0
5.242934 2.457625 21.417215 211 211 211 0
5.321366 2.456015 21.403182 211 211 211 0
5.387156 2.448707 21.339497 211 211 211 0
5.455718 2.442859 21.288532 211 211 211 0
5.535128 2.441968 21.280770 211 211 211 0
5.619931 2.443448 21.293669 211 211 211 0
5.695438 2.440902 21.271477 211 211 211 0
5.777336 2.441128 21.273446 211 211 211 0
5.838732 2.432805 21.200915 212 212 212 0
5.913383 2.430158 21.177844 212 212 212 0
5.983793 2.425862 21.140409 211 211 211 0
6.061328 2.424531 21.128813 212 212 212 0
6.143054 2.424890 21.131937 212 212 212 0
6.217666 2.422467 21.110825 212 212 212 0
6.282156 2.416214 21.056330 213 213 213 0
6.351493 2.411959 21.019254 212 212 212 0
-5.260598 3.136126 26.448458 110 110 110 0
-5.081160 3.088548 26.047213 196 196 196 0
-4.950391 3.069242 25.884397 202 202 202 0
-4.861161 3.075429 25.936568 202 202 202 0
-4.760079 3.074218 25.926356 203 203 203 0
-4.662870 3.075510 25.937255 204 204 204 0
-4.572490 3.081461 25.987440 203 203 203 0
-4.468672 3.078419 25.961785 204 204 204 0
-4.371172 3.079689 25.972500 203 203 203 0
-4.277274 3.083616 26.005617 203 203 203 0
-4.165954 3.074871 25.931867 205 205 205 0
-4.069158 3.076681 25.947128 204 204 204 0
-3.972432 3.078635 25.963607 204 204 204 0
-3.844122 3.055584 25.769209 199 199 199 0
-3.739832 3.050915 25.729837 197 197 197 0
-3.633118 3.043964 25.671211 195 195 195 0
-3.521019 3.031988 25.570217 195 195 195 0
-3.420818 3.029868 25.552330 195 195 195 0
-3.319648 3.026738 25.525935 195 195 195 0
-3.219341 3.024230 25.504784 198 198 198 0
-3.125556 3.027882 25.535585 199 199 199 0
-3.018481 3.018481 25.456301 200 200 200 0
-2.916391 3.013604 25.415170 199 199 199 0
-2.822356 3.017001 25.443818 200 200 200 0
-2.703222 2.992853 25.240170 200 200 200 0
-2.613140 3.000272 25.302733 201 201 201 0
-2.523406 3.008676 25.373613 200 200 200 0
-2.416322 2.996240 25.268732 203 203 203 0
-2.313229 2.987921 25.198572 204 204 204 0
-2.218642 2.990344 25.219008 203 203 203 0
-2.118787 2.985564 25.178694 203 203 203 0
-2.028890 2.995028 25.258516 204 204 204 0
-1.933175 2.996421 25.270259 204 204 204 0
-1.820910 2.970958 25.055517 206 206 206 0
-1.736826 2.991200 25.226227 206 206 206 0
-1.637998 2.986938 25.190283 206 206 206 0
-1.541354 2.986374 25.185529 205 205 205 0
-1.443132 2.982473 25.152629 201 201 201 0
-1.335119 2.956334 24.932187 197 197 197 0
-1.242592 2.963104 24.989280 197 197 197 0
-1.142253 2.950821 24.885689 198 198 198 0
-1.044674 2.944081 24.828851 200 200 200 0
-0.950828 2.947566 24.858243 199 199 199 0
-0.853472 2.939737 24.792216 200 200 200 0
-0.756031 2.929621 24.706903 199 199 199 0
-0.657855 2.913359 24.569755 200 200 200 0
-0.565021 2.919277 24.619669 201 201 201 0
-0.470756 2.918689 24.614704 202 202 202 0
-0.376072 2.914558 24.579868 203 203 203 0
-0.281333 2.907109 24.517050 203 203 203 0
-0.186618 2.892577 24.394492 203 203 203 0
-0.093358 2.894088 24.407232 203 203 203 0
0.000000 2.893750 24.404385 203 203 203 0
0.092551 2.869069 24.196240 143 143 143 0
0.174605 2.706378 22.824184 80 80 80 0
0.194797 2.012899 16.975744 80 80 80 0
0.269491 2.088555 17.613788 82 82 82 0
0.350417 2.172584 18.322449 80 80 80 0
0.481950 2.490075 21.000000 85 85 85 0
0.452707 2.004846 16.907827 95 95 95 0
0.615551 2.385262 20.116058 75 75 75 0
0.617373 2.126507 17.933859 89 89 89 0
0.684014 2.120443 17.882715 84 84 84 0
0.829192 2.336813 19.707465 90 90 90 0
0.960557 2.481439 20.927166 149 149 149 0
1.036876 2.472551 20.852213 211 211 211 0
1.117613 2.474715 20.870464 214 214 214 0
1.198692 2.477297 20.892235 214 214 214 0
1.277943 2.476015 20.881423 214 214 214 0
1.363017 2.485501 20.961428 215 215 215 0
1.447436 2.492807 21.023043 214 214 214 0
1.525677 2.489263 20.993152 214 214 214 0
1.607789 2.492073 21.016847 214 214 214 0
1.696802 2.504803 21.124211 214 214 214 0
1.780009 2.508195 21.152811 214 214 214 0
1.863939 2.512266 21.187148 214 214 214 0
1.950423 2.519296 21.246433 214 214 214 0
2.034673 2.522994 21.277622 214 214 214 0
2.120186 2.527914 21.319115 215 215 215 0
2.207906 2.535004 21.378904 215 215 215 0
2.291469 2.536984 21.395606 214 214 214 0
2.382038 2.546316 21.474309 215 215 215 0
2.463908 2.546039 21.471968 215 215 215 0
2.552112 2.552112 21.523191 214 214 214 0
2.641652 2.559100 21.582123 214 214 214 0
2.723828 2.558747 21.579146 215 215 215 0
2.811246 2.563195 21.616652 214 214 214 0
2.899998 2.568570 21.661984 215 215 215 0
2.992387 2.576777 21.731202 215 215 215 0
3.086693 2.586148 21.810230 214 214 214 0
3.167642 2.584129 21.793201 213 213 213 0
3.259910 2.591210 21.852923 214 214 214 0
3.353181 2.598715 21.916214 215 215 215 0
3.446965 2.606242 21.979692 215 215 215 0
3.537685 2.611148 22.021068 213 213 213 0
3.617010 2.607612 21.991243 210 210 210 0
3.689100 2.599139 21.919786 196 196 196 0
3.765709 2.594155 21.877755 210 210 210 0
3.849453 2.594197 21.878110 211 211 211 0
3.934318 2.594976 21.884680 211 211 211 0
4.013274 2.591906 21.858791 211 211 211 0
4.083558 2.583475 21.787690 211 211 211 0
4.166107 2.582986 21.783566 211 211 211 0
4.248122 2.582192 21.776864 211 211 211 0
4.326302 2.579141 21.751139 211 211 211 0
4.410803 2.579904 21.757568 211 211 211 0
4.477865 2.570626 21.679325 210 210 210 0
4.553358 2.566438 21.644006 211 211 211 0
4.629903 2.562982 21.614862 210 210 210 0
4.707198 2.560055 21.590174 210 210 210 0
4.794230 2.562434 21.610234 210 210 210 0
4.869511 2.558557 21.577538 211 211 211 0
4.931889 2.548143 21.489712 211 211 211 0
5.006567 2.544321 21.457482 211 211 211 0
5.086515 2.543258 21.448514 211 211 211 0
5.164572 2.541297 21.431982 212 212 212 0
5.245826 2.540947 21.429027 211 211 211 0
5.315294 2.534987 21.378761 211 211 211 0
5.397291 2.535091 21.379643 211 211 211 0
5.471888 2.531769 21.351625 211 211 211 0
5.542455 2.526708 21.308940 211 211 211 0
5.621186 2.525461 21.298424 211 211 211 0
5.697523 2.523189 21.279264 211 211 211 0
5.770781 2.519637 21.249307 211 211 211 0
5.845019 2.516605 21.223742 211 211 211 0
5.916593 2.512526 21.189337 211 211 211 0
5.983195 2.506474 21.138297 211 211 211 0
6.064826 2.506795 21.141007 211 211 211 0
6.145694 2.506796 21.141017 212 212 212 0
6.218208 2.503435 21.112668 211 211 211 0
6.286447 2.498460 21.070714 212 212 212 0
6.353964 2.493328 21.027431 211 211 211 0
-5.258173 3.235799 26.436265 120 120 120 0
-5.054632 3.171534 25.911226 199 199 199 0
-4.941354 3.162467 25.837146 202 202 202 0
-4.858389 3.172825 25.921775 202 202 202 0
-4.753539 3.169026 25.890737 203 203 203 0
-4.669033 3.178916 25.971535 203 203 203 0
-4.565653 3.176106 25.948581 203 203 203 0
-4.463092 3.173754 25.929364 202 202 202 0
-4.370887 3.178827 25.970808 204 204 204 0
-4.266398 3.174994 25.939494 203 203 203 0
-4.172854 3.179317 25.974813 203 203 203 0
-4.070257 3.176786 25.954136 204 204 204 0
-3.970167 3.176134 25.948804 205 205 205 0
-3.866225 3.172287 25.917378 205 205 205 0
-3.754776 3.161917 25.832652 202 202 202 0
-3.648500 3.155460 25.779901 197 197 197 0
-3.537837 3.144744 25.692356 195 195 195 0
-3.425125 3.131543 25.584499 195 195 195 0
-3.318292 3.123099 25.515513 196 196 196 0
-3.221312 3.123697 25.520397 198 198 198 0
-3.128958 3.128958 25.563386 197 197 197 0
-3.029278 3.126996 25.547357 200 200 200 0
-2.920102 3.114776 25.447512 200 200 200 0
-2.808331 3.098848 25.317389 199 199 199 0
-2.717636 3.105869 25.374750 200 200 200 0
-2.619119 3.104141 25.360632 201 201 201 0
-2.519128 3.100465 25.330598 202 202 202 0
-2.416229 3.092774 25.267758 201 201 201 0
-2.318222 3.090962 25.252958 202 202 202 0
-2.225419 3.096235 25.296040 203 203 203 0
-2.121039 3.085148 25.205458 205 205 205 0
-2.026962 3.088705 25.234515 204 204 204 0
-1.933379 3.093406 25.272927 204 204 204 0
-1.828839 3.080150 25.164626 205 205 205 0
-1.735787 3.085843 25.211134 205 205 205 0
-1.637417 3.082198 25.181352 206 206 206 0
-1.542359 3.084717 25.201939 200 200 200 0
-1.439267 3.070437 25.085271 198 198 198 0
-1.340094 3.063072 25.025102 197 197 197 0
-1.238254 3.048010 24.902044 197 197 197 0
-1.139605 3.038948 24.828003 198 198 198 0
-1.044154 3.037540 24.816504 199 199 199 0
-0.949811 3.039394 24.831649 199 199 199 0
-0.851041 3.025924 24.721601 200 200 200 0
-0.754405 3.017619 24.653752 199 199 199 0
-0.660771 3.020669 24.678667 200 200 200 0
-0.564024 3.008129 24.576218 202 202 202 0
-0.469299 3.003515 24.538520 202 202 202 0
-0.375964 3.007715 24.572836 203 203 203 0
-0.280817 2.995378 24.472046 203 203 203 0
-0.187030 2.992472 24.448302 203 203 203 0
-0.093264 2.984435 24.382641 203 203 203 0
0.000000 2.984719 24.384957 204 204 204 0
0.092597 2.963109 24.208409 156 156 156 0
0.122353 1.957648 15.993854 83 83 83 0
0.263207 2.807543 22.937442 78 78 78 0
0.249893 1.999147 16.332901 86 86 86 0
0.406970 2.604606 21.279457 85 85 85 0
0.481950 2.570400 21.000000 77 77 77 0
0.488665 2.233895 18.250779 77 77 77 0
0.615551 2.462205 20.116058 82 82 82 0
0.617373 2.195104 17.933859 89 89 89 0
0.736641 2.357251 19.258589 88 88 88 0
0.829192 2.412194 19.707465 102 102 102 0
0.956591 2.550910 20.840769 153 153 153 0
1.037047 2.552731 20.855647 211 211 211 0
1.117361 2.553968 20.865748 214 214 214 0
1.197516 2.554701 20.871743 213 213 213 0
1.281648 2.563296 20.941959 215 215 215 0
1.363426 2.566448 20.967716 215 215 215 0
1.448074 2.574353 21.032297 214 214 214 0
1.526800 2.571452 21.008595 214 214 214 0
1.613667 2.581867 21.093686 215 215 215 0
1.698295 2.587879 21.142800 214 214 214 0
1.781848 2.591779 21.174663 214 214 214 0
1.867353 2.598056 21.225946 213 213 213 0
1.953304 2.604406 21.277823 215 215 215 0
2.035396 2.605307 21.285189 214 214 214 0
2.120420 2.609748 21.321472 214 214 214 0
2.208539 2.617528 21.385030 214 214 214 0
2.294573 2.622369 21.424580 214 214 214 0
2.375280 2.620999 21.413387 214 214 214 0
2.464008 2.628276 21.472840 215 215 215 0
2.554986 2.637405 21.547430 215 215 215 0
2.639176 2.639176 21.561893 213 213 213 0
2.727391 2.644743 21.607374 214 214 214 0
2.814209 2.648667 21.639435 214 214 214 0
2.904682 2.655709 21.696971 214 214 214 0
2.994243 2.661549 21.744685 214 214 214 0
3.083127 2.666488 21.785035 214 214 214 0
3.171751 2.670948 21.821471 215 215 215 0
3.260991 2.675685 21.860171 215 215 215 0
3.354027 2.683222 21.921745 214 214 214 0
3.450498 2.693071 22.002218 214 214 214 0
3.539322 2.696626 22.031261 214 214 214 0
3.619571 2.693634 22.006813 210 210 210 0
3.692167 2.685212 21.938009 196 196 196 0
3.766021 2.678060 21.879571 211 211 211 0
3.854553 2.681428 21.907095 210 210 210 0
3.935864 2.679737 21.893280 211 211 211 0
4.010689 2.673793 21.844712 211 211 211 0
4.087694 2.669514 21.809758 211 211 211 0
4.168165 2.667625 21.794324 212 212 212 0
4.248992 2.666034 21.781324 211 211 211 0
4.328020 2.663397 21.759778 211 211 211 0
4.411048 2.663274 21.758775 211 211 211 0
4.486351 2.658578 21.720410 211 211 211 0
4.555087 2.650232 21.652226 211 211 211 0
4.636715 2.649551 21.646662 211 211 211 0
4.714363 2.646660 21.623037 211 211 211 0
4.790152 2.642842 21.591849 211 211 211 0
4.877106 2.645210 21.611193 211 211 211 0
4.946328 2.638042 21.552629 211 211 211 0
5.014044 2.630318 21.489528 212 212 212 0
5.091733 2.627991 21.470516 211 211 211 0
5.171515 2.626801 21.460793 211 211 211 0
5.250419 2.625209 21.447789 211 211 211 0
5.323835 2.620965 21.413111 211 211 211 0
5.393966 2.615256 21.366474 211 211 211 0
5.463063 2.609224 21.317189 210 210 210 0
5.539481 2.606815 21.297506 211 211 211 0
5.618072 2.605483 21.286623 212 212 212 0
5.701514 2.606406 21.294170 211 211 211 0
5.778091 2.604210 21.276226 211 211 211 0
5.840771 2.595898 21.208320 211 211 211 0
5.910019 2.590693 21.165796 211 211 211 0
5.988400 2.589579 21.156688 212 212 212 0
6.071415 2.590470 21.163974 212 212 212 0
6.147874 2.588579 21.148518 212 212 212 0
6.212511 2.581823 21.093322 212 212 212 0
6.292545 2.581557 21.091153 211 211 211 0
6.362146 2.577072 21.054509 211 211 211 0
-5.229299 3.318594 26.291097 130 130 130 0
-5.057157 3.272278 25.924170 199 199 199 0
-4.935708 3.257567 25.807623 203 203 203 0
-4.850866 3.266910 25.881640 202 202 202 0
-4.744539 3.261871 25.841715 203 203 203 0
-4.664799 3.275284 25.947986 203 203 203 0
-4.556335 3.268675 25.895622 203 203 203 0
-4.456347 3.267988 25.890179 204 204 204 0
-4.360098 3.270074 25.906705 203 203 203 0
-4.253327 3.264181 25.860022 203 203 203 0
-4.158982 3.267771 25.888464 203 203 203 0
-4.056104 3.264669 25.863889 204 204 204 0
-3.960527 3.267434 25.885795 204 204 204 0
-3.860902 3.266917 25.881698 205 205 205 0
-3.760471 3.265673 25.871836 205 205 205 0
-3.652128 3.257304 25.805534 204 204 204 0
-3.541855 3.246700 25.721530 200 200 200 0
-3.432221 3.236094 25.637501 197 197 197 0
-3.327396 3.229531 25.585514 197 197 197 0
-3.226264 3.226264 25.559624 196 196 196 0
-3.136985 3.235015 25.628959 198 198 198 0
-3.026155 3.221391 25.521021 198 198 198 0
-2.915354 3.206889 25.406133 199 199 199 0
-2.824591 3.214190 25.463974 200 200 200 0
-2.724391 3.210890 25.437826 200 200 200 0
-2.627261 3.211097 25.439469 200 200 200 0
-2.518290 3.196291 25.322167 202 202 202 0
-2.429605 3.207079 25.407635 201 201 201 0
-2.329507 3.203072 25.375889 202 202 202 0
-2.223295 3.189945 25.271893 202 202 202 0
-2.127768 3.191651 25.285413 203 203 203 0
-2.038908 3.203999 25.383235 204 204 204 0
-1.937597 3.197035 25.328064 204 204 204 0
-1.834003 3.185373 25.235678 205 205 205 0
-1.737980 3.186297 25.242996 206 206 206 0
-1.637664 3.178995 25.185149 203 203 203 0
-1.537782 3.171675 25.127151 197 197 197 0
-1.438172 3.163977 25.066171 196 196 196 0
-1.334528 3.145673 24.921156 195 195 195 0
-1.239416 3.146209 24.925406 196 196 196 0
-1.142156 3.140929 24.883572 199 199 199 0
-1.044491 3.133474 24.824513 198 198 198 0
-0.948337 3.129512 24.793124 198 198 198 0
-0.852296 3.125085 24.758048 199 199 199 0
-0.756227 3.119435 24.713293 199 199 199 0
-0.658947 3.106466 24.610548 201 201 201 0
-0.564637 3.105505 24.602931 202 202 202 0
-0.470018 3.102116 24.576085 202 202 202 0
-0.375589 3.098607 24.548285 202 202 202 0
-0.281696 3.098655 24.548664 203 203 203 0
-0.187173 3.088363 24.467124 204 204 204 0
-0.093398 3.082127 24.417723 204 204 204 0
0.000000 3.075903 24.368411 204 204 204 0
0.092504 3.052617 24.183933 163 163 163 0
0.130198 2.148267 17.019344 76 76 76 0
0.207466 2.282126 18.079825 79 79 79 0
0.321383 2.651407 21.005402 87 87 87 0
0.329088 2.171978 17.207194 80 80 80 0
0.415211 2.283659 18.091970 90 90 90 0
0.460504 2.170946 17.199017 74 74 74 0
0.485320 2.001946 15.860141 84 84 84 0
0.623150 2.284885 18.101681 92 92 92 0
0.658781 2.173977 17.223027 85 85 85 0
0.834201 2.502603 19.826520 101 101 101 0
0.961820 2.645006 20.954693 149 149 149 0
1.037903 2.634677 20.872865 212 212 212 0
1.117799 2.634813 20.873938 214 214 214 0
1.198987 2.637772 20.897385 214 214 214 0
1.281098 2.642265 20.932979 214 214 214 0
1.364877 2.649467 20.990030 214 214 214 0
1.448220 2.655069 21.034417 214 214 214 0
1.528801 2.655286 21.036131 214 214 214 0
1.613158 2.661710 21.087026 214 214 214 0
1.696294 2.665605 21.117885 214 214 214 0
1.783615 2.675422 21.195661 213 213 213 0
1.866868 2.678550 21.220442 214 214 214 0
1.951075 2.682728 21.253539 214 214 214 0
2.031239 2.681236 21.241720 214 214 214 0
2.124383 2.696332 21.361313 214 214 214 0
2.208647 2.699457 21.386075 214 214 214 0
2.296846 2.706997 21.445811 214 214 214 0
2.384971 2.713933 21.500757 214 214 214 0
2.470982 2.718080 21.533611 215 215 215 0
2.556617 2.721560 21.561181 214 214 214 0
2.643781 2.726399 21.599518 214 214 214 0
2.732286 2.732286 21.646154 214 214 214 0
2.812560 2.729838 21.626760 214 214 214 0
2.902471 2.736616 21.680458 214 214 214 0
2.992865 2.743460 21.734680 214 214 214 0
3.087134 2.753390 21.813345 214 214 214 0
3.176749 2.758756 21.855857 215 215 215 0
3.265270 2.762921 21.888856 214 214 214 0
3.358530 2.770787 21.951175 214 214 214 0
3.451402 2.777957 22.007980 214 214 214 0
3.538505 2.780254 22.026173 213 213 213 0
3.618750 2.777180 22.001824 210 210 210 0
3.698187 2.773640 21.973780 196 196 196 0
3.771797 2.765985 21.913128 211 211 211 0
3.856626 2.766710 21.918875 210 210 210 0
3.933033 2.761491 21.877532 210 210 210 0
4.013185 2.759065 21.858306 210 210 210 0
4.086680 2.752254 21.804350 211 211 211 0
4.167418 2.750496 21.790423 210 210 210 0
4.250561 2.750363 21.789369 210 210 210 0
4.337653 2.752741 21.808210 211 211 211 0
4.407539 2.744317 21.741469 210 210 210 0
4.477325 2.736143 21.676712 211 211 211 0
4.548602 2.729161 21.621401 211 211 211 0
4.635289 2.731509 21.640003 211 211 211 0
4.715071 2.729778 21.626285 210 210 210 0
4.793730 2.727467 21.607980 211 211 211 0
4.873488 2.725849 21.595162 211 211 211 0
4.942589 2.718424 21.536334 211 211 211 0
5.016715 2.713961 21.500976 211 211 211 0
5.089338 2.708841 21.460418 211 211 211 0
5.171137 2.708691 21.459228 211 211 211 0
5.252810 2.708480 21.457559 211 211 211 0
5.317744 2.699778 21.388614 211 211 211 0
5.403412 2.701706 21.403888 211 211 211 0
5.472990 2.695652 21.355927 211 211 211 0
5.549748 2.693260 21.336979 211 211 211 0
5.626084 2.690736 21.316981 212 212 212 0
5.701885 2.688032 21.295557 210 210 210 0
5.779472 2.686233 21.281310 212 212 212 0
5.844784 2.678859 21.222889 211 211 211 0
5.919408 2.675897 21.199418 211 211 211 0
5.990397 2.671393 21.163740 211 211 211 0
6.071709 2.671552 21.164999 211 211 211 0
6.148844 2.669893 21.151853 211 211 211 0
6.220744 2.666033 21.121276 212 212 212 0
6.281896 2.657725 21.055457 211 211 211 0
6.358729 2.656178 21.043199 211 211 211 0
-5.200266 3.400174 26.145127 143 143 143 0
-5.049409 3.366273 25.884451 200 200 200 0
-4.926741 3.350184 25.760739 202 202 202 0
-4.843970 3.361122 25.844846 203 203 203 0
-4.740400 3.357783 25.819172 202 202 202 0
-4.649965 3.363805 25.865471 202 202 202 0
-4.560145 3.370542 25.917275 202 202 202 0
-4.453731 3.365041 25.874982 203 203 203 0
-4.355189 3.365373 25.877533 204 204 204 0
-4.249083 3.359740 25.834220 204 204 204 0
-4.159279 3.367035 25.890312 203 203 203 0
-4.050682 3.359102 25.829313 204 204 204 0
-3.960913 3.366776 25.888317 204 204 204 0
-3.852231 3.358355 25.823568 204 204 204 0
-3.752762 3.357734 25.818795 204 204 204 0
-3.659170 3.362481 25.855294 205 205 205 0
-3.557638 3.359992 25.836154 204 204 204 0
-3.445566 3.347121 25.737184 203 203 203 0
-3.343321 3.343321 25.707969 201 201 201 0
-3.237788 3.335903 25.650925 199 199 199 0
-3.133790 3.329652 25.602859 197 197 197 0
-3.032025 3.325447 25.570528 198 198 198 0
-2.917753 3.306787 25.427041 198 198 198 0
-2.817052 3.302751 25.396008 200 200 200 0
-2.723970 3.307678 25.433895 201 201 201 0
-2.632173 3.314588 25.487031 201 201 201 0
-2.532313 3.311486 25.463176 202 202 202 0
-2.435605 3.312423 25.470379 202 202 202 0
-2.324316 3.292780 25.319342 202 202 202 0
-2.227144 3.292300 25.315651 203 203 203 0
-2.130755 3.292986 25.320919 203 203 203 0
