ply
format ascii 1.0
element vertex 1139
property float x
property float y
property float z
property uchar red
property uchar green
property uchar blue
property uchar alpha
end_header
9.383610 2.019258 31.053560 206 206 206 0
-1.200941 2.401882 34.885716 75 75 75 0
-0.846575 1.904795 27.665866 82 82 82 0
-0.733070 1.885036 27.378886 100 100 100 0
-0.624870 1.874609 27.227432 115 115 115 0
-0.515547 1.855969 26.956697 129 129 129 0
-0.409578 1.843103 26.769827 136 136 136 0
-0.305188 1.831125 26.595861 140 140 140 0
-0.202260 1.820336 26.439152 148 148 148 0
-0.100447 1.808039 26.260555 155 155 155 0
0.000000 1.805513 26.223858 158 158 158 0
0.100046 1.800832 26.155877 160 160 160 0
0.199587 1.796286 26.089843 160 160 160 0
0.298036 1.788217 25.972647 161 161 161 0
0.396341 1.783534 25.904628 164 164 164 0
0.491212 1.768365 25.684311 169 169 169 0
0.588656 1.765969 25.649519 171 171 171 0
0.685988 1.763970 25.620482 174 174 174 0
0.784237 1.764533 25.628653 175 175 175 0
0.879339 1.758678 25.543618 176 176 176 0
0.972175 1.749914 25.416332 177 177 177 0
1.069798 1.750578 25.425975 177 177 177 0
1.164818 1.747227 25.377302 179 179 179 0
1.263094 1.748900 25.401595 178 178 178 0
1.359327 1.747706 25.384256 178 178 178 0
1.452528 1.743034 25.316400 180 180 180 0
1.545359 1.738529 25.250966 180 180 180 0
1.639561 1.736006 25.214316 181 181 181 0
1.739387 1.739387 25.263431 181 181 181 0
1.841057 1.744160 25.332748 181 181 181 0
1.933578 1.740220 25.275528 182 182 182 0
2.025980 1.736554 25.222286 184 184 184 0
2.119829 1.734405 25.191071 184 184 184 0
2.219764 1.737206 25.231755 184 184 184 0
2.320779 1.740584 25.280816 184 184 184 0
2.413947 1.738042 25.243894 186 186 186 0
2.508810 1.736869 25.226853 184 184 184 0
2.616706 1.744471 25.337263 186 186 186 0
2.713875 1.744634 25.339638 186 186 186 0
2.820983 1.750955 25.431444 186 186 186 0
2.917687 1.750612 25.426462 188 188 188 0
3.014468 1.750336 25.422457 187 187 187 0
3.115445 1.752438 25.452981 187 187 187 0
3.226612 1.759970 25.562384 187 187 187 0
3.332150 1.764079 25.622067 188 188 188 0
3.429337 1.763659 25.615962 187 187 187 0
3.543595 1.771797 25.734165 185 185 185 0
3.653646 1.777449 25.816258 185 185 185 0
3.767546 1.784627 25.920509 186 186 186 0
3.880778 1.791128 26.014936 185 185 185 0
4.007261 1.803267 26.191249 186 186 186 0
4.117612 1.807732 26.256091 185 185 185 0
4.239863 1.817084 26.391929 182 182 182 0
4.388445 1.837024 26.681533 183 183 183 0
4.508277 1.844295 26.787147 183 183 183 0
5.536046 2.214418 32.162937 188 188 188 0
5.315900 2.080135 30.212560 199 199 199 0
5.402632 2.069093 30.052188 207 207 207 0
5.545027 2.079385 30.201671 207 207 207 0
5.676335 2.085184 30.285902 208 208 208 0
5.791783 2.085042 30.283833 208 208 208 0
5.899082 2.082029 30.240070 209 209 209 0
6.026559 2.086117 30.299444 207 207 207 0
6.152310 2.089464 30.348058 208 208 208 0
6.275756 2.091919 30.383711 207 207 207 0
6.383375 2.089105 30.342841 208 208 208 0
6.510109 2.092535 30.392666 208 208 208 0
6.635295 2.095356 30.433642 206 206 206 0
6.753111 2.095793 30.439985 207 207 207 0
6.873555 2.097017 30.457761 208 208 208 0
7.005918 2.101776 30.526877 207 207 207 0
7.133493 2.104965 30.573206 207 207 207 0
7.250977 2.105122 30.575489 207 207 207 0
7.367294 2.104941 30.572855 207 207 207 0
7.493890 2.107656 30.612295 207 207 207 0
7.628585 2.112531 30.683099 207 207 207 0
7.740545 2.111058 30.661694 205 205 205 0
7.871272 2.114670 30.714161 207 207 207 0
7.991000 2.115265 30.722799 206 206 206 0
8.117919 2.117718 30.758432 206 206 206 0
8.233714 2.117241 30.751501 206 206 206 0
8.369728 2.121903 30.819216 206 206 206 0
8.491360 2.122840 30.832824 206 206 206 0
8.611570 2.123401 30.840972 205 205 205 0
8.737744 2.125397 30.869966 206 206 206 0
8.869114 2.128587 30.916301 206 206 206 0
8.992862 2.129888 30.935199 205 205 205 0
9.102657 2.127894 30.906229 205 205 205 0
9.240917 2.132519 30.973410 205 205 205 0
9.369349 2.134788 31.006367 206 206 206 0
-0.643389 2.037397 28.034363 84 84 84 0
-0.525557 1.997118 27.480119 97 97 97 0
-0.420598 1.997839 27.490039 120 120 120 0
-0.309317 1.959007 26.955715 129 129 129 0
-0.205559 1.952814 26.870499 142 142 142 0
-0.102141 1.940678 26.703517 146 146 146 0
0.000000 1.929491 26.549588 148 148 148 0
0.101161 1.922053 26.447239 152 152 152 0
0.201353 1.912852 26.320629 156 156 156 0
0.300466 1.902952 26.184403 161 161 161 0
0.398625 1.893467 26.053896 163 163 163 0
0.497552 1.890698 26.015794 166 166 166 0
0.595477 1.885676 25.946700 166 166 166 0
0.692790 1.880430 25.874513 165 165 165 0
0.790626 1.877736 25.837438 168 168 168 0
0.885897 1.870226 25.734108 170 170 170 0
0.979041 1.860178 25.595844 173 173 173 0
1.078492 1.862849 25.632598 176 176 176 0
1.174760 1.860037 25.593901 177 177 177 0
1.275013 1.863481 25.641288 178 178 178 0
1.370838 1.860423 25.599216 178 178 178 0
1.465347 1.856106 25.539819 179 179 179 0
1.558481 1.850697 25.465382 181 181 181 0
1.659108 1.854297 25.514921 181 181 181 0
1.760492 1.858297 25.569958 181 181 181 0
1.849512 1.849512 25.449088 182 182 182 0
1.947474 1.850100 25.457171 181 181 181 0
2.038057 1.843956 25.372635 182 182 182 0
2.147099 1.854313 25.515139 184 184 184 0
2.244097 1.853819 25.508346 184 184 184 0
2.343875 1.855568 25.532410 184 184 184 0
2.433988 1.849831 25.453470 184 184 184 0
2.536489 1.853588 25.505164 185 185 185 0
2.643272 1.860080 25.594496 186 186 186 0
2.744239 1.862162 25.623148 187 187 187 0
2.835556 1.857778 25.562825 185 185 185 0
2.934768 1.858687 25.575322 185 185 185 0
3.044784 1.866158 25.678131 185 185 185 0
3.146001 1.867938 25.702625 184 184 184 0
3.247073 1.869527 25.724482 185 185 185 0
3.366511 1.881286 25.886285 185 185 185 0
3.477831 1.887965 25.978197 183 183 183 0
3.591935 1.895743 26.085218 183 183 183 0
3.701953 1.901003 26.157588 182 182 182 0
3.808912 1.904456 26.205103 185 185 185 0
3.936971 1.918011 26.391627 184 184 184 0
4.063032 1.929940 26.555766 180 180 180 0
4.194319 1.943709 26.745222 182 182 182 0
4.302180 1.946224 26.779834 183 183 183 0
5.081379 2.245260 30.894535 190 190 190 0
5.058049 2.184158 30.053768 200 200 200 0
5.187443 2.190254 30.137648 208 208 208 0
5.286439 2.183529 30.045120 209 209 209 0
5.422485 2.192068 30.162618 208 208 208 0
5.537482 2.191920 30.160577 209 209 209 0
5.653315 2.192102 30.163077 208 208 208 0
5.776930 2.195234 30.206172 207 207 207 0
5.902021 2.198792 30.255137 208 208 208 0
6.025202 2.201516 30.292618 209 209 209 0
6.151958 2.205419 30.346321 207 207 207 0
6.267390 2.205193 30.343208 207 207 207 0
6.380259 2.204089 30.328027 207 207 207 0
6.509925 2.208725 30.391809 207 207 207 0
6.634516 2.211505 30.430069 208 208 208 0
6.751380 2.211659 30.432183 207 207 207 0
6.871662 2.212908 30.449372 207 207 207 0
7.004160 2.217984 30.519215 207 207 207 0
7.119011 2.217397 30.511136 207 207 207 0
7.229934 2.215625 30.486757 208 208 208 0
7.368438 2.222227 30.577602 207 207 207 0
7.493357 2.224590 30.610119 206 206 206 0
7.621032 2.227686 30.652718 206 206 206 0
7.731679 2.225786 30.626575 206 206 206 0
7.865615 2.230548 30.692089 207 207 207 0
7.985053 2.231118 30.699936 206 206 206 0
8.103978 2.231530 30.705611 206 206 206 0
8.230545 2.234005 30.739665 205 205 205 0
8.363402 2.238093 30.795919 205 205 205 0
8.490509 2.240551 30.829736 205 205 205 0
8.602636 2.239042 30.808974 206 206 206 0
8.727936 2.240956 30.835314 205 205 205 0
8.860078 2.244553 30.884802 205 205 205 0
8.981352 2.245338 30.895603 205 205 205 0
9.108052 2.247441 30.924547 205 205 205 0
9.237812 2.250236 30.963004 205 205 205 0
9.363764 2.252044 30.987884 204 204 204 0
-0.428191 2.140955 27.986337 83 83 83 0
-0.315884 2.105893 27.528016 99 99 99 0
-0.208963 2.089628 27.315395 120 120 120 0
-0.103901 2.078015 27.163590 131 131 131 0
0.000000 2.068239 27.035798 138 138 138 0
0.102610 2.052199 26.826127 144 144 144 0
0.204179 2.041792 26.690089 146 146 146 0
0.304585 2.030567 26.543363 150 150 150 0
0.403895 2.019474 26.398354 158 158 158 0
0.502148 2.008590 26.256081 161 161 161 0
0.602755 2.009182 26.263815 163 163 163 0
0.701326 2.003790 26.193332 163 163 163 0
0.799434 1.998586 26.125309 167 167 167 0
0.897773 1.995050 26.079091 166 166 166 0
0.991189 1.982378 25.913434 168 168 168 0
1.090185 1.982154 25.910513 170 170 170 0
1.192477 1.987461 25.979882 170 170 170 0
1.281230 1.971123 25.766311 171 171 171 0
1.381288 1.973268 25.794359 173 173 173 0
1.474047 1.965396 25.691455 175 175 175 0
1.576950 1.971188 25.767159 177 177 177 0
1.675227 1.970855 25.762813 177 177 177 0
1.769942 1.966603 25.707226 178 178 178 0
1.868147 1.966471 25.705502 177 177 177 0
1.961611 1.961611 25.641971 180 180 180 0
2.063485 1.965224 25.689196 180 180 180 0
2.166555 1.969595 25.746345 181 181 181 0
2.266246 1.970649 25.760115 181 181 181 0
2.350286 1.958572 25.602244 182 182 182 0
2.458611 1.966889 25.710968 181 181 181 0
2.558073 1.967749 25.722203 180 180 180 0
2.658007 1.968894 25.737174 181 181 181 0
2.766920 1.976371 25.834921 182 182 182 0
2.867440 1.977545 25.850260 182 182 182 0
2.979721 1.986481 25.967069 181 181 181 0
3.080124 1.987177 25.976169 180 180 180 0
3.183263 1.989540 26.007054 182 182 182 0
3.290181 1.994049 26.065999 183 183 183 0
3.404732 2.002783 26.180175 183 183 183 0
3.522271 2.012726 26.310145 182 182 182 0
3.637777 2.020987 26.418137 179 179 179 0
3.750852 2.027488 26.503108 181 181 181 0
3.887506 2.046056 26.745825 180 180 180 0
4.000034 2.051299 26.814370 179 179 179 0
5.091458 2.545729 33.277502 184 184 184 0
4.725943 2.305338 30.135138 191 191 191 0
4.824077 2.297179 30.028489 202 202 202 0
4.932654 2.294258 29.990297 206 206 206 0
5.059133 2.299606 30.060211 208 208 208 0
5.181022 2.302676 30.100344 209 209 209 0
5.310643 2.308975 30.182680 207 207 207 0
5.414460 2.304026 30.117982 209 209 209 0
5.535376 2.306407 30.149107 209 209 209 0
5.660261 2.310310 30.200136 209 209 209 0
5.796410 2.318564 30.308026 207 207 207 0
5.890806 2.310120 30.197647 208 208 208 0
6.014670 2.313335 30.239668 207 207 207 0
6.143121 2.318159 30.302731 208 208 208 0
6.264196 2.320073 30.327745 208 208 208 0
6.383905 2.321420 30.345360 207 207 207 0
6.507242 2.324015 30.379283 207 207 207 0
6.636062 2.328443 30.437160 207 207 207 0
6.751040 2.327945 30.430651 207 207 207 0
6.865927 2.327433 30.423958 206 206 206 0
7.000317 2.333439 30.502473 207 207 207 0
7.119810 2.334364 30.514559 207 207 207 0
7.236978 2.334509 30.516459 207 207 207 0
7.360422 2.336642 30.544340 206 206 206 0
7.483857 2.338705 30.571312 206 206 206 0
7.611105 2.341878 30.612791 206 206 206 0
7.729504 2.342274 30.617961 206 206 206 0
7.850536 2.343443 30.633248 207 207 207 0
7.980370 2.347168 30.681930 206 206 206 0
8.092491 2.345649 30.662085 206 206 206 0
8.226824 2.350521 30.725767 206 206 206 0
8.353566 2.353117 30.759701 205 205 205 0
8.478821 2.355228 30.787296 206 206 206 0
8.599288 2.355969 30.796986 206 206 206 0
8.724747 2.358040 30.824050 205 205 205 0
8.857634 2.362036 30.876283 205 205 205 0
8.980524 2.363296 30.892757 206 206 206 0
9.092194 2.361609 30.870704 206 206 206 0
9.222779 2.364815 30.912615 206 206 206 0
9.354566 2.368245 30.957445 205 205 205 0
-0.213146 2.238038 27.862284 77 77 77 0
-0.106616 2.238941 27.873528 93 93 93 0
0.000000 2.204867 27.449324 109 109 109 0
0.104540 2.195348 27.330819 121 121 121 0
0.207109 2.174642 27.073046 129 129 129 0
0.308484 2.159387 26.883129 143 143 143 0
0.408229 2.143203 26.681646 153 153 153 0
0.512233 2.151380 26.783444 151 151 151 0
0.608733 2.130565 26.524311 153 153 153 0
0.708275 2.124826 26.452861 155 155 155 0
0.805284 2.113871 26.316480 161 161 161 0
0.905903 2.113775 26.315279 163 163 163 0
1.002276 2.104781 26.203306 167 167 167 0
1.103699 2.107061 26.231700 169 169 169 0
1.204521 2.107911 26.242280 170 170 170 0
1.291634 2.086486 25.975544 170 170 170 0
1.395453 2.093179 26.058879 169 169 169 0
1.494892 2.092849 26.054767 174 174 174 0
1.596819 2.095825 26.091810 175 175 175 0
1.697898 2.097404 26.111472 174 174 174 0
1.787237 2.085110 25.958422 173 173 173 0
1.889025 2.087870 25.992783 174 174 174 0
1.986416 2.085737 25.966225 174 174 174 0
2.090868 2.090868 26.030097 177 177 177 0
2.193147 2.093459 26.062354 178 178 178 0
2.291534 2.092270 26.047560 177 177 177 0
2.394352 2.095058 26.082268 179 179 179 0
2.487764 2.089722 26.015830 177 177 177 0
2.590326 2.092186 26.046512 178 178 178 0
2.699830 2.099867 26.142141 180 180 180 0
2.795097 2.096323 26.098011 181 181 181 0
2.914090 2.110203 26.270816 179 179 179 0
3.007570 2.105299 26.209757 181 181 181 0
3.113700 2.109281 26.259330 180 180 180 0
3.998669 2.624127 32.668867 180 180 180 0
3.346363 2.129504 26.511094 181 181 181 0
3.479365 2.149019 26.754053 179 179 179 0
3.580082 2.148049 26.741974 177 177 177 0
3.715139 2.167164 26.979950 177 177 177 0
3.846643 2.183230 27.179953 180 180 180 0
4.258606 2.353440 29.298978 187 187 187 0
4.428502 2.384578 29.686626 198 198 198 0
4.571039 2.399795 29.876069 205 205 205 0
4.708572 2.411707 30.024369 209 209 209 0
4.820346 2.410173 30.005269 209 209 209 0
4.927633 2.406519 29.959772 208 208 208 0
5.057260 2.413692 30.049080 209 209 209 0
5.172824 2.413985 30.052720 208 208 208 0
5.290251 2.415115 30.066786 209 209 209 0
5.411549 2.417926 30.101790 209 209 209 0
5.526865 2.418004 30.102751 208 208 208 0
5.659535 2.425515 30.196268 208 208 208 0
5.775361 2.425652 30.197967 209 209 209 0
5.879649 2.421032 30.140454 208 208 208 0
6.014429 2.428904 30.238459 208 208 208 0
6.145639 2.435064 30.315151 207 207 207 0
6.250553 2.430771 30.261696 207 207 207 0
6.378101 2.435275 30.317771 207 207 207 0
6.495867 2.435950 30.326178 206 206 206 0
6.623995 2.440419 30.381813 207 207 207 0
6.742066 2.441093 30.390199 208 208 208 0
6.855489 2.440089 30.377705 207 207 207 0
6.986699 2.445345 30.443132 207 207 207 0
7.121131 2.451537 30.520222 206 206 206 0
7.232063 2.449570 30.495734 206 206 206 0
7.347599 2.449200 30.491127 206 206 206 0
7.475133 2.452778 30.535673 206 206 206 0
7.610312 2.458716 30.609601 207 207 207 0
7.721280 2.456771 30.585385 206 206 206 0
7.848875 2.460095 30.626770 206 206 206 0
7.977172 2.463539 30.669636 206 206 206 0
8.088190 2.461623 30.645789 206 206 206 0
8.218672 2.465602 30.695320 206 206 206 0
8.345234 2.468309 30.729022 206 206 206 0
8.476368 2.472274 30.778386 206 206 206 0
8.588757 2.470738 30.759271 205 205 205 0
8.716277 2.473538 30.794126 206 206 206 0
8.851826 2.478511 30.856037 205 205 205 0
8.980023 2.481322 30.891031 205 205 205 0
9.091804 2.479583 30.869380 205 205 205 0
9.215923 2.481210 30.889636 205 205 205 0
9.350203 2.485497 30.943005 205 205 205 0
0.133752 2.942544 34.967841 87 87 87 0
0.267615 2.943766 34.982365 101 101 101 0
0.313175 2.296618 27.291950 119 119 119 0
0.418098 2.299540 27.326677 130 130 130 0
0.517907 2.278789 27.080081 135 135 135 0
0.618863 2.269164 26.965710 142 142 142 0
0.719299 2.260655 26.864585 148 148 148 0
0.816995 2.246736 26.699174 152 152 152 0
0.922442 2.254858 26.795696 157 157 157 0
1.021690 2.247718 26.710847 159 159 159 0
1.118872 2.237744 26.592327 161 161 161 0
1.215254 2.227966 26.476131 161 161 161 0
1.314398 2.224366 26.433351 162 162 162 0
1.415721 2.224704 26.437367 166 166 166 0
1.516589 2.224330 26.432918 168 168 168 0
1.618859 2.225931 26.451944 169 169 169 0
1.719447 2.225166 26.442855 171 171 171 0
1.810292 2.212579 26.293272 171 171 171 0
1.913012 2.215066 26.322831 172 172 172 0
2.015031 2.216535 26.340280 173 173 173 0
2.112150 2.212729 26.295054 174 174 174 0
2.217017 2.217017 26.346014 176 176 176 0
2.311882 2.211366 26.278854 175 175 175 0
2.419016 2.217431 26.350933 177 177 177 0
2.529277 2.225763 26.449952 176 176 176 0
2.624248 2.220518 26.387615 177 177 177 0
3.417131 2.784329 33.087690 177 177 177 0
2.843437 2.234129 26.549361 175 175 175 0
2.952916 2.240143 26.620836 175 175 175 0
3.054173 2.239727 26.615884 176 176 176 0
3.177962 2.255328 26.801285 176 176 176 0
4.096722 2.816497 33.469954 175 175 175 0
4.219562 2.813041 33.428890 178 178 178 0
4.416252 2.857575 33.958106 181 181 181 0
3.875558 2.436065 28.949080 188 188 188 0
4.067552 2.485726 29.539230 197 197 197 0
4.222654 2.510767 29.836805 204 204 204 0
4.341659 2.513592 29.870378 209 209 209 0
4.453047 2.511975 29.851158 209 209 209 0
4.577192 2.517456 29.916287 209 209 209 0
4.696384 2.520011 29.946651 210 210 210 0
4.828017 2.528961 30.053017 210 210 210 0
4.925085 2.519811 29.944276 208 208 208 0
5.051786 2.525893 30.016554 210 210 210 0
5.174844 2.529924 30.064456 208 208 208 0
5.299645 2.534613 30.120179 210 210 210 0
5.408788 2.531773 30.086432 207 207 207 0
5.526594 2.533022 30.101276 208 208 208 0
5.650250 2.536847 30.146724 207 207 207 0
5.772464 2.539884 30.182816 207 207 207 0
5.883421 2.537946 30.159790 208 208 208 0
6.012215 2.543630 30.227327 207 207 207 0
6.130792 2.544857 30.241912 207 207 207 0
6.248990 2.545885 30.254126 206 206 206 0
6.370350 2.548140 30.280929 207 207 207 0
6.497478 2.552581 30.333699 207 207 207 0
6.611423 2.551777 30.324149 207 207 207 0
6.735973 2.555024 30.362735 207 207 207 0
6.855931 2.556449 30.379664 206 206 206 0
6.987964 2.562253 30.448645 206 206 206 0
7.109787 2.564185 30.471603 207 207 207 0
7.229105 2.565166 30.483259 206 206 206 0
7.346849 2.565566 30.488015 206 206 206 0
7.474762 2.569450 30.534159 206 206 206 0
7.594030 2.570287 30.544112 207 207 207 0
7.726858 2.575619 30.607479 206 206 206 0
7.840228 2.574403 30.593027 206 206 206 0
7.973782 2.579753 30.656601 206 206 206 0
8.091036 2.579751 30.656573 205 205 205 0
8.209688 2.580188 30.661767 205 205 205 0
8.335611 2.582865 30.693587 206 206 206 0
8.475412 2.589709 30.774918 205 205 205 0
8.590359 2.588875 30.765006 206 206 206 0
8.709947 2.589444 30.771762 205 205 205 0
8.845782 2.594763 30.834969 205 205 205 0
8.970710 2.596784 30.858994 205 205 205 0
9.079001 2.594000 30.825910 205 205 205 0
9.212315 2.598345 30.877544 206 206 206 0
9.341473 2.601423 30.914117 205 205 205 0
0.267730 3.078897 34.997410 75 75 75 0
0.319647 2.450628 27.855962 75 75 75 0
0.432880 2.489061 28.292825 84 84 84 0
0.668919 3.077026 34.976138 103 103 103 0
0.636201 2.438772 27.721194 113 113 113 0
0.936855 3.078237 34.989908 126 126 126 0
1.070703 3.078270 34.990279 139 139 139 0
0.932841 2.383928 27.097785 146 146 146 0
1.338626 3.078840 34.996763 148 148 148 0
1.129221 2.361099 26.838299 151 151 151 0
1.239093 2.374929 26.995498 154 154 154 0
1.336637 2.364819 26.880583 157 157 157 0
1.445541 2.374817 26.994222 159 159 159 0
1.547438 2.372738 26.970594 163 163 163 0
1.645808 2.365849 26.892287 165 165 165 0
2.236391 3.025705 34.392780 165 165 165 0
1.843845 2.356024 26.780612 164 164 164 0
1.947148 2.357074 26.792539 165 165 165 0
2.588525 2.976804 33.836929 169 169 169 0
2.728408 2.988256 33.967107 171 171 171 0
2.251704 2.354054 26.758215 169 169 169 0
2.347279 2.347279 26.681202 172 172 172 0
2.466112 2.363357 26.863960 170 170 170 0
3.233557 2.974873 33.814979 172 172 172 0
3.339993 2.954609 33.584643 175 175 175 0
2.782881 2.370602 26.946319 174 174 174 0
3.635047 2.985932 33.940683 173 173 173 0
3.791426 3.006993 34.180084 172 172 172 0
3.176429 2.435262 27.681295 177 177 177 0
3.414973 2.533690 28.800111 187 187 187 0
3.599696 2.587282 29.409284 195 195 195 0
3.743625 2.609193 29.658349 203 203 203 0
3.866726 2.615726 29.732611 207 207 207 0
3.975226 2.612291 29.693564 209 209 209 0
4.100220 2.619585 29.776474 208 208 208 0
4.228009 2.628222 29.874643 209 209 209 0
4.345779 2.630340 29.898721 208 208 208 0
4.462035 2.631457 29.911416 209 209 209 0
4.564248 2.624443 29.831687 209 209 209 0
4.693120 2.632726 29.925844 209 209 209 0
4.814259 2.636380 29.967377 208 208 208 0
4.920232 2.631752 29.914770 209 209 209 0
5.041210 2.635178 29.953714 209 209 209 0
5.164419 2.639592 30.003885 208 208 208 0
5.282512 2.641256 30.022803 208 208 208 0
5.405115 2.645056 30.065998 208 208 208 0
5.518454 2.644259 30.056939 207 207 207 0
5.641926 2.648251 30.102312 207 207 207 0
5.771011 2.654665 30.175220 207 207 207 0
5.880198 2.651854 30.143267 209 209 209 0
6.005962 2.656483 30.195885 207 207 207 0
6.132290 2.661182 30.249302 207 207 207 0
6.239780 2.657684 30.209540 207 207 207 0
6.367843 2.662916 30.269012 208 208 208 0
6.489692 2.665409 30.297350 207 207 207 0
6.617829 2.670352 30.353533 208 208 208 0
6.725427 2.666980 30.315200 207 207 207 0
6.847504 2.669366 30.342323 208 208 208 0
6.983820 2.677131 30.430590 207 207 207 0
7.107107 2.679729 30.460118 207 207 207 0
7.223051 2.679519 30.457733 206 206 206 0
7.348031 2.682614 30.492917 207 207 207 0
7.470978 2.684883 30.518700 206 206 206 0
7.590396 2.685833 30.529498 206 206 206 0
7.720395 2.690441 30.581877 205 205 205 0
7.830377 2.688040 30.554588 206 206 206 0
7.958643 2.691894 30.598397 207 207 207 0
8.086718 2.695573 30.640211 207 207 207 0
8.205428 2.696069 30.645857 205 205 205 0
8.333056 2.699441 30.684180 207 207 207 0
8.466788 2.704668 30.743603 205 205 205 0
8.579251 2.703052 30.725224 205 205 205 0
8.705547 2.705778 30.756216 206 206 206 0
8.843219 2.711920 30.826034 206 206 206 0
8.958454 2.711111 30.816834 205 205 205 0
9.076353 2.711119 30.816920 205 205 205 0
9.209928 2.715748 30.869543 204 204 204 0
9.341174 2.719582 30.913127 205 205 205 0
0.934476 3.203917 34.901053 86 86 86 0
0.873774 2.621322 28.554706 87 87 87 0
0.953128 2.541675 27.687089 92 92 92 0
1.056446 2.535471 27.619507 113 113 113 0
1.471893 3.211403 34.982608 126 126 126 0
1.269807 2.539614 27.664639 125 125 125 0
1.427162 2.634761 28.701099 157 157 157 0
1.526574 2.616984 28.507450 167 167 167 0
1.621140 2.593824 28.255168 169 169 169 0
2.140929 3.211393 34.982500 166 166 166 0
2.275503 3.212475 34.994276 166 166 166 0
2.409303 3.212403 34.993502 163 163 163 0
2.009428 2.538225 27.649508 163 163 163 0
2.677372 3.212846 34.998328 169 169 169 0
2.811289 3.212901 34.998926 173 173 173 0
2.363378 2.578231 28.085303 173 173 173 0
2.492247 2.600606 28.329042 177 177 177 0
2.604841 2.604841 28.375172 181 181 181 0
2.758714 2.648365 28.849297 184 184 184 0
2.892271 2.669789 29.082668 193 193 193 0
3.022172 2.686375 29.263347 194 194 194 0
3.154315 2.703699 29.452056 201 201 201 0
3.276405 2.711508 29.537124 206 206 206 0
3.393880 2.715104 29.576298 207 207 207 0
3.516431 2.722398 29.655750 208 208 208 0
3.633533 2.725149 29.685723 208 208 208 0
3.759732 2.734351 29.785954 210 210 210 0
3.868562 2.730750 29.746727 209 209 209 0
3.982675 2.730977 29.749209 209 209 209 0
4.099319 2.732880 29.769930 210 210 210 0
4.215254 2.734219 29.784516 210 210 210 0
4.326731 2.732672 29.767673 209 209 209 0
4.459279 2.744172 29.892937 209 209 209 0
4.571523 2.742914 29.879238 209 209 209 0
4.689800 2.745249 29.904674 208 208 208 0
4.805898 2.746227 29.915329 207 207 207 0
4.906248 2.738371 29.829747 207 207 207 0
5.040666 2.749454 29.950483 208 208 208 0
5.171493 2.758129 30.044983 208 208 208 0
5.269893 2.749509 29.951081 207 207 207 0
5.405184 2.760094 30.066383 208 208 208 0
5.518977 2.759488 30.059787 207 207 207 0
5.649177 2.766944 30.141001 208 208 208 0
5.757987 2.763834 30.107120 208 208 208 0
5.885042 2.769432 30.168099 207 207 207 0
6.003096 2.770660 30.181480 207 207 207 0
6.126567 2.774295 30.221075 207 207 207 0
6.244489 2.775328 30.232335 207 207 207 0
6.359087 2.774874 30.227387 206 206 206 0
6.482765 2.778328 30.265009 207 207 207 0
6.610097 2.783199 30.318068 207 207 207 0
6.732938 2.786044 30.349058 207 207 207 0
6.842997 2.783592 30.322354 206 206 206 0
6.974789 2.789916 30.391238 206 206 206 0
7.099802 2.793365 30.428809 206 206 206 0
7.221567 2.795445 30.451476 206 206 206 0
7.338012 2.795433 30.451340 206 206 206 0
7.464569 2.799214 30.492522 206 206 206 0
7.585836 2.800924 30.511155 205 205 205 0
7.707194 2.802616 30.529584 206 206 206 0
7.830966 2.805122 30.556885 207 207 207 0
7.953823 2.807232 30.579866 205 205 205 0
8.075759 2.808960 30.598689 206 206 206 0
8.208275 2.814266 30.656489 205 205 205 0
8.325781 2.814349 30.657393 205 205 205 0
8.445024 2.815008 30.664576 206 206 206 0
8.573951 2.818833 30.706243 205 205 205 0
8.693727 2.819587 30.714457 205 205 205 0
8.828289 2.825052 30.773992 206 206 206 0
8.949293 2.826093 30.785322 205 205 205 0
9.068625 2.826585 30.790681 206 206 206 0
9.197714 2.830066 30.828604 205 205 205 0
9.334967 2.835939 30.892585 205 205 205 0
1.399906 2.916471 30.499042 88 88 88 0
1.460218 2.808111 29.365868 188 188 188 0
1.568403 2.800720 29.288571 206 206 206 0
1.681731 2.802886 29.311222 206 206 206 0
1.790362 2.797440 29.254279 207 207 207 0
1.903005 2.798537 29.265749 205 205 205 0
2.011230 2.793375 29.211766 207 207 207 0
2.123949 2.794670 29.225306 204 204 204 0
2.242128 2.802661 29.308868 205 205 205 0
2.360801 2.810477 29.390608 207 207 207 0
2.476379 2.814067 29.428147 207 207 207 0
2.585018 2.809802 29.383554 208 208 208 0
2.703512 2.816158 29.450017 208 208 208 0
2.823265 2.823265 29.524344 209 209 209 0
2.938231 2.825222 29.544810 209 209 209 0
3.044182 2.818687 29.476465 210 210 210 0
3.162559 2.823713 29.529026 210 210 210 0
3.287996 2.834479 29.641609 210 210 210 0
3.396400 2.830333 29.598254 209 209 209 0
3.514922 2.834615 29.643030 210 210 210 0
3.632389 2.837804 29.676379 210 210 210 0
3.752392 2.842721 29.727802 208 208 208 0
3.864264 2.841371 29.713680 209 209 209 0
3.981280 2.843771 29.738786 207 207 207 0
4.095257 2.843929 29.740432 210 210 210 0
4.210064 2.844638 29.747849 209 209 209 0
4.336533 2.852982 29.835107 209 209 209 0
4.455067 2.855812 29.864700 207 207 207 0
4.566857 2.854285 29.848737 208 208 208 0
4.690791 2.860238 29.910988 209 209 209 0
4.806857 2.861224 29.921299 207 207 207 0
4.920696 2.860870 29.917595 208 208 208 0
5.040223 2.863763 29.947848 207 207 207 0
5.164662 2.869257 30.005300 207 207 207 0
5.280797 2.869998 30.013052 207 207 207 0
5.387790 2.865845 29.969626 208 208 208 0
5.510633 2.870121 30.014341 208 208 208 0
5.646948 2.881096 30.129108 207 207 207 0
5.747734 2.873867 30.053510 208 208 208 0
5.871065 2.877973 30.096449 206 206 206 0
5.992967 2.881234 30.130552 207 207 207 0
6.127996 2.890564 30.228123 208 208 208 0
6.244809 2.891115 30.233887 207 207 207 0
6.343151 2.883251 30.151640 208 208 208 0
6.482465 2.893958 30.263611 206 206 206 0
6.613286 2.900564 30.332694 208 208 208 0
6.721166 2.897054 30.295994 207 207 207 0
6.839527 2.898104 30.306975 206 206 206 0
6.968547 2.903561 30.364039 206 206 206 0
7.099294 2.909547 30.426632 206 206 206 0
7.220025 2.911300 30.444971 206 206 206 0
7.333047 2.909939 30.430737 206 206 206 0
7.460518 2.914265 30.475972 206 206 206 0
7.582304 2.916271 30.496951 205 205 205 0
7.703887 2.918139 30.516487 206 206 206 0
7.826817 2.920454 30.540695 206 206 206 0
7.955709 2.924893 30.587118 205 205 205 0
8.073010 2.925004 30.588273 206 206 206 0
8.197126 2.927545 30.614848 205 205 205 0
8.323836 2.930928 30.650228 205 205 205 0
8.448919 2.933652 30.678717 206 206 206 0
8.567227 2.933982 30.682162 205 205 205 0
8.696163 2.937893 30.723062 206 206 206 0
8.824889 2.941630 30.762140 205 205 205 0
8.954705 2.945627 30.803940 205 205 205 0
9.061835 2.942154 30.767625 206 206 206 0
9.199675 2.948614 30.835175 206 206 206 0
9.315551 2.947959 30.828331 205 205 205 0
1.360190 2.947079 29.633779 81 81 81 0
1.460595 2.921189 29.373445 188 188 188 0
1.566225 2.908704 29.247908 206 206 206 0
1.679307 2.910799 29.268972 207 207 207 0
1.791604 2.911357 29.274578 209 209 209 0
1.907609 2.917519 29.336541 209 209 209 0
2.017739 2.914512 29.306308 209 209 209 0
2.130946 2.916031 29.321579 208 208 208 0
2.246849 2.920904 29.370579 209 209 209 0
2.360789 2.922881 29.390460 209 209 209 0
2.476328 2.926570 29.427547 210 210 210 0
2.585558 2.922804 29.389688 209 209 209 0
2.701982 2.927147 29.433355 209 209 209 0
2.819667 2.932453 29.486710 209 209 209 0
2.935238 2.935238 29.514715 210 210 210 0
3.043019 2.930315 29.465204 210 210 210 0
3.163698 2.937720 29.539667 209 209 209 0
3.285315 2.945454 29.617440 209 209 209 0
3.397865 2.944816 29.611021 209 209 209 0
3.507732 2.941969 29.582389 208 208 208 0
3.628059 2.947798 29.641002 208 208 208 0
3.749847 2.954425 29.707640 209 209 209 0
3.861913 2.953228 29.695601 208 208 208 0
3.970416 2.949452 29.657638 210 210 210 0
4.094652 2.957249 29.736035 209 209 209 0
4.217044 2.963328 29.797166 208 208 208 0
4.322767 2.957683 29.740399 207 207 207 0
4.452777 2.968518 29.849350 208 208 208 0
4.564927 2.967202 29.836123 207 207 207 0
4.685990 2.971603 29.880376 208 208 208 0
4.806071 2.975187 29.916407 208 208 208 0
4.915582 2.972212 29.886499 209 209 209 0
5.041038 2.978795 29.952690 207 207 207 0
5.160283 2.981497 29.979858 208 208 208 0
5.279382 2.983999 30.005016 207 207 207 0
5.396744 2.985433 30.019436 208 208 208 0
5.513383 2.986416 30.029319 207 207 207 0
5.638679 2.991952 30.084987 208 208 208 0
5.754629 2.992407 30.089563 208 208 208 0
5.870378 2.992742 30.092930 207 207 207 0
5.996198 2.998099 30.146795 207 207 207 0
6.117673 3.001122 30.177198 207 207 207 0
6.231822 3.000507 30.171010 207 207 207 0
6.349809 3.001728 30.183288 207 207 207 0
6.476634 3.007008 30.236384 207 207 207 0
6.605848 3.013194 30.298581 206 206 206 0
6.719634 3.012250 30.289087 206 206 206 0
6.837603 3.013181 30.298453 206 206 206 0
6.961465 3.016635 30.333181 207 207 207 0
7.085074 3.019868 30.365686 207 207 207 0
7.203116 3.020662 30.373672 207 207 207 0
7.331058 3.025516 30.422485 206 206 206 0
7.451245 3.027068 30.438091 206 206 206 0
7.572077 3.028831 30.455815 206 206 206 0
7.696474 3.031944 30.487124 205 205 205 0
7.824479 3.036365 30.531573 206 206 206 0
7.945073 3.037822 30.546226 205 205 205 0
8.075415 3.042910 30.597387 205 205 205 0
8.199481 3.045521 30.623643 206 206 206 0
8.312312 3.043945 30.607797 206 206 206 0
8.445808 3.049875 30.667421 206 206 206 0
8.571827 3.052980 30.698638 206 206 206 0
8.681331 3.050197 30.670661 206 206 206 0
8.815631 3.056085 30.729869 206 206 206 0
8.948219 3.061233 30.781628 206 206 206 0
9.058870 3.058839 30.757559 205 205 205 0
9.190467 3.063489 30.804314 205 205 205 0
9.312253 3.064792 30.817417 205 205 205 0
1.360190 3.060429 29.633779 76 76 76 0
1.458102 3.028365 29.323311 187 187 187 0
1.566128 3.020390 29.246090 207 207 207 0
1.677495 3.019492 29.237392 207 207 207 0
1.789386 3.019588 29.238328 208 208 208 0
1.903001 3.022413 29.265677 209 209 209 0
2.020473 3.030710 29.346014 207 207 207 0
2.132757 3.030759 29.346496 208 208 208 0
2.247386 3.033971 29.377598 208 208 208 0
2.361555 3.036285 29.400000 208 208 208 0
2.476892 3.039822 29.434245 209 209 209 0
2.590923 3.041518 29.450669 207 207 207 0
2.700486 3.038047 29.417063 209 209 209 0
2.812166 3.037139 29.408269 208 208 208 0
2.923182 3.035612 29.393483 209 209 209 0
3.041194 3.041194 29.447531 209 209 209 0
3.161199 3.048299 29.516334 208 208 208 0
3.279772 3.053580 29.567470 207 207 207 0
3.390680 3.051612 29.548412 208 208 208 0
3.515326 3.061736 29.646436 208 208 208 0
3.625768 3.059242 29.622287 208 208 208 0
3.747946 3.066501 29.692577 208 208 208 0
3.859518 3.064911 29.677185 209 209 209 0
3.977554 3.068399 29.710958 209 209 209 0
4.088432 3.066324 29.690863 208 208 208 0
4.209385 3.071713 29.743046 207 207 207 0
4.325955 3.073705 29.762331 209 209 209 0
4.444955 3.077277 29.796919 209 209 209 0
4.558386 3.076911 29.793374 209 209 209 0
4.678069 3.080680 29.829869 208 208 208 0
4.798316 3.084632 29.868138 208 208 208 0
4.915768 3.086645 29.887630 207 207 207 0
5.028799 3.085854 29.879969 208 208 208 0
5.150682 3.090409 29.924077 207 207 207 0
5.277433 3.097624 29.993936 208 208 208 0
5.383235 3.092497 29.944291 207 207 207 0
5.507824 3.098151 29.999041 207 207 207 0
5.629588 3.102018 30.036483 206 206 206 0
5.751647 3.105889 30.073971 207 207 207 0
5.867618 3.106386 30.078778 207 207 207 0
5.989826 3.110102 30.114761 207 207 207 0
6.116259 3.115830 30.170225 207 207 207 0
6.241335 3.120667 30.217065 207 207 207 0
6.355185 3.119818 30.208841 207 207 207 0
6.469135 3.119047 30.201377 206 206 206 0
6.600842 3.126715 30.275619 207 207 207 0
6.712412 3.124743 30.256532 206 206 206 0
6.835052 3.127905 30.287149 205 205 205 0
6.961118 3.132503 30.331670 207 207 207 0
7.078506 3.133109 30.337539 207 207 207 0
7.200640 3.135762 30.363229 207 207 207 0
7.322526 3.138225 30.387078 206 206 206 0
7.448901 3.142505 30.428516 205 205 205 0
7.581265 3.149141 30.492770 206 206 206 0
7.698502 3.149387 30.495154 206 206 206 0
7.814380 3.149078 30.492166 207 207 207 0
7.942110 3.153485 30.534831 206 206 206 0
8.065945 3.156239 30.561505 207 207 207 0
8.187529 3.158047 30.579006 205 205 205 0
8.308755 3.159668 30.594699 206 206 206 0
8.442007 3.165753 30.653620 205 205 205 0
8.566426 3.168404 30.679293 206 206 206 0
8.679728 3.166928 30.665001 206 206 206 0
8.806487 3.170335 30.697993 205 205 205 0
8.936577 3.174837 30.741579 206 206 206 0
9.051391 3.173864 30.732166 205 205 205 0
9.188276 3.180557 30.796971 205 205 205 0
9.313086 3.182954 30.820174 205 205 205 0
1.359655 3.172528 29.622109 80 80 80 0
1.459486 3.143508 29.351148 187 187 187 0
1.566060 3.132119 29.244811 208 208 208 0
1.676160 3.128831 29.214110 206 206 206 0
1.788645 3.130128 29.226219 207 207 207 0
1.903303 3.134852 29.270328 207 207 207 0
2.012767 3.130971 29.234092 209 209 209 0
2.130973 3.140381 29.321948 208 208 208 0
2.239216 3.134903 29.270801 208 208 208 0
2.361967 3.149289 29.405125 208 208 208 0
2.472274 3.146531 29.379371 208 208 208 0
2.578276 3.138771 29.306915 210 210 210 0
2.702700 3.153150 29.441179 208 208 208 0
2.817290 3.155365 29.461857 208 208 208 0
2.924899 3.149892 29.410752 208 208 208 0
3.039443 3.152015 29.430574 208 208 208 0
3.159343 3.159343 29.498998 208 208 208 0
3.276298 3.163322 29.536151 208 208 208 0
3.394071 3.167800 29.577964 208 208 208 0
3.504079 3.164975 29.551583 209 209 209 0
3.619255 3.166848 29.569078 208 208 208 0
3.743680 3.176456 29.658784 209 209 209 0
3.865131 3.183049 29.720346 209 209 209 0
3.970867 3.176694 29.661007 208 208 208 0
4.089131 3.180435 29.695937 208 208 208 0
4.207485 3.184043 29.729627 208 208 208 0
4.320590 3.183592 29.725418 208 208 208 0
4.437603 3.185971 29.747631 207 207 207 0
4.557320 3.190124 29.786404 208 208 208 0
4.678368 3.194983 29.831774 207 207 207 0
4.796647 3.197765 29.857749 207 207 207 0
4.902690 3.192449 29.808116 207 207 207 0
5.029871 3.200827 29.886342 207 207 207 0
5.144316 3.200908 29.887093 207 207 207 0
5.268027 3.206625 29.940478 207 207 207 0
5.386956 3.209251 29.964992 208 208 208 0
5.505531 3.211560 29.986552 208 208 208 0
5.639000 3.222286 30.086700 207 207 207 0
5.756728 3.223768 30.100540 206 206 206 0
5.861915 3.218306 30.049543 206 206 206 0
5.984532 3.222440 30.088146 206 206 206 0
6.104902 3.225231 30.114203 207 207 207 0
6.226605 3.228610 30.145754 206 206 206 0
6.343080 3.229204 30.151301 207 207 207 0
6.464967 3.232484 30.181919 207 207 207 0
6.591805 3.238080 30.234171 207 207 207 0
6.719686 3.243986 30.289320 207 207 207 0
6.828067 3.240439 30.256198 206 206 206 0
6.956151 3.246204 30.310028 207 207 207 0
7.079182 3.249461 30.340437 206 206 206 0
7.201664 3.252364 30.367546 206 206 206 0
7.317825 3.252367 30.367569 205 205 205 0
7.442365 3.256035 30.401819 207 207 207 0
7.564009 3.258342 30.423364 207 207 207 0
7.684390 3.260044 30.439256 206 206 206 0
7.804140 3.261432 30.452209 205 205 205 0
7.932296 3.266239 30.497100 206 206 206 0
8.063572 3.272174 30.552513 206 206 206 0
8.176477 3.270591 30.537730 205 205 205 0
8.302900 3.274383 30.573138 206 206 206 0
8.428785 3.277861 30.605611 206 206 206 0
8.552462 3.280396 30.629285 206 206 206 0
8.671639 3.281161 30.636420 205 205 205 0
8.806199 3.287648 30.696990 206 206 206 0
8.935482 3.292020 30.737812 205 205 205 0
9.052709 3.291894 30.736641 205 205 205 0
9.174080 3.293259 30.749387 205 205 205 0
9.304181 3.297685 30.790705 205 205 205 0
1.366861 3.303248 29.779115 76 76 76 0
1.455791 3.247533 29.276840 187 187 187 0
1.565397 3.242608 29.232437 207 207 207 0
1.673434 3.235306 29.166612 207 207 207 0
1.788315 3.241320 29.220829 208 208 208 0
1.902071 3.244709 29.251379 208 208 208 0
2.019283 3.253290 29.328734 208 208 208 0
2.128454 3.248693 29.287293 208 208 208 0
2.236966 3.243601 29.241386 208 208 208 0
2.355386 3.252677 29.323206 209 209 209 0
2.469355 3.255059 29.344688 207 207 207 0
2.588756 3.264084 29.426042 206 206 206 0
2.692315 3.253214 29.328051 207 207 207 0
2.813123 3.263222 29.418277 208 208 208 0
2.927874 3.265706 29.440663 209 209 209 0
3.037080 3.262048 29.407694 209 209 209 0
3.158912 3.271730 29.494972 208 208 208 0
3.275058 3.275058 29.524977 208 208 208 0
3.393428 3.280314 29.572360 208 208 208 0
3.507647 3.281347 29.581677 208 208 208 0
3.619629 3.280288 29.572130 206 206 206 0
3.739755 3.286451 29.627689 208 208 208 0
3.854384 3.287563 29.637710 208 208 208 0
3.977300 3.295477 29.709057 209 209 209 0
4.081394 3.287789 29.639751 208 208 208 0
4.202468 3.293826 29.694173 208 208 208 0
4.323524 3.299531 29.745607 208 208 208 0
4.444511 3.304893 29.793939 207 207 207 0
4.552144 3.300304 29.752573 208 208 208 0
4.672336 3.304823 29.793309 208 208 208 0
4.800463 3.314605 29.881501 207 207 207 0
4.907349 3.309608 29.836444 207 207 207 0
5.024883 3.311855 29.856705 207 207 207 0
5.146529 3.316652 29.899952 208 208 208 0
5.265192 3.319360 29.924365 207 207 207 0
5.391313 3.326555 29.989223 208 208 208 0
5.501818 3.324015 29.966331 207 207 207 0
5.628443 3.331119 30.030375 207 207 207 0
5.739881 3.329131 30.012448 208 208 208 0
5.856689 3.330274 30.022758 207 207 207 0
5.975914 3.332722 30.044819 207 207 207 0
6.102678 3.339201 30.103233 206 206 206 0
6.221600 3.341230 30.121520 207 207 207 0
6.340010 3.342914 30.136709 207 207 207 0
6.463321 3.347077 30.174232 206 206 206 0
6.586811 3.351185 30.211266 207 207 207 0
6.704329 3.352164 30.220098 207 207 207 0
6.826695 3.355494 30.250118 206 206 206 0
6.949086 3.358725 30.279243 206 206 206 0
7.076497 3.364236 30.328929 205 205 205 0
7.182628 3.359616 30.287279 207 207 207 0
7.312244 3.365954 30.344409 207 207 207 0
7.434403 3.368714 30.369291 206 206 206 0
7.565748 3.375487 30.430358 207 207 207 0
7.686869 3.377564 30.449075 206 206 206 0
7.800079 3.376154 30.436364 206 206 206 0
7.930376 3.382072 30.489720 206 206 206 0
8.056605 3.386109 30.526115 205 205 205 0
8.175855 3.387140 30.535406 206 206 206 0
8.293171 3.387352 30.537314 206 206 206 0
8.422621 3.392445 30.583229 205 205 205 0
8.549503 3.396378 30.618689 206 206 206 0
8.668679 3.397185 30.625962 205 205 205 0
8.803078 3.403857 30.686109 205 205 205 0
8.917702 3.402807 30.676649 205 205 205 0
9.046470 3.407112 30.715456 206 206 206 0
9.165534 3.407699 30.720745 205 205 205 0
9.301403 3.414439 30.781512 205 205 205 0
1.347635 3.369088 29.360245 76 76 76 0
1.456202 3.360465 29.285102 186 186 186 0
1.565637 3.354937 29.236927 207 207 207 0
1.673124 3.346248 29.161203 207 207 207 0
1.785229 3.347304 29.170406 205 205 205 0
1.899735 3.352473 29.215451 207 207 207 0
2.009938 3.349897 29.193006 208 208 208 0
2.123329 3.352625 29.216774 208 208 208 0
2.240754 3.361131 29.290906 208 208 208 0
2.351826 3.359752 29.278880 207 207 207 0
2.470735 3.369184 29.361077 208 208 208 0
2.586389 3.373551 29.399135 208 208 208 0
2.692081 3.365101 29.325503 207 207 207 0
2.810686 3.372824 29.392798 207 207 207 0
2.932402 3.383541 29.486194 207 207 207 0
3.040522 3.378358 29.441024 208 208 208 0
3.154815 3.380158 29.456719 208 208 208 0
3.273497 3.386376 29.510906 207 207 207 0
3.387042 3.387042 29.516703 208 208 208 0
3.503216 3.390209 29.544304 208 208 208 0
3.616985 3.390923 29.550531 208 208 208 0
3.732787 3.393442 29.572482 207 207 207 0
3.850616 3.397603 29.608737 207 207 207 0
3.966181 3.399583 29.626000 210 210 210 0
4.081501 3.401250 29.640527 207 207 207 0
4.201659 3.406750 29.688457 209 209 209 0
4.322209 3.412270 29.736560 206 206 206 0
4.436074 3.412365 29.737385 206 206 206 0
4.549503 3.412127 29.735316 206 206 206 0
4.671973 3.418517 29.790998 208 208 208 0
4.788420 3.420300 29.806537 207 207 207 0
4.896836 3.416397 29.772526 209 209 209 0
5.021012 3.423417 29.833702 208 208 208 0
5.142242 3.428161 29.875046 207 207 207 0
5.259944 3.430398 29.894540 207 207 207 0
5.378022 3.432780 29.915293 207 207 207 0
5.496220 3.435137 29.935837 208 208 208 0
5.625701 3.444307 30.015746 207 207 207 0
5.743919 3.446351 30.033564 206 206 206 0
5.847430 3.439665 29.975291 207 207 207 0
5.971054 3.444839 30.020381 207 207 207 0
6.102978 3.454516 30.104713 207 207 207 0
6.215511 3.453062 30.092040 206 206 206 0
6.329585 3.452501 30.087154 207 207 207 0
6.455684 3.458402 30.138580 206 206 206 0
6.581355 3.463871 30.186238 207 207 207 0
6.704800 3.468000 30.222221 206 206 206 0
6.831056 3.473419 30.269443 206 206 206 0
6.942535 3.471268 30.250699 206 206 206 0
7.066915 3.475532 30.287861 206 206 206 0
7.176744 3.472618 30.262466 206 206 206 0
7.308926 3.480441 30.330639 206 206 206 0
7.431837 3.483674 30.358813 207 207 207 0
7.561982 3.490145 30.415210 206 206 206 0
7.675816 3.489007 30.405292 206 206 206 0
7.786657 3.486563 30.383988 206 206 206 0
7.925890 3.496716 30.472471 205 205 205 0
8.051822 3.500792 30.507994 206 206 206 0
8.169805 3.501345 30.512809 206 206 206 0
8.288999 3.502394 30.521951 205 205 205 0
8.420333 3.508472 30.574920 206 206 206 0
8.552928 3.514902 30.630955 206 206 206 0
8.661659 3.511484 30.601164 206 206 206 0
8.791877 3.516751 30.647065 206 206 206 0
8.909323 3.516838 30.647826 207 207 207 0
9.039511 3.521887 30.691828 205 205 205 0
9.161411 3.523620 30.706926 206 206 206 0
9.290898 3.528189 30.746747 205 205 205 0
1.347024 3.479812 29.346929 76 76 76 0
1.455738 3.471374 29.275770 183 183 183 0
1.559829 3.453906 29.128453 206 206 206 0
1.673895 3.459382 29.174633 207 207 207 0
1.783683 3.455886 29.145145 207 207 207 0
1.898836 3.462583 29.201631 208 208 208 0
2.017722 3.474966 29.306059 209 209 209 0
2.123986 3.465451 29.225813 208 208 208 0
2.236906 3.467204 29.240597 207 207 207 0
2.353399 3.474065 29.298460 207 207 207 0
2.464092 3.472130 29.282141 208 208 208 0
2.572394 3.467139 29.240053 208 208 208 0
2.690917 3.475768 29.312824 207 207 207 0
2.813262 3.488445 29.419732 207 207 207 0
2.924417 3.486805 29.405900 207 207 207 0
3.043489 3.494376 29.469756 209 209 209 0
3.153121 3.490956 29.440907 207 207 207 0
3.271410 3.497024 29.492086 206 206 206 0
3.396400 3.509614 29.598260 209 209 209 0
3.500912 3.500912 29.524878 208 208 208 0
3.611365 3.498510 29.504620 209 209 209 0
3.734040 3.507734 29.582408 208 208 208 0
3.848268 3.508715 29.590681 208 208 208 0
3.962392 3.509547 29.597697 208 208 208 0
4.070858 3.505461 29.563240 208 208 208 0
4.204118 3.522369 29.705831 209 209 209 0
4.317073 3.521823 29.701226 207 207 207 0
4.435008 3.525263 29.730239 207 207 207 0
4.546348 3.523420 29.714691 208 208 208 0
4.662265 3.525127 29.729095 209 209 209 0
4.783585 3.530742 29.776442 207 207 207 0
4.900112 3.532639 29.792445 207 207 207 0
5.018146 3.535512 29.816670 207 207 207 0
5.138497 3.539853 29.853286 207 207 207 0
5.262888 3.546729 29.911270 207 207 207 0
5.369337 3.541478 29.866986 208 208 208 0
5.490270 3.545800 29.903434 207 207 207 0
5.618882 3.554803 29.979362 208 208 208 0
5.729276 3.552151 29.956999 207 207 207 0
5.848570 3.555013 29.981135 207 207 207 0
5.967877 3.557773 30.004407 207 207 207 0
6.094361 3.564626 30.062208 207 207 207 0
6.208155 3.563941 30.056428 207 207 207 0
6.333672 3.569888 30.106580 206 206 206 0
6.451570 3.571405 30.119373 206 206 206 0
6.575183 3.575977 30.157932 207 207 207 0
6.693524 3.577573 30.171397 206 206 206 0
6.823645 3.585305 30.236601 206 206 206 0
6.937411 3.584329 30.228372 206 206 206 0
7.061697 3.588731 30.265495 206 206 206 0
7.181390 3.590695 30.282058 206 206 206 0
7.297940 3.591050 30.285052 206 206 206 0
7.424636 3.596308 30.329395 206 206 206 0
7.549946 3.600744 30.366802 206 206 206 0
7.663192 3.599378 30.355285 206 206 206 0
7.790389 3.604508 30.398550 206 206 206 0
7.922557 3.611754 30.459659 206 206 206 0
8.049108 3.616266 30.497710 206 206 206 0
8.167720 3.617133 30.505022 206 206 206 0
8.285743 3.617719 30.509961 206 206 206 0
8.410986 3.621397 30.540982 205 205 205 0
8.532445 3.623367 30.557598 206 206 206 0
8.651977 3.624477 30.566958 205 205 205 0
8.783308 3.630434 30.617197 205 205 205 0
8.915539 3.636601 30.669207 206 206 206 0
9.027817 3.634576 30.652125 205 205 205 0
9.148347 3.635881 30.663136 206 206 206 0
9.283080 3.642727 30.720872 205 205 205 0
1.360260 3.627361 29.635302 77 77 77 0
1.454905 3.581305 29.259028 183 183 183 0
1.561684 3.569564 29.163108 207 207 207 0
1.672582 3.568175 29.151760 207 207 207 0
1.783192 3.566383 29.137116 208 208 208 0
1.898571 3.573782 29.197561 208 208 208 0
2.010711 3.574598 29.204230 207 207 207 0
2.119762 3.570125 29.167688 207 207 207 0
2.232891 3.572626 29.188119 207 207 207 0
2.347203 3.576690 29.221321 207 207 207 0
2.464815 3.585185 29.290729 207 207 207 0
2.578585 3.587596 29.310428 206 206 206 0
2.690152 3.586870 29.304492 208 208 208 0
2.809197 3.595772 29.377223 209 209 209 0
2.932379 3.609082 29.485961 208 208 208 0
3.023423 3.583316 29.275459 208 208 208 0
3.150793 3.600906 29.419170 207 207 207 0
3.269696 3.607940 29.476635 207 207 207 0
3.385558 3.611262 29.503771 208 208 208 0
3.498651 3.611511 29.505807 207 207 207 0
3.613523 3.613523 29.522244 207 207 207 0
3.728114 3.615140 29.535461 208 208 208 0
3.845949 3.619717 29.572852 207 207 207 0
3.960742 3.621250 29.585378 207 207 207 0
4.073265 3.620680 29.580716 208 208 208 0
4.194672 3.627825 29.639090 207 207 207 0
4.320615 3.638412 29.725590 207 207 207 0
4.428694 3.633800 29.687912 207 207 207 0
4.541375 3.633100 29.682190 207 207 207 0
4.665310 3.641217 29.748506 207 207 207 0
4.788450 3.648343 29.806725 208 208 208 0
4.902768 3.648571 29.808589 206 206 206 0
5.015484 3.647625 29.800856 206 206 206 0
5.136696 3.652762 29.842826 207 207 207 0
5.261114 3.659905 29.901188 207 207 207 0
5.382798 3.664884 29.941859 208 208 208 0
5.490115 3.660077 29.902587 206 206 206 0
5.615716 3.667407 29.962472 207 207 207 0
5.734291 3.669946 29.983220 207 207 207 0
5.852389 3.672087 30.000710 207 207 207 0
5.965387 3.671007 29.991891 207 207 207 0
6.090218 3.677113 30.041771 207 207 207 0
6.223149 3.687792 30.129019 208 208 208 0
6.322231 3.678389 30.052197 207 207 207 0
6.454568 3.688325 30.133373 206 206 206 0
6.568352 3.687496 30.126601 207 207 207 0
6.687970 3.689915 30.146360 207 207 207 0
6.816395 3.697028 30.204474 206 206 206 0
6.929065 3.695501 30.192002 206 206 206 0
7.063179 3.705274 30.271846 207 207 207 0
7.181001 3.706323 30.280418 206 206 206 0
7.294969 3.705381 30.272722 206 206 206 0
7.419625 3.709812 30.308924 206 206 206 0
7.553461 3.718627 30.380938 206 206 206 0
7.661040 3.714443 30.346760 206 206 206 0
7.784030 3.717746 30.373740 205 205 205 0
7.915150 3.724777 30.431182 205 205 205 0
8.039657 3.728537 30.461901 206 206 206 0
8.153480 3.727305 30.451841 206 206 206 0
8.273976 3.729116 30.466635 205 205 205 0
8.409329 3.737480 30.534964 205 205 205 0
8.527629 3.738139 30.540349 205 205 205 0
8.647354 3.739396 30.550624 206 206 206 0
8.776428 3.744609 30.593212 206 206 206 0
8.910173 3.751652 30.650749 205 205 205 0
9.022047 3.749422 30.632534 206 206 206 0
9.152156 3.754731 30.675905 205 205 205 0
9.280497 3.759188 30.712324 205 205 205 0
1.352042 3.718114 29.456243 76 76 76 0
1.454442 3.692044 29.249704 183 183 183 0
1.555907 3.667496 29.055224 207 207 207 0
1.669479 3.672854 29.097672 207 207 207 0
1.782428 3.676258 29.124642 207 207 207 0
1.894446 3.677455 29.134125 207 207 207 0
2.008150 3.681608 29.167027 206 206 206 0
2.120870 3.683616 29.182939 208 208 208 0
2.232361 3.683396 29.181191 207 207 207 0
2.348790 3.690956 29.241087 206 206 206 0
2.465880 3.698820 29.303386 207 207 207 0
2.577582 3.698270 29.299029 207 207 207 0
2.691052 3.700197 29.314296 207 207 207 0
2.803431 3.700529 29.316923 207 207 207 0
2.920728 3.707078 29.368806 208 208 208 0
3.033703 3.707859 29.374995 207 207 207 0
3.144373 3.705868 29.359224 208 208 208 0
3.263456 3.713588 29.420387 206 206 206 0
3.384029 3.722431 29.490445 207 207 207 0
3.498811 3.724541 29.507154 207 207 207 0
3.604458 3.717097 29.448185 207 207 207 0
3.728878 3.728878 29.541518 207 207 207 0
3.846380 3.733251 29.576161 207 207 207 0
