ply
format ascii 1.0
element vertex 1104
property float x
property float y
property float z
property uchar red
property uchar green
property uchar blue
property uchar alpha
end_header
7.853610 9.613902 35.400540 219 219 219 0
7.989017 9.613902 35.400540 219 219 219 0
8.124424 9.613902 35.400540 219 219 219 0
8.259831 9.613902 35.400540 219 219 219 0
8.395238 9.613902 35.400540 218 218 218 0
8.530645 9.613902 35.400540 219 219 219 0
8.666052 9.613902 35.400540 219 219 219 0
8.801459 9.613902 35.400540 219 219 219 0
8.936866 9.613902 35.400540 219 219 219 0
9.072274 9.613902 35.400540 219 219 219 0
9.207681 9.613902 35.400540 219 219 219 0
9.343088 9.613902 35.400540 219 219 219 0
9.478495 9.613902 35.400540 219 219 219 0
9.613902 9.613902 35.400540 219 219 219 0
9.749309 9.613902 35.400540 219 219 219 0
9.884716 9.613902 35.400540 218 218 218 0
10.074744 9.666308 35.593512 219 219 219 0
10.216577 9.671693 35.613341 219 219 219 0
10.295855 9.618496 35.417457 220 220 220 0
10.431418 9.618580 35.417768 219 219 219 0
12.049717 10.968332 40.387855 220 220 220 0
11.030241 9.913254 36.502824 220 220 220 0
-10.832558 9.749302 35.400516 212 212 212 0
-10.697140 9.749292 35.400479 212 212 212 0
-10.561738 9.749296 35.400495 212 212 212 0
-10.426344 9.749309 35.400540 213 213 213 0
-10.290937 9.749309 35.400540 212 212 212 0
-10.155530 9.749309 35.400540 213 213 213 0
-10.020123 9.749309 35.400540 212 212 212 0
-9.884716 9.749309 35.400540 213 213 213 0
-9.749309 9.749309 35.400540 213 213 213 0
-9.613902 9.749309 35.400540 212 212 212 0
-9.478495 9.749309 35.400540 212 212 212 0
-9.343088 9.749309 35.400540 213 213 213 0
-9.207681 9.749309 35.400540 213 213 213 0
-9.072274 9.749309 35.400540 212 212 212 0
-8.936866 9.749309 35.400540 213 213 213 0
-8.801459 9.749309 35.400540 213 213 213 0
-8.666052 9.749309 35.400540 213 213 213 0
-8.530645 9.749309 35.400540 213 213 213 0
-8.395238 9.749309 35.400540 213 213 213 0
-8.259831 9.749309 35.400540 214 214 214 0
-8.124424 9.749309 35.400540 213 213 213 0
-7.989017 9.749309 35.400540 214 214 214 0
-7.853610 9.749309 35.400540 214 214 214 0
-7.718203 9.749309 35.400540 214 214 214 0
-7.582796 9.749309 35.400540 214 214 214 0
-7.447389 9.749309 35.400540 214 214 214 0
-7.311982 9.749309 35.400540 214 214 214 0
-7.176575 9.749309 35.400540 214 214 214 0
-7.041168 9.749309 35.400540 214 214 214 0
-6.905760 9.749309 35.400540 214 214 214 0
-6.770353 9.749309 35.400540 214 214 214 0
-6.634946 9.749309 35.400540 214 214 214 0
-6.499539 9.749309 35.400540 214 214 214 0
-6.364132 9.749309 35.400540 214 214 214 0
-6.228725 9.749309 35.400540 214 214 214 0
-6.093318 9.749309 35.400540 214 214 214 0
-5.957911 9.749309 35.400540 214 214 214 0
-5.822504 9.749309 35.400540 214 214 214 0
-5.687097 9.749309 35.400540 214 214 214 0
-5.551690 9.749309 35.400540 215 215 215 0
-5.416283 9.749309 35.400540 214 214 214 0
-5.280876 9.749309 35.400540 214 214 214 0
-5.145469 9.749309 35.400540 214 214 214 0
-5.010061 9.749309 35.400540 215 215 215 0
-4.874654 9.749309 35.400540 214 214 214 0
-4.739247 9.749309 35.400540 214 214 214 0
-4.603840 9.749309 35.400540 215 215 215 0
-4.468433 9.749309 35.400540 215 215 215 0
-4.333026 9.749309 35.400540 215 215 215 0
-4.197619 9.749309 35.400540 216 216 216 0
-4.062212 9.749309 35.400540 215 215 215 0
-3.926805 9.749309 35.400540 214 214 214 0
-3.791398 9.749309 35.400540 215 215 215 0
-3.655991 9.749309 35.400540 215 215 215 0
-3.520584 9.749309 35.400540 215 215 215 0
-3.385177 9.749309 35.400540 215 215 215 0
-3.249770 9.749309 35.400540 215 215 215 0
-3.114363 9.749309 35.400540 215 215 215 0
-2.978955 9.749309 35.400540 215 215 215 0
-2.843548 9.749309 35.400540 215 215 215 0
-2.708141 9.749309 35.400540 215 215 215 0
-2.572734 9.749309 35.400540 216 216 216 0
-2.437327 9.749309 35.400540 216 216 216 0
-2.301920 9.749309 35.400540 216 216 216 0
-2.166513 9.749309 35.400540 215 215 215 0
-2.031106 9.749309 35.400540 216 216 216 0
-1.895699 9.749309 35.400540 216 216 216 0
-1.760292 9.749309 35.400540 216 216 216 0
-1.624885 9.749309 35.400540 216 216 216 0
-1.489478 9.749309 35.400540 216 216 216 0
-1.354071 9.749309 35.400540 215 215 215 0
-1.218664 9.749309 35.400540 217 217 217 0
-1.083257 9.749309 35.400540 216 216 216 0
-0.947849 9.749309 35.400540 216 216 216 0
-0.812442 9.749309 35.400540 216 216 216 0
-0.677035 9.749309 35.400540 217 217 217 0
-0.541628 9.749309 35.400540 216 216 216 0
-0.406221 9.749309 35.400540 216 216 216 0
-0.270814 9.749309 35.400540 216 216 216 0
-0.135407 9.749309 35.400540 217 217 217 0
0.000000 9.749309 35.400540 216 216 216 0
0.135407 9.749309 35.400540 217 217 217 0
0.270814 9.749309 35.400540 217 217 217 0
0.406221 9.749309 35.400540 217 217 217 0
0.541628 9.749309 35.400540 217 217 217 0
0.677035 9.749309 35.400540 217 217 217 0
0.812442 9.749309 35.400540 216 216 216 0
0.947849 9.749309 35.400540 217 217 217 0
1.083257 9.749309 35.400540 217 217 217 0
1.218664 9.749309 35.400540 217 217 217 0
1.354071 9.749309 35.400540 217 217 217 0
1.489478 9.749309 35.400540 217 217 217 0
1.624885 9.749309 35.400540 217 217 217 0
1.760292 9.749309 35.400540 217 217 217 0
1.895699 9.749309 35.400540 217 217 217 0
2.031106 9.749309 35.400540 217 217 217 0
2.166513 9.749309 35.400540 217 217 217 0
2.301920 9.749309 35.400540 217 217 217 0
2.437327 9.749309 35.400540 217 217 217 0
2.572734 9.749309 35.400540 217 217 217 0
2.708141 9.749309 35.400540 217 217 217 0
2.843548 9.749309 35.400540 217 217 217 0
2.978955 9.749309 35.400540 217 217 217 0
3.114363 9.749309 35.400540 218 218 218 0
3.249770 9.749309 35.400540 217 217 217 0
3.385177 9.749309 35.400540 217 217 217 0
3.520584 9.749309 35.400540 217 217 217 0
3.655991 9.749309 35.400540 218 218 218 0
3.791398 9.749309 35.400540 217 217 217 0
3.926805 9.749309 35.400540 217 217 217 0
4.062212 9.749309 35.400540 217 217 217 0
4.197619 9.749309 35.400540 218 218 218 0
4.333026 9.749309 35.400540 218 218 218 0
4.468433 9.749309 35.400540 218 218 218 0
4.603840 9.749309 35.400540 218 218 218 0
4.739247 9.749309 35.400540 217 217 217 0
4.874654 9.749309 35.400540 218 218 218 0
5.010061 9.749309 35.400540 217 217 217 0
5.145469 9.749309 35.400540 218 218 218 0
5.280876 9.749309 35.400540 218 218 218 0
5.416283 9.749309 35.400540 218 218 218 0
5.551690 9.749309 35.400540 218 218 218 0
5.687097 9.749309 35.400540 218 218 218 0
5.822504 9.749309 35.400540 218 218 218 0
5.957911 9.749309 35.400540 218 218 218 0
6.093318 9.749309 35.400540 218 218 218 0
6.228725 9.749309 35.400540 219 219 219 0
6.364132 9.749309 35.400540 219 219 219 0
6.499539 9.749309 35.400540 218 218 218 0
6.634946 9.749309 35.400540 218 218 218 0
6.770353 9.749309 35.400540 218 218 218 0
6.905760 9.749309 35.400540 219 219 219 0
7.041168 9.749309 35.400540 218 218 218 0
7.176575 9.749309 35.400540 218 218 218 0
7.311982 9.749309 35.400540 218 218 218 0
7.447389 9.749309 35.400540 219 219 219 0
7.582796 9.749309 35.400540 219 219 219 0
7.718203 9.749309 35.400540 218 218 218 0
7.853610 9.749309 35.400540 219 219 219 0
7.989017 9.749309 35.400540 219 219 219 0
8.124424 9.749309 35.400540 219 219 219 0
8.259831 9.749309 35.400540 219 219 219 0
8.395238 9.749309 35.400540 219 219 219 0
8.530645 9.749309 35.400540 219 219 219 0
8.666052 9.749309 35.400540 219 219 219 0
8.801459 9.749309 35.400540 219 219 219 0
8.936866 9.749309 35.400540 219 219 219 0
9.072274 9.749309 35.400540 219 219 219 0
9.207681 9.749309 35.400540 219 219 219 0
9.343088 9.749309 35.400540 219 219 219 0
9.478495 9.749309 35.400540 219 219 219 0
9.613902 9.749309 35.400540 219 219 219 0
9.749309 9.749309 35.400540 219 219 219 0
9.884716 9.749309 35.400540 219 219 219 0
10.074744 9.802453 35.593512 219 219 219 0
10.216577 9.807914 35.613341 219 219 219 0
10.295855 9.753968 35.417457 220 220 220 0
10.431418 9.754053 35.417768 219 219 219 0
12.049717 11.122815 40.387855 220 220 220 0
11.030241 10.052878 36.502824 220 220 220 0
-10.832557 9.884708 35.400512 212 212 212 0
-10.697159 9.884716 35.400542 212 212 212 0
-10.561738 9.884703 35.400495 213 213 213 0
-10.426344 9.884716 35.400540 213 213 213 0
-10.290937 9.884716 35.400540 213 213 213 0
-10.155530 9.884716 35.400540 213 213 213 0
-10.020123 9.884716 35.400540 213 213 213 0
-9.884716 9.884716 35.400540 212 212 212 0
-9.749309 9.884716 35.400540 213 213 213 0
-9.613902 9.884716 35.400540 213 213 213 0
-9.478495 9.884716 35.400540 213 213 213 0
-9.343088 9.884716 35.400540 212 212 212 0
-9.207681 9.884716 35.400540 213 213 213 0
-9.072274 9.884716 35.400540 213 213 213 0
-8.936866 9.884716 35.400540 213 213 213 0
-8.801459 9.884716 35.400540 212 212 212 0
-8.666052 9.884716 35.400540 213 213 213 0
-8.530645 9.884716 35.400540 213 213 213 0
-8.395238 9.884716 35.400540 213 213 213 0
-8.259831 9.884716 35.400540 213 213 213 0
-8.124424 9.884716 35.400540 213 213 213 0
-7.989017 9.884716 35.400540 213 213 213 0
-7.853610 9.884716 35.400540 213 213 213 0
-7.718203 9.884716 35.400540 214 214 214 0
-7.582796 9.884716 35.400540 214 214 214 0
-7.447389 9.884716 35.400540 213 213 213 0
-7.311982 9.884716 35.400540 214 214 214 0
-7.176575 9.884716 35.400540 214 214 214 0
-7.041168 9.884716 35.400540 214 214 214 0
-6.905760 9.884716 35.400540 214 214 214 0
-6.770353 9.884716 35.400540 214 214 214 0
-6.634946 9.884716 35.400540 214 214 214 0
-6.499539 9.884716 35.400540 214 214 214 0
-6.364132 9.884716 35.400540 214 214 214 0
-6.228725 9.884716 35.400540 214 214 214 0
-6.093318 9.884716 35.400540 214 214 214 0
-5.957911 9.884716 35.400540 214 214 214 0
-5.822504 9.884716 35.400540 215 215 215 0
-5.687097 9.884716 35.400540 214 214 214 0
-5.551690 9.884716 35.400540 215 215 215 0
-5.416283 9.884716 35.400540 214 214 214 0
-5.280876 9.884716 35.400540 215 215 215 0
-5.145469 9.884716 35.400540 215 215 215 0
-5.010061 9.884716 35.400540 215 215 215 0
-4.874654 9.884716 35.400540 215 215 215 0
-4.739247 9.884716 35.400540 215 215 215 0
-4.603840 9.884716 35.400540 215 215 215 0
-4.468433 9.884716 35.400540 215 215 215 0
-4.333026 9.884716 35.400540 215 215 215 0
-4.197619 9.884716 35.400540 215 215 215 0
-4.062212 9.884716 35.400540 215 215 215 0
-3.926805 9.884716 35.400540 215 215 215 0
-3.791398 9.884716 35.400540 215 215 215 0
-3.655991 9.884716 35.400540 215 215 215 0
-3.520584 9.884716 35.400540 215 215 215 0
-3.385177 9.884716 35.400540 215 215 215 0
-3.249770 9.884716 35.400540 215 215 215 0
-3.114363 9.884716 35.400540 216 216 216 0
-2.978955 9.884716 35.400540 215 215 215 0
-2.843548 9.884716 35.400540 216 216 216 0
-2.708141 9.884716 35.400540 216 216 216 0
-2.572734 9.884716 35.400540 216 216 216 0
-2.437327 9.884716 35.400540 215 215 215 0
-2.301920 9.884716 35.400540 215 215 215 0
-2.166513 9.884716 35.400540 216 216 216 0
-2.031106 9.884716 35.400540 216 216 216 0
-1.895699 9.884716 35.400540 215 215 215 0
-1.760292 9.884716 35.400540 215 215 215 0
-1.624885 9.884716 35.400540 216 216 216 0
-1.489478 9.884716 35.400540 216 216 216 0
-1.354071 9.884716 35.400540 215 215 215 0
-1.218664 9.884716 35.400540 216 216 216 0
-1.083257 9.884716 35.400540 216 216 216 0
-0.947849 9.884716 35.400540 216 216 216 0
-0.812442 9.884716 35.400540 216 216 216 0
-0.677035 9.884716 35.400540 216 216 216 0
-0.541628 9.884716 35.400540 216 216 216 0
-0.406221 9.884716 35.400540 216 216 216 0
-0.270814 9.884716 35.400540 216 216 216 0
-0.135407 9.884716 35.400540 217 217 217 0
0.000000 9.884716 35.400540 216 216 216 0
0.135407 9.884716 35.400540 217 217 217 0
0.270814 9.884716 35.400540 217 217 217 0
0.406221 9.884716 35.400540 216 216 216 0
0.541628 9.884716 35.400540 216 216 216 0
0.677035 9.884716 35.400540 217 217 217 0
0.812442 9.884716 35.400540 216 216 216 0
0.947849 9.884716 35.400540 217 217 217 0
1.083257 9.884716 35.400540 217 217 217 0
1.218664 9.884716 35.400540 217 217 217 0
1.354071 9.884716 35.400540 217 217 217 0
1.489478 9.884716 35.400540 217 217 217 0
1.624885 9.884716 35.400540 217 217 217 0
1.760292 9.884716 35.400540 217 217 217 0
1.895699 9.884716 35.400540 217 217 217 0
2.031106 9.884716 35.400540 217 217 217 0
2.166513 9.884716 35.400540 217 217 217 0
2.301920 9.884716 35.400540 217 217 217 0
2.437327 9.884716 35.400540 217 217 217 0
2.572734 9.884716 35.400540 217 217 217 0
2.708141 9.884716 35.400540 217 217 217 0
2.843548 9.884716 35.400540 218 218 218 0
2.978955 9.884716 35.400540 217 217 217 0
3.114363 9.884716 35.400540 218 218 218 0
3.249770 9.884716 35.400540 217 217 217 0
3.385177 9.884716 35.400540 218 218 218 0
3.520584 9.884716 35.400540 218 218 218 0
3.655991 9.884716 35.400540 218 218 218 0
3.791398 9.884716 35.400540 218 218 218 0
3.926805 9.884716 35.400540 218 218 218 0
4.062212 9.884716 35.400540 218 218 218 0
4.197619 9.884716 35.400540 218 218 218 0
4.333026 9.884716 35.400540 218 218 218 0
4.468433 9.884716 35.400540 218 218 218 0
4.603840 9.884716 35.400540 217 217 217 0
4.739247 9.884716 35.400540 218 218 218 0
4.874654 9.884716 35.400540 218 218 218 0
5.010061 9.884716 35.400540 218 218 218 0
5.145469 9.884716 35.400540 217 217 217 0
5.280876 9.884716 35.400540 217 217 217 0
5.416283 9.884716 35.400540 218 218 218 0
5.551690 9.884716 35.400540 218 218 218 0
5.687097 9.884716 35.400540 218 218 218 0
5.822504 9.884716 35.400540 218 218 218 0
5.957911 9.884716 35.400540 219 219 219 0
6.093318 9.884716 35.400540 218 218 218 0
6.228725 9.884716 35.400540 218 218 218 0
6.364132 9.884716 35.400540 218 218 218 0
6.499539 9.884716 35.400540 218 218 218 0
6.634946 9.884716 35.400540 219 219 219 0
6.770353 9.884716 35.400540 218 218 218 0
6.905760 9.884716 35.400540 218 218 218 0
7.041168 9.884716 35.400540 219 219 219 0
7.176575 9.884716 35.400540 218 218 218 0
7.311982 9.884716 35.400540 218 218 218 0
7.447389 9.884716 35.400540 219 219 219 0
7.582796 9.884716 35.400540 218 218 218 0
7.718203 9.884716 35.400540 219 219 219 0
7.853610 9.884716 35.400540 218 218 218 0
7.989017 9.884716 35.400540 219 219 219 0
8.124424 9.884716 35.400540 219 219 219 0
8.259831 9.884716 35.400540 219 219 219 0
8.395238 9.884716 35.400540 219 219 219 0
8.530645 9.884716 35.400540 219 219 219 0
8.666052 9.884716 35.400540 219 219 219 0
8.801459 9.884716 35.400540 219 219 219 0
8.936866 9.884716 35.400540 220 220 220 0
9.072274 9.884716 35.400540 219 219 219 0
9.207681 9.884716 35.400540 219 219 219 0
9.343088 9.884716 35.400540 220 220 220 0
9.478495 9.884716 35.400540 219 219 219 0
9.613902 9.884716 35.400540 219 219 219 0
9.749309 9.884716 35.400540 220 220 220 0
9.884716 9.884716 35.400540 219 219 219 0
10.074744 9.938598 35.593512 219 219 219 0
10.216577 9.944135 35.613341 219 219 219 0
10.295855 9.889439 35.417457 219 219 219 0
10.431418 9.889526 35.417768 219 219 219 0
12.049717 11.277299 40.387855 219 219 219 0
10.702340 9.889504 35.417689 219 219 219 0
-10.832558 10.020116 35.400515 213 213 213 0
-10.697157 10.020122 35.400536 212 212 212 0
-10.561738 10.020110 35.400495 212 212 212 0
-10.426344 10.020123 35.400540 212 212 212 0
-10.290937 10.020123 35.400540 212 212 212 0
-10.155530 10.020123 35.400540 212 212 212 0
-10.020123 10.020123 35.400540 212 212 212 0
-9.884716 10.020123 35.400540 212 212 212 0
-9.749309 10.020123 35.400540 212 212 212 0
-9.613902 10.020123 35.400540 213 213 213 0
-9.478495 10.020123 35.400540 213 213 213 0
-9.343088 10.020123 35.400540 213 213 213 0
-9.207681 10.020123 35.400540 213 213 213 0
-9.072274 10.020123 35.400540 213 213 213 0
-8.936866 10.020123 35.400540 213 213 213 0
-8.801459 10.020123 35.400540 213 213 213 0
-8.666052 10.020123 35.400540 213 213 213 0
-8.530645 10.020123 35.400540 212 212 212 0
-8.395238 10.020123 35.400540 213 213 213 0
-8.259831 10.020123 35.400540 213 213 213 0
-8.124424 10.020123 35.400540 213 213 213 0
-7.989017 10.020123 35.400540 214 214 214 0
-7.853610 10.020123 35.400540 214 214 214 0
-7.718203 10.020123 35.400540 214 214 214 0
-7.582796 10.020123 35.400540 213 213 213 0
-7.447389 10.020123 35.400540 213 213 213 0
-7.311982 10.020123 35.400540 214 214 214 0
-7.176575 10.020123 35.400540 213 213 213 0
-7.041168 10.020123 35.400540 214 214 214 0
-6.905760 10.020123 35.400540 214 214 214 0
-6.770353 10.020123 35.400540 213 213 213 0
-6.634946 10.020123 35.400540 213 213 213 0
-6.499539 10.020123 35.400540 214 214 214 0
-6.364132 10.020123 35.400540 215 215 215 0
-6.228725 10.020123 35.400540 214 214 214 0
-6.093318 10.020123 35.400540 214 214 214 0
-5.957911 10.020123 35.400540 214 214 214 0
-5.822504 10.020123 35.400540 214 214 214 0
-5.687097 10.020123 35.400540 214 214 214 0
-5.551690 10.020123 35.400540 214 214 214 0
-5.416283 10.020123 35.400540 214 214 214 0
-5.280876 10.020123 35.400540 215 215 215 0
-5.145469 10.020123 35.400540 214 214 214 0
-5.010061 10.020123 35.400540 214 214 214 0
-4.874654 10.020123 35.400540 214 214 214 0
-4.739247 10.020123 35.400540 215 215 215 0
-4.603840 10.020123 35.400540 215 215 215 0
-4.468433 10.020123 35.400540 214 214 214 0
-4.333026 10.020123 35.400540 215 215 215 0
-4.197619 10.020123 35.400540 215 215 215 0
-4.062212 10.020123 35.400540 215 215 215 0
-3.926805 10.020123 35.400540 216 216 216 0
-3.791398 10.020123 35.400540 215 215 215 0
-3.655991 10.020123 35.400540 216 216 216 0
-3.520584 10.020123 35.400540 215 215 215 0
-3.385177 10.020123 35.400540 216 216 216 0
-3.249770 10.020123 35.400540 215 215 215 0
-3.114363 10.020123 35.400540 215 215 215 0
-2.978955 10.020123 35.400540 216 216 216 0
-2.843548 10.020123 35.400540 216 216 216 0
-2.708141 10.020123 35.400540 215 215 215 0
-2.572734 10.020123 35.400540 215 215 215 0
-2.437327 10.020123 35.400540 216 216 216 0
-2.301920 10.020123 35.400540 216 216 216 0
-2.166513 10.020123 35.400540 216 216 216 0
-2.031106 10.020123 35.400540 215 215 215 0
-1.895699 10.020123 35.400540 216 216 216 0
-1.760292 10.020123 35.400540 215 215 215 0
-1.624885 10.020123 35.400540 216 216 216 0
-1.489478 10.020123 35.400540 216 216 216 0
-1.354071 10.020123 35.400540 216 216 216 0
-1.218664 10.020123 35.400540 216 216 216 0
-1.083257 10.020123 35.400540 216 216 216 0
-0.947849 10.020123 35.400540 215 215 215 0
-0.812442 10.020123 35.400540 217 217 217 0
-0.677035 10.020123 35.400540 217 217 217 0
-0.541628 10.020123 35.400540 216 216 216 0
-0.406221 10.020123 35.400540 217 217 217 0
-0.270814 10.020123 35.400540 217 217 217 0
-0.135407 10.020123 35.400540 217 217 217 0
0.000000 10.020123 35.400540 216 216 216 0
0.135407 10.020123 35.400540 216 216 216 0
0.270814 10.020123 35.400540 217 217 217 0
0.406221 10.020123 35.400540 216 216 216 0
0.541628 10.020123 35.400540 217 217 217 0
0.677035 10.020123 35.400540 217 217 217 0
0.812442 10.020123 35.400540 217 217 217 0
0.947849 10.020123 35.400540 217 217 217 0
1.083257 10.020123 35.400540 217 217 217 0
1.218664 10.020123 35.400540 217 217 217 0
1.354071 10.020123 35.400540 217 217 217 0
1.489478 10.020123 35.400540 217 217 217 0
1.624885 10.020123 35.400540 217 217 217 0
1.760292 10.020123 35.400540 216 216 216 0
1.895699 10.020123 35.400540 216 216 216 0
2.031106 10.020123 35.400540 216 216 216 0
2.166513 10.020123 35.400540 217 217 217 0
2.301920 10.020123 35.400540 218 218 218 0
2.437327 10.020123 35.400540 217 217 217 0
2.572734 10.020123 35.400540 217 217 217 0
2.708141 10.020123 35.400540 217 217 217 0
2.843548 10.020123 35.400540 217 217 217 0
2.978955 10.020123 35.400540 217 217 217 0
3.114363 10.020123 35.400540 217 217 217 0
3.249770 10.020123 35.400540 217 217 217 0
3.385177 10.020123 35.400540 218 218 218 0
3.520584 10.020123 35.400540 217 217 217 0
3.655991 10.020123 35.400540 217 217 217 0
3.791398 10.020123 35.400540 217 217 217 0
3.926805 10.020123 35.400540 217 217 217 0
4.062212 10.020123 35.400540 218 218 218 0
4.197619 10.020123 35.400540 217 217 217 0
4.333026 10.020123 35.400540 218 218 218 0
4.468433 10.020123 35.400540 218 218 218 0
4.603840 10.020123 35.400540 218 218 218 0
4.739247 10.020123 35.400540 218 218 218 0
4.874654 10.020123 35.400540 218 218 218 0
5.010061 10.020123 35.400540 219 219 219 0
5.145469 10.020123 35.400540 218 218 218 0
5.280876 10.020123 35.400540 218 218 218 0
5.416283 10.020123 35.400540 218 218 218 0
5.551690 10.020123 35.400540 218 218 218 0
5.687097 10.020123 35.400540 218 218 218 0
5.822504 10.020123 35.400540 219 219 219 0
5.957911 10.020123 35.400540 218 218 218 0
6.093318 10.020123 35.400540 218 218 218 0
6.228725 10.020123 35.400540 218 218 218 0
6.364132 10.020123 35.400540 218 218 218 0
6.499539 10.020123 35.400540 218 218 218 0
6.634946 10.020123 35.400540 218 218 218 0
6.770353 10.020123 35.400540 219 219 219 0
6.905760 10.020123 35.400540 218 218 218 0
7.041168 10.020123 35.400540 218 218 218 0
7.176575 10.020123 35.400540 219 219 219 0
7.311982 10.020123 35.400540 219 219 219 0
7.447389 10.020123 35.400540 219 219 219 0
7.582796 10.020123 35.400540 218 218 218 0
7.718203 10.020123 35.400540 218 218 218 0
7.853610 10.020123 35.400540 219 219 219 0
7.989017 10.020123 35.400540 219 219 219 0
8.124424 10.020123 35.400540 218 218 218 0
8.259831 10.020123 35.400540 219 219 219 0
8.395238 10.020123 35.400540 219 219 219 0
8.530645 10.020123 35.400540 219 219 219 0
8.666052 10.020123 35.400540 219 219 219 0
8.801459 10.020123 35.400540 219 219 219 0
8.936866 10.020123 35.400540 219 219 219 0
9.072274 10.020123 35.400540 219 219 219 0
9.207681 10.020123 35.400540 219 219 219 0
9.343088 10.020123 35.400540 220 220 220 0
9.478495 10.020123 35.400540 219 219 219 0
9.613902 10.020123 35.400540 219 219 219 0
9.749309 10.020123 35.400540 219 219 219 0
9.884716 10.020123 35.400540 219 219 219 0
10.074744 10.074744 35.593512 220 220 220 0
10.216577 10.080356 35.613341 220 220 220 0
10.295855 10.024911 35.417457 219 219 219 0
10.431418 10.024999 35.417768 219 219 219 0
10.564775 10.022992 35.410676 219 219 219 0
10.702340 10.024977 35.417689 219 219 219 0
-10.832567 10.155532 35.400547 211 211 211 0
-10.697142 10.155514 35.400485 212 212 212 0
-10.561738 10.155517 35.400495 212 212 212 0
-10.426344 10.155530 35.400540 212 212 212 0
-10.290937 10.155530 35.400540 212 212 212 0
-10.155530 10.155530 35.400540 212 212 212 0
-10.020123 10.155530 35.400540 213 213 213 0
-9.884716 10.155530 35.400540 213 213 213 0
-9.749309 10.155530 35.400540 212 212 212 0
-9.613902 10.155530 35.400540 213 213 213 0
-9.478495 10.155530 35.400540 212 212 212 0
-9.343088 10.155530 35.400540 213 213 213 0
-9.207681 10.155530 35.400540 213 213 213 0
-9.072274 10.155530 35.400540 213 213 213 0
-8.936866 10.155530 35.400540 213 213 213 0
-8.801459 10.155530 35.400540 213 213 213 0
-8.666052 10.155530 35.400540 213 213 213 0
-8.530645 10.155530 35.400540 213 213 213 0
-8.395238 10.155530 35.400540 213 213 213 0
-8.259831 10.155530 35.400540 213 213 213 0
-8.124424 10.155530 35.400540 213 213 213 0
-7.989017 10.155530 35.400540 214 214 214 0
-7.853610 10.155530 35.400540 213 213 213 0
-7.718203 10.155530 35.400540 214 214 214 0
-7.582796 10.155530 35.400540 214 214 214 0
-7.447389 10.155530 35.400540 214 214 214 0
-7.311982 10.155530 35.400540 214 214 214 0
-7.176575 10.155530 35.400540 214 214 214 0
-7.041168 10.155530 35.400540 214 214 214 0
-6.905760 10.155530 35.400540 214 214 214 0
-6.770353 10.155530 35.400540 214 214 214 0
-6.634946 10.155530 35.400540 214 214 214 0
-6.499539 10.155530 35.400540 213 213 213 0
-6.364132 10.155530 35.400540 213 213 213 0
-6.228725 10.155530 35.400540 214 214 214 0
-6.093318 10.155530 35.400540 214 214 214 0
-5.957911 10.155530 35.400540 214 214 214 0
-5.822504 10.155530 35.400540 214 214 214 0
-5.687097 10.155530 35.400540 214 214 214 0
-5.551690 10.155530 35.400540 214 214 214 0
-5.416283 10.155530 35.400540 214 214 214 0
-5.280876 10.155530 35.400540 215 215 215 0
-5.145469 10.155530 35.400540 215 215 215 0
-5.010061 10.155530 35.400540 214 214 214 0
-4.874654 10.155530 35.400540 215 215 215 0
-4.739247 10.155530 35.400540 215 215 215 0
-4.603840 10.155530 35.400540 214 214 214 0
-4.468433 10.155530 35.400540 215 215 215 0
-4.333026 10.155530 35.400540 216 216 216 0
-4.197619 10.155530 35.400540 214 214 214 0
-4.062212 10.155530 35.400540 215 215 215 0
-3.926805 10.155530 35.400540 215 215 215 0
-3.791398 10.155530 35.400540 215 215 215 0
-3.655991 10.155530 35.400540 215 215 215 0
-3.520584 10.155530 35.400540 216 216 216 0
-3.385177 10.155530 35.400540 215 215 215 0
-3.249770 10.155530 35.400540 216 216 216 0
-3.114363 10.155530 35.400540 215 215 215 0
-2.978955 10.155530 35.400540 216 216 216 0
-2.843548 10.155530 35.400540 215 215 215 0
-2.708141 10.155530 35.400540 216 216 216 0
-2.572734 10.155530 35.400540 215 215 215 0
-2.437327 10.155530 35.400540 215 215 215 0
-2.301920 10.155530 35.400540 216 216 216 0
-2.166513 10.155530 35.400540 216 216 216 0
-2.031106 10.155530 35.400540 216 216 216 0
-1.895699 10.155530 35.400540 216 216 216 0
-1.760292 10.155530 35.400540 215 215 215 0
-1.624885 10.155530 35.400540 215 215 215 0
-1.489478 10.155530 35.400540 216 216 216 0
-1.354071 10.155530 35.400540 216 216 216 0
-1.218664 10.155530 35.400540 216 216 216 0
-1.083257 10.155530 35.400540 216 216 216 0
-0.947849 10.155530 35.400540 216 216 216 0
-0.812442 10.155530 35.400540 216 216 216 0
-0.677035 10.155530 35.400540 217 217 217 0
-0.541628 10.155530 35.400540 216 216 216 0
-0.406221 10.155530 35.400540 216 216 216 0
-0.270814 10.155530 35.400540 216 216 216 0
-0.135407 10.155530 35.400540 217 217 217 0
0.000000 10.155530 35.400540 216 216 216 0
0.135407 10.155530 35.400540 217 217 217 0
0.270814 10.155530 35.400540 216 216 216 0
0.406221 10.155530 35.400540 217 217 217 0
0.541628 10.155530 35.400540 216 216 216 0
0.677035 10.155530 35.400540 217 217 217 0
0.812442 10.155530 35.400540 217 217 217 0
0.947849 10.155530 35.400540 217 217 217 0
1.083257 10.155530 35.400540 217 217 217 0
1.218664 10.155530 35.400540 217 217 217 0
1.354071 10.155530 35.400540 217 217 217 0
1.489478 10.155530 35.400540 217 217 217 0
1.624885 10.155530 35.400540 217 217 217 0
1.760292 10.155530 35.400540 217 217 217 0
1.895699 10.155530 35.400540 217 217 217 0
2.031106 10.155530 35.400540 217 217 217 0
2.166513 10.155530 35.400540 217 217 217 0
2.301920 10.155530 35.400540 216 216 216 0
2.437327 10.155530 35.400540 217 217 217 0
2.572734 10.155530 35.400540 217 217 217 0
2.708141 10.155530 35.400540 217 217 217 0
2.843548 10.155530 35.400540 217 217 217 0
2.978955 10.155530 35.400540 217 217 217 0
3.114363 10.155530 35.400540 217 217 217 0
3.249770 10.155530 35.400540 217 217 217 0
3.385177 10.155530 35.400540 217 217 217 0
3.520584 10.155530 35.400540 218 218 218 0
3.655991 10.155530 35.400540 217 217 217 0
3.791398 10.155530 35.400540 218 218 218 0
3.926805 10.155530 35.400540 218 218 218 0
4.062212 10.155530 35.400540 217 217 217 0
4.197619 10.155530 35.400540 218 218 218 0
4.333026 10.155530 35.400540 218 218 218 0
4.468433 10.155530 35.400540 217 217 217 0
4.603840 10.155530 35.400540 218 218 218 0
4.739247 10.155530 35.400540 218 218 218 0
4.874654 10.155530 35.400540 218 218 218 0
5.010061 10.155530 35.400540 217 217 217 0
5.145469 10.155530 35.400540 218 218 218 0
5.280876 10.155530 35.400540 218 218 218 0
5.416283 10.155530 35.400540 218 218 218 0
5.551690 10.155530 35.400540 218 218 218 0
5.687097 10.155530 35.400540 219 219 219 0
5.822504 10.155530 35.400540 218 218 218 0
5.957911 10.155530 35.400540 219 219 219 0
6.093318 10.155530 35.400540 218 218 218 0
6.228725 10.155530 35.400540 218 218 218 0
6.364132 10.155530 35.400540 218 218 218 0
6.499539 10.155530 35.400540 219 219 219 0
6.634946 10.155530 35.400540 218 218 218 0
6.770353 10.155530 35.400540 218 218 218 0
6.905760 10.155530 35.400540 218 218 218 0
7.041168 10.155530 35.400540 218 218 218 0
7.176575 10.155530 35.400540 218 218 218 0
7.311982 10.155530 35.400540 219 219 219 0
7.447389 10.155530 35.400540 219 219 219 0
7.582796 10.155530 35.400540 218 218 218 0
7.718203 10.155530 35.400540 219 219 219 0
7.853610 10.155530 35.400540 219 219 219 0
7.989017 10.155530 35.400540 219 219 219 0
8.124424 10.155530 35.400540 218 218 218 0
8.259831 10.155530 35.400540 219 219 219 0
8.395238 10.155530 35.400540 219 219 219 0
8.530645 10.155530 35.400540 219 219 219 0
8.666052 10.155530 35.400540 218 218 218 0
8.801459 10.155530 35.400540 219 219 219 0
8.936866 10.155530 35.400540 219 219 219 0
9.072274 10.155530 35.400540 219 219 219 0
9.207681 10.155530 35.400540 218 218 218 0
9.343088 10.155530 35.400540 220 220 220 0
9.478495 10.155530 35.400540 219 219 219 0
9.613902 10.155530 35.400540 220 220 220 0
9.749309 10.155530 35.400540 220 220 220 0
9.884716 10.155530 35.400540 220 220 220 0
10.074744 10.210889 35.593512 219 219 219 0
10.216577 10.216577 35.613341 219 219 219 0
10.295855 10.160383 35.417457 219 219 219 0
9.832165 9.576784 33.383125 219 219 219 0
10.564775 10.158438 35.410676 219 219 219 0
10.700276 10.158490 35.410857 220 220 220 0
-10.832556 10.290928 35.400509 211 211 211 0
-10.697150 10.290929 35.400514 213 213 213 0
-10.561738 10.290924 35.400495 212 212 212 0
-10.426344 10.290937 35.400540 212 212 212 0
-10.290937 10.290937 35.400540 212 212 212 0
-10.155530 10.290937 35.400540 213 213 213 0
-10.020123 10.290937 35.400540 212 212 212 0
-9.884716 10.290937 35.400540 212 212 212 0
-9.749309 10.290937 35.400540 212 212 212 0
-9.613902 10.290937 35.400540 212 212 212 0
-9.478495 10.290937 35.400540 212 212 212 0
-9.343088 10.290937 35.400540 212 212 212 0
-9.207681 10.290937 35.400540 214 214 214 0
-9.072274 10.290937 35.400540 213 213 213 0
-8.936866 10.290937 35.400540 213 213 213 0
-8.801459 10.290937 35.400540 212 212 212 0
-8.666052 10.290937 35.400540 213 213 213 0
-8.530645 10.290937 35.400540 214 214 214 0
-8.395238 10.290937 35.400540 213 213 213 0
-8.259831 10.290937 35.400540 214 214 214 0
-8.124424 10.290937 35.400540 214 214 214 0
-7.989017 10.290937 35.400540 213 213 213 0
-7.853610 10.290937 35.400540 213 213 213 0
-7.718203 10.290937 35.400540 213 213 213 0
-7.582796 10.290937 35.400540 213 213 213 0
-7.447389 10.290937 35.400540 214 214 214 0
-7.311982 10.290937 35.400540 214 214 214 0
-7.176575 10.290937 35.400540 213 213 213 0
-7.041168 10.290937 35.400540 214 214 214 0
-6.905760 10.290937 35.400540 214 214 214 0
-6.770353 10.290937 35.400540 214 214 214 0
-6.634946 10.290937 35.400540 214 214 214 0
-6.499539 10.290937 35.400540 214 214 214 0
-6.364132 10.290937 35.400540 213 213 213 0
-6.228725 10.290937 35.400540 214 214 214 0
-6.093318 10.290937 35.400540 214 214 214 0
-5.957911 10.290937 35.400540 214 214 214 0
-5.822504 10.290937 35.400540 214 214 214 0
-5.687097 10.290937 35.400540 214 214 214 0
-5.551690 10.290937 35.400540 214 214 214 0
-5.416283 10.290937 35.400540 214 214 214 0
-5.280876 10.290937 35.400540 214 214 214 0
-5.145469 10.290937 35.400540 215 215 215 0
-5.010061 10.290937 35.400540 215 215 215 0
-4.874654 10.290937 35.400540 215 215 215 0
-4.739247 10.290937 35.400540 215 215 215 0
-4.603840 10.290937 35.400540 215 215 215 0
-4.468433 10.290937 35.400540 215 215 215 0
-4.333026 10.290937 35.400540 215 215 215 0
-4.197619 10.290937 35.400540 215 215 215 0
-4.062212 10.290937 35.400540 215 215 215 0
-3.926805 10.290937 35.400540 215 215 215 0
-3.791398 10.290937 35.400540 215 215 215 0
-3.655991 10.290937 35.400540 214 214 214 0
-3.520584 10.290937 35.400540 214 214 214 0
-3.385177 10.290937 35.400540 215 215 215 0
-3.249770 10.290937 35.400540 215 215 215 0
-3.114363 10.290937 35.400540 216 216 216 0
-2.978955 10.290937 35.400540 215 215 215 0
-2.843548 10.290937 35.400540 215 215 215 0
-2.708141 10.290937 35.400540 215 215 215 0
-2.572734 10.290937 35.400540 215 215 215 0
-2.437327 10.290937 35.400540 216 216 216 0
-2.301920 10.290937 35.400540 215 215 215 0
-2.166513 10.290937 35.400540 215 215 215 0
-2.031106 10.290937 35.400540 216 216 216 0
-1.895699 10.290937 35.400540 216 216 216 0
-1.760292 10.290937 35.400540 216 216 216 0
-1.624885 10.290937 35.400540 216 216 216 0
-1.489478 10.290937 35.400540 216 216 216 0
-1.354071 10.290937 35.400540 215 215 215 0
-1.218664 10.290937 35.400540 216 216 216 0
-1.083257 10.290937 35.400540 216 216 216 0
-0.947849 10.290937 35.400540 216 216 216 0
-0.812442 10.290937 35.400540 217 217 217 0
-0.677035 10.290937 35.400540 216 216 216 0
-0.541628 10.290937 35.400540 216 216 216 0
-0.406221 10.290937 35.400540 216 216 216 0
-0.270814 10.290937 35.400540 216 216 216 0
-0.135407 10.290937 35.400540 216 216 216 0
0.000000 10.290937 35.400540 216 216 216 0
0.135407 10.290937 35.400540 216 216 216 0
0.270814 10.290937 35.400540 216 216 216 0
0.406221 10.290937 35.400540 216 216 216 0
0.541628 10.290937 35.400540 216 216 216 0
0.677035 10.290937 35.400540 217 217 217 0
0.812442 10.290937 35.400540 217 217 217 0
0.947849 10.290937 35.400540 216 216 216 0
1.083257 10.290937 35.400540 217 217 217 0
1.218664 10.290937 35.400540 217 217 217 0
1.354071 10.290937 35.400540 216 216 216 0
1.489478 10.290937 35.400540 218 218 218 0
1.624885 10.290937 35.400540 217 217 217 0
1.760292 10.290937 35.400540 217 217 217 0
1.895699 10.290937 35.400540 217 217 217 0
2.031106 10.290937 35.400540 217 217 217 0
2.166513 10.290937 35.400540 217 217 217 0
2.301920 10.290937 35.400540 216 216 216 0
2.437327 10.290937 35.400540 217 217 217 0
2.572734 10.290937 35.400540 218 218 218 0
2.708141 10.290937 35.400540 217 217 217 0
2.843548 10.290937 35.400540 217 217 217 0
2.978955 10.290937 35.400540 217 217 217 0
3.114363 10.290937 35.400540 217 217 217 0
3.249770 10.290937 35.400540 217 217 217 0
3.385177 10.290937 35.400540 217 217 217 0
3.520584 10.290937 35.400540 218 218 218 0
3.655991 10.290937 35.400540 218 218 218 0
3.791398 10.290937 35.400540 218 218 218 0
3.926805 10.290937 35.400540 217 217 217 0
4.062212 10.290937 35.400540 218 218 218 0
4.197619 10.290937 35.400540 217 217 217 0
4.333026 10.290937 35.400540 218 218 218 0
4.468433 10.290937 35.400540 218 218 218 0
4.603840 10.290937 35.400540 218 218 218 0
4.739247 10.290937 35.400540 218 218 218 0
4.874654 10.290937 35.400540 218 218 218 0
5.010061 10.290937 35.400540 217 217 217 0
5.145469 10.290937 35.400540 217 217 217 0
5.280876 10.290937 35.400540 217 217 217 0
5.416283 10.290937 35.400540 218 218 218 0
5.551690 10.290937 35.400540 219 219 219 0
5.687097 10.290937 35.400540 218 218 218 0
5.822504 10.290937 35.400540 218 218 218 0
5.957911 10.290937 35.400540 218 218 218 0
6.093318 10.290937 35.400540 218 218 218 0
6.228725 10.290937 35.400540 218 218 218 0
6.364132 10.290937 35.400540 218 218 218 0
6.499539 10.290937 35.400540 218 218 218 0
6.634946 10.290937 35.400540 218 218 218 0
6.770353 10.290937 35.400540 218 218 218 0
6.905760 10.290937 35.400540 219 219 219 0
7.041168 10.290937 35.400540 219 219 219 0
7.176575 10.290937 35.400540 218 218 218 0
7.311982 10.290937 35.400540 218 218 218 0
7.447389 10.290937 35.400540 219 219 219 0
7.582796 10.290937 35.400540 219 219 219 0
7.718203 10.290937 35.400540 219 219 219 0
7.853610 10.290937 35.400540 219 219 219 0
7.989017 10.290937 35.400540 218 218 218 0
8.124424 10.290937 35.400540 219 219 219 0
8.259831 10.290937 35.400540 218 218 218 0
8.395238 10.290937 35.400540 219 219 219 0
8.530645 10.290937 35.400540 219 219 219 0
8.666052 10.290937 35.400540 219 219 219 0
8.801459 10.290937 35.400540 219 219 219 0
8.936866 10.290937 35.400540 219 219 219 0
9.072274 10.290937 35.400540 219 219 219 0
9.207681 10.290937 35.400540 219 219 219 0
9.343088 10.290937 35.400540 219 219 219 0
9.478495 10.290937 35.400540 219 219 219 0
9.613902 10.290937 35.400540 219 219 219 0
9.749309 10.290937 35.400540 219 219 219 0
9.884716 10.290937 35.400540 219 219 219 0
10.074744 10.347034 35.593512 219 219 219 0
10.216577 10.352798 35.613341 220 220 220 0
10.137573 10.137573 34.872972 219 219 219 0
10.467979 10.332032 35.541905 219 219 219 0
10.661675 10.388299 35.735462 219 219 219 0
11.015975 10.597647 36.455613 219 219 219 0
-10.832547 10.426326 35.400480 213 213 213 0
-10.697159 10.426345 35.400542 212 212 212 0
-10.561738 10.426331 35.400495 212 212 212 0
-10.426344 10.426344 35.400540 212 212 212 0
-10.290937 10.426344 35.400540 212 212 212 0
-10.155530 10.426344 35.400540 212 212 212 0
-10.020123 10.426344 35.400540 213 213 213 0
-9.884716 10.426344 35.400540 213 213 213 0
-9.749309 10.426344 35.400540 213 213 213 0
-9.613902 10.426344 35.400540 212 212 212 0
-9.478495 10.426344 35.400540 213 213 213 0
-9.343088 10.426344 35.400540 213 213 213 0
-9.207681 10.426344 35.400540 213 213 213 0
-9.072274 10.426344 35.400540 213 213 213 0
-8.936866 10.426344 35.400540 213 213 213 0
-8.801459 10.426344 35.400540 212 212 212 0
-8.666052 10.426344 35.400540 214 214 214 0
-8.530645 10.426344 35.400540 213 213 213 0
-8.395238 10.426344 35.400540 213 213 213 0
-8.259831 10.426344 35.400540 213 213 213 0
-8.124424 10.426344 35.400540 213 213 213 0
-7.989017 10.426344 35.400540 213 213 213 0
-7.853610 10.426344 35.400540 213 213 213 0
-7.718203 10.426344 35.400540 213 213 213 0
-7.582796 10.426344 35.400540 213 213 213 0
-7.447389 10.426344 35.400540 213 213 213 0
-7.311982 10.426344 35.400540 214 214 214 0
-7.176575 10.426344 35.400540 214 214 214 0
-7.041168 10.426344 35.400540 214 214 214 0
-6.905760 10.426344 35.400540 213 213 213 0
-6.770353 10.426344 35.400540 214 214 214 0
-6.634946 10.426344 35.400540 214 214 214 0
-6.499539 10.426344 35.400540 214 214 214 0
-6.364132 10.426344 35.400540 214 214 214 0
-6.228725 10.426344 35.400540 214 214 214 0
-6.093318 10.426344 35.400540 214 214 214 0
-5.957911 10.426344 35.400540 214 214 214 0
-5.822504 10.426344 35.400540 214 214 214 0
-5.687097 10.426344 35.400540 214 214 214 0
-5.551690 10.426344 35.400540 214 214 214 0
-5.416283 10.426344 35.400540 214 214 214 0
-5.280876 10.426344 35.400540 214 214 214 0
-5.145469 10.426344 35.400540 214 214 214 0
-5.010061 10.426344 35.400540 215 215 215 0
-4.874654 10.426344 35.400540 215 215 215 0
-4.739247 10.426344 35.400540 215 215 215 0
-4.603840 10.426344 35.400540 215 215 215 0
-4.468433 10.426344 35.400540 215 215 215 0
-4.333026 10.426344 35.400540 215 215 215 0
-4.197619 10.426344 35.400540 215 215 215 0
-4.062212 10.426344 35.400540 216 216 216 0
-3.926805 10.426344 35.400540 214 214 214 0
-3.791398 10.426344 35.400540 214 214 214 0
-3.655991 10.426344 35.400540 215 215 215 0
-3.520584 10.426344 35.400540 215 215 215 0
-3.385177 10.426344 35.400540 215 215 215 0
-3.249770 10.426344 35.400540 215 215 215 0
-3.114363 10.426344 35.400540 215 215 215 0
-2.978955 10.426344 35.400540 216 216 216 0
-2.843548 10.426344 35.400540 215 215 215 0
-2.708141 10.426344 35.400540 216 216 216 0
-2.572734 10.426344 35.400540 215 215 215 0
-2.437327 10.426344 35.400540 215 215 215 0
-2.301920 10.426344 35.400540 215 215 215 0
-2.166513 10.426344 35.400540 215 215 215 0
-2.031106 10.426344 35.400540 216 216 216 0
-1.895699 10.426344 35.400540 216 216 216 0
-1.760292 10.426344 35.400540 216 216 216 0
-1.624885 10.426344 35.400540 215 215 215 0
-1.489478 10.426344 35.400540 215 215 215 0
-1.354071 10.426344 35.400540 216 216 216 0
-1.218664 10.426344 35.400540 216 216 216 0
-1.083257 10.426344 35.400540 216 216 216 0
-0.947849 10.426344 35.400540 215 215 215 0
-0.812442 10.426344 35.400540 217 217 217 0
-0.677035 10.426344 35.400540 215 215 215 0
-0.541628 10.426344 35.400540 216 216 216 0
-0.406221 10.426344 35.400540 216 216 216 0
-0.270814 10.426344 35.400540 216 216 216 0
-0.135407 10.426344 35.400540 216 216 216 0
0.000000 10.426344 35.400540 216 216 216 0
0.135407 10.426344 35.400540 216 216 216 0
0.270814 10.426344 35.400540 217 217 217 0
0.406221 10.426344 35.400540 216 216 216 0
0.541628 10.426344 35.400540 217 217 217 0
0.677035 10.426344 35.400540 217 217 217 0
0.812442 10.426344 35.400540 217 217 217 0
0.947849 10.426344 35.400540 217 217 217 0
1.083257 10.426344 35.400540 216 216 216 0
1.218664 10.426344 35.400540 217 217 217 0
1.354071 10.426344 35.400540 216 216 216 0
1.489478 10.426344 35.400540 216 216 216 0
1.624885 10.426344 35.400540 218 218 218 0
1.760292 10.426344 35.400540 217 217 217 0
1.895699 10.426344 35.400540 217 217 217 0
2.031106 10.426344 35.400540 217 217 217 0
2.166513 10.426344 35.400540 217 217 217 0
2.301920 10.426344 35.400540 218 218 218 0
2.437327 10.426344 35.400540 217 217 217 0
2.572734 10.426344 35.400540 217 217 217 0
2.708141 10.426344 35.400540 217 217 217 0
2.843548 10.426344 35.400540 217 217 217 0
2.978955 10.426344 35.400540 217 217 217 0
3.114363 10.426344 35.400540 217 217 217 0
3.249770 10.426344 35.400540 217 217 217 0
3.385177 10.426344 35.400540 217 217 217 0
3.520584 10.426344 35.400540 217 217 217 0
3.655991 10.426344 35.400540 217 217 217 0
3.791398 10.426344 35.400540 218 218 218 0
3.926805 10.426344 35.400540 218 218 218 0
4.062212 10.426344 35.400540 218 218 218 0
4.197619 10.426344 35.400540 218 218 218 0
4.333026 10.426344 35.400540 218 218 218 0
4.468433 10.426344 35.400540 218 218 218 0
4.603840 10.426344 35.400540 218 218 218 0
4.739247 10.426344 35.400540 217 217 217 0
4.874654 10.426344 35.400540 217 217 217 0
5.010061 10.426344 35.400540 218 218 218 0
5.145469 10.426344 35.400540 218 218 218 0
5.280876 10.426344 35.400540 218 218 218 0
5.416283 10.426344 35.400540 217 217 217 0
5.551690 10.426344 35.400540 218 218 218 0
5.687097 10.426344 35.400540 219 219 219 0
5.822504 10.426344 35.400540 218 218 218 0
5.957911 10.426344 35.400540 218 218 218 0
6.093318 10.426344 35.400540 218 218 218 0
6.228725 10.426344 35.400540 218 218 218 0
6.364132 10.426344 35.400540 218 218 218 0
6.499539 10.426344 35.400540 218 218 218 0
6.634946 10.426344 35.400540 219 219 219 0
6.770353 10.426344 35.400540 219 219 219 0
6.905760 10.426344 35.400540 219 219 219 0
7.041168 10.426344 35.400540 218 218 218 0
7.176575 10.426344 35.400540 218 218 218 0
7.311982 10.426344 35.400540 219 219 219 0
7.447389 10.426344 35.400540 219 219 219 0
7.582796 10.426344 35.400540 218 218 218 0
7.718203 10.426344 35.400540 218 218 218 0
7.853610 10.426344 35.400540 219 219 219 0
7.989017 10.426344 35.400540 218 218 218 0
8.124424 10.426344 35.400540 218 218 218 0
8.259831 10.426344 35.400540 219 219 219 0
8.395238 10.426344 35.400540 219 219 219 0
8.530645 10.426344 35.400540 218 218 218 0
8.666052 10.426344 35.400540 219 219 219 0
8.801459 10.426344 35.400540 218 218 218 0
8.936866 10.426344 35.400540 219 219 219 0
9.072274 10.426344 35.400540 218 218 218 0
9.207681 10.426344 35.400540 219 219 219 0
9.343088 10.426344 35.400540 219 219 219 0
9.478495 10.426344 35.400540 219 219 219 0
9.613902 10.426344 35.400540 219 219 219 0
9.749309 10.426344 35.400540 219 219 219 0
9.884716 10.426344 35.400540 219 219 219 0
10.074744 10.483179 35.593512 218 218 218 0
10.216577 10.489019 35.613341 219 219 219 0
10.137573 10.270962 34.872972 220 220 220 0
10.467979 10.467979 35.541905 220 220 220 0
10.661675 10.524987 35.735462 219 219 219 0
10.720353 10.448952 35.477301 220 220 220 0
-10.832556 10.561742 35.400509 212 212 212 0
-10.697161 10.561753 35.400548 212 212 212 0
-10.561738 10.561738 35.400495 212 212 212 0
-10.426344 10.561751 35.400540 212 212 212 0
-10.290937 10.561751 35.400540 212 212 212 0
-10.155530 10.561751 35.400540 212 212 212 0
-10.020123 10.561751 35.400540 212 212 212 0
-9.884716 10.561751 35.400540 212 212 212 0
-9.749309 10.561751 35.400540 212 212 212 0
-9.613902 10.561751 35.400540 213 213 213 0
-9.478495 10.561751 35.400540 213 213 213 0
-9.343088 10.561751 35.400540 213 213 213 0
-9.207681 10.561751 35.400540 213 213 213 0
-9.072274 10.561751 35.400540 213 213 213 0
-8.936866 10.561751 35.400540 213 213 213 0
-8.801459 10.561751 35.400540 212 212 212 0
-8.666052 10.561751 35.400540 213 213 213 0
-8.530645 10.561751 35.400540 213 213 213 0
-8.395238 10.561751 35.400540 213 213 213 0
-8.259831 10.561751 35.400540 213 213 213 0
-8.124424 10.561751 35.400540 213 213 213 0
-7.989017 10.561751 35.400540 213 213 213 0
-7.853610 10.561751 35.400540 213 213 213 0
-7.718203 10.561751 35.400540 214 214 214 0
-7.582796 10.561751 35.400540 214 214 214 0
-7.447389 10.561751 35.400540 214 214 214 0
-7.311982 10.561751 35.400540 214 214 214 0
-7.176575 10.561751 35.400540 214 214 214 0
-7.041168 10.561751 35.400540 214 214 214 0
-6.905760 10.561751 35.400540 214 214 214 0
-6.770353 10.561751 35.400540 213 213 213 0
-6.634946 10.561751 35.400540 214 214 214 0
-6.499539 10.561751 35.400540 214 214 214 0
-6.364132 10.561751 35.400540 214 214 214 0
-6.228725 10.561751 35.400540 213 213 213 0
-6.093318 10.561751 35.400540 214 214 214 0
-5.957911 10.561751 35.400540 214 214 214 0
-5.822504 10.561751 35.400540 214 214 214 0
-5.687097 10.561751 35.400540 214 214 214 0
-5.551690 10.561751 35.400540 214 214 214 0
-5.416283 10.561751 35.400540 215 215 215 0
-5.280876 10.561751 35.400540 214 214 214 0
-5.145469 10.561751 35.400540 215 215 215 0
-5.010061 10.561751 35.400540 214 214 214 0
-4.874654 10.561751 35.400540 214 214 214 0
-4.739247 10.561751 35.400540 215 215 215 0
-4.603840 10.561751 35.400540 215 215 215 0
-4.468433 10.561751 35.400540 215 215 215 0
-4.333026 10.561751 35.400540 215 215 215 0
-4.197619 10.561751 35.400540 214 214 214 0
-4.062212 10.561751 35.400540 215 215 215 0
-3.926805 10.561751 35.400540 215 215 215 0
-3.791398 10.561751 35.400540 215 215 215 0
-3.655991 10.561751 35.400540 215 215 215 0
-3.520584 10.561751 35.400540 215 215 215 0
-3.385177 10.561751 35.400540 216 216 216 0
-3.249770 10.561751 35.400540 215 215 215 0
-3.114363 10.561751 35.400540 215 215 215 0
-2.978955 10.561751 35.400540 215 215 215 0
-2.843548 10.561751 35.400540 216 216 216 0
-2.708141 10.561751 35.400540 215 215 215 0
-2.572734 10.561751 35.400540 215 215 215 0
-2.437327 10.561751 35.400540 216 216 216 0
-2.301920 10.561751 35.400540 215 215 215 0
-2.166513 10.561751 35.400540 215 215 215 0
-2.031106 10.561751 35.400540 216 216 216 0
-1.895699 10.561751 35.400540 216 216 216 0
-1.760292 10.561751 35.400540 216 216 216 0
-1.624885 10.561751 35.400540 216 216 216 0
-1.489478 10.561751 35.400540 215 215 215 0
-1.354071 10.561751 35.400540 216 216 216 0
-1.218664 10.561751 35.400540 216 216 216 0
-1.083257 10.561751 35.400540 216 216 216 0
-0.947849 10.561751 35.400540 216 216 216 0
-0.812442 10.561751 35.400540 216 216 216 0
-0.677035 10.561751 35.400540 216 216 216 0
-0.541628 10.561751 35.400540 216 216 216 0
-0.406221 10.561751 35.400540 216 216 216 0
-0.270814 10.561751 35.400540 217 217 217 0
-0.135407 10.561751 35.400540 217 217 217 0
0.000000 10.561751 35.400540 216 216 216 0
0.135407 10.561751 35.400540 217 217 217 0
0.270814 10.561751 35.400540 216 216 216 0
0.406221 10.561751 35.400540 217 217 217 0
0.541628 10.561751 35.400540 217 217 217 0
0.677035 10.561751 35.400540 217 217 217 0
0.812442 10.561751 35.400540 217 217 217 0
0.947849 10.561751 35.400540 217 217 217 0
1.083257 10.561751 35.400540 217 217 217 0
1.218664 10.561751 35.400540 217 217 217 0
1.354071 10.561751 35.400540 217 217 217 0
1.489478 10.561751 35.400540 217 217 217 0
1.624885 10.561751 35.400540 217 217 217 0
1.760292 10.561751 35.400540 216 216 216 0
1.895699 10.561751 35.400540 217 217 217 0
2.031106 10.561751 35.400540 217 217 217 0
2.166513 10.561751 35.400540 217 217 217 0
2.301920 10.561751 35.400540 217 217 217 0
2.437327 10.561751 35.400540 216 216 216 0
2.572734 10.561751 35.400540 217 217 217 0
2.708141 10.561751 35.400540 217 217 217 0
2.843548 10.561751 35.400540 217 217 217 0
2.978955 10.561751 35.400540 217 217 217 0
3.114363 10.561751 35.400540 217 217 217 0
3.249770 10.561751 35.400540 218 218 218 0
3.385177 10.561751 35.400540 217 217 217 0
3.520584 10.561751 35.400540 217 217 217 0
3.655991 10.561751 35.400540 217 217 217 0
3.791398 10.561751 35.400540 217 217 217 0
3.926805 10.561751 35.400540 218 218 218 0
4.062212 10.561751 35.400540 218 218 218 0
4.197619 10.561751 35.400540 217 217 217 0
4.333026 10.561751 35.400540 218 218 218 0
4.468433 10.561751 35.400540 217 217 217 0
4.603840 10.561751 35.400540 218 218 218 0
4.739247 10.561751 35.400540 218 218 218 0
4.874654 10.561751 35.400540 218 218 218 0
5.010061 10.561751 35.400540 218 218 218 0
5.145469 10.561751 35.400540 218 218 218 0
5.280876 10.561751 35.400540 218 218 218 0
5.416283 10.561751 35.400540 218 218 218 0
5.551690 10.561751 35.400540 218 218 218 0
