ply
format ascii 1.0
element vertex 1110
property float x
property float y
property float z
property uchar red
property uchar green
property uchar blue
property uchar alpha
end_header
4.401000 -5.108303 20.546217 214 214 214 0
4.487334 -5.117136 20.581742 215 215 215 0
4.572916 -5.124820 20.612649 214 214 214 0
4.658353 -5.132084 20.641867 215 215 215 0
4.741706 -5.136848 20.661028 214 214 214 0
4.829097 -5.145760 20.696871 215 215 215 0
4.918717 -5.156720 20.740955 214 214 214 0
5.008816 -5.167826 20.785624 214 214 214 0
5.090651 -5.170192 20.795141 214 214 214 0
5.176903 -5.176903 20.822133 214 214 214 0
5.266919 -5.187117 20.863218 214 214 214 0
5.354815 -5.194969 20.894799 214 214 214 0
5.444497 -5.204298 20.932321 214 214 214 0
5.529388 -5.208844 20.950604 215 215 215 0
5.618134 -5.216838 20.982758 214 214 214 0
5.710142 -5.227595 21.026023 214 214 214 0
5.795011 -5.231607 21.042161 214 214 214 0
5.886353 -5.241273 21.081037 214 214 214 0
5.971898 -5.245586 21.098385 213 213 213 0
6.065956 -5.257162 21.144944 214 214 214 0
6.157234 -5.266055 21.180715 214 214 214 0
6.246133 -5.272710 21.207480 215 215 215 0
6.332385 -5.276987 21.224685 214 214 214 0
6.425031 -5.286418 21.262616 213 213 213 0
-0.387273 -8.261832 33.749314 78 78 78 0
-0.191063 -6.114028 24.975603 87 87 87 0
-0.095443 -6.108350 24.952409 96 96 96 0
0.000000 -6.091629 24.884107 105 105 105 0
0.094606 -6.054771 24.733542 115 115 115 0
0.188380 -6.028151 24.624802 123 123 123 0
0.280490 -5.983789 24.443582 124 124 124 0
0.371808 -5.948931 24.301188 122 122 122 0
0.462506 -5.920081 24.183337 122 122 122 0
0.555152 -5.921619 24.189621 118 118 118 0
0.645822 -5.904655 24.120324 113 113 113 0
0.736040 -5.888318 24.053585 109 109 109 0
0.827065 -5.881354 24.025138 104 104 104 0
0.915208 -5.857334 23.927018 98 98 98 0
1.006680 -5.857049 23.925854 97 97 97 0
1.094661 -5.838190 23.848813 96 96 96 0
1.186729 -5.842359 23.865845 103 103 103 0
1.275294 -5.829914 23.815009 100 100 100 0
1.416311 -6.042929 24.685168 125 125 125 0
1.188026 -4.752102 19.412183 208 208 208 0
1.263911 -4.758254 19.437314 215 215 215 0
1.339615 -4.763076 19.457009 215 215 215 0
1.417124 -4.773470 19.499468 215 215 215 0
1.493030 -4.777696 19.516731 215 215 215 0
1.569602 -4.783548 19.540637 215 215 215 0
1.647366 -4.792337 19.576541 215 215 215 0
1.724711 -4.799195 19.604554 215 215 215 0
1.802242 -4.805979 19.632266 214 214 214 0
1.881199 -4.815869 19.672666 214 214 214 0
1.957406 -4.818231 19.682317 215 215 215 0
2.036407 -4.827039 19.718295 214 214 214 0
2.114936 -4.834139 19.747301 214 214 214 0
2.193141 -4.840035 19.771384 215 215 215 0
2.271432 -4.845722 19.794616 215 215 215 0
2.352693 -4.857173 19.841393 215 215 215 0
2.430601 -4.861202 19.857852 215 215 215 0
2.511110 -4.870031 19.893918 215 215 215 0
2.589352 -4.874074 19.910431 215 215 215 0
2.670579 -4.883345 19.948305 215 215 215 0
2.748894 -4.886922 19.962917 214 214 214 0
2.829066 -4.893519 19.989867 214 214 214 0
2.909853 -4.900806 20.019630 214 214 214 0
2.991507 -4.909140 20.053677 214 214 214 0
3.073727 -4.917963 20.089716 215 215 215 0
3.153892 -4.923148 20.110899 215 215 215 0
3.236535 -4.931862 20.146496 215 215 215 0
3.316992 -4.936919 20.167152 214 214 214 0
3.399214 -4.944311 20.197350 214 214 214 0
3.480397 -4.949898 20.220173 215 215 215 0
3.564465 -4.959256 20.258399 214 214 214 0
3.646726 -4.965755 20.284945 215 215 215 0
3.730850 -4.974467 20.320535 214 214 214 0
3.815672 -4.983735 20.358396 214 214 214 0
3.894170 -4.984538 20.361676 215 215 215 0
3.978923 -4.993158 20.396889 215 215 215 0
4.063653 -5.001419 20.430634 214 214 214 0
4.148170 -5.009111 20.462055 214 214 214 0
4.233391 -5.017352 20.495718 214 214 214 0
4.319760 -5.026630 20.533621 214 214 214 0
4.400858 -5.029553 20.545558 214 214 214 0
4.488336 -5.039535 20.586337 214 214 214 0
4.571545 -5.044464 20.606469 214 214 214 0
4.659538 -5.054415 20.647118 214 214 214 0
4.746575 -5.063014 20.682246 214 214 214 0
4.829307 -5.066814 20.697770 214 214 214 0
4.920001 -5.078711 20.746367 214 214 214 0
5.004863 -5.084305 20.769220 214 214 214 0
5.088857 -5.088857 20.787815 214 214 214 0
5.176585 -5.096945 20.820854 214 214 214 0
5.265362 -5.105806 20.857050 214 214 214 0
5.354472 -5.114720 20.893464 213 213 213 0
5.443638 -5.123424 20.929018 214 214 214 0
5.526541 -5.126067 20.939817 214 214 214 0
5.618878 -5.137260 20.985538 214 214 214 0
5.708073 -5.145305 21.018405 214 214 214 0
5.797336 -5.153187 21.050601 214 214 214 0
5.883521 -5.158155 21.070895 215 215 215 0
5.972280 -5.165215 21.099735 214 214 214 0
6.065205 -5.175641 21.142325 214 214 214 0
6.158187 -5.185842 21.183994 214 214 214 0
6.246928 -5.192252 21.210180 214 214 214 0
6.333124 -5.196409 21.227162 214 214 214 0
6.426176 -5.206016 21.266404 214 214 214 0
-0.572913 -6.015591 24.963550 76 76 76 0
-0.476037 -5.998070 24.890841 90 90 90 0
-0.379329 -5.974424 24.792713 109 109 109 0
-0.282285 -5.927985 24.600000 129 129 129 0
-0.186514 -5.875198 24.380943 138 138 138 0
-0.092328 -5.816694 24.138162 122 122 122 0
0.000000 -5.768440 23.937919 88 88 88 0
0.092694 -5.839696 24.233617 72 72 72 0
1.123372 -4.718164 19.579475 99 99 99 0
1.190071 -4.685903 19.445598 207 207 207 0
1.263759 -4.683341 19.434966 215 215 215 0
1.340644 -4.692254 19.471954 214 214 214 0
1.417681 -4.700733 19.507138 215 215 215 0
1.493192 -4.703554 19.518846 215 215 215 0
1.569595 -4.708785 19.540554 215 215 215 0
1.646999 -4.716406 19.572178 215 215 215 0
1.725244 -4.725667 19.610612 215 215 215 0
1.802067 -4.730427 19.630363 215 215 215 0
1.880422 -4.738664 19.664545 215 215 215 0
1.957667 -4.743577 19.684934 215 215 215 0
2.035980 -4.750621 19.714166 215 215 215 0
2.113908 -4.756294 19.737707 215 215 215 0
2.193547 -4.765293 19.775049 215 215 215 0
2.272772 -4.772821 19.806290 214 214 214 0
2.350065 -4.775939 19.819228 214 214 214 0
2.429249 -4.782584 19.846805 214 214 214 0
2.510191 -4.792184 19.886642 214 214 214 0
2.589399 -4.798005 19.910799 215 215 215 0
2.669774 -4.805594 19.942292 214 214 214 0
2.747445 -4.808028 19.952394 215 215 215 0
2.830125 -4.818862 19.997353 214 214 214 0
2.910962 -4.826069 20.027260 214 214 214 0
2.992595 -4.834191 20.060966 214 214 214 0
3.073204 -4.840297 20.086303 215 215 215 0
3.152926 -4.844740 20.104742 214 214 214 0
3.234152 -4.851228 20.131665 215 215 215 0
3.316745 -4.859417 20.165646 215 215 215 0
3.398251 -4.865677 20.191627 215 215 215 0
3.479649 -4.871509 20.215827 215 215 215 0
3.563091 -4.879886 20.250589 214 214 214 0
3.645913 -4.887075 20.280425 215 215 215 0
3.729824 -4.895394 20.314946 214 214 214 0
3.815266 -4.905342 20.356228 215 215 215 0
3.896529 -4.909626 20.374008 214 214 214 0
3.980145 -4.916649 20.403151 214 214 214 0
4.061863 -4.921104 20.421635 215 215 215 0
4.150120 -4.933162 20.471675 214 214 214 0
4.234461 -4.940205 20.500902 215 215 215 0
4.317401 -4.945387 20.522407 214 214 214 0
4.399626 -4.949580 20.539806 214 214 214 0
4.487037 -4.959356 20.580378 214 214 214 0
4.572624 -4.966816 20.611332 215 215 215 0
4.658107 -4.973911 20.640776 214 214 214 0
4.743125 -4.980281 20.667210 214 214 214 0
4.829630 -4.987979 20.699154 215 215 215 0
4.918981 -4.998319 20.742065 215 215 215 0
5.007300 -5.007300 20.779335 214 214 214 0
5.091420 -5.011866 20.798283 214 214 214 0
5.175807 -5.016551 20.817725 214 214 214 0
5.264069 -5.024793 20.851926 214 214 214 0
5.356836 -5.037025 20.902687 214 214 214 0
5.443297 -5.043055 20.927708 214 214 214 0
5.527253 -5.046622 20.942514 214 214 214 0
5.617364 -5.055627 20.979883 214 214 214 0
5.708186 -5.065010 21.018819 214 214 214 0
5.796330 -5.071788 21.046949 214 214 214 0
5.883521 -5.077559 21.070895 214 214 214 0
5.973263 -5.085346 21.103208 214 214 214 0
6.068146 -5.097242 21.152578 214 214 214 0
6.160261 -5.106532 21.191127 214 214 214 0
6.249352 -5.113106 21.218411 215 215 215 0
6.332506 -5.114716 21.225090 214 214 214 0
6.423921 -5.122874 21.258943 214 214 214 0
-0.866198 -5.967144 25.161899 75 75 75 0
-0.766599 -5.941145 25.052266 86 86 86 0
-0.664472 -5.885321 24.816872 105 105 105 0
-0.564347 -5.831583 24.590271 125 125 125 0
-0.466646 -5.786415 24.399810 138 138 138 0
-0.370580 -5.743985 24.220892 145 145 145 0
-0.276342 -5.711073 24.082111 149 149 149 0
-0.183101 -5.676118 23.934718 155 155 155 0
-0.090920 -5.637049 23.769973 160 160 160 0
0.000000 -5.603782 23.629694 156 156 156 0
0.089394 -5.542399 23.370860 119 119 119 0
1.122388 -4.639205 19.562323 102 102 102 0
1.190275 -4.612314 19.448932 207 207 207 0
1.264268 -4.610860 19.442800 214 214 214 0
1.341275 -4.619948 19.481123 214 214 214 0
1.417566 -4.625742 19.505553 214 214 214 0
1.493240 -4.629043 19.519472 215 215 215 0
1.570521 -4.636775 19.552076 214 214 214 0
1.646193 -4.639271 19.562601 214 214 214 0
1.724805 -4.649474 19.605623 214 214 214 0
1.803016 -4.657792 19.640699 215 215 215 0
1.880063 -4.662556 19.660788 215 215 215 0
1.957481 -4.667840 19.683068 215 215 215 0
2.035757 -4.674702 19.712003 215 215 215 0
2.113397 -4.679664 19.732928 215 215 215 0
2.192810 -4.688077 19.768403 215 215 215 0
2.272050 -4.695570 19.800000 214 214 214 0
2.351985 -4.703970 19.835421 214 214 214 0
2.429576 -4.707304 19.849478 215 215 215 0
2.510459 -4.716621 19.888765 215 215 215 0
2.589935 -4.722823 19.914917 214 214 214 0
2.670683 -4.730924 19.949077 214 214 214 0
2.747744 -4.732225 19.954566 215 215 215 0
2.828679 -4.739948 19.987132 215 215 215 0
2.910547 -4.748788 20.024406 214 214 214 0
2.991162 -4.755180 20.051359 214 214 214 0
3.073870 -4.764498 20.090653 214 214 214 0
3.153588 -4.768840 20.108961 215 215 215 0
3.236332 -4.777442 20.145234 215 215 215 0
3.317881 -4.783921 20.172552 214 214 214 0
3.399209 -4.789795 20.197323 214 214 214 0
3.480332 -4.795124 20.219793 215 215 215 0
3.563644 -4.803172 20.253730 215 215 215 0
3.645629 -4.809128 20.278845 215 215 215 0
3.729887 -4.817771 20.315291 214 214 214 0
3.815776 -4.828125 20.358950 214 214 214 0
3.895048 -4.829860 20.366264 215 215 215 0
3.979318 -4.837602 20.398912 215 215 215 0
4.061434 -4.842479 20.419476 215 215 215 0
4.148779 -4.853288 20.465057 215 215 215 0
4.235230 -4.862671 20.504624 214 214 214 0
4.317528 -4.867032 20.523010 214 214 214 0
4.402112 -4.873767 20.551412 215 215 215 0
4.487246 -4.880864 20.581338 215 215 215 0
4.570110 -4.885290 20.600000 214 214 214 0
4.658061 -4.894911 20.640570 214 214 214 0
4.742432 -4.900513 20.664192 214 214 214 0
4.830548 -4.909737 20.703088 215 215 215 0
4.918588 -4.918588 20.740410 214 214 214 0
5.006195 -4.926732 20.774748 215 215 215 0
5.090148 -4.931081 20.793089 214 214 214 0
5.174050 -4.935247 20.810657 214 214 214 0
5.265980 -4.946830 20.859497 214 214 214 0
5.356894 -4.957126 20.902914 214 214 214 0
5.441351 -4.961232 20.920226 214 214 214 0
5.528010 -4.967197 20.945381 215 215 215 0
5.617795 -4.975761 20.981494 214 214 214 0
5.704785 -4.981643 21.006296 214 214 214 0
5.795473 -4.990546 21.043838 214 214 214 0
5.884493 -4.997788 21.074377 214 214 214 0
5.970333 -5.002171 21.092856 214 214 214 0
6.066975 -5.015366 21.148497 214 214 214 0
6.155016 -5.021197 21.173085 215 215 215 0
6.248171 -5.030995 21.214400 214 214 214 0
6.329746 -5.031336 21.215840 214 214 214 0
6.427248 -5.044169 21.269953 214 214 214 0
-1.050756 -5.826919 24.973403 75 75 75 0
-0.953270 -5.814947 24.922090 92 92 92 0
-0.852105 -5.775375 24.752493 116 116 116 0
-0.749867 -5.717739 24.505473 134 134 134 0
-0.650108 -5.665225 24.280402 144 144 144 0
-0.552367 -5.615735 24.068293 149 149 149 0
-0.456882 -5.573956 23.889234 153 153 153 0
-0.363235 -5.539335 23.740856 157 157 157 0
-0.271079 -5.511932 23.623411 161 161 161 0
-0.180241 -5.497350 23.560915 163 163 163 0
-0.089667 -5.469675 23.442302 166 166 166 0
0.000000 -5.457900 23.391837 167 167 167 0
0.088961 -5.426593 23.257658 165 165 165 0
0.176187 -5.373706 23.030989 134 134 134 0
0.260428 -5.295374 22.695272 73 73 73 0
1.123153 -4.567489 19.575651 106 106 106 0
1.189409 -4.534624 19.434796 207 207 207 0
1.264122 -4.535968 19.440556 215 215 215 0
1.340140 -4.541586 19.464636 215 215 215 0
1.415902 -4.545789 19.482650 215 215 215 0
1.493995 -4.556684 19.529342 215 215 215 0
1.570069 -4.560676 19.546451 214 214 214 0
1.646767 -4.566037 19.569429 214 214 214 0
1.725244 -4.575647 19.610616 215 215 215 0
1.802547 -4.581475 19.635593 214 214 214 0
1.881019 -4.589687 19.670790 214 214 214 0
1.958344 -4.594576 19.691742 215 215 215 0
2.035607 -4.598963 19.710545 215 215 215 0
2.114179 -4.605889 19.740230 215 215 215 0
2.191348 -4.609387 19.755222 214 214 214 0
2.271714 -4.619152 19.797072 215 215 215 0
2.350905 -4.625974 19.826312 215 215 215 0
2.429594 -4.631414 19.849627 215 215 215 0
2.509574 -4.638909 19.881749 214 214 214 0
2.589911 -4.646606 19.914736 214 214 214 0
2.670390 -4.654107 19.946887 214 214 214 0
2.747084 -4.654781 19.949774 215 215 215 0
2.829126 -4.664235 19.990293 214 214 214 0
2.910256 -4.671727 20.022404 215 215 215 0
2.992644 -4.680802 20.061295 215 215 215 0
3.072947 -4.686244 20.084620 214 214 214 0
3.152616 -4.690478 20.102765 215 215 215 0
3.234663 -4.697963 20.134846 215 215 215 0
3.316952 -4.705444 20.166908 214 214 214 0
3.397784 -4.710564 20.188852 214 214 214 0
3.481219 -4.718986 20.224948 215 215 215 0
3.562268 -4.723877 20.245909 214 214 214 0
3.643471 -4.728760 20.266837 215 215 215 0
3.730101 -4.740337 20.316456 215 215 215 0
3.813929 -4.747952 20.349093 214 214 214 0
3.895049 -4.751960 20.366270 214 214 214 0
3.980327 -4.760783 20.404085 215 215 215 0
4.063881 -4.767245 20.431778 215 215 215 0
4.150458 -4.776942 20.473340 214 214 214 0
4.234471 -4.783384 20.500949 214 214 214 0
4.318641 -4.789766 20.528301 214 214 214 0
4.401319 -4.794294 20.547707 214 214 214 0
4.487153 -4.802041 20.580912 215 215 215 0
4.573484 -4.810044 20.615210 215 215 215 0
4.657702 -4.815590 20.638979 215 215 215 0
4.742432 -4.821473 20.664192 214 214 214 0
4.830441 -4.830441 20.702629 214 214 214 0
4.916869 -4.837565 20.733161 214 214 214 0
5.005404 -4.846503 20.771468 214 214 214 0
5.090579 -4.851958 20.794849 214 214 214 0
5.172775 -4.854450 20.805531 214 214 214 0
5.264705 -4.865864 20.854447 214 214 214 0
5.354897 -4.875354 20.895120 215 215 215 0
5.441018 -4.880913 20.918946 214 214 214 0
5.527036 -4.886221 20.941693 214 214 214 0
5.617745 -4.895464 20.981308 215 215 215 0
5.706378 -4.902663 21.012164 214 214 214 0
5.794253 -4.909020 21.039408 215 215 215 0
5.886665 -4.918994 21.082155 214 214 214 0
5.971798 -4.922698 21.098033 214 214 214 0
6.065706 -4.933441 21.144075 214 214 214 0
6.156593 -4.941476 21.178509 214 214 214 0
6.247707 -4.949483 21.212826 214 214 214 0
6.333573 -4.953179 21.228668 214 214 214 0
6.425745 -4.961651 21.264977 214 214 214 0
-1.254340 -5.789262 25.225544 77 77 77 0
-1.144376 -5.721879 24.931936 95 95 95 0
-1.036793 -5.655234 24.641544 118 118 118 0
-0.932390 -5.594338 24.376202 134 134 134 0
-0.832230 -5.548200 24.175164 142 142 142 0
-0.733776 -5.503323 23.979620 148 148 148 0
-0.638210 -5.470373 23.836050 155 155 155 0
-0.543385 -5.433852 23.676916 161 161 161 0
-0.450169 -5.402022 23.538223 163 163 163 0
-0.358252 -5.373777 23.415150 164 164 164 0
-0.267313 -5.346255 23.295227 165 165 165 0
-0.177475 -5.324262 23.199397 166 166 166 0
-0.088485 -5.309113 23.133391 170 170 170 0
0.000000 -5.300646 23.096495 174 174 174 0
0.088143 -5.288594 23.043982 176 176 176 0
0.175474 -5.264212 22.937744 175 175 175 0
0.261227 -5.224545 22.764900 134 134 134 0
1.120818 -4.483273 19.534960 105 105 105 0
1.190128 -4.462981 19.446542 207 207 207 0
1.264050 -4.461351 19.439439 215 215 215 0
1.339556 -4.465186 19.456150 215 215 215 0
1.417346 -4.475830 19.502527 214 214 214 0
1.493290 -4.479869 19.520127 215 215 215 0
1.570193 -4.486266 19.547999 215 215 215 0
1.646103 -4.489371 19.561531 215 215 215 0
1.724729 -4.499293 19.604762 214 214 214 0
1.802604 -4.506509 19.636207 215 215 215 0
1.881187 -4.514849 19.672544 214 214 214 0
1.957975 -4.518404 19.688036 215 215 215 0
2.036098 -4.524663 19.715308 215 215 215 0
2.113217 -4.528321 19.731248 215 215 215 0
2.193035 -4.537315 19.770434 214 214 214 0
2.271566 -4.543133 19.795785 214 214 214 0
2.351548 -4.551382 19.831731 215 215 215 0
2.429295 -4.554928 19.847182 214 214 214 0
2.510285 -4.564155 19.887386 215 215 215 0
2.589546 -4.569788 19.911930 214 214 214 0
2.670084 -4.577287 19.944606 215 215 215 0
2.747869 -4.579782 19.955479 215 215 215 0
2.829624 -4.588580 19.993813 215 215 215 0
2.911042 -4.596383 20.027811 214 214 214 0
2.991683 -4.602590 20.054858 214 214 214 0
3.073358 -4.610037 20.087307 215 215 215 0
3.152599 -4.613560 20.102658 215 215 215 0
3.233886 -4.619837 20.130007 215 215 215 0
3.316806 -4.628102 20.166020 215 215 215 0
3.399202 -4.635275 20.197277 214 214 214 0
3.481194 -4.641593 20.224804 215 215 215 0
3.562774 -4.647096 20.248785 215 215 215 0
3.646935 -4.655661 20.286106 214 214 214 0
3.728665 -4.660831 20.308631 214 214 214 0
3.812636 -4.668534 20.342197 215 215 215 0
3.895314 -4.674376 20.367653 214 214 214 0
3.979063 -4.681251 20.397609 214 214 214 0
4.063105 -4.688198 20.427879 214 214 214 0
4.149644 -4.697710 20.469324 215 215 215 0
4.232062 -4.702291 20.489286 214 214 214 0
4.315797 -4.708142 20.514780 214 214 214 0
4.398590 -4.712775 20.534969 214 214 214 0
4.485893 -4.721993 20.575132 214 214 214 0
4.573484 -4.731191 20.615210 214 214 214 0
4.657090 -4.736024 20.636268 215 215 215 0
4.744028 -4.744028 20.671145 214 214 214 0
4.829665 -4.750490 20.699305 214 214 214 0
4.919387 -4.760697 20.743777 214 214 214 0
5.005139 -4.766799 20.770366 215 215 215 0
5.089299 -4.771218 20.789621 214 214 214 0
5.173478 -4.775518 20.808358 214 214 214 0
5.265394 -4.786722 20.857176 214 214 214 0
5.353427 -4.794114 20.889385 214 214 214 0
5.442390 -4.802109 20.924221 214 214 214 0
5.525781 -4.805027 20.936937 214 214 214 0
5.618126 -4.815536 20.982729 214 214 214 0
5.706378 -4.822292 21.012164 214 214 214 0
5.792588 -4.827157 21.033363 214 214 214 0
5.881031 -4.833724 21.061980 213 213 213 0
5.971263 -4.841564 21.096140 214 214 214 0
6.063801 -4.851041 21.137433 214 214 214 0
6.155755 -4.859806 21.175627 214 214 214 0
6.245777 -4.866839 21.206271 214 214 214 0
6.330437 -4.869567 21.218156 214 214 214 0
6.424279 -4.879199 21.260128 214 214 214 0
-1.422398 -5.594764 24.791246 78 78 78 0
-1.331438 -5.611062 24.863461 97 97 97 0
-1.223081 -5.550906 24.596901 120 120 120 0
-1.117927 -5.496473 24.355702 136 136 136 0
-1.013528 -5.436198 24.088614 143 143 143 0
-0.913864 -5.391795 23.891859 148 148 148 0
-0.815530 -5.346251 23.690044 155 155 155 0
-0.721205 -5.318886 23.568789 159 159 159 0
-0.628793 -5.299829 23.484341 162 162 162 0
-0.537125 -5.281729 23.404137 165 165 165 0
-0.445544 -5.257421 23.296425 165 165 165 0
-0.354731 -5.232280 23.185023 168 168 168 0
-0.264428 -5.200413 23.043816 171 171 171 0
-0.175572 -5.179372 22.950581 174 174 174 0
-0.087529 -5.164201 22.883356 176 176 176 0
0.000000 -5.160435 22.866666 178 178 178 0
0.087358 -5.154146 22.838799 178 178 178 0
0.174389 -5.144467 22.795910 179 179 179 0
0.259784 -5.109082 22.639115 172 172 172 0
0.341401 -5.035660 22.313768 114 114 114 0
0.976078 -4.429891 19.629514 69 69 69 0
1.124052 -4.421271 19.591319 107 107 107 0
1.190505 -4.389986 19.452693 207 207 207 0
1.264043 -4.386973 19.439339 215 215 215 0
1.340131 -4.392650 19.464496 215 215 215 0
1.417454 -4.401568 19.504014 215 215 215 0
1.493290 -4.405205 19.520127 215 215 215 0
1.569985 -4.410910 19.545407 215 215 215 0
1.646532 -4.415699 19.566628 214 214 214 0
1.725244 -4.425625 19.610612 215 215 215 0
1.802223 -4.430464 19.632056 215 215 215 0
1.881085 -4.439362 19.671482 215 215 215 0
1.957346 -4.441671 19.681713 215 215 215 0
2.034749 -4.446302 19.702237 214 214 214 0
2.114123 -4.454759 19.739709 215 215 215 0
2.193141 -4.461907 19.771384 215 215 215 0
2.271563 -4.467407 19.795757 215 215 215 0
2.350255 -4.473066 19.820830 215 215 215 0
2.429683 -4.479729 19.850354 214 214 214 0
2.511199 -4.489720 19.894627 215 215 215 0
2.589574 -4.493673 19.912143 215 215 215 0
2.670096 -4.501020 19.944697 214 214 214 0
2.748690 -4.504798 19.961438 215 215 215 0
2.828275 -4.509952 19.984279 215 215 215 0
2.909253 -4.516997 20.015497 215 215 215 0
2.991337 -4.525356 20.052536 215 215 215 0
3.072328 -4.531684 20.080578 215 215 215 0
3.153953 -4.538615 20.111287 215 215 215 0
3.233870 -4.542817 20.129907 215 215 215 0
3.316662 -4.550769 20.165145 215 215 215 0
3.400772 -4.560127 20.206609 215 215 215 0
3.478600 -4.560831 20.209731 215 215 215 0
3.563079 -4.570036 20.250518 214 214 214 0
3.644442 -4.574938 20.272243 214 214 214 0
3.728486 -4.582931 20.307658 215 215 215 0
3.813511 -4.591778 20.346862 215 215 215 0
3.893617 -4.594468 20.358780 214 214 214 0
3.979475 -4.603707 20.399721 215 215 215 0
4.061044 -4.607723 20.417514 215 215 215 0
4.148875 -4.618558 20.465530 215 215 215 0
4.235163 -4.627308 20.504299 215 215 215 0
4.315797 -4.629673 20.514780 215 215 215 0
4.400238 -4.635965 20.542660 214 214 214 0
4.485731 -4.643126 20.574390 214 214 214 0
4.570399 -4.649199 20.601303 215 215 215 0
4.658305 -4.658305 20.641651 214 214 214 0
4.744056 -4.664989 20.671269 214 214 214 0
4.830105 -4.671741 20.701191 214 214 214 0
4.916413 -4.678522 20.731238 214 214 214 0
5.007594 -4.689652 20.780555 215 215 215 0
5.087569 -4.690102 20.782551 215 215 215 0
5.174940 -4.697254 20.814240 214 214 214 0
5.264689 -4.706313 20.854383 214 214 214 0
5.354039 -4.714751 20.891773 214 214 214 0
5.442615 -4.722269 20.925085 214 214 214 0
5.528406 -4.727187 20.946881 214 214 214 0
5.614451 -4.732181 20.969006 214 214 214 0
5.706447 -4.741977 21.012415 214 214 214 0
5.793446 -4.747407 21.036479 214 214 214 0
5.882049 -4.753985 21.065624 214 214 214 0
5.972779 -4.762080 21.101498 214 214 214 0
6.066203 -4.772080 21.145806 214 214 214 0
6.155473 -4.778591 21.174658 214 214 214 0
6.245304 -4.785363 21.204664 214 214 214 0
6.330255 -4.788270 21.217545 214 214 214 0
6.422611 -4.796633 21.254607 214 214 214 0
-1.526823 -5.534733 24.948087 90 90 90 0
-1.412644 -5.462225 24.621254 115 115 115 0
-1.302884 -5.397662 24.330234 135 135 135 0
-1.200542 -5.356266 24.143638 143 143 143 0
-1.098785 -5.310792 23.938661 149 149 149 0
-0.998413 -5.264359 23.729362 155 155 155 0
-0.901892 -5.230976 23.578888 159 159 159 0
-0.805999 -5.194213 23.413176 161 161 161 0
-0.711673 -5.159627 23.257279 162 162 162 0
-0.620070 -5.137726 23.158557 164 164 164 0
-0.530169 -5.124970 23.101059 170 170 170 0
-0.440489 -5.109675 23.032116 173 173 173 0
-0.351582 -5.097944 22.979238 176 176 176 0
-0.262475 -5.074516 22.873637 176 176 176 0
-0.174069 -5.047988 22.754060 176 176 176 0
-0.086750 -5.031512 22.679791 176 176 176 0
0.000000 -5.024472 22.648061 177 177 177 0
0.086412 -5.011895 22.591367 179 179 179 0
0.172710 -5.008581 22.576431 180 180 180 0
0.258429 -4.996303 22.521086 182 182 182 0
0.342609 -4.967827 22.392728 171 171 171 0
0.424449 -4.923611 22.193424 89 89 89 0
0.660576 -4.257047 19.188855 70 70 70 0
1.123948 -4.345932 19.589505 102 102 102 0
1.189946 -4.313553 19.443559 206 206 206 0
1.264388 -4.313794 19.444644 215 215 215 0
1.340174 -4.318340 19.465133 215 215 215 0
1.416681 -4.324604 19.493370 215 215 215 0
1.492890 -4.329380 19.514897 214 214 214 0
1.569824 -4.335705 19.543406 215 215 215 0
1.645801 -4.338931 19.557949 215 215 215 0
1.724062 -4.347635 19.597185 214 214 214 0
1.802208 -4.355337 19.631900 215 215 215 0
1.881196 -4.364375 19.672638 215 215 215 0
1.955896 -4.363153 19.667129 215 215 215 0
2.034221 -4.369808 19.697128 215 215 215 0
2.114126 -4.379262 19.739743 215 215 215 0
2.191576 -4.383151 19.757274 215 215 215 0
2.272050 -4.392630 19.800000 214 214 214 0
2.349001 -4.394906 19.810259 215 215 215 0
2.428315 -4.401321 19.839177 214 214 214 0
2.510194 -4.411855 19.886659 215 215 215 0
2.588654 -4.415940 19.905070 215 215 215 0
2.669468 -4.423690 19.940004 215 215 215 0
2.747905 -4.427180 19.955734 215 215 215 0
2.829458 -4.435366 19.992635 215 215 215 0
2.909943 -4.441492 20.020247 215 215 215 0
2.991341 -4.448661 20.052563 215 215 215 0
3.071765 -4.454059 20.076895 215 215 215 0
3.152425 -4.459528 20.101546 215 215 215 0
3.233565 -4.465399 20.128010 215 215 215 0
3.316913 -4.473975 20.166667 216 216 216 0
3.398251 -4.479512 20.191627 215 215 215 0
3.480531 -4.486018 20.220953 214 214 214 0
3.564019 -4.493763 20.255861 214 214 214 0
3.645867 -4.499155 20.280167 214 214 214 0
3.728686 -4.505496 20.308749 215 215 215 0
3.811824 -4.511955 20.337863 215 215 215 0
3.894947 -4.518139 20.365737 214 214 214 0
3.981683 -4.528188 20.411035 215 215 215 0
4.063780 -4.532678 20.431272 215 215 215 0
4.149340 -4.540787 20.467827 215 215 215 0
4.233812 -4.547428 20.497759 214 214 214 0
4.317271 -4.552758 20.521787 214 214 214 0
4.399780 -4.556915 20.540524 215 215 215 0
4.485773 -4.564471 20.574580 214 214 214 0
4.572056 -4.572056 20.608770 214 214 214 0
4.657358 -4.578419 20.637455 214 214 214 0
4.742158 -4.584086 20.662997 215 215 215 0
4.829053 -4.591559 20.696681 215 215 215 0
4.916361 -4.599176 20.731018 214 214 214 0
5.002462 -4.605441 20.759258 214 214 214 0
5.088026 -4.611023 20.784419 214 214 214 0
5.176303 -4.618855 20.819719 214 214 214 0
5.262485 -4.624608 20.845652 214 214 214 0
5.354815 -4.635511 20.894799 214 214 214 0
5.442324 -4.641983 20.923969 214 214 214 0
5.527908 -4.646647 20.944996 214 214 214 0
5.614619 -4.652113 20.969633 214 214 214 0
5.703337 -4.659064 21.000965 214 214 214 0
5.794163 -4.667520 21.039082 214 214 214 0
5.882099 -4.673449 21.065805 215 215 215 0
5.971263 -4.680179 21.096140 214 214 214 0
6.064820 -4.690128 21.140986 215 215 215 0
6.153452 -4.696055 21.167705 214 214 214 0
6.244451 -4.703612 21.201768 215 215 215 0
6.330807 -4.707523 21.219396 214 214 214 0
6.426004 -4.717826 21.265836 214 214 214 0
-1.728465 -5.473471 25.104788 84 84 84 0
-1.605180 -5.382073 24.685579 107 107 107 0
-1.491306 -5.312776 24.367738 129 129 129 0
-1.383482 -5.257233 24.112984 137 137 137 0
-1.278472 -5.205209 23.874367 145 145 145 0
-1.177782 -5.164122 23.685917 155 155 155 0
-1.082654 -5.142608 23.587239 159 159 159 0
-0.987767 -5.118429 23.476340 161 161 161 0
-0.892722 -5.088513 23.339126 162 162 162 0
-0.798802 -5.059078 23.204120 166 166 166 0
-0.705231 -5.024769 23.046756 169 169 169 0
-0.613802 -4.998100 22.924437 173 173 173 0
-0.524850 -4.986071 22.869263 175 175 175 0
-0.436392 -4.974873 22.817903 177 177 177 0
-0.348417 -4.964937 22.772327 176 176 176 0
-0.260462 -4.948778 22.698214 176 176 176 0
-0.172956 -4.929247 22.608631 177 177 177 0
-0.086085 -4.906863 22.505964 179 179 179 0
0.000000 -4.889037 22.424203 181 181 181 0
0.085712 -4.885606 22.408466 185 185 185 0
0.171228 -4.880007 22.382784 186 186 186 0
0.256437 -4.872311 22.347490 187 187 187 0
0.341147 -4.861350 22.297214 186 186 186 0
0.422913 -4.821207 22.113095 147 147 147 0
1.119110 -4.252619 19.505190 104 104 104 0
1.189819 -4.238730 19.441488 206 206 206 0
1.263768 -4.237339 19.435106 214 214 214 0
1.340135 -4.243761 19.464562 215 215 215 0
1.416653 -4.249959 19.492989 215 215 215 0
1.493358 -4.256069 19.521016 215 215 215 0
1.569519 -4.260123 19.539608 215 215 215 0
1.646576 -4.266130 19.567158 214 214 214 0
1.724651 -4.274135 19.603877 215 215 215 0
1.802840 -4.281744 19.638777 214 214 214 0
1.879962 -4.286314 19.659738 215 215 215 0
1.956841 -4.289998 19.676632 215 215 215 0
2.035734 -4.297660 19.711775 215 215 215 0
2.114728 -4.304981 19.745355 214 214 214 0
2.192605 -4.309603 19.766554 215 215 215 0
2.272772 -4.318266 19.806290 214 214 214 0
2.350208 -4.321350 19.820435 215 215 215 0
2.429142 -4.326910 19.845935 215 215 215 0
2.510459 -4.336248 19.888765 215 215 215 0
2.589776 -4.341684 19.913698 214 214 214 0
2.667868 -4.344814 19.928056 214 214 214 0
2.746820 -4.349131 19.947855 215 215 215 0
2.828316 -4.357136 19.984571 215 215 215 0
2.909865 -4.364797 20.019710 215 215 215 0
2.988665 -4.368049 20.034624 214 214 214 0
3.072947 -4.378949 20.084620 215 215 215 0
3.154268 -4.385201 20.113296 215 215 215 0
3.230867 -4.384749 20.111219 215 215 215 0
3.317771 -4.397976 20.171887 215 215 215 0
3.399142 -4.403434 20.196923 214 214 214 0
3.480452 -4.408573 20.220493 215 215 215 0
3.561150 -4.412730 20.239559 215 215 215 0
3.646020 -4.421768 20.281015 215 215 215 0
3.730573 -4.430056 20.319027 215 215 215 0
3.813445 -4.436048 20.346509 214 214 214 0
3.893945 -4.439097 20.360497 215 215 215 0
3.977897 -4.445884 20.391627 215 215 215 0
4.061661 -4.452206 20.420621 215 215 215 0
4.148779 -4.461894 20.465057 215 215 215 0
4.232652 -4.467800 20.492144 215 215 215 0
4.317760 -4.474769 20.524112 215 215 215 0
4.399626 -4.478191 20.539806 214 214 214 0
4.485799 -4.485799 20.574701 215 215 215 0
4.571518 -4.492699 20.606347 215 215 215 0
4.656052 -4.498220 20.631669 215 215 215 0
4.741485 -4.504411 20.660066 215 215 215 0
4.830441 -4.513691 20.702629 214 214 214 0
4.916451 -4.519963 20.731396 214 214 214 0
5.002819 -4.526360 20.760741 215 215 215 0
5.089410 -4.532756 20.790075 214 214 214 0
5.175924 -4.538887 20.818195 214 214 214 0
5.262485 -4.544873 20.845652 215 215 215 0
5.356371 -4.556913 20.900872 214 214 214 0
5.443348 -4.562807 20.927906 215 215 215 0
5.528019 -4.566624 20.945415 214 214 214 0
5.617847 -4.574533 20.981690 214 214 214 0
5.706689 -4.581426 21.013307 214 214 214 0
5.794780 -4.587534 21.041323 214 214 214 0
5.883087 -4.593643 21.069341 214 214 214 0
5.968276 -4.597186 21.085591 214 214 214 0
6.064965 -4.609373 21.141489 214 214 214 0
6.156097 -4.617072 21.176803 214 214 214 0
6.246753 -4.624220 21.209585 214 214 214 0
6.330168 -4.625892 21.217254 214 214 214 0
6.425385 -4.636037 21.263787 214 214 214 0
-1.893152 -5.300826 24.747085 77 77 77 0
-1.804399 -5.318227 24.828325 99 99 99 0
-1.687799 -5.250929 24.514141 121 121 121 0
-1.575953 -5.191374 24.236107 135 135 135 0
-1.467856 -5.137494 23.984567 141 141 141 0
-1.361412 -5.082603 23.728307 150 150 150 0
-1.260797 -5.043186 23.544287 156 156 156 0
-1.162059 -5.005794 23.369718 159 159 159 0
-1.067643 -4.982334 23.260197 161 161 161 0
-0.975797 -4.967692 23.191837 165 165 165 0
-0.884436 -4.952843 23.122517 170 170 170 0
-0.791540 -4.925135 22.993160 173 173 173 0
-0.700360 -4.902522 22.887592 174 174 174 0
-0.609209 -4.873670 22.752893 173 173 173 0
-0.520275 -4.855904 22.669954 175 175 175 0
-0.431993 -4.838320 22.587861 176 176 176 0
-0.345001 -4.830010 22.549066 178 178 178 0
-0.258413 -4.823713 22.519666 181 181 181 0
-0.171648 -4.806151 22.437680 182 182 182 0
-0.085510 -4.788555 22.355533 185 185 185 0
0.000000 -4.771291 22.274935 185 185 185 0
0.085072 -4.764058 22.241169 186 186 186 0
0.170048 -4.761347 22.228511 187 187 187 0
0.254969 -4.759419 22.219510 186 186 186 0
0.339205 -4.748875 22.170286 187 187 187 0
0.421911 -4.725405 22.060713 177 177 177 0
0.501104 -4.676973 21.834606 98 98 98 0
0.629552 -4.406861 20.573581 73 73 73 0
1.023270 -4.093080 19.108683 71 71 71 0
1.123276 -4.193563 19.577791 106 106 106 0
1.189192 -4.162172 19.431241 207 207 207 0
1.263951 -4.163604 19.437926 215 215 215 0
1.339587 -4.167603 19.456594 215 215 215 0
1.416667 -4.175439 19.493179 215 215 215 0
1.493053 -4.180550 19.517038 214 214 214 0
1.569900 -4.186400 19.544350 215 215 215 0
1.646376 -4.190774 19.564773 215 215 215 0
1.724587 -4.198995 19.603153 215 215 215 0
1.801954 -4.204559 19.629129 215 215 215 0
1.880004 -4.211208 19.660167 215 215 215 0
1.956498 -4.213995 19.673182 215 215 215 0
2.034970 -4.220679 19.704385 214 214 214 0
2.114179 -4.228357 19.740230 214 214 214 0
2.192419 -4.233637 19.764879 215 215 215 0
2.271563 -4.240251 19.795755 215 215 215 0
2.349208 -4.243731 19.812005 215 215 215 0
2.428774 -4.250355 19.842928 215 215 215 0
2.509644 -4.258790 19.882308 215 215 215 0
2.589243 -4.264635 19.909596 214 214 214 0
2.669575 -4.271320 19.940801 215 215 215 0
2.746937 -4.273013 19.948707 215 215 215 0
2.828509 -4.280987 19.985932 215 215 215 0
2.909571 -4.287789 20.017687 215 215 215 0
2.992670 -4.297167 20.061472 214 214 214 0
3.071993 -4.300790 20.078386 215 215 215 0
3.151332 -4.304259 20.094578 215 215 215 0
3.231542 -4.308722 20.115416 214 214 214 0
3.316688 -4.319408 20.165303 215 215 215 0
3.398247 -4.325041 20.191603 215 215 215 0
3.479525 -4.330075 20.215103 214 214 214 0
3.561725 -4.336013 20.242822 214 214 214 0
3.645805 -4.343938 20.279821 215 215 215 0
3.729949 -4.351608 20.315628 215 215 215 0
3.812371 -4.356996 20.340782 215 215 215 0
3.892122 -4.359177 20.350966 215 215 215 0
3.977414 -4.367356 20.389151 215 215 215 0
4.061674 -4.374111 20.420685 214 214 214 0
4.148138 -4.382938 20.461896 215 215 215 0
4.232625 -4.389389 20.492013 215 215 215 0
4.318003 -4.396512 20.525265 215 215 215 0
4.401087 -4.401087 20.546625 215 215 215 0
4.487136 -4.408414 20.580832 214 214 214 0
4.570971 -4.413351 20.603881 215 215 215 0
4.657268 -4.420458 20.637057 215 215 215 0
4.742845 -4.426656 20.665993 214 214 214 0
4.830441 -4.434503 20.702629 215 215 215 0
4.917813 -4.441895 20.737140 214 214 214 0
5.004552 -4.448490 20.767929 215 215 215 0
5.089839 -4.453609 20.791824 214 214 214 0
5.174426 -4.457967 20.812170 215 215 215 0
5.263869 -4.466313 20.851137 214 214 214 0
5.354394 -4.475314 20.893156 214 214 214 0
5.440211 -4.480173 20.915842 214 214 214 0
5.524391 -4.483564 20.931670 214 214 214 0
5.618029 -4.494423 20.982368 214 214 214 0
5.706406 -4.500828 21.012267 214 214 214 0
5.794624 -4.506929 21.040754 214 214 214 0
5.886029 -4.515310 21.079879 214 214 214 0
5.967363 -4.515842 21.082364 214 214 214 0
6.064324 -4.528028 21.139255 214 214 214 0
6.155473 -4.535612 21.174658 214 214 214 0
6.245593 -4.542249 21.205645 215 215 215 0
6.329829 -4.544492 21.216117 214 214 214 0
6.424370 -4.553984 21.260428 214 214 214 0
-2.003448 -5.247126 24.941777 86 86 86 0
-1.883800 -5.180451 24.624843 112 112 112 0
-1.768952 -5.120650 24.340583 132 132 132 0
-1.659981 -5.072163 24.110103 140 140 140 0
-1.551242 -5.018724 23.856088 147 147 147 0
-1.448082 -4.977782 23.661472 154 154 154 0
-1.348071 -4.942928 23.495797 158 158 158 0
-1.248444 -4.904601 23.313611 158 158 158 0
-1.149264 -4.862270 23.112394 162 162 162 0
-1.054853 -4.834744 22.981550 168 168 168 0
-0.965633 -4.828167 22.950290 173 173 173 0
-0.875255 -4.813905 22.882495 173 173 173 0
-0.785093 -4.797789 22.805891 174 174 174 0
-0.694671 -4.775865 22.701676 174 174 174 0
-0.604304 -4.748105 22.569722 174 174 174 0
-0.515708 -4.727323 22.470934 177 177 177 0
-0.428440 -4.712835 22.402067 181 181 181 0
-0.342217 -4.705480 22.367105 184 184 184 0
-0.256558 -4.703560 22.357978 184 184 184 0
-0.170655 -4.693017 22.307862 185 185 185 0
-0.085014 -4.675766 22.225865 185 185 185 0
0.000000 -4.659907 22.150479 185 185 185 0
0.084459 -4.645258 22.080847 185 185 185 0
0.168782 -4.641497 22.062968 187 187 187 0
0.253090 -4.639975 22.055736 188 188 188 0
0.337002 -4.633778 22.026277 188 188 188 0
0.420253 -4.622782 21.974007 187 187 187 0
0.500307 -4.586145 21.799856 156 156 156 0
0.636438 -4.375510 20.798621 74 74 74 0
0.660413 -4.035856 19.184107 69 69 69 0
0.763193 -4.197560 19.952750 79 79 79 0
1.121380 -4.111728 19.544754 103 103 103 0
1.188457 -4.085322 19.419236 207 207 207 0
1.264342 -4.090518 19.443935 215 215 215 0
1.340133 -4.094850 19.464526 215 215 215 0
1.416538 -4.100505 19.491406 215 215 215 0
1.491968 -4.102913 19.502855 214 214 214 0
1.570062 -4.112068 19.546373 215 215 215 0
1.646240 -4.115601 19.563164 215 215 215 0
1.725361 -4.125863 19.611947 214 214 214 0
1.802495 -4.130718 19.635023 215 215 215 0
1.879781 -4.135519 19.657845 215 215 215 0
1.956980 -4.139765 19.678028 215 215 215 0
2.034241 -4.143824 19.697319 215 215 215 0
2.113393 -4.151307 19.732892 215 215 215 0
2.192337 -4.157881 19.764139 215 215 215 0
2.272050 -4.165425 19.800000 215 215 215 0
2.350434 -4.170124 19.822337 215 215 215 0
2.428787 -4.174477 19.843027 215 215 215 0
2.509478 -4.182463 19.880987 215 215 215 0
2.589013 -4.188110 19.907832 215 215 215 0
2.668966 -4.194090 19.936255 214 214 214 0
2.747744 -4.197942 19.954566 215 215 215 0
2.828509 -4.204540 19.985932 215 215 215 0
2.910131 -4.212031 20.021538 215 215 215 0
2.990720 -4.217682 20.048399 214 214 214 0
3.071975 -4.223965 20.078266 214 214 214 0
3.152437 -4.228879 20.101626 215 215 215 0
3.233287 -4.234067 20.126282 214 214 214 0
3.316514 -4.242052 20.164242 215 215 215 0
3.398679 -4.248349 20.194171 215 215 215 0
3.478470 -4.251463 20.208974 215 215 215 0
3.561583 -4.258415 20.242018 215 215 215 0
3.646090 -4.266701 20.281406 215 215 215 0
3.727217 -4.270769 20.300744 215 215 215 0
3.812315 -4.279129 20.340483 215 215 215 0
3.893001 -4.282302 20.355563 215 215 215 0
3.979426 -4.291538 20.399468 215 215 215 0
4.061304 -4.295610 20.418821 214 214 214 0
4.148806 -4.305364 20.465191 215 215 215 0
4.232226 -4.310601 20.490080 214 214 214 0
4.316897 -4.316897 20.520011 215 215 215 0
4.401451 -4.322854 20.548326 215 215 215 0
4.485708 -4.328315 20.574282 214 214 214 0
4.570977 -4.334547 20.603909 214 214 214 0
4.656176 -4.340503 20.632218 214 214 214 0
4.742155 -4.346976 20.662987 215 215 215 0
4.828691 -4.353738 20.695129 214 214 214 0
4.918157 -4.362881 20.738592 214 214 214 0
5.007776 -4.371868 20.781311 215 215 215 0
5.088562 -4.372983 20.786608 214 214 214 0
5.173491 -4.377570 20.808412 214 214 214 0
5.263227 -4.386023 20.848593 214 214 214 0
5.354039 -4.395107 20.891773 215 215 215 0
5.440315 -4.400255 20.916243 215 215 215 0
5.527033 -4.405606 20.941679 214 214 214 0
5.615356 -4.412066 20.972386 214 214 214 0
5.704746 -4.419169 21.006153 214 214 214 0
5.792887 -4.425122 21.034449 214 214 214 0
5.883201 -4.432548 21.069749 215 215 215 0
5.968320 -4.435914 21.085745 214 214 214 0
6.061662 -4.445219 21.129976 215 215 215 0
6.155202 -4.454422 21.173724 214 214 214 0
6.243629 -4.459735 21.198979 214 214 214 0
6.331039 -4.464194 21.220174 214 214 214 0
6.423921 -4.472350 21.258943 214 214 214 0
-3.077205 -7.224741 34.978171 75 75 75 0
-2.086941 -5.122491 24.800249 93 93 93 0
-1.960497 -5.041278 24.407060 118 118 118 0
-1.847431 -4.988064 24.149428 132 132 132 0
-1.734768 -4.930393 23.870218 143 143 143 0
-1.630762 -4.892287 23.685729 153 153 153 0
-1.531840 -4.865846 23.557714 157 157 157 0
-1.433432 -4.837834 23.422097 158 158 158 0
-1.333880 -4.801968 23.248451 160 160 160 0
-1.236313 -4.768638 23.087087 166 166 166 0
-1.139942 -4.735142 22.924921 170 170 170 0
-1.046276 -4.708243 22.794687 171 171 171 0
-0.956679 -4.696422 22.737458 173 173 173 0
-0.867687 -4.685509 22.684623 173 173 173 0
-0.779114 -4.674684 22.632216 175 175 175 0
-0.689735 -4.655714 22.540374 177 177 177 0
-0.600740 -4.634277 22.436585 180 180 180 0
-0.512750 -4.614746 22.342026 183 183 183 0
-0.425710 -4.597663 22.259322 183 183 183 0
-0.339962 -4.589486 22.219735 185 185 185 0
-0.254604 -4.582874 22.187723 184 184 184 0
-0.169775 -4.583934 22.192854 186 186 186 0
-0.084551 -4.565741 22.104774 185 185 185 0
0.000000 -4.550025 22.028685 185 185 185 0
0.083915 -4.531418 21.938599 186 186 186 0
0.167594 -4.525045 21.907746 188 188 188 0
0.251248 -4.522463 21.895245 190 190 190 0
0.334889 -4.520997 21.888147 192 192 192 0
0.417888 -4.513195 21.850377 192 192 192 0
0.499717 -4.497450 21.774147 185 185 185 0
0.577600 -4.455774 21.572374 105 105 105 0
1.123666 -4.045197 19.584591 101 101 101 0
1.190184 -4.016871 19.447452 207 207 207 0
1.264341 -4.016142 19.443922 215 215 215 0
1.340604 -4.021812 19.471372 215 215 215 0
1.416194 -4.024974 19.486679 215 215 215 0
1.492942 -4.030945 19.515588 215 215 215 0
1.569296 -4.035334 19.536838 215 215 215 0
1.645858 -4.039833 19.558618 215 215 215 0
1.724729 -4.049364 19.604762 216 216 216 0
1.802627 -4.055910 19.636456 215 215 215 0
1.880415 -4.061696 19.664471 215 215 215 0
1.955746 -4.061934 19.665619 214 214 214 0
2.035365 -4.070730 19.708207 214 214 214 0
2.114916 -4.078767 19.747115 215 215 215 0
2.192382 -4.082367 19.764547 216 216 216 0
2.271567 -4.088821 19.795794 215 215 215 0
2.348331 -4.090642 19.804609 215 215 215 0
2.429014 -4.098962 19.844889 215 215 215 0
2.508563 -4.104921 19.873738 215 215 215 0
2.588491 -4.111132 19.903811 215 215 215 0
2.669765 -4.119066 19.942223 215 215 215 0
2.745760 -4.118640 19.940158 215 215 215 0
2.829458 -4.129479 19.992635 215 215 215 0
2.909540 -4.134609 20.017475 215 215 215 0
2.990221 -4.140306 20.045054 215 215 215 0
3.071765 -4.146883 20.076895 215 215 215 0
3.152990 -4.152718 20.105147 215 215 215 0
3.235006 -4.159294 20.136982 215 215 215 0
3.315351 -4.163464 20.157170 215 215 215 0
3.397809 -4.170039 20.189003 215 215 215 0
3.480459 -4.176550 20.220529 215 215 215 0
3.561820 -4.181267 20.243367 215 215 215 0
3.646315 -4.189383 20.282659 215 215 215 0
3.728406 -4.194457 20.307222 215 215 215 0
3.813445 -4.202572 20.346509 214 214 214 0
3.892487 -4.203886 20.352873 214 214 214 0
3.978975 -4.213033 20.397157 215 215 215 0
4.061303 -4.217507 20.418820 214 214 214 0
4.148113 -4.226379 20.461774 215 215 215 0
4.233382 -4.233382 20.495675 214 214 214 0
4.315801 -4.237332 20.514800 215 215 215 0
4.399944 -4.242803 20.541287 214 214 214 0
4.485728 -4.249637 20.574373 214 214 214 0
4.571518 -4.256241 20.606347 214 214 214 0
4.655010 -4.260517 20.627050 214 214 214 0
4.743728 -4.269355 20.669840 215 215 215 0
4.826560 -4.272692 20.685994 214 214 214 0
4.916361 -4.281992 20.731018 214 214 214 0
5.002436 -4.287803 20.759151 214 214 214 0
5.087585 -4.292650 20.782620 214 214 214 0
5.172900 -4.297486 20.806033 214 214 214 0
5.263099 -4.306172 20.848086 214 214 214 0
5.354897 -4.315887 20.895120 214 214 214 0
5.440805 -4.320639 20.918128 215 215 215 0
5.527908 -4.326189 20.944996 214 214 214 0
5.616157 -4.332464 20.975375 214 214 214 0
5.702834 -4.337367 20.999112 215 215 215 0
5.791832 -4.343874 21.030619 214 214 214 0
5.881101 -4.350404 21.062231 214 214 214 0
5.968389 -4.355311 21.085987 214 214 214 0
6.062708 -4.365150 21.133622 214 214 214 0
6.158089 -4.375484 21.183656 215 215 215 0
6.244016 -4.378920 21.200292 214 214 214 0
6.329514 -4.381972 21.215064 214 214 214 0
6.425031 -4.391793 21.262616 214 214 214 0
-2.310966 -5.103384 25.173926 80 80 80 0
-2.167461 -4.994585 24.637241 101 101 101 0
-2.049103 -4.936475 24.350599 125 125 125 0
-1.930588 -4.872436 24.034706 134 134 134 0
-1.820378 -4.824001 23.795788 144 144 144 0
-1.711580 -4.774407 23.551149 153 153 153 0
-1.610947 -4.743343 23.397919 156 156 156 0
-1.512784 -4.716325 23.264645 158 158 158 0
-1.416667 -4.692711 23.148159 164 164 164 0
-1.322139 -4.671557 23.043814 169 169 169 0
-1.227495 -4.646946 22.922414 171 171 171 0
-1.132945 -4.618930 22.784217 172 172 172 0
-1.038959 -4.588738 22.635282 172 172 172 0
-0.948792 -4.571452 22.550017 173 173 173 0
-0.859259 -4.554070 22.464275 177 177 177 0
-0.771965 -4.546013 22.424533 181 181 181 0
-0.684939 -4.537722 22.383635 183 183 183 0
-0.596925 -4.519573 22.294110 184 184 184 0
-0.509897 -4.504094 22.217751 184 184 184 0
-0.423080 -4.484653 22.121855 184 184 184 0
-0.337748 -4.475164 22.075046 185 185 185 0
-0.252714 -4.464606 22.022966 185 185 185 0
-0.168444 -4.463758 22.018782 186 186 186 0
-0.084065 -4.455433 21.977721 186 186 186 0
0.000000 -4.439265 21.897965 188 188 188 0
0.083509 -4.425995 21.832507 190 190 190 0
0.166792 -4.419980 21.802837 192 192 192 0
0.249771 -4.412620 21.766530 194 194 194 0
0.333031 -4.412657 21.766715 194 194 194 0
0.416237 -4.412107 21.764003 194 194 194 0
0.498010 -4.399092 21.699801 192 192 192 0
0.576394 -4.364125 21.527315 150 150 150 0
0.644891 -4.272402 21.074864 76 76 76 0
0.786556 -4.168747 20.563556 68 68 68 0
1.181364 -4.816332 23.757958 69 69 69 0
1.127181 -3.982707 19.645860 105 105 105 0
1.189196 -3.939213 19.431312 206 206 206 0
1.263118 -3.937956 19.425111 215 215 215 0
1.339559 -3.944256 19.456188 215 215 215 0
1.416751 -3.951990 19.494340 215 215 215 0
1.492385 -3.954821 19.508306 215 215 215 0
1.568990 -3.959832 19.533024 215 215 215 0
1.646270 -3.966015 19.563522 215 215 215 0
1.725283 -3.975653 19.611064 215 215 215 0
1.801537 -3.978393 19.624581 215 215 215 0
1.879329 -3.984178 19.653115 215 215 215 0
1.956229 -3.987698 19.670479 215 215 215 0
2.034574 -3.993794 19.700550 215 215 215 0
2.113393 -4.000350 19.732892 215 215 215 0
2.192004 -4.006076 19.761136 215 215 215 0
2.270442 -4.011114 19.785985 215 215 215 0
2.350201 -4.018086 19.820376 215 215 215 0
2.427132 -4.019938 19.829512 215 215 215 0
2.508706 -4.029133 19.874871 215 215 215 0
2.588654 -4.035255 19.905070 215 215 215 0
2.667101 -4.038753 19.922323 216 216 216 0
2.747744 -4.045289 19.954566 215 215 215 0
2.827764 -4.050581 19.980668 215 215 215 0
2.909843 -4.058466 20.019563 215 215 215 0
2.992063 -4.066136 20.057399 215 215 215 0
3.073051 -4.071792 20.085300 215 215 215 0
3.152926 -4.075734 20.104742 214 214 214 0
3.235006 -4.082270 20.136982 215 215 215 0
3.316703 -4.088029 20.165393 214 214 214 0
3.397784 -4.092785 20.188852 215 215 215 0
3.479405 -4.097965 20.214406 215 215 215 0
3.563114 -4.105327 20.250720 215 215 215 0
3.643509 -4.108637 20.267048 214 214 214 0
3.728290 -4.116653 20.306590 215 215 215 0
3.812039 -4.123226 20.339009 215 215 215 0
3.892772 -4.126338 20.354364 214 214 214 0
3.976590 -4.132535 20.384930 215 215 215 0
4.061879 -4.139992 20.421714 215 215 215 0
4.147764 -4.147764 20.460053 215 215 215 0
4.230886 -4.152536 20.483592 214 214 214 0
4.316501 -4.159537 20.518128 215 215 215 0
4.397932 -4.162329 20.531897 215 215 215 0
4.484500 -4.169799 20.568743 215 215 215 0
4.569628 -4.175695 20.597828 215 215 215 0
4.655199 -4.181789 20.627890 215 215 215 0
4.742080 -4.188838 20.662659 215 215 215 0
4.827706 -4.194564 20.690907 215 215 215 0
4.916090 -4.202464 20.729877 214 214 214 0
5.003066 -4.208929 20.761765 214 214 214 0
5.089718 -4.214923 20.791333 214 214 214 0
5.173427 -4.218333 20.808152 214 214 214 0
5.263064 -4.226400 20.847948 214 214 214 0
5.351992 -4.233665 20.883785 215 215 215 0
5.438500 -4.238831 20.909266 215 215 215 0
5.528797 -4.246757 20.948363 214 214 214 0
5.615729 -4.251909 20.973777 214 214 214 0
5.706727 -4.259951 21.013446 214 214 214 0
5.795456 -4.266100 21.043778 214 214 214 0
5.879904 -4.268971 21.057941 215 215 215 0
5.970556 -4.276209 21.093644 214 214 214 0
6.063005 -4.284523 21.134657 215 215 215 0
6.155488 -4.292643 21.174708 215 215 215 0
6.242029 -4.296462 21.193546 214 214 214 0
6.330334 -4.301381 21.217813 213 213 213 0
6.423075 -4.309152 21.256143 214 214 214 0
-2.380914 -4.952300 24.898444 86 86 86 0
-2.254106 -4.883896 24.554530 111 111 111 0
-2.135741 -4.828633 24.276686 129 129 129 0
-2.019920 -4.774356 24.003802 137 137 137 0
-1.906074 -4.719801 23.729520 147 147 147 0
-1.797801 -4.674283 23.500668 153 153 153 0
-1.694209 -4.636783 23.312130 155 155 155 0
-1.593351 -4.603013 23.142346 159 159 159 0
-1.497220 -4.579731 23.025293 167 167 167 0
-1.404447 -4.564453 22.948481 170 170 170 0
-1.312200 -4.548960 22.870587 171 171 171 0
-1.218319 -4.525185 22.751056 171 171 171 0
-1.124931 -4.499723 22.623040 172 172 172 0
-1.032680 -4.474948 22.498479 174 174 174 0
-0.941337 -4.449957 22.372834 178 178 178 0
-0.854110 -4.441372 22.329672 181 181 181 0
-0.767145 -4.432396 22.284544 183 183 183 0
-0.680462 -4.423004 22.237323 183 183 183 0
-0.594150 -4.413683 22.190464 184 184 184 0
-0.506667 -4.391112 22.076986 183 183 183 0
-0.420499 -4.373185 21.986855 184 184 184 0
-0.335529 -4.361878 21.930005 184 184 184 0
-0.251132 -4.352950 21.885116 186 186 186 0
-0.167148 -4.345846 21.849400 190 190 190 0
-0.083561 -4.345197 21.846137 192 192 192 0
0.000000 -4.337254 21.806203 192 192 192 0
0.083206 -4.326731 21.753300 193 193 193 0
0.165722 -4.308763 21.662959 192 192 192 0
0.248456 -4.306570 21.651935 194 194 194 0
0.331486 -4.309315 21.665738 194 194 194 0
0.413916 -4.304725 21.642658 194 194 194 0
0.496156 -4.300020 21.619003 194 194 194 0
0.575993 -4.278803 21.512334 180 180 180 0
0.659227 -4.284978 21.543381 83 83 83 0
0.681615 -3.938220 19.800000 71 71 71 0
0.952436 -3.809744 19.154068 81 81 81 0
1.024368 -3.804795 19.129187 69 69 69 0
1.121909 -3.889285 19.553970 105 105 105 0
1.189456 -3.865731 19.435553 207 207 207 0
1.263577 -3.865060 19.432178 215 215 215 0
1.339559 -3.869836 19.456188 215 215 215 0
1.417445 -3.879323 19.503885 215 215 215 0
1.492682 -3.880974 19.512189 215 215 215 0
