ply
format ascii 1.0
element vertex 1124
property float x
property float y
property float z
property uchar red
property uchar green
property uchar blue
property uchar alpha
end_header
3.549600 7.875675 29.000000 204 204 204 0
3.660525 7.875675 29.000000 203 203 203 0
3.771450 7.875675 29.000000 204 204 204 0
3.882375 7.875675 29.000000 204 204 204 0
3.993300 7.875675 29.000000 204 204 204 0
4.104225 7.875675 29.000000 204 204 204 0
4.215150 7.875675 29.000000 204 204 204 0
4.326075 7.875675 29.000000 204 204 204 0
4.437000 7.875675 29.000000 203 203 203 0
4.547925 7.875675 29.000000 204 204 204 0
4.658850 7.875675 29.000000 204 204 204 0
4.769775 7.875675 29.000000 205 205 205 0
4.880700 7.875675 29.000000 204 204 204 0
4.991625 7.875675 29.000000 204 204 204 0
5.102550 7.875675 29.000000 205 205 205 0
5.213475 7.875675 29.000000 204 204 204 0
5.324400 7.875675 29.000000 205 205 205 0
5.435325 7.875675 29.000000 204 204 204 0
5.546250 7.875675 29.000000 204 204 204 0
5.657175 7.875675 29.000000 205 205 205 0
5.768100 7.875675 29.000000 205 205 205 0
5.879025 7.875675 29.000000 205 205 205 0
5.989950 7.875675 29.000000 205 205 205 0
6.100875 7.875675 29.000000 204 204 204 0
6.211800 7.875675 29.000000 205 205 205 0
6.322725 7.875675 29.000000 204 204 204 0
6.433650 7.875675 29.000000 205 205 205 0
6.544575 7.875675 29.000000 205 205 205 0
6.655500 7.875675 29.000000 205 205 205 0
6.766425 7.875675 29.000000 205 205 205 0
6.877350 7.875675 29.000000 204 204 204 0
6.988275 7.875675 29.000000 205 205 205 0
7.099200 7.875675 29.000000 205 205 205 0
7.210125 7.875675 29.000000 205 205 205 0
7.321050 7.875675 29.000000 205 205 205 0
7.431975 7.875675 29.000000 205 205 205 0
7.542900 7.875675 29.000000 205 205 205 0
7.653825 7.875675 29.000000 205 205 205 0
7.764750 7.875675 29.000000 205 205 205 0
7.875675 7.875675 29.000000 205 205 205 0
7.986600 7.875675 29.000000 205 205 205 0
8.097525 7.875675 29.000000 204 204 204 0
8.208450 7.875675 29.000000 205 205 205 0
8.319375 7.875675 29.000000 205 205 205 0
8.430300 7.875675 29.000000 206 206 206 0
8.541225 7.875675 29.000000 205 205 205 0
8.652150 7.875675 29.000000 205 205 205 0
10.468841 9.408705 34.644960 206 206 206 0
-8.874000 7.986600 29.000000 196 196 196 0
-8.763075 7.986600 29.000000 196 196 196 0
-8.652150 7.986600 29.000000 196 196 196 0
-8.541225 7.986600 29.000000 196 196 196 0
-8.430300 7.986600 29.000000 196 196 196 0
-8.319375 7.986600 29.000000 196 196 196 0
-8.208450 7.986600 29.000000 196 196 196 0
-8.097525 7.986600 29.000000 197 197 197 0
-7.986600 7.986600 29.000000 197 197 197 0
-7.875675 7.986600 29.000000 196 196 196 0
-7.764750 7.986600 29.000000 196 196 196 0
-7.653825 7.986600 29.000000 197 197 197 0
-7.542900 7.986600 29.000000 197 197 197 0
-7.431975 7.986600 29.000000 196 196 196 0
-7.321050 7.986600 29.000000 197 197 197 0
-7.210125 7.986600 29.000000 198 198 198 0
-7.099200 7.986600 29.000000 197 197 197 0
-6.988275 7.986600 29.000000 198 198 198 0
-6.877350 7.986600 29.000000 197 197 197 0
-6.766425 7.986600 29.000000 198 198 198 0
-6.655500 7.986600 29.000000 197 197 197 0
-6.544575 7.986600 29.000000 198 198 198 0
-6.433650 7.986600 29.000000 198 198 198 0
-6.322725 7.986600 29.000000 198 198 198 0
-6.211800 7.986600 29.000000 198 198 198 0
-6.100875 7.986600 29.000000 198 198 198 0
-5.989950 7.986600 29.000000 198 198 198 0
-5.879025 7.986600 29.000000 198 198 198 0
-5.768100 7.986600 29.000000 198 198 198 0
-5.657175 7.986600 29.000000 198 198 198 0
-5.546250 7.986600 29.000000 198 198 198 0
-5.435325 7.986600 29.000000 199 199 199 0
-5.324400 7.986600 29.000000 198 198 198 0
-5.213475 7.986600 29.000000 199 199 199 0
-5.102550 7.986600 29.000000 198 198 198 0
-4.991625 7.986600 29.000000 199 199 199 0
-4.880700 7.986600 29.000000 199 199 199 0
-4.769775 7.986600 29.000000 199 199 199 0
-4.658850 7.986600 29.000000 199 199 199 0
-4.547925 7.986600 29.000000 200 200 200 0
-4.437000 7.986600 29.000000 199 199 199 0
-4.326075 7.986600 29.000000 199 199 199 0
-4.215150 7.986600 29.000000 199 199 199 0
-4.104225 7.986600 29.000000 200 200 200 0
-3.993300 7.986600 29.000000 199 199 199 0
-3.882375 7.986600 29.000000 199 199 199 0
-3.771450 7.986600 29.000000 200 200 200 0
-3.660525 7.986600 29.000000 200 200 200 0
-3.549600 7.986600 29.000000 200 200 200 0
-3.438675 7.986600 29.000000 201 201 201 0
-3.327750 7.986600 29.000000 200 200 200 0
-3.216825 7.986600 29.000000 200 200 200 0
-3.105900 7.986600 29.000000 200 200 200 0
-2.994975 7.986600 29.000000 200 200 200 0
-2.884050 7.986600 29.000000 200 200 200 0
-2.773125 7.986600 29.000000 200 200 200 0
-2.662200 7.986600 29.000000 201 201 201 0
-2.551275 7.986600 29.000000 201 201 201 0
-2.440350 7.986600 29.000000 200 200 200 0
-2.329425 7.986600 29.000000 200 200 200 0
-2.218500 7.986600 29.000000 201 201 201 0
-2.107575 7.986600 29.000000 201 201 201 0
-1.996650 7.986600 29.000000 202 202 202 0
-1.885725 7.986600 29.000000 201 201 201 0
-1.774800 7.986600 29.000000 201 201 201 0
-1.663875 7.986600 29.000000 201 201 201 0
-1.552950 7.986600 29.000000 201 201 201 0
-1.442025 7.986600 29.000000 202 202 202 0
-1.331100 7.986600 29.000000 201 201 201 0
-1.220175 7.986600 29.000000 201 201 201 0
-1.109250 7.986600 29.000000 201 201 201 0
-0.998325 7.986600 29.000000 202 202 202 0
-0.887400 7.986600 29.000000 202 202 202 0
-0.776475 7.986600 29.000000 201 201 201 0
-0.665550 7.986600 29.000000 202 202 202 0
-0.554625 7.986600 29.000000 202 202 202 0
-0.443700 7.986600 29.000000 202 202 202 0
-0.332775 7.986600 29.000000 202 202 202 0
-0.221850 7.986600 29.000000 202 202 202 0
-0.110925 7.986600 29.000000 202 202 202 0
0.000000 7.986600 29.000000 202 202 202 0
0.110925 7.986600 29.000000 203 203 203 0
0.221850 7.986600 29.000000 203 203 203 0
0.332775 7.986600 29.000000 203 203 203 0
0.443700 7.986600 29.000000 202 202 202 0
0.554625 7.986600 29.000000 202 202 202 0
0.665550 7.986600 29.000000 202 202 202 0
0.776475 7.986600 29.000000 203 203 203 0
0.887400 7.986600 29.000000 202 202 202 0
0.998325 7.986600 29.000000 202 202 202 0
1.109250 7.986600 29.000000 203 203 203 0
1.220175 7.986600 29.000000 203 203 203 0
1.331100 7.986600 29.000000 203 203 203 0
1.442025 7.986600 29.000000 203 203 203 0
1.552950 7.986600 29.000000 203 203 203 0
1.663875 7.986600 29.000000 203 203 203 0
1.774800 7.986600 29.000000 203 203 203 0
1.885725 7.986600 29.000000 203 203 203 0
1.996650 7.986600 29.000000 203 203 203 0
2.107575 7.986600 29.000000 203 203 203 0
2.218500 7.986600 29.000000 203 203 203 0
2.329425 7.986600 29.000000 203 203 203 0
2.440350 7.986600 29.000000 203 203 203 0
2.551275 7.986600 29.000000 204 204 204 0
2.662200 7.986600 29.000000 203 203 203 0
2.773125 7.986600 29.000000 203 203 203 0
2.884050 7.986600 29.000000 203 203 203 0
2.994975 7.986600 29.000000 204 204 204 0
3.105900 7.986600 29.000000 203 203 203 0
3.216825 7.986600 29.000000 203 203 203 0
3.327750 7.986600 29.000000 203 203 203 0
3.438675 7.986600 29.000000 204 204 204 0
3.549600 7.986600 29.000000 204 204 204 0
3.660525 7.986600 29.000000 204 204 204 0
3.771450 7.986600 29.000000 204 204 204 0
3.882375 7.986600 29.000000 203 203 203 0
3.993300 7.986600 29.000000 204 204 204 0
4.104225 7.986600 29.000000 203 203 203 0
4.215150 7.986600 29.000000 204 204 204 0
4.326075 7.986600 29.000000 204 204 204 0
4.437000 7.986600 29.000000 204 204 204 0
4.547925 7.986600 29.000000 204 204 204 0
4.658850 7.986600 29.000000 204 204 204 0
4.769775 7.986600 29.000000 204 204 204 0
4.880700 7.986600 29.000000 204 204 204 0
4.991625 7.986600 29.000000 204 204 204 0
5.102550 7.986600 29.000000 205 205 205 0
5.213475 7.986600 29.000000 205 205 205 0
5.324400 7.986600 29.000000 204 204 204 0
5.435325 7.986600 29.000000 204 204 204 0
5.546250 7.986600 29.000000 204 204 204 0
5.657175 7.986600 29.000000 205 205 205 0
5.768100 7.986600 29.000000 204 204 204 0
5.879025 7.986600 29.000000 204 204 204 0
5.989950 7.986600 29.000000 204 204 204 0
6.100875 7.986600 29.000000 205 205 205 0
6.211800 7.986600 29.000000 205 205 205 0
6.322725 7.986600 29.000000 204 204 204 0
6.433650 7.986600 29.000000 205 205 205 0
6.544575 7.986600 29.000000 205 205 205 0
6.655500 7.986600 29.000000 205 205 205 0
6.766425 7.986600 29.000000 205 205 205 0
6.877350 7.986600 29.000000 205 205 205 0
6.988275 7.986600 29.000000 205 205 205 0
7.099200 7.986600 29.000000 204 204 204 0
7.210125 7.986600 29.000000 205 205 205 0
7.321050 7.986600 29.000000 205 205 205 0
7.431975 7.986600 29.000000 205 205 205 0
7.542900 7.986600 29.000000 205 205 205 0
7.653825 7.986600 29.000000 205 205 205 0
7.764750 7.986600 29.000000 204 204 204 0
7.875675 7.986600 29.000000 205 205 205 0
7.986600 7.986600 29.000000 205 205 205 0
8.097525 7.986600 29.000000 205 205 205 0
8.208450 7.986600 29.000000 205 205 205 0
8.319375 7.986600 29.000000 205 205 205 0
8.430300 7.986600 29.000000 205 205 205 0
8.541225 7.986600 29.000000 205 205 205 0
10.415457 9.614268 34.910196 205 205 205 0
10.504707 9.573910 34.763654 205 205 205 0
-8.874000 8.097525 29.000000 195 195 195 0
-8.763075 8.097525 29.000000 196 196 196 0
-8.652150 8.097525 29.000000 196 196 196 0
-8.541225 8.097525 29.000000 196 196 196 0
-8.430300 8.097525 29.000000 196 196 196 0
-8.319375 8.097525 29.000000 197 197 197 0
-8.208450 8.097525 29.000000 197 197 197 0
-8.097525 8.097525 29.000000 196 196 196 0
-7.986600 8.097525 29.000000 197 197 197 0
-7.875675 8.097525 29.000000 197 197 197 0
-7.764750 8.097525 29.000000 197 197 197 0
-7.653825 8.097525 29.000000 196 196 196 0
-7.542900 8.097525 29.000000 197 197 197 0
-7.431975 8.097525 29.000000 197 197 197 0
-7.321050 8.097525 29.000000 197 197 197 0
-7.210125 8.097525 29.000000 197 197 197 0
-7.099200 8.097525 29.000000 198 198 198 0
-6.988275 8.097525 29.000000 197 197 197 0
-6.877350 8.097525 29.000000 197 197 197 0
-6.766425 8.097525 29.000000 198 198 198 0
-6.655500 8.097525 29.000000 198 198 198 0
-6.544575 8.097525 29.000000 198 198 198 0
-6.433650 8.097525 29.000000 198 198 198 0
-6.322725 8.097525 29.000000 198 198 198 0
-6.211800 8.097525 29.000000 198 198 198 0
-6.100875 8.097525 29.000000 198 198 198 0
-5.989950 8.097525 29.000000 199 199 199 0
-5.879025 8.097525 29.000000 199 199 199 0
-5.768100 8.097525 29.000000 198 198 198 0
-5.657175 8.097525 29.000000 198 198 198 0
-5.546250 8.097525 29.000000 198 198 198 0
-5.435325 8.097525 29.000000 199 199 199 0
-5.324400 8.097525 29.000000 198 198 198 0
-5.213475 8.097525 29.000000 198 198 198 0
-5.102550 8.097525 29.000000 198 198 198 0
-4.991625 8.097525 29.000000 199 199 199 0
-4.880700 8.097525 29.000000 199 199 199 0
-4.769775 8.097525 29.000000 199 199 199 0
-4.658850 8.097525 29.000000 199 199 199 0
-4.547925 8.097525 29.000000 200 200 200 0
-4.437000 8.097525 29.000000 199 199 199 0
-4.326075 8.097525 29.000000 200 200 200 0
-4.215150 8.097525 29.000000 200 200 200 0
-4.104225 8.097525 29.000000 200 200 200 0
-3.993300 8.097525 29.000000 200 200 200 0
-3.882375 8.097525 29.000000 200 200 200 0
-3.771450 8.097525 29.000000 200 200 200 0
-3.660525 8.097525 29.000000 200 200 200 0
-3.549600 8.097525 29.000000 200 200 200 0
-3.438675 8.097525 29.000000 200 200 200 0
-3.327750 8.097525 29.000000 200 200 200 0
-3.216825 8.097525 29.000000 200 200 200 0
-3.105900 8.097525 29.000000 201 201 201 0
-2.994975 8.097525 29.000000 200 200 200 0
-2.884050 8.097525 29.000000 200 200 200 0
-2.773125 8.097525 29.000000 200 200 200 0
-2.662200 8.097525 29.000000 200 200 200 0
-2.551275 8.097525 29.000000 201 201 201 0
-2.440350 8.097525 29.000000 201 201 201 0
-2.329425 8.097525 29.000000 201 201 201 0
-2.218500 8.097525 29.000000 201 201 201 0
-2.107575 8.097525 29.000000 201 201 201 0
-1.996650 8.097525 29.000000 201 201 201 0
-1.885725 8.097525 29.000000 200 200 200 0
-1.774800 8.097525 29.000000 201 201 201 0
-1.663875 8.097525 29.000000 201 201 201 0
-1.552950 8.097525 29.000000 201 201 201 0
-1.442025 8.097525 29.000000 201 201 201 0
-1.331100 8.097525 29.000000 202 202 202 0
-1.220175 8.097525 29.000000 201 201 201 0
-1.109250 8.097525 29.000000 201 201 201 0
-0.998325 8.097525 29.000000 202 202 202 0
-0.887400 8.097525 29.000000 201 201 201 0
-0.776475 8.097525 29.000000 202 202 202 0
-0.665550 8.097525 29.000000 201 201 201 0
-0.554625 8.097525 29.000000 202 202 202 0
-0.443700 8.097525 29.000000 202 202 202 0
-0.332775 8.097525 29.000000 202 202 202 0
-0.221850 8.097525 29.000000 202 202 202 0
-0.110925 8.097525 29.000000 202 202 202 0
0.000000 8.097525 29.000000 202 202 202 0
0.110925 8.097525 29.000000 202 202 202 0
0.221850 8.097525 29.000000 203 203 203 0
0.332775 8.097525 29.000000 202 202 202 0
0.443700 8.097525 29.000000 202 202 202 0
0.554625 8.097525 29.000000 203 203 203 0
0.665550 8.097525 29.000000 202 202 202 0
0.776475 8.097525 29.000000 203 203 203 0
0.887400 8.097525 29.000000 203 203 203 0
0.998325 8.097525 29.000000 203 203 203 0
1.109250 8.097525 29.000000 203 203 203 0
1.220175 8.097525 29.000000 203 203 203 0
1.331100 8.097525 29.000000 203 203 203 0
1.442025 8.097525 29.000000 203 203 203 0
1.552950 8.097525 29.000000 203 203 203 0
1.663875 8.097525 29.000000 203 203 203 0
1.774800 8.097525 29.000000 203 203 203 0
1.885725 8.097525 29.000000 203 203 203 0
1.996650 8.097525 29.000000 203 203 203 0
2.107575 8.097525 29.000000 203 203 203 0
2.218500 8.097525 29.000000 203 203 203 0
2.329425 8.097525 29.000000 204 204 204 0
2.440350 8.097525 29.000000 203 203 203 0
2.551275 8.097525 29.000000 204 204 204 0
2.662200 8.097525 29.000000 203 203 203 0
2.773125 8.097525 29.000000 204 204 204 0
2.884050 8.097525 29.000000 204 204 204 0
2.994975 8.097525 29.000000 204 204 204 0
3.105900 8.097525 29.000000 204 204 204 0
3.216825 8.097525 29.000000 204 204 204 0
3.327750 8.097525 29.000000 204 204 204 0
3.438675 8.097525 29.000000 204 204 204 0
3.549600 8.097525 29.000000 204 204 204 0
3.660525 8.097525 29.000000 204 204 204 0
3.771450 8.097525 29.000000 203 203 203 0
3.882375 8.097525 29.000000 204 204 204 0
3.993300 8.097525 29.000000 204 204 204 0
4.104225 8.097525 29.000000 204 204 204 0
4.215150 8.097525 29.000000 203 203 203 0
4.326075 8.097525 29.000000 203 203 203 0
4.437000 8.097525 29.000000 204 204 204 0
4.547925 8.097525 29.000000 204 204 204 0
4.658850 8.097525 29.000000 204 204 204 0
4.769775 8.097525 29.000000 204 204 204 0
4.880700 8.097525 29.000000 205 205 205 0
4.991625 8.097525 29.000000 204 204 204 0
5.102550 8.097525 29.000000 204 204 204 0
5.213475 8.097525 29.000000 204 204 204 0
5.324400 8.097525 29.000000 204 204 204 0
5.435325 8.097525 29.000000 205 205 205 0
5.546250 8.097525 29.000000 204 204 204 0
5.657175 8.097525 29.000000 204 204 204 0
5.768100 8.097525 29.000000 205 205 205 0
5.879025 8.097525 29.000000 204 204 204 0
5.989950 8.097525 29.000000 204 204 204 0
6.100875 8.097525 29.000000 204 204 204 0
6.211800 8.097525 29.000000 204 204 204 0
6.322725 8.097525 29.000000 205 205 205 0
6.433650 8.097525 29.000000 204 204 204 0
6.544575 8.097525 29.000000 205 205 205 0
6.655500 8.097525 29.000000 205 205 205 0
6.766425 8.097525 29.000000 205 205 205 0
6.877350 8.097525 29.000000 205 205 205 0
6.988275 8.097525 29.000000 205 205 205 0
7.099200 8.097525 29.000000 205 205 205 0
7.210125 8.097525 29.000000 205 205 205 0
7.321050 8.097525 29.000000 205 205 205 0
7.431975 8.097525 29.000000 205 205 205 0
7.542900 8.097525 29.000000 205 205 205 0
7.653825 8.097525 29.000000 205 205 205 0
7.764750 8.097525 29.000000 204 204 204 0
7.875675 8.097525 29.000000 205 205 205 0
7.986600 8.097525 29.000000 205 205 205 0
8.097525 8.097525 29.000000 205 205 205 0
8.208450 8.097525 29.000000 205 205 205 0
8.319375 8.097525 29.000000 205 205 205 0
8.430300 8.097525 29.000000 205 205 205 0
8.541225 8.097525 29.000000 205 205 205 0
10.341676 9.678748 34.662900 205 205 205 0
10.842740 10.019240 35.882319 205 205 205 0
-8.874000 8.208450 29.000000 196 196 196 0
-8.763075 8.208450 29.000000 196 196 196 0
-8.652150 8.208450 29.000000 196 196 196 0
-8.541225 8.208450 29.000000 196 196 196 0
-8.430300 8.208450 29.000000 196 196 196 0
-8.319375 8.208450 29.000000 196 196 196 0
-8.208450 8.208450 29.000000 196 196 196 0
-8.097525 8.208450 29.000000 196 196 196 0
-7.986600 8.208450 29.000000 196 196 196 0
-7.875675 8.208450 29.000000 197 197 197 0
-7.764750 8.208450 29.000000 197 197 197 0
-7.653825 8.208450 29.000000 197 197 197 0
-7.542900 8.208450 29.000000 197 197 197 0
-7.431975 8.208450 29.000000 197 197 197 0
-7.321050 8.208450 29.000000 197 197 197 0
-7.210125 8.208450 29.000000 197 197 197 0
-7.099200 8.208450 29.000000 197 197 197 0
-6.988275 8.208450 29.000000 197 197 197 0
-6.877350 8.208450 29.000000 197 197 197 0
-6.766425 8.208450 29.000000 198 198 198 0
-6.655500 8.208450 29.000000 197 197 197 0
-6.544575 8.208450 29.000000 198 198 198 0
-6.433650 8.208450 29.000000 198 198 198 0
-6.322725 8.208450 29.000000 198 198 198 0
-6.211800 8.208450 29.000000 198 198 198 0
-6.100875 8.208450 29.000000 198 198 198 0
-5.989950 8.208450 29.000000 199 199 199 0
-5.879025 8.208450 29.000000 198 198 198 0
-5.768100 8.208450 29.000000 198 198 198 0
-5.657175 8.208450 29.000000 199 199 199 0
-5.546250 8.208450 29.000000 198 198 198 0
-5.435325 8.208450 29.000000 198 198 198 0
-5.324400 8.208450 29.000000 199 199 199 0
-5.213475 8.208450 29.000000 199 199 199 0
-5.102550 8.208450 29.000000 199 199 199 0
-4.991625 8.208450 29.000000 199 199 199 0
-4.880700 8.208450 29.000000 199 199 199 0
-4.769775 8.208450 29.000000 199 199 199 0
-4.658850 8.208450 29.000000 199 199 199 0
-4.547925 8.208450 29.000000 199 199 199 0
-4.437000 8.208450 29.000000 199 199 199 0
-4.326075 8.208450 29.000000 199 199 199 0
-4.215150 8.208450 29.000000 199 199 199 0
-4.104225 8.208450 29.000000 199 199 199 0
-3.993300 8.208450 29.000000 199 199 199 0
-3.882375 8.208450 29.000000 199 199 199 0
-3.771450 8.208450 29.000000 200 200 200 0
-3.660525 8.208450 29.000000 199 199 199 0
-3.549600 8.208450 29.000000 200 200 200 0
-3.438675 8.208450 29.000000 200 200 200 0
-3.327750 8.208450 29.000000 200 200 200 0
-3.216825 8.208450 29.000000 201 201 201 0
-3.105900 8.208450 29.000000 200 200 200 0
-2.994975 8.208450 29.000000 201 201 201 0
-2.884050 8.208450 29.000000 200 200 200 0
-2.773125 8.208450 29.000000 201 201 201 0
-2.662200 8.208450 29.000000 201 201 201 0
-2.551275 8.208450 29.000000 200 200 200 0
-2.440350 8.208450 29.000000 201 201 201 0
-2.329425 8.208450 29.000000 201 201 201 0
-2.218500 8.208450 29.000000 200 200 200 0
-2.107575 8.208450 29.000000 201 201 201 0
-1.996650 8.208450 29.000000 201 201 201 0
-1.885725 8.208450 29.000000 201 201 201 0
-1.774800 8.208450 29.000000 201 201 201 0
-1.663875 8.208450 29.000000 201 201 201 0
-1.552950 8.208450 29.000000 201 201 201 0
-1.442025 8.208450 29.000000 201 201 201 0
-1.331100 8.208450 29.000000 201 201 201 0
-1.220175 8.208450 29.000000 201 201 201 0
-1.109250 8.208450 29.000000 202 202 202 0
-0.998325 8.208450 29.000000 202 202 202 0
-0.887400 8.208450 29.000000 201 201 201 0
-0.776475 8.208450 29.000000 201 201 201 0
-0.665550 8.208450 29.000000 202 202 202 0
-0.554625 8.208450 29.000000 202 202 202 0
-0.443700 8.208450 29.000000 202 202 202 0
-0.332775 8.208450 29.000000 203 203 203 0
-0.221850 8.208450 29.000000 202 202 202 0
-0.110925 8.208450 29.000000 202 202 202 0
0.000000 8.208450 29.000000 202 202 202 0
0.110925 8.208450 29.000000 202 202 202 0
0.221850 8.208450 29.000000 202 202 202 0
0.332775 8.208450 29.000000 202 202 202 0
0.443700 8.208450 29.000000 202 202 202 0
0.554625 8.208450 29.000000 203 203 203 0
0.665550 8.208450 29.000000 202 202 202 0
0.776475 8.208450 29.000000 202 202 202 0
0.887400 8.208450 29.000000 203 203 203 0
0.998325 8.208450 29.000000 203 203 203 0
1.109250 8.208450 29.000000 203 203 203 0
1.220175 8.208450 29.000000 203 203 203 0
1.331100 8.208450 29.000000 203 203 203 0
1.442025 8.208450 29.000000 202 202 202 0
1.552950 8.208450 29.000000 202 202 202 0
1.663875 8.208450 29.000000 202 202 202 0
1.774800 8.208450 29.000000 203 203 203 0
1.885725 8.208450 29.000000 204 204 204 0
1.996650 8.208450 29.000000 203 203 203 0
2.107575 8.208450 29.000000 203 203 203 0
2.218500 8.208450 29.000000 203 203 203 0
2.329425 8.208450 29.000000 203 203 203 0
2.440350 8.208450 29.000000 203 203 203 0
2.551275 8.208450 29.000000 203 203 203 0
2.662200 8.208450 29.000000 203 203 203 0
2.773125 8.208450 29.000000 203 203 203 0
2.884050 8.208450 29.000000 203 203 203 0
2.994975 8.208450 29.000000 203 203 203 0
3.105900 8.208450 29.000000 203 203 203 0
3.216825 8.208450 29.000000 203 203 203 0
3.327750 8.208450 29.000000 204 204 204 0
3.438675 8.208450 29.000000 203 203 203 0
3.549600 8.208450 29.000000 204 204 204 0
3.660525 8.208450 29.000000 203 203 203 0
3.771450 8.208450 29.000000 204 204 204 0
3.882375 8.208450 29.000000 204 204 204 0
3.993300 8.208450 29.000000 204 204 204 0
4.104225 8.208450 29.000000 205 205 205 0
4.215150 8.208450 29.000000 204 204 204 0
4.326075 8.208450 29.000000 204 204 204 0
4.437000 8.208450 29.000000 204 204 204 0
4.547925 8.208450 29.000000 204 204 204 0
4.658850 8.208450 29.000000 204 204 204 0
4.769775 8.208450 29.000000 205 205 205 0
4.880700 8.208450 29.000000 204 204 204 0
4.991625 8.208450 29.000000 204 204 204 0
5.102550 8.208450 29.000000 204 204 204 0
5.213475 8.208450 29.000000 204 204 204 0
5.324400 8.208450 29.000000 204 204 204 0
5.435325 8.208450 29.000000 204 204 204 0
5.546250 8.208450 29.000000 205 205 205 0
5.657175 8.208450 29.000000 204 204 204 0
5.768100 8.208450 29.000000 204 204 204 0
5.879025 8.208450 29.000000 204 204 204 0
5.989950 8.208450 29.000000 205 205 205 0
6.100875 8.208450 29.000000 205 205 205 0
6.211800 8.208450 29.000000 204 204 204 0
6.322725 8.208450 29.000000 204 204 204 0
6.433650 8.208450 29.000000 205 205 205 0
6.544575 8.208450 29.000000 205 205 205 0
6.655500 8.208450 29.000000 204 204 204 0
6.766425 8.208450 29.000000 205 205 205 0
6.877350 8.208450 29.000000 205 205 205 0
6.988275 8.208450 29.000000 205 205 205 0
7.099200 8.208450 29.000000 205 205 205 0
7.210125 8.208450 29.000000 205 205 205 0
7.321050 8.208450 29.000000 205 205 205 0
7.431975 8.208450 29.000000 204 204 204 0
7.542900 8.208450 29.000000 205 205 205 0
7.653825 8.208450 29.000000 206 206 206 0
7.764750 8.208450 29.000000 205 205 205 0
7.875675 8.208450 29.000000 205 205 205 0
7.986600 8.208450 29.000000 205 205 205 0
8.097525 8.208450 29.000000 205 205 205 0
8.208450 8.208450 29.000000 205 205 205 0
8.319375 8.208450 29.000000 205 205 205 0
10.133227 9.866563 34.858021 205 205 205 0
10.277179 9.876769 34.894079 204 204 204 0
10.648714 10.102626 35.692019 204 204 204 0
10.487322 9.823567 34.706119 204 204 204 0
-8.874000 8.319375 29.000000 195 195 195 0
-8.763075 8.319375 29.000000 196 196 196 0
-8.652150 8.319375 29.000000 196 196 196 0
-8.541225 8.319375 29.000000 196 196 196 0
-8.430300 8.319375 29.000000 196 196 196 0
-8.319375 8.319375 29.000000 196 196 196 0
-8.208450 8.319375 29.000000 197 197 197 0
-8.097525 8.319375 29.000000 196 196 196 0
-7.986600 8.319375 29.000000 196 196 196 0
-7.875675 8.319375 29.000000 196 196 196 0
-7.764750 8.319375 29.000000 196 196 196 0
-7.653825 8.319375 29.000000 197 197 197 0
-7.542900 8.319375 29.000000 197 197 197 0
-7.431975 8.319375 29.000000 197 197 197 0
-7.321050 8.319375 29.000000 197 197 197 0
-7.210125 8.319375 29.000000 197 197 197 0
-7.099200 8.319375 29.000000 197 197 197 0
-6.988275 8.319375 29.000000 197 197 197 0
-6.877350 8.319375 29.000000 197 197 197 0
-6.766425 8.319375 29.000000 198 198 198 0
-6.655500 8.319375 29.000000 198 198 198 0
-6.544575 8.319375 29.000000 198 198 198 0
-6.433650 8.319375 29.000000 198 198 198 0
-6.322725 8.319375 29.000000 198 198 198 0
-6.211800 8.319375 29.000000 198 198 198 0
-6.100875 8.319375 29.000000 199 199 199 0
-5.989950 8.319375 29.000000 199 199 199 0
-5.879025 8.319375 29.000000 199 199 199 0
-5.768100 8.319375 29.000000 199 199 199 0
-5.657175 8.319375 29.000000 198 198 198 0
-5.546250 8.319375 29.000000 198 198 198 0
-5.435325 8.319375 29.000000 199 199 199 0
-5.324400 8.319375 29.000000 198 198 198 0
-5.213475 8.319375 29.000000 198 198 198 0
-5.102550 8.319375 29.000000 199 199 199 0
-4.991625 8.319375 29.000000 199 199 199 0
-4.880700 8.319375 29.000000 199 199 199 0
-4.769775 8.319375 29.000000 199 199 199 0
-4.658850 8.319375 29.000000 199 199 199 0
-4.547925 8.319375 29.000000 199 199 199 0
-4.437000 8.319375 29.000000 199 199 199 0
-4.326075 8.319375 29.000000 199 199 199 0
-4.215150 8.319375 29.000000 199 199 199 0
-4.104225 8.319375 29.000000 199 199 199 0
-3.993300 8.319375 29.000000 200 200 200 0
-3.882375 8.319375 29.000000 200 200 200 0
-3.771450 8.319375 29.000000 199 199 199 0
-3.660525 8.319375 29.000000 200 200 200 0
-3.549600 8.319375 29.000000 201 201 201 0
-3.438675 8.319375 29.000000 199 199 199 0
-3.327750 8.319375 29.000000 200 200 200 0
-3.216825 8.319375 29.000000 200 200 200 0
-3.105900 8.319375 29.000000 200 200 200 0
-2.994975 8.319375 29.000000 200 200 200 0
-2.884050 8.319375 29.000000 201 201 201 0
-2.773125 8.319375 29.000000 200 200 200 0
-2.662200 8.319375 29.000000 201 201 201 0
-2.551275 8.319375 29.000000 201 201 201 0
-2.440350 8.319375 29.000000 201 201 201 0
-2.329425 8.319375 29.000000 200 200 200 0
-2.218500 8.319375 29.000000 201 201 201 0
-2.107575 8.319375 29.000000 201 201 201 0
-1.996650 8.319375 29.000000 200 200 200 0
-1.885725 8.319375 29.000000 201 201 201 0
-1.774800 8.319375 29.000000 201 201 201 0
-1.663875 8.319375 29.000000 201 201 201 0
-1.552950 8.319375 29.000000 201 201 201 0
-1.442025 8.319375 29.000000 201 201 201 0
-1.331100 8.319375 29.000000 201 201 201 0
-1.220175 8.319375 29.000000 201 201 201 0
-1.109250 8.319375 29.000000 201 201 201 0
-0.998325 8.319375 29.000000 202 202 202 0
-0.887400 8.319375 29.000000 201 201 201 0
-0.776475 8.319375 29.000000 202 202 202 0
-0.665550 8.319375 29.000000 202 202 202 0
-0.554625 8.319375 29.000000 202 202 202 0
-0.443700 8.319375 29.000000 201 201 201 0
-0.332775 8.319375 29.000000 202 202 202 0
-0.221850 8.319375 29.000000 202 202 202 0
-0.110925 8.319375 29.000000 202 202 202 0
0.000000 8.319375 29.000000 202 202 202 0
0.110925 8.319375 29.000000 202 202 202 0
0.221850 8.319375 29.000000 202 202 202 0
0.332775 8.319375 29.000000 203 203 203 0
0.443700 8.319375 29.000000 202 202 202 0
0.554625 8.319375 29.000000 203 203 203 0
0.665550 8.319375 29.000000 203 203 203 0
0.776475 8.319375 29.000000 203 203 203 0
0.887400 8.319375 29.000000 203 203 203 0
0.998325 8.319375 29.000000 203 203 203 0
1.109250 8.319375 29.000000 203 203 203 0
1.220175 8.319375 29.000000 203 203 203 0
1.331100 8.319375 29.000000 203 203 203 0
1.442025 8.319375 29.000000 203 203 203 0
1.552950 8.319375 29.000000 203 203 203 0
1.663875 8.319375 29.000000 203 203 203 0
1.774800 8.319375 29.000000 202 202 202 0
1.885725 8.319375 29.000000 202 202 202 0
1.996650 8.319375 29.000000 203 203 203 0
2.107575 8.319375 29.000000 203 203 203 0
2.218500 8.319375 29.000000 203 203 203 0
2.329425 8.319375 29.000000 203 203 203 0
2.440350 8.319375 29.000000 203 203 203 0
2.551275 8.319375 29.000000 203 203 203 0
2.662200 8.319375 29.000000 203 203 203 0
2.773125 8.319375 29.000000 203 203 203 0
2.884050 8.319375 29.000000 203 203 203 0
2.994975 8.319375 29.000000 203 203 203 0
3.105900 8.319375 29.000000 203 203 203 0
3.216825 8.319375 29.000000 204 204 204 0
3.327750 8.319375 29.000000 203 203 203 0
3.438675 8.319375 29.000000 204 204 204 0
3.549600 8.319375 29.000000 204 204 204 0
3.660525 8.319375 29.000000 203 203 203 0
3.771450 8.319375 29.000000 203 203 203 0
3.882375 8.319375 29.000000 204 204 204 0
3.993300 8.319375 29.000000 204 204 204 0
4.104225 8.319375 29.000000 203 203 203 0
4.215150 8.319375 29.000000 204 204 204 0
4.326075 8.319375 29.000000 204 204 204 0
4.437000 8.319375 29.000000 204 204 204 0
4.547925 8.319375 29.000000 204 204 204 0
4.658850 8.319375 29.000000 204 204 204 0
4.769775 8.319375 29.000000 204 204 204 0
4.880700 8.319375 29.000000 205 205 205 0
4.991625 8.319375 29.000000 204 204 204 0
5.102550 8.319375 29.000000 204 204 204 0
5.213475 8.319375 29.000000 204 204 204 0
5.324400 8.319375 29.000000 204 204 204 0
5.435325 8.319375 29.000000 204 204 204 0
5.546250 8.319375 29.000000 204 204 204 0
5.657175 8.319375 29.000000 204 204 204 0
5.768100 8.319375 29.000000 204 204 204 0
5.879025 8.319375 29.000000 204 204 204 0
5.989950 8.319375 29.000000 204 204 204 0
6.100875 8.319375 29.000000 205 205 205 0
6.211800 8.319375 29.000000 204 204 204 0
6.322725 8.319375 29.000000 205 205 205 0
6.433650 8.319375 29.000000 205 205 205 0
6.544575 8.319375 29.000000 205 205 205 0
6.655500 8.319375 29.000000 204 204 204 0
6.766425 8.319375 29.000000 205 205 205 0
6.877350 8.319375 29.000000 205 205 205 0
6.988275 8.319375 29.000000 205 205 205 0
7.099200 8.319375 29.000000 204 204 204 0
7.210125 8.319375 29.000000 205 205 205 0
7.321050 8.319375 29.000000 205 205 205 0
7.431975 8.319375 29.000000 205 205 205 0
7.542900 8.319375 29.000000 204 204 204 0
7.653825 8.319375 29.000000 205 205 205 0
7.764750 8.319375 29.000000 205 205 205 0
7.875675 8.319375 29.000000 206 206 206 0
7.986600 8.319375 29.000000 205 205 205 0
8.097525 8.319375 29.000000 205 205 205 0
8.208450 8.319375 29.000000 205 205 205 0
10.022682 10.022682 34.937454 205 205 205 0
10.153861 10.020257 34.929001 205 205 205 0
10.159324 9.768580 34.051696 205 205 205 0
10.785055 10.238976 35.691421 205 205 205 0
-8.874000 8.430300 29.000000 195 195 195 0
-8.763075 8.430300 29.000000 196 196 196 0
-8.652150 8.430300 29.000000 196 196 196 0
-8.541225 8.430300 29.000000 195 195 195 0
-8.430300 8.430300 29.000000 196 196 196 0
-8.319375 8.430300 29.000000 196 196 196 0
-8.208450 8.430300 29.000000 196 196 196 0
-8.097525 8.430300 29.000000 196 196 196 0
-7.986600 8.430300 29.000000 196 196 196 0
-7.875675 8.430300 29.000000 196 196 196 0
-7.764750 8.430300 29.000000 196 196 196 0
-7.653825 8.430300 29.000000 196 196 196 0
-7.542900 8.430300 29.000000 198 198 198 0
-7.431975 8.430300 29.000000 197 197 197 0
-7.321050 8.430300 29.000000 197 197 197 0
-7.210125 8.430300 29.000000 197 197 197 0
-7.099200 8.430300 29.000000 197 197 197 0
-6.988275 8.430300 29.000000 198 198 198 0
-6.877350 8.430300 29.000000 197 197 197 0
-6.766425 8.430300 29.000000 198 198 198 0
-6.655500 8.430300 29.000000 198 198 198 0
-6.544575 8.430300 29.000000 197 197 197 0
-6.433650 8.430300 29.000000 197 197 197 0
-6.322725 8.430300 29.000000 198 198 198 0
-6.211800 8.430300 29.000000 198 198 198 0
-6.100875 8.430300 29.000000 198 198 198 0
-5.989950 8.430300 29.000000 198 198 198 0
-5.879025 8.430300 29.000000 198 198 198 0
-5.768100 8.430300 29.000000 198 198 198 0
-5.657175 8.430300 29.000000 199 199 199 0
-5.546250 8.430300 29.000000 199 199 199 0
-5.435325 8.430300 29.000000 199 199 199 0
-5.324400 8.430300 29.000000 198 198 198 0
-5.213475 8.430300 29.000000 198 198 198 0
-5.102550 8.430300 29.000000 199 199 199 0
-4.991625 8.430300 29.000000 199 199 199 0
-4.880700 8.430300 29.000000 199 199 199 0
-4.769775 8.430300 29.000000 199 199 199 0
-4.658850 8.430300 29.000000 199 199 199 0
-4.547925 8.430300 29.000000 198 198 198 0
-4.437000 8.430300 29.000000 199 199 199 0
-4.326075 8.430300 29.000000 199 199 199 0
-4.215150 8.430300 29.000000 199 199 199 0
-4.104225 8.430300 29.000000 200 200 200 0
-3.993300 8.430300 29.000000 200 200 200 0
-3.882375 8.430300 29.000000 199 199 199 0
-3.771450 8.430300 29.000000 200 200 200 0
-3.660525 8.430300 29.000000 199 199 199 0
-3.549600 8.430300 29.000000 200 200 200 0
-3.438675 8.430300 29.000000 200 200 200 0
-3.327750 8.430300 29.000000 200 200 200 0
-3.216825 8.430300 29.000000 200 200 200 0
-3.105900 8.430300 29.000000 200 200 200 0
-2.994975 8.430300 29.000000 200 200 200 0
-2.884050 8.430300 29.000000 200 200 200 0
-2.773125 8.430300 29.000000 200 200 200 0
-2.662200 8.430300 29.000000 200 200 200 0
-2.551275 8.430300 29.000000 201 201 201 0
-2.440350 8.430300 29.000000 201 201 201 0
-2.329425 8.430300 29.000000 201 201 201 0
-2.218500 8.430300 29.000000 201 201 201 0
-2.107575 8.430300 29.000000 201 201 201 0
-1.996650 8.430300 29.000000 201 201 201 0
-1.885725 8.430300 29.000000 200 200 200 0
-1.774800 8.430300 29.000000 201 201 201 0
-1.663875 8.430300 29.000000 201 201 201 0
-1.552950 8.430300 29.000000 201 201 201 0
-1.442025 8.430300 29.000000 202 202 202 0
-1.331100 8.430300 29.000000 202 202 202 0
-1.220175 8.430300 29.000000 201 201 201 0
-1.109250 8.430300 29.000000 201 201 201 0
-0.998325 8.430300 29.000000 202 202 202 0
-0.887400 8.430300 29.000000 202 202 202 0
-0.776475 8.430300 29.000000 202 202 202 0
-0.665550 8.430300 29.000000 202 202 202 0
-0.554625 8.430300 29.000000 201 201 201 0
-0.443700 8.430300 29.000000 202 202 202 0
-0.332775 8.430300 29.000000 201 201 201 0
-0.221850 8.430300 29.000000 202 202 202 0
-0.110925 8.430300 29.000000 202 202 202 0
0.000000 8.430300 29.000000 202 202 202 0
0.110925 8.430300 29.000000 202 202 202 0
0.221850 8.430300 29.000000 202 202 202 0
0.332775 8.430300 29.000000 202 202 202 0
0.443700 8.430300 29.000000 202 202 202 0
0.554625 8.430300 29.000000 202 202 202 0
0.665550 8.430300 29.000000 203 203 203 0
0.776475 8.430300 29.000000 202 202 202 0
0.887400 8.430300 29.000000 203 203 203 0
0.998325 8.430300 29.000000 202 202 202 0
1.109250 8.430300 29.000000 202 202 202 0
1.220175 8.430300 29.000000 203 203 203 0
1.331100 8.430300 29.000000 203 203 203 0
1.442025 8.430300 29.000000 203 203 203 0
1.552950 8.430300 29.000000 203 203 203 0
1.663875 8.430300 29.000000 203 203 203 0
1.774800 8.430300 29.000000 203 203 203 0
1.885725 8.430300 29.000000 202 202 202 0
1.996650 8.430300 29.000000 203 203 203 0
2.107575 8.430300 29.000000 203 203 203 0
2.218500 8.430300 29.000000 203 203 203 0
2.329425 8.430300 29.000000 203 203 203 0
2.440350 8.430300 29.000000 203 203 203 0
2.551275 8.430300 29.000000 203 203 203 0
2.662200 8.430300 29.000000 203 203 203 0
2.773125 8.430300 29.000000 203 203 203 0
2.884050 8.430300 29.000000 203 203 203 0
2.994975 8.430300 29.000000 204 204 204 0
3.105900 8.430300 29.000000 204 204 204 0
3.216825 8.430300 29.000000 203 203 203 0
3.327750 8.430300 29.000000 204 204 204 0
3.438675 8.430300 29.000000 203 203 203 0
3.549600 8.430300 29.000000 204 204 204 0
3.660525 8.430300 29.000000 203 203 203 0
3.771450 8.430300 29.000000 204 204 204 0
3.882375 8.430300 29.000000 204 204 204 0
3.993300 8.430300 29.000000 204 204 204 0
4.104225 8.430300 29.000000 203 203 203 0
4.215150 8.430300 29.000000 203 203 203 0
4.326075 8.430300 29.000000 203 203 203 0
4.437000 8.430300 29.000000 204 204 204 0
4.547925 8.430300 29.000000 205 205 205 0
4.658850 8.430300 29.000000 204 204 204 0
4.769775 8.430300 29.000000 204 204 204 0
4.880700 8.430300 29.000000 204 204 204 0
4.991625 8.430300 29.000000 204 204 204 0
5.102550 8.430300 29.000000 204 204 204 0
5.213475 8.430300 29.000000 204 204 204 0
5.324400 8.430300 29.000000 204 204 204 0
5.435325 8.430300 29.000000 204 204 204 0
5.546250 8.430300 29.000000 204 204 204 0
5.657175 8.430300 29.000000 205 205 205 0
5.768100 8.430300 29.000000 205 205 205 0
5.879025 8.430300 29.000000 204 204 204 0
5.989950 8.430300 29.000000 204 204 204 0
6.100875 8.430300 29.000000 205 205 205 0
6.211800 8.430300 29.000000 204 204 204 0
6.322725 8.430300 29.000000 205 205 205 0
6.433650 8.430300 29.000000 205 205 205 0
6.544575 8.430300 29.000000 204 204 204 0
6.655500 8.430300 29.000000 205 205 205 0
6.766425 8.430300 29.000000 204 204 204 0
6.877350 8.430300 29.000000 204 204 204 0
6.988275 8.430300 29.000000 204 204 204 0
7.099200 8.430300 29.000000 205 205 205 0
7.210125 8.430300 29.000000 205 205 205 0
7.321050 8.430300 29.000000 204 204 204 0
7.431975 8.430300 29.000000 205 205 205 0
7.542900 8.430300 29.000000 204 204 204 0
7.653825 8.430300 29.000000 205 205 205 0
7.764750 8.430300 29.000000 205 205 205 0
7.875675 8.430300 29.000000 204 204 204 0
7.986600 8.430300 29.000000 205 205 205 0
8.097525 8.430300 29.000000 205 205 205 0
9.868116 10.134822 34.863509 204 204 204 0
8.319375 8.430300 29.000000 206 206 206 0
7.677068 7.677068 26.408902 205 205 205 0
11.562033 11.411876 39.256540 205 205 205 0
13.251184 12.911410 44.414894 205 205 205 0
19.455141 18.716338 64.383688 205 205 205 0
-8.874000 8.541225 29.000000 196 196 196 0
-8.763075 8.541225 29.000000 196 196 196 0
-8.652150 8.541225 29.000000 196 196 196 0
-8.541225 8.541225 29.000000 196 196 196 0
-8.430300 8.541225 29.000000 196 196 196 0
-8.319375 8.541225 29.000000 196 196 196 0
-8.208450 8.541225 29.000000 196 196 196 0
-8.097525 8.541225 29.000000 197 197 197 0
-7.986600 8.541225 29.000000 197 197 197 0
-7.875675 8.541225 29.000000 196 196 196 0
-7.764750 8.541225 29.000000 197 197 197 0
-7.653825 8.541225 29.000000 197 197 197 0
-7.542900 8.541225 29.000000 197 197 197 0
-7.431975 8.541225 29.000000 197 197 197 0
-7.321050 8.541225 29.000000 197 197 197 0
-7.210125 8.541225 29.000000 196 196 196 0
-7.099200 8.541225 29.000000 198 198 198 0
-6.988275 8.541225 29.000000 198 198 198 0
-6.877350 8.541225 29.000000 197 197 197 0
-6.766425 8.541225 29.000000 197 197 197 0
-6.655500 8.541225 29.000000 197 197 197 0
-6.544575 8.541225 29.000000 197 197 197 0
-6.433650 8.541225 29.000000 198 198 198 0
-6.322725 8.541225 29.000000 197 197 197 0
-6.211800 8.541225 29.000000 197 197 197 0
-6.100875 8.541225 29.000000 197 197 197 0
-5.989950 8.541225 29.000000 198 198 198 0
-5.879025 8.541225 29.000000 198 198 198 0
-5.768100 8.541225 29.000000 198 198 198 0
-5.657175 8.541225 29.000000 198 198 198 0
-5.546250 8.541225 29.000000 199 199 199 0
-5.435325 8.541225 29.000000 199 199 199 0
-5.324400 8.541225 29.000000 198 198 198 0
-5.213475 8.541225 29.000000 199 199 199 0
-5.102550 8.541225 29.000000 199 199 199 0
-4.991625 8.541225 29.000000 199 199 199 0
-4.880700 8.541225 29.000000 199 199 199 0
-4.769775 8.541225 29.000000 199 199 199 0
-4.658850 8.541225 29.000000 199 199 199 0
-4.547925 8.541225 29.000000 199 199 199 0
-4.437000 8.541225 29.000000 199 199 199 0
-4.326075 8.541225 29.000000 199 199 199 0
-4.215150 8.541225 29.000000 199 199 199 0
-4.104225 8.541225 29.000000 199 199 199 0
-3.993300 8.541225 29.000000 200 200 200 0
-3.882375 8.541225 29.000000 200 200 200 0
-3.771450 8.541225 29.000000 200 200 200 0
-3.660525 8.541225 29.000000 200 200 200 0
-3.549600 8.541225 29.000000 200 200 200 0
-3.438675 8.541225 29.000000 200 200 200 0
-3.327750 8.541225 29.000000 201 201 201 0
-3.216825 8.541225 29.000000 199 199 199 0
-3.105900 8.541225 29.000000 200 200 200 0
-2.994975 8.541225 29.000000 200 200 200 0
-2.884050 8.541225 29.000000 200 200 200 0
-2.773125 8.541225 29.000000 200 200 200 0
-2.662200 8.541225 29.000000 200 200 200 0
-2.551275 8.541225 29.000000 201 201 201 0
-2.440350 8.541225 29.000000 201 201 201 0
-2.329425 8.541225 29.000000 200 200 200 0
-2.218500 8.541225 29.000000 201 201 201 0
-2.107575 8.541225 29.000000 201 201 201 0
-1.996650 8.541225 29.000000 200 200 200 0
-1.885725 8.541225 29.000000 200 200 200 0
-1.774800 8.541225 29.000000 201 201 201 0
-1.663875 8.541225 29.000000 202 202 202 0
-1.552950 8.541225 29.000000 201 201 201 0
-1.442025 8.541225 29.000000 202 202 202 0
-1.331100 8.541225 29.000000 201 201 201 0
-1.220175 8.541225 29.000000 201 201 201 0
-1.109250 8.541225 29.000000 201 201 201 0
-0.998325 8.541225 29.000000 201 201 201 0
-0.887400 8.541225 29.000000 201 201 201 0
-0.776475 8.541225 29.000000 201 201 201 0
-0.665550 8.541225 29.000000 202 202 202 0
-0.554625 8.541225 29.000000 201 201 201 0
-0.443700 8.541225 29.000000 201 201 201 0
-0.332775 8.541225 29.000000 202 202 202 0
-0.221850 8.541225 29.000000 202 202 202 0
-0.110925 8.541225 29.000000 201 201 201 0
0.000000 8.541225 29.000000 202 202 202 0
0.110925 8.541225 29.000000 202 202 202 0
0.221850 8.541225 29.000000 203 203 203 0
0.332775 8.541225 29.000000 202 202 202 0
0.443700 8.541225 29.000000 203 203 203 0
0.554625 8.541225 29.000000 202 202 202 0
0.665550 8.541225 29.000000 203 203 203 0
0.776475 8.541225 29.000000 202 202 202 0
0.887400 8.541225 29.000000 202 202 202 0
0.998325 8.541225 29.000000 203 203 203 0
1.109250 8.541225 29.000000 202 202 202 0
1.220175 8.541225 29.000000 202 202 202 0
1.331100 8.541225 29.000000 203 203 203 0
1.442025 8.541225 29.000000 203 203 203 0
1.552950 8.541225 29.000000 203 203 203 0
1.663875 8.541225 29.000000 203 203 203 0
1.774800 8.541225 29.000000 203 203 203 0
1.885725 8.541225 29.000000 203 203 203 0
1.996650 8.541225 29.000000 203 203 203 0
2.107575 8.541225 29.000000 203 203 203 0
2.218500 8.541225 29.000000 203 203 203 0
2.329425 8.541225 29.000000 203 203 203 0
2.440350 8.541225 29.000000 203 203 203 0
2.551275 8.541225 29.000000 203 203 203 0
2.662200 8.541225 29.000000 203 203 203 0
2.773125 8.541225 29.000000 203 203 203 0
2.884050 8.541225 29.000000 203 203 203 0
2.994975 8.541225 29.000000 203 203 203 0
3.105900 8.541225 29.000000 204 204 204 0
3.216825 8.541225 29.000000 204 204 204 0
3.327750 8.541225 29.000000 203 203 203 0
3.438675 8.541225 29.000000 204 204 204 0
3.549600 8.541225 29.000000 204 204 204 0
3.660525 8.541225 29.000000 204 204 204 0
3.771450 8.541225 29.000000 204 204 204 0
3.882375 8.541225 29.000000 203 203 203 0
3.993300 8.541225 29.000000 203 203 203 0
4.104225 8.541225 29.000000 204 204 204 0
4.215150 8.541225 29.000000 204 204 204 0
4.326075 8.541225 29.000000 204 204 204 0
4.437000 8.541225 29.000000 203 203 203 0
4.547925 8.541225 29.000000 204 204 204 0
4.658850 8.541225 29.000000 205 205 205 0
4.769775 8.541225 29.000000 204 204 204 0
4.880700 8.541225 29.000000 204 204 204 0
4.991625 8.541225 29.000000 204 204 204 0
5.102550 8.541225 29.000000 204 204 204 0
5.213475 8.541225 29.000000 203 203 203 0
5.324400 8.541225 29.000000 204 204 204 0
5.435325 8.541225 29.000000 205 205 205 0
5.546250 8.541225 29.000000 205 205 205 0
5.657175 8.541225 29.000000 205 205 205 0
5.768100 8.541225 29.000000 204 204 204 0
5.879025 8.541225 29.000000 204 204 204 0
5.989950 8.541225 29.000000 204 204 204 0
6.100875 8.541225 29.000000 204 204 204 0
6.211800 8.541225 29.000000 204 204 204 0
6.322725 8.541225 29.000000 204 204 204 0
6.433650 8.541225 29.000000 205 205 205 0
6.544575 8.541225 29.000000 204 204 204 0
6.655500 8.541225 29.000000 204 204 204 0
6.766425 8.541225 29.000000 205 205 205 0
6.877350 8.541225 29.000000 205 205 205 0
6.988275 8.541225 29.000000 204 204 204 0
7.099200 8.541225 29.000000 204 204 204 0
7.210125 8.541225 29.000000 204 204 204 0
7.321050 8.541225 29.000000 205 205 205 0
7.431975 8.541225 29.000000 204 204 204 0
7.542900 8.541225 29.000000 205 205 205 0
7.653825 8.541225 29.000000 205 205 205 0
7.764750 8.541225 29.000000 205 205 205 0
7.875675 8.541225 29.000000 205 205 205 0
7.986600 8.541225 29.000000 204 204 204 0
9.727367 10.260373 34.837020 205 205 205 0
9.891201 10.292196 34.945066 204 204 204 0
9.978075 10.244157 34.781960 204 204 204 0
10.087437 10.220167 34.700507 206 206 206 0
8.541225 8.541225 29.000000 205 205 205 0
10.415260 10.281731 34.909537 205 205 205 0
11.329125 11.042312 37.491935 205 205 205 0
-8.874000 8.652150 29.000000 196 196 196 0
-8.763075 8.652150 29.000000 196 196 196 0
-8.652150 8.652150 29.000000 196 196 196 0
-8.541225 8.652150 29.000000 195 195 195 0
-8.430300 8.652150 29.000000 196 196 196 0
-8.319375 8.652150 29.000000 196 196 196 0
-8.208450 8.652150 29.000000 196 196 196 0
-8.097525 8.652150 29.000000 196 196 196 0
-7.986600 8.652150 29.000000 196 196 196 0
-7.875675 8.652150 29.000000 197 197 197 0
-7.764750 8.652150 29.000000 196 196 196 0
-7.653825 8.652150 29.000000 197 197 197 0
-7.542900 8.652150 29.000000 197 197 197 0
-7.431975 8.652150 29.000000 197 197 197 0
-7.321050 8.652150 29.000000 197 197 197 0
-7.210125 8.652150 29.000000 197 197 197 0
-7.099200 8.652150 29.000000 197 197 197 0
-6.988275 8.652150 29.000000 198 198 198 0
-6.877350 8.652150 29.000000 197 197 197 0
-6.766425 8.652150 29.000000 197 197 197 0
-6.655500 8.652150 29.000000 197 197 197 0
-6.544575 8.652150 29.000000 197 197 197 0
-6.433650 8.652150 29.000000 197 197 197 0
-6.322725 8.652150 29.000000 198 198 198 0
-6.211800 8.652150 29.000000 198 198 198 0
-6.100875 8.652150 29.000000 198 198 198 0
-5.989950 8.652150 29.000000 198 198 198 0
-5.879025 8.652150 29.000000 198 198 198 0
-5.768100 8.652150 29.000000 198 198 198 0
-5.657175 8.652150 29.000000 198 198 198 0
-5.546250 8.652150 29.000000 198 198 198 0
-5.435325 8.652150 29.000000 198 198 198 0
-5.324400 8.652150 29.000000 199 199 199 0
-5.213475 8.652150 29.000000 199 199 199 0
-5.102550 8.652150 29.000000 198 198 198 0
-4.991625 8.652150 29.000000 199 199 199 0
-4.880700 8.652150 29.000000 199 199 199 0
-4.769775 8.652150 29.000000 199 199 199 0
-4.658850 8.652150 29.000000 199 199 199 0
-4.547925 8.652150 29.000000 199 199 199 0
-4.437000 8.652150 29.000000 200 200 200 0
-4.326075 8.652150 29.000000 199 199 199 0
-4.215150 8.652150 29.000000 199 199 199 0
-4.104225 8.652150 29.000000 199 199 199 0
-3.993300 8.652150 29.000000 199 199 199 0
-3.882375 8.652150 29.000000 199 199 199 0
-3.771450 8.652150 29.000000 200 200 200 0
-3.660525 8.652150 29.000000 199 199 199 0
-3.549600 8.652150 29.000000 200 200 200 0
-3.438675 8.652150 29.000000 199 199 199 0
-3.327750 8.652150 29.000000 200 200 200 0
-3.216825 8.652150 29.000000 200 200 200 0
-3.105900 8.652150 29.000000 200 200 200 0
-2.994975 8.652150 29.000000 200 200 200 0
-2.884050 8.652150 29.000000 200 200 200 0
-2.773125 8.652150 29.000000 201 201 201 0
-2.662200 8.652150 29.000000 200 200 200 0
-2.551275 8.652150 29.000000 200 200 200 0
-2.440350 8.652150 29.000000 200 200 200 0
-2.329425 8.652150 29.000000 201 201 201 0
-2.218500 8.652150 29.000000 200 200 200 0
-2.107575 8.652150 29.000000 201 201 201 0
-1.996650 8.652150 29.000000 201 201 201 0
-1.885725 8.652150 29.000000 200 200 200 0
-1.774800 8.652150 29.000000 201 201 201 0
-1.663875 8.652150 29.000000 201 201 201 0
-1.552950 8.652150 29.000000 201 201 201 0
-1.442025 8.652150 29.000000 201 201 201 0
-1.331100 8.652150 29.000000 201 201 201 0
-1.220175 8.652150 29.000000 201 201 201 0
-1.109250 8.652150 29.000000 201 201 201 0
-0.998325 8.652150 29.000000 201 201 201 0
-0.887400 8.652150 29.000000 201 201 201 0
-0.776475 8.652150 29.000000 201 201 201 0
-0.665550 8.652150 29.000000 201 201 201 0
-0.554625 8.652150 29.000000 201 201 201 0
-0.443700 8.652150 29.000000 201 201 201 0
-0.332775 8.652150 29.000000 201 201 201 0
-0.221850 8.652150 29.000000 202 202 202 0
-0.110925 8.652150 29.000000 202 202 202 0
0.000000 8.652150 29.000000 202 202 202 0
0.110925 8.652150 29.000000 203 203 203 0
0.221850 8.652150 29.000000 202 202 202 0
0.332775 8.652150 29.000000 203 203 203 0
0.443700 8.652150 29.000000 202 202 202 0
0.554625 8.652150 29.000000 203 203 203 0
0.665550 8.652150 29.000000 203 203 203 0
0.776475 8.652150 29.000000 203 203 203 0
0.887400 8.652150 29.000000 202 202 202 0
0.998325 8.652150 29.000000 203 203 203 0
1.109250 8.652150 29.000000 202 202 202 0
1.220175 8.652150 29.000000 203 203 203 0
1.331100 8.652150 29.000000 203 203 203 0
1.442025 8.652150 29.000000 202 202 202 0
1.552950 8.652150 29.000000 203 203 203 0
1.663875 8.652150 29.000000 203 203 203 0
1.774800 8.652150 29.000000 203 203 203 0
1.885725 8.652150 29.000000 203 203 203 0
1.996650 8.652150 29.000000 202 202 202 0
2.107575 8.652150 29.000000 203 203 203 0
2.218500 8.652150 29.000000 203 203 203 0
2.329425 8.652150 29.000000 203 203 203 0
2.440350 8.652150 29.000000 203 203 203 0
2.551275 8.652150 29.000000 203 203 203 0
2.662200 8.652150 29.000000 204 204 204 0
2.773125 8.652150 29.000000 203 203 203 0
2.884050 8.652150 29.000000 203 203 203 0
2.994975 8.652150 29.000000 203 203 203 0
3.105900 8.652150 29.000000 203 203 203 0
3.216825 8.652150 29.000000 203 203 203 0
3.327750 8.652150 29.000000 204 204 204 0
3.438675 8.652150 29.000000 203 203 203 0
3.549600 8.652150 29.000000 204 204 204 0
3.660525 8.652150 29.000000 203 203 203 0
3.771450 8.652150 29.000000 203 203 203 0
3.882375 8.652150 29.000000 204 204 204 0
3.993300 8.652150 29.000000 203 203 203 0
