ply
format ascii 1.0
element vertex 1125
property float x
property float y
property float z
property uchar red
property uchar green
property uchar blue
property uchar alpha
end_header
2.782096 2.454791 21.392513 214 214 214 0
2.864025 2.454879 21.393281 214 214 214 0
2.948465 2.457054 21.412237 213 213 213 0
3.033889 2.459910 21.437125 214 214 214 0
3.117460 2.461152 21.447951 213 213 213 0
3.201381 2.462601 21.460575 213 213 213 0
3.283843 2.462882 21.463025 213 213 213 0
3.369227 2.465288 21.483989 214 214 214 0
3.455855 2.468468 21.511703 214 214 214 0
3.544463 2.472881 21.550161 214 214 214 0
3.625477 2.471916 21.541754 214 214 214 0
3.707691 2.471794 21.540687 214 214 214 0
3.794952 2.474968 21.568352 214 214 214 0
3.883411 2.478773 21.601508 214 214 214 0
3.965864 2.478665 21.600564 214 214 214 0
4.055159 2.482751 21.636171 214 214 214 0
4.135281 2.481169 21.622385 213 213 213 0
4.224910 2.485241 21.657874 213 213 213 0
4.311764 2.487556 21.678052 213 213 213 0
4.397991 2.489429 21.694369 214 214 214 0
4.483652 2.490918 21.707342 213 213 213 0
4.568994 2.492178 21.718329 214 214 214 0
4.653619 2.493010 21.725581 213 213 213 0
4.740610 2.495058 21.743425 213 213 213 0
4.828673 2.497589 21.765484 214 214 214 0
4.913216 2.498245 21.771202 213 213 213 0
5.003100 2.501550 21.800000 213 213 213 0
5.092727 2.504620 21.826750 214 214 214 0
5.177683 2.505330 21.832944 214 214 214 0
5.264449 2.506881 21.846455 214 214 214 0
5.350243 2.507927 21.855569 214 214 214 0
5.440954 2.511209 21.884177 214 214 214 0
5.528710 2.513050 21.900218 214 214 214 0
5.619217 2.516067 21.926512 214 214 214 0
5.703743 2.516357 21.929040 213 213 213 0
5.794786 2.519472 21.956185 214 214 214 0
5.879832 2.519928 21.960155 213 213 213 0
5.974876 2.524596 22.000833 213 213 213 0
6.061602 2.525668 22.010175 214 214 214 0
6.148728 2.526874 22.020691 214 214 214 0
6.231829 2.526417 22.016706 214 214 214 0
6.325788 2.530315 22.050679 214 214 214 0
6.415263 2.532341 22.068329 214 214 214 0
6.510534 2.536572 22.105198 214 214 214 0
6.591537 2.535207 22.093303 214 214 214 0
6.681873 2.537420 22.112593 214 214 214 0
-6.477601 2.510070 21.168630 208 208 208 0
-6.413327 2.516622 21.223884 208 208 208 0
-6.322139 2.512645 21.190345 207 207 207 0
-6.239395 2.511964 21.184601 207 207 207 0
-6.202220 2.529853 21.335465 207 207 207 0
-6.109425 2.525229 21.296472 208 208 208 0
-6.032885 2.527290 21.313849 209 209 209 0
-5.956094 2.529300 21.330803 207 207 207 0
-5.710558 2.458713 20.735505 160 160 160 0
-4.977602 2.173319 18.328647 108 108 108 0
-5.355040 2.371518 20.000150 194 194 194 0
-5.230962 2.350142 19.819882 210 210 210 0
-5.167420 2.355736 19.867051 211 211 211 0
-5.087114 2.353739 19.850217 210 210 210 0
-5.020970 2.358334 19.888966 210 210 210 0
-4.954716 2.363018 19.928470 210 210 210 0
-4.876975 2.362285 19.922282 211 211 211 0
-4.801795 2.362788 19.926527 210 210 210 0
-4.740579 2.370289 19.989790 211 211 211 0
-4.664018 2.370239 19.989361 211 211 211 0
-4.582217 2.367479 19.966086 210 210 210 0
-4.512363 2.370902 19.994960 210 210 210 0
-4.435258 2.370569 19.992146 211 211 211 0
-4.367291 2.375193 20.031146 211 211 211 0
-4.291009 2.375380 20.032719 211 211 211 0
-4.221990 2.379667 20.068877 211 211 211 0
-4.143466 2.378656 20.060352 211 211 211 0
-4.069743 2.380415 20.075188 211 211 211 0
-3.990576 2.378997 20.063229 211 211 211 0
-3.922298 2.384142 20.106616 210 210 210 0
-3.850260 2.387161 20.132077 210 210 210 0
-3.770578 2.385468 20.117799 211 211 211 0
-3.697452 2.387938 20.138626 211 211 211 0
-3.628177 2.393053 20.181765 212 212 212 0
-3.549598 2.392120 20.173902 211 211 211 0
-3.475947 2.394541 20.194316 211 211 211 0
-3.406164 2.399797 20.238643 211 211 211 0
-3.324850 2.396985 20.214929 211 211 211 0
-3.248564 2.397750 20.221377 211 211 211 0
-3.175370 2.400890 20.247857 212 212 212 0
-3.103010 2.404833 20.281113 211 211 211 0
-3.026078 2.405344 20.285422 211 211 211 0
-2.953958 2.409808 20.323069 212 212 212 0
-2.877190 2.410618 20.329905 212 212 212 0
-2.802224 2.413026 20.350208 212 212 212 0
-2.722430 2.411295 20.335610 212 212 212 0
-2.646474 2.412962 20.349668 212 212 212 0
-2.570225 2.414454 20.362249 211 211 211 0
-2.496307 2.418298 20.394666 212 212 212 0
-2.418106 2.418106 20.393051 212 212 212 0
-2.341014 2.419048 20.400995 212 212 212 0
-2.267272 2.423635 20.439682 212 212 212 0
-2.188980 2.423513 20.438654 212 212 212 0
-2.112939 2.425967 20.459349 212 212 212 0
-2.035117 2.426486 20.463724 211 211 211 0
-1.959946 2.430333 20.496163 212 212 212 0
-1.881125 2.429787 20.491563 212 212 212 0
-1.804526 2.432187 20.511805 212 212 212 0
-1.724284 2.429673 20.490603 212 212 212 0
-1.650835 2.436946 20.551942 212 212 212 0
-1.572352 2.437145 20.553620 212 212 212 0
-1.493856 2.437344 20.555296 212 212 212 0
-1.417705 2.441604 20.591220 213 213 213 0
-1.339680 2.442947 20.602543 212 212 212 0
-1.261965 2.445057 20.620345 212 212 212 0
-1.183255 2.445394 20.623183 213 213 213 0
-1.106405 2.449897 20.661159 213 213 213 0
-1.028195 2.451851 20.677636 212 212 212 0
-0.948732 2.450890 20.669536 213 213 213 0
-0.869295 2.449833 20.660617 213 213 213 0
-0.792103 2.455519 20.708569 212 212 212 0
-0.713377 2.457187 20.722641 213 213 213 0
-0.634792 2.459820 20.744848 212 212 212 0
-0.555411 2.459678 20.743649 212 212 212 0
-0.476647 2.462676 20.768929 212 212 212 0
-0.397849 2.466663 20.802554 212 212 212 0
-0.317992 2.464437 20.783785 213 213 213 0
-0.238716 2.466733 20.803144 213 213 213 0
-0.159234 2.468125 20.814886 212 212 212 0
-0.079561 2.466378 20.800151 214 214 214 0
0.000000 2.470293 20.833170 213 213 213 0
0.079769 2.472832 20.854584 213 213 213 0
0.159850 2.477682 20.895485 213 213 213 0
0.239841 2.478358 20.901182 213 213 213 0
0.320356 2.482761 20.938319 213 213 213 0
0.400276 2.481709 20.929448 213 213 213 0
0.480889 2.484595 20.953781 213 213 213 0
0.561347 2.485965 20.965342 213 213 213 0
0.642201 2.488530 20.986973 212 212 212 0
0.722437 2.488395 20.985830 213 213 213 0
0.803558 2.491031 21.008065 213 213 213 0
0.884780 2.493471 21.028643 213 213 213 0
0.965247 2.493555 21.029345 213 213 213 0
1.047271 2.497338 21.061250 213 213 213 0
1.128863 2.499626 21.080545 214 214 214 0
1.209655 2.499953 21.083303 213 213 213 0
1.291147 2.501597 21.097170 213 213 213 0
1.373129 2.503942 21.116947 214 214 214 0
1.454921 2.505696 21.131743 213 213 213 0
1.536932 2.507626 21.148016 213 213 213 0
1.619690 2.510519 21.172416 213 213 213 0
1.700203 2.509823 21.166548 213 213 213 0
1.783646 2.513320 21.196035 213 213 213 0
1.868332 2.518187 21.237079 213 213 213 0
1.949329 2.517884 21.234525 213 213 213 0
2.031465 2.519017 21.244079 213 213 213 0
2.112510 2.518762 21.241928 214 214 214 0
2.196224 2.521590 21.265784 214 214 214 0
2.279761 2.524021 21.286282 213 213 213 0
2.362220 2.525131 21.295646 214 214 214 0
2.447136 2.528707 21.325803 214 214 214 0
2.528295 2.528295 21.322328 213 213 213 0
2.612788 2.531138 21.346304 214 214 214 0
2.695156 2.531813 21.351999 214 214 214 0
2.779567 2.534311 21.373061 214 214 214 0
2.863660 2.536384 21.390549 214 214 214 0
2.947789 2.538374 21.407327 214 214 214 0
3.033008 2.541169 21.430897 214 214 214 0
3.118379 2.543941 21.454274 213 213 213 0
3.201840 2.545053 21.463652 213 213 213 0
3.283022 2.544342 21.457661 214 214 214 0
3.370427 2.548372 21.491643 214 214 214 0
3.456454 2.551192 21.515430 214 214 214 0
3.539912 2.552029 21.522491 214 214 214 0
3.620574 2.550859 21.512618 214 214 214 0
3.705136 2.552427 21.525846 214 214 214 0
3.794563 2.557205 21.566143 214 214 214 0
3.880975 2.559792 21.587956 214 214 214 0
3.967709 2.562479 21.610617 214 214 214 0
4.052719 2.563965 21.623149 214 214 214 0
4.136372 2.564551 21.628091 214 214 214 0
4.221114 2.565775 21.638418 214 214 214 0
4.309978 2.569410 21.669072 214 214 214 0
4.396934 2.571792 21.689156 214 214 214 0
4.481978 2.572987 21.699239 213 213 213 0
4.570322 2.576000 21.724643 214 214 214 0
4.655503 2.577153 21.734373 213 213 213 0
4.743741 2.579929 21.757783 214 214 214 0
4.830665 2.581907 21.774467 213 213 213 0
4.915228 2.582577 21.780117 214 214 214 0
5.004416 2.585615 21.805734 214 214 214 0
5.092809 2.588149 21.827105 214 214 214 0
5.178196 2.589098 21.835109 214 214 214 0
5.264838 2.590634 21.848066 215 215 215 0
5.352616 2.592673 21.865262 214 214 214 0
5.439749 2.594342 21.879334 214 214 214 0
5.526010 2.595550 21.889523 214 214 214 0
5.620421 2.600493 21.931210 214 214 214 0
5.704938 2.600781 21.933634 214 214 214 0
5.794788 2.603455 21.956192 214 214 214 0
5.879221 2.603655 21.957873 214 214 214 0
5.975604 2.609067 22.003514 214 214 214 0
6.062062 2.610055 22.011846 213 213 213 0
6.148392 2.610961 22.019488 214 214 214 0
6.234392 2.611705 22.025762 214 214 214 0
6.326017 2.614754 22.051474 214 214 214 0
6.415238 2.616742 22.068243 214 214 214 0
6.507839 2.620039 22.096051 213 213 213 0
6.589720 2.618991 22.087213 214 214 214 0
6.682695 2.622323 22.115315 213 213 213 0
-6.478567 2.591427 21.171789 208 208 208 0
-6.415709 2.598768 21.231768 207 207 207 0
-6.327846 2.596039 21.209471 207 207 207 0
-6.250970 2.597806 21.223901 207 207 207 0
-6.179837 2.602037 21.258470 207 207 207 0
-6.125179 2.613410 21.351386 208 208 208 0
-6.050463 2.616416 21.375950 209 209 209 0
-5.959843 2.612534 21.344232 206 206 206 0
-5.755702 2.558090 20.899427 150 150 150 0
-5.403659 2.435452 19.897483 76 76 76 0
-5.343816 2.442887 19.958231 193 193 193 0
-5.240332 2.430299 19.855384 210 210 210 0
-5.164315 2.430266 19.855115 210 210 210 0
-5.101475 2.436526 19.906255 210 210 210 0
-5.022754 2.435275 19.896035 210 210 210 0
-4.952749 2.438276 19.920559 211 211 211 0
-4.879018 2.439509 19.930630 211 211 211 0
-4.807359 2.441833 19.949618 211 211 211 0
-4.731979 2.442312 19.953527 211 211 211 0
-4.661837 2.445554 19.980014 211 211 211 0
-4.585076 2.445374 19.978543 210 210 210 0
-4.513542 2.448023 20.000185 210 210 210 0
-4.434712 2.446738 19.989689 211 211 211 0
-4.363403 2.449630 20.013314 210 210 210 0
-4.288909 2.450805 20.022917 211 211 211 0
-4.217766 2.453973 20.048800 210 210 210 0
-4.144132 2.455782 20.063577 211 211 211 0
-4.073052 2.459201 20.091513 211 211 211 0
-4.005810 2.465114 20.139817 211 211 211 0
-3.918904 2.458920 20.089216 211 211 211 0
-3.844618 2.460555 20.102576 211 211 211 0
-3.773536 2.464350 20.133577 210 210 210 0
-3.700480 2.466987 20.155122 211 211 211 0
-3.623447 2.467027 20.155453 212 212 212 0
-3.552007 2.470962 20.187594 211 211 211 0
-3.475883 2.471739 20.193947 211 211 211 0
-3.399187 2.472136 20.197190 212 212 212 0
-3.327627 2.476373 20.231808 211 211 211 0
-3.251587 2.477400 20.240195 211 211 211 0
-3.175392 2.478354 20.247994 211 211 211 0
-3.098006 2.478404 20.248402 212 212 212 0
-3.022898 2.480327 20.264109 211 211 211 0
-2.946052 2.480886 20.268674 212 212 212 0
-2.869526 2.481752 20.275753 212 212 212 0
-2.799894 2.488794 20.333287 211 211 211 0
-2.722302 2.488962 20.334657 211 211 211 0
-2.645057 2.489466 20.338773 212 212 212 0
-2.568261 2.490435 20.346688 212 212 212 0
-2.496307 2.496307 20.394666 211 211 211 0
-2.418106 2.496109 20.393051 212 212 212 0
-2.339606 2.495580 20.388727 212 212 212 0
-2.263174 2.497295 20.402741 212 212 212 0
-2.187464 2.499958 20.424497 212 212 212 0
-2.111524 2.502547 20.445645 211 211 211 0
-2.035879 2.505698 20.471387 212 212 212 0
-1.956276 2.504034 20.457793 212 212 212 0
-1.880668 2.507557 20.486579 212 212 212 0
-1.806952 2.514020 20.539376 212 212 212 0
-1.725699 2.510108 20.507418 213 213 213 0
-1.650880 2.515627 20.552509 212 212 212 0
-1.573977 2.518362 20.574857 211 211 211 0
-1.494070 2.516329 20.558243 212 212 212 0
-1.417109 2.519305 20.582558 212 212 212 0
-1.341573 2.525315 20.631657 212 212 212 0
-1.262635 2.525270 20.631290 212 212 212 0
-1.182570 2.522816 20.611240 213 213 213 0
-1.106846 2.529933 20.669390 213 213 213 0
-1.027258 2.528634 20.658777 213 213 213 0
-0.949949 2.533197 20.696052 212 212 212 0
-0.869558 2.529622 20.666850 213 213 213 0
-0.791810 2.533791 20.700909 213 213 213 0
-0.713296 2.536164 20.720296 213 213 213 0
-0.635457 2.541826 20.766554 212 212 212 0
-0.554465 2.534696 20.708298 213 213 213 0
-0.476062 2.538996 20.743433 213 213 213 0
-0.397511 2.544072 20.784899 212 212 212 0
-0.318152 2.545214 20.794235 212 212 212 0
-0.238858 2.547821 20.815530 213 213 213 0
-0.159444 2.551100 20.842323 213 213 213 0
-0.079572 2.546313 20.803211 213 213 213 0
0.000000 2.552627 20.854796 213 213 213 0
0.079772 2.552714 20.855504 213 213 213 0
0.159803 2.556844 20.889252 213 213 213 0
0.239908 2.559023 20.907052 212 212 212 0
0.320120 2.560960 20.922874 212 212 212 0
0.400241 2.561542 20.927631 213 213 213 0
0.480435 2.562320 20.933983 213 213 213 0
0.561541 2.567043 20.972570 213 213 213 0
0.641376 2.565505 20.960011 213 213 213 0
0.722474 2.568797 20.986907 213 213 213 0
0.803406 2.570899 21.004075 214 214 214 0
0.884366 2.572700 21.018789 213 213 213 0
0.965610 2.574960 21.037258 213 213 213 0
1.047613 2.578740 21.068138 213 213 213 0
1.130331 2.583614 21.107958 213 213 213 0
1.208997 2.579193 21.071835 212 212 212 0
1.291513 2.583027 21.103161 214 214 214 0
1.373402 2.585227 21.121138 214 214 214 0
1.455144 2.586922 21.134986 213 213 213 0
1.536258 2.587382 21.138738 213 213 213 0
1.616845 2.586952 21.135229 214 214 214 0
1.700853 2.591776 21.174638 213 213 213 0
1.784028 2.594950 21.200569 213 213 213 0
1.865792 2.595884 21.208206 213 213 213 0
1.948454 2.597939 21.224994 214 214 214 0
2.029573 2.597854 21.224294 213 213 213 0
2.112391 2.599865 21.240731 214 214 214 0
2.196773 2.603583 21.271106 214 214 214 0
2.281718 2.607678 21.304561 213 213 213 0
2.364595 2.609209 21.317063 213 213 213 0
2.444091 2.607031 21.299269 214 214 214 0
2.529967 2.611579 21.336432 214 214 214 0
2.611894 2.611894 21.339000 213 213 213 0
2.694526 2.612873 21.347004 214 214 214 0
2.783070 2.619360 21.400000 214 214 214 0
2.866271 2.620590 21.410051 213 213 213 0
2.945063 2.617834 21.387534 214 214 214 0
3.033054 2.623182 21.431225 213 213 213 0
3.114442 2.622688 21.427192 214 214 214 0
3.199962 2.625609 21.451058 214 214 214 0
3.284338 2.627470 21.466262 213 213 213 0
3.369158 2.629586 21.483549 214 214 214 0
3.455736 2.632942 21.510963 214 214 214 0
3.541487 2.635525 21.532070 213 213 213 0
3.623684 2.635407 21.531102 213 213 213 0
3.709305 2.637728 21.550068 214 214 214 0
3.795218 2.640152 21.569865 213 213 213 0
3.878928 2.640972 21.576571 214 214 214 0
3.970417 2.646945 21.625367 214 214 214 0
4.052159 2.646308 21.620162 214 214 214 0
4.136447 2.647326 21.628480 214 214 214 0
4.221592 2.648842 21.640869 214 214 214 0
4.311484 2.653221 21.676643 214 214 214 0
4.398300 2.655577 21.695892 214 214 214 0
4.485213 2.657904 21.714903 214 214 214 0
4.568804 2.658213 21.717430 214 214 214 0
4.655515 2.660294 21.734430 213 213 213 0
4.740552 2.661363 21.743160 214 214 214 0
4.829292 2.664437 21.768274 214 214 214 0
4.915288 2.665919 21.780382 213 213 213 0
5.003100 2.668320 21.800000 213 213 213 0
5.091118 2.670751 21.819857 214 214 214 0
5.177600 2.672310 21.832594 214 214 214 0
5.265434 2.674506 21.850539 214 214 214 0
5.349801 2.674900 21.853761 214 214 214 0
5.440850 2.678572 21.883759 214 214 214 0
5.528822 2.680641 21.900661 214 214 214 0
5.617344 2.682910 21.919202 213 213 213 0
5.704119 2.684291 21.930483 213 213 213 0
5.791142 2.685747 21.942376 214 214 214 0
5.883368 2.689540 21.973364 214 214 214 0
5.973346 2.692212 21.995197 213 213 213 0
6.061856 2.694158 22.011095 214 214 214 0
6.152359 2.696924 22.033697 214 214 214 0
6.233503 2.695569 22.022620 214 214 214 0
6.326307 2.699225 22.052488 214 214 214 0
6.417310 2.702025 22.075371 214 214 214 0
6.510808 2.705790 22.106131 214 214 214 0
6.593128 2.704873 22.098635 214 214 214 0
6.682219 2.706722 22.113738 213 213 213 0
-6.500321 2.681382 21.242879 207 207 207 0
-6.442035 2.690977 21.318889 207 207 207 0
-6.369517 2.694795 21.349142 207 207 207 0
-6.320775 2.708903 21.460911 207 207 207 0
-6.188099 2.686938 21.286890 207 207 207 0
-6.123576 2.694373 21.345797 208 208 208 0
-6.052571 2.699119 21.383398 207 207 207 0
-5.991120 2.708315 21.456247 205 205 205 0
-5.695655 2.610508 20.681389 145 145 145 0
-4.834428 2.246987 17.801446 100 100 100 0
-5.340049 2.517452 19.944160 193 193 193 0
-5.250280 2.511003 19.893074 210 210 210 0
-5.149980 2.499255 19.800000 210 210 210 0
-5.101475 2.512667 19.906255 210 210 210 0
-5.015004 2.507502 19.865336 211 211 211 0
-4.949477 2.512812 19.907400 210 210 210 0
-4.878035 2.515237 19.926614 210 210 210 0
-4.817423 2.523412 19.991380 210 210 210 0
-4.727515 2.516258 19.934705 210 210 210 0
-4.661224 2.521646 19.977387 211 211 211 0
-4.572903 2.515097 19.925503 210 210 210 0
-4.512822 2.524121 19.996994 210 210 210 0
-4.441839 2.527253 20.021811 211 211 211 0
-4.347259 2.516834 19.939269 211 211 211 0
-4.299518 2.533645 20.072447 210 210 210 0
-4.217769 2.530662 20.048814 210 210 210 0
-4.147230 2.534419 20.078578 211 211 211 0
-4.074989 2.537257 20.101068 211 211 211 0
-4.012148 2.546171 20.171682 211 211 211 0
-3.924937 2.539665 20.120146 211 211 211 0
-3.841396 2.535321 20.085732 212 212 212 0
-3.773576 2.541388 20.133790 211 211 211 0
-3.697466 2.542008 20.138705 211 211 211 0
-3.624043 2.544541 20.158769 211 211 211 0
-3.551781 2.548017 20.186309 211 211 211 0
-3.475834 2.548945 20.193659 211 211 211 0
-3.401873 2.551405 20.213151 211 211 211 0
-3.324878 2.551650 20.215095 211 211 211 0
-3.249084 2.552852 20.224615 211 211 211 0
-3.172791 2.553710 20.231412 211 211 211 0
-3.100923 2.558261 20.267468 211 211 211 0
-3.024977 2.559596 20.278042 211 211 211 0
-2.946501 2.558803 20.271762 212 212 212 0
-2.873997 2.563294 20.307343 211 211 211 0
-2.800197 2.566847 20.335488 212 212 212 0
-2.721276 2.565774 20.326988 211 211 211 0
-2.646668 2.568825 20.351161 212 212 212 0
-2.569054 2.569054 20.352976 211 211 211 0
-2.494131 2.572073 20.376889 212 212 212 0
-2.417721 2.573703 20.389807 212 212 212 0
-2.341682 2.575850 20.406816 212 212 212 0
-2.266549 2.579176 20.433163 212 212 212 0
-2.188984 2.579874 20.438694 212 212 212 0
-2.113927 2.583689 20.468914 211 211 211 0
-2.034350 2.582060 20.456010 212 212 212 0
-1.962069 2.589931 20.518369 212 212 212 0
-1.881516 2.587084 20.495815 212 212 212 0
-1.807153 2.592872 20.541664 212 212 212 0
-1.722709 2.584063 20.471878 212 212 212 0
-1.649728 2.592429 20.538161 212 212 212 0
-1.573169 2.595729 20.564305 212 212 212 0
-1.494248 2.595273 20.560691 212 212 212 0
-1.418981 2.601465 20.609747 212 212 212 0
-1.340137 2.601443 20.609572 212 212 212 0
-1.260844 2.600491 20.602029 212 212 212 0
-1.183955 2.604700 20.635376 212 212 212 0
-1.105298 2.605345 20.640481 212 212 212 0
-1.026940 2.606848 20.652394 212 212 212 0
-0.948209 2.607573 20.658138 213 213 213 0
-0.869962 2.609885 20.676447 212 212 212 0
-0.791428 2.611713 20.690932 213 213 213 0
-0.713096 2.614684 20.714468 213 213 213 0
-0.635632 2.621982 20.772288 213 213 213 0
-0.556257 2.622355 20.775244 213 213 213 0
-0.476837 2.622605 20.777223 213 213 213 0
-0.397586 2.624065 20.788787 213 213 213 0
-0.318193 2.625096 20.796959 213 213 213 0
-0.239009 2.629102 20.828692 213 213 213 0
-0.159304 2.628516 20.824049 213 213 213 0
-0.079686 2.629627 20.832851 213 213 213 0
0.000000 2.632520 20.855775 213 213 213 0
0.079782 2.632815 20.858113 212 212 212 0
0.159779 2.636356 20.886167 213 213 213 0
0.239822 2.638043 20.899527 212 212 212 0
0.319601 2.636705 20.888927 212 212 212 0
0.400274 2.641811 20.929380 213 213 213 0
0.480675 2.643715 20.944462 212 212 212 0
0.561141 2.645381 20.957660 213 213 213 0
0.641677 2.646918 20.969843 213 213 213 0
0.721808 2.646630 20.967561 213 213 213 0
0.803250 2.650725 21.000000 213 213 213 0
0.883941 2.651822 21.008690 213 213 213 0
0.965608 2.655422 21.037215 213 213 213 0
1.047444 2.658895 21.064727 213 213 213 0
1.127783 2.658345 21.060370 213 213 213 0
1.208823 2.659411 21.068815 212 212 212 0
1.291049 2.662789 21.095575 213 213 213 0
1.373558 2.666319 21.123539 213 213 213 0
1.454967 2.667440 21.132425 214 214 214 0
1.537352 2.670138 21.153796 214 214 214 0
1.617972 2.669654 21.149961 213 213 213 0
1.700637 2.672429 21.171948 213 213 213 0
1.782470 2.673704 21.182051 213 213 213 0
1.867307 2.679180 21.225429 213 213 213 0
1.950622 2.682105 21.248605 213 213 213 0
2.030547 2.680322 21.234480 213 213 213 0
2.113380 2.682367 21.250680 213 213 213 0
2.196921 2.685125 21.272532 213 213 213 0
2.281812 2.689278 21.305431 213 213 213 0
2.363754 2.689790 21.309484 213 213 213 0
2.443767 2.688144 21.296448 214 214 214 0
2.530181 2.693419 21.338236 213 213 213 0
2.612659 2.694305 21.345255 213 213 213 0
2.698163 2.698163 21.375823 213 213 213 0
2.780819 2.699030 21.382693 214 214 214 0
2.863738 2.700096 21.391134 214 214 214 0
2.946780 2.701215 21.400000 214 214 214 0
3.033038 2.705142 21.431114 213 213 213 0
3.117553 2.707349 21.448596 214 214 214 0
3.200274 2.707924 21.453155 213 213 213 0
3.285672 2.710680 21.474983 213 213 213 0
3.371132 2.713350 21.496141 214 214 214 0
3.455686 2.715182 21.510648 213 213 213 0
3.540307 2.716980 21.524896 214 214 214 0
3.624391 2.718294 21.535303 214 214 214 0
3.711257 2.721589 21.561408 214 214 214 0
3.797313 2.724159 21.581774 213 213 213 0
3.882197 2.725798 21.594755 214 214 214 0
3.966972 2.727293 21.606600 213 213 213 0
4.052450 2.729201 21.621717 214 214 214 0
4.138791 2.731602 21.640738 213 213 213 0
4.222799 2.732399 21.647054 213 213 213 0
4.312351 2.736684 21.681000 214 214 214 0
4.395064 2.736549 21.679930 213 213 213 0
4.482559 2.739342 21.702053 214 214 214 0
4.567688 2.740613 21.712126 214 214 214 0
4.655216 2.743253 21.733036 214 214 214 0
4.740662 2.744594 21.743662 213 213 213 0
4.828672 2.747348 21.765479 214 214 214 0
4.917363 2.750390 21.789580 213 213 213 0
5.003100 2.751705 21.800000 214 214 214 0
5.091170 2.754240 21.820080 214 214 214 0
5.178303 2.756193 21.835558 214 214 214 0
5.266625 2.758708 21.855481 214 214 214 0
5.353095 2.760190 21.867217 214 214 214 0
5.438147 2.760905 21.872888 213 213 213 0
5.529867 2.764933 21.904800 214 214 214 0
5.618930 2.767533 21.925391 213 213 213 0
5.704354 2.768290 21.931390 213 213 213 0
5.787708 2.768034 21.929365 214 214 214 0
5.880775 2.772366 21.963680 213 213 213 0
5.973309 2.776327 21.995062 214 214 214 0
6.061353 2.778120 22.009270 214 214 214 0
6.152457 2.781248 22.034048 214 214 214 0
6.232230 2.779237 22.018122 214 214 214 0
6.324466 2.782765 22.046070 214 214 214 0
6.415246 2.785567 22.068270 214 214 214 0
6.505041 2.787875 22.086548 214 214 214 0
6.590744 2.788392 22.090646 213 213 213 0
6.678946 2.789940 22.102908 213 213 213 0
-6.523818 2.772623 21.319666 207 207 207 0
-6.482267 2.789836 21.452029 208 208 208 0
-6.372925 2.777941 21.360565 207 207 207 0
-6.267825 2.767611 21.281131 208 208 208 0
-6.225173 2.784946 21.414423 207 207 207 0
-6.125640 2.776957 21.352994 208 208 208 0
-6.083816 2.795267 21.493785 207 207 207 0
-5.986751 2.788350 21.440597 205 205 205 0
-5.735983 2.708659 20.827827 146 146 146 0
-5.691109 2.725320 20.955940 100 100 100 0
-5.363188 2.604977 20.030579 195 195 195 0
-5.239272 2.581670 19.851367 211 211 211 0
-5.164046 2.582023 19.854078 211 211 211 0
-5.089054 2.582505 19.857785 210 210 210 0
-5.019841 2.585979 19.884495 211 211 211 0
-4.949606 2.589025 19.907918 211 211 211 0
-4.863818 2.583903 19.868538 211 211 211 0
-4.792799 2.586590 19.889194 210 210 210 0
-4.730043 2.593894 19.945363 211 211 211 0
-4.654067 2.594070 19.946715 211 211 211 0
-4.581335 2.596090 19.962246 210 210 210 0
-4.510592 2.599324 19.987114 211 211 211 0
-4.448996 2.608032 20.054073 211 211 211 0
-4.360450 2.600970 19.999770 211 211 211 0
-4.291557 2.605588 20.035282 210 210 210 0
-4.218074 2.607536 20.050261 210 210 210 0
-4.145363 2.610043 20.069538 210 210 210 0
-4.071017 2.611596 20.081473 211 211 211 0
-4.002531 2.617039 20.123331 211 211 211 0
-3.918248 2.612166 20.085856 211 211 211 0
-3.847978 2.616625 20.120146 211 211 211 0
-3.770216 2.616069 20.115867 211 211 211 0
-3.698833 2.620007 20.146151 211 211 211 0
-3.628204 2.624658 20.181915 211 211 211 0
-3.547540 2.622095 20.162206 211 211 211 0
-3.475916 2.626248 20.194141 211 211 211 0
-3.406197 2.632062 20.238843 212 212 212 0
-3.327935 2.631391 20.233686 211 211 211 0
-3.249977 2.630933 20.230169 211 211 211 0
-3.173350 2.631559 20.234977 211 211 211 0
-3.101460 2.636241 20.270977 212 212 212 0
-3.023607 2.635965 20.268857 211 211 211 0
-2.946916 2.636714 20.274617 212 212 212 0
-2.876165 2.642962 20.322663 212 212 212 0
-2.799224 2.643711 20.328424 211 211 211 0
-2.719672 2.641967 20.315010 211 211 211 0
-2.647942 2.647942 20.360950 212 212 212 0
-2.571210 2.649125 20.370054 212 212 212 0
-2.493974 2.649848 20.375608 212 212 212 0
-2.420426 2.654661 20.412617 212 212 212 0
-2.343960 2.656488 20.426670 212 212 212 0
-2.264773 2.655252 20.417160 212 212 212 0
-2.188129 2.657013 20.430706 212 212 212 0
-2.113131 2.660980 20.461204 213 213 213 0
-2.034624 2.660662 20.458762 212 212 212 0
-1.957716 2.662494 20.472848 213 213 213 0
-1.883104 2.667730 20.513111 212 212 212 0
-1.801788 2.663512 20.480679 213 213 213 0
-1.727734 2.670135 20.531602 213 213 213 0
-1.649746 2.671017 20.538387 212 212 212 0
-1.572246 2.672819 20.552241 211 211 211 0
-1.495884 2.676846 20.583205 212 212 212 0
-1.419598 2.681462 20.618703 213 213 213 0
-1.337868 2.675736 20.574669 212 212 212 0
-1.262617 2.683061 20.630992 212 212 212 0
-1.183260 2.682056 20.623266 213 213 213 0
-1.105706 2.685285 20.648100 212 212 212 0
-1.027630 2.687648 20.666270 212 212 212 0
-0.950275 2.692446 20.703160 212 212 212 0
-0.870495 2.690621 20.689130 213 213 213 0
-0.792378 2.694085 20.715762 212 212 212 0
-0.713206 2.694332 20.717663 213 213 213 0
-0.634704 2.697490 20.741948 212 212 212 0
-0.555340 2.697364 20.740975 212 212 212 0
-0.477089 2.703507 20.788209 213 213 213 0
-0.397330 2.701842 20.775406 213 213 213 0
-0.318224 2.704902 20.798935 213 213 213 0
-0.238749 2.705820 20.805999 213 213 213 0
-0.159257 2.707368 20.817903 213 213 213 0
-0.079673 2.708889 20.829597 213 213 213 0
0.000000 2.712307 20.855875 212 212 212 0
0.079770 2.712188 20.854963 212 212 212 0
0.159777 2.716212 20.885904 213 213 213 0
0.239633 2.715844 20.883079 213 213 213 0
0.320178 2.721513 20.926663 212 212 212 0
0.399873 2.719137 20.908399 213 213 213 0
0.481037 2.725877 20.960222 213 213 213 0
0.561470 2.727142 20.969950 213 213 213 0
0.641234 2.725244 20.955356 213 213 213 0
0.722258 2.728529 20.980616 213 213 213 0
0.803724 2.732662 21.012397 214 214 214 0
0.884375 2.733524 21.019021 213 213 213 0
0.965337 2.735122 21.031311 213 213 213 0
1.046601 2.737264 21.047783 213 213 213 0
1.129160 2.742247 21.086096 213 213 213 0
1.210099 2.742890 21.091044 214 214 214 0
1.291638 2.744731 21.105198 213 213 213 0
1.372951 2.745901 21.114198 213 213 213 0
1.454890 2.748126 21.131306 213 213 213 0
1.538079 2.752351 21.163794 213 213 213 0
1.618505 2.751458 21.156924 213 213 213 0
1.701034 2.754055 21.176890 213 213 213 0
1.782786 2.755215 21.185812 213 213 213 0
1.866441 2.759087 21.215586 213 213 213 0
1.951026 2.763954 21.253008 214 214 214 0
2.030049 2.760867 21.229271 213 213 213 0
2.111066 2.760625 21.227410 214 214 214 0
2.196485 2.765944 21.268309 213 213 213 0
2.278243 2.766438 21.272107 213 213 213 0
2.364046 2.771640 21.312112 213 213 213 0
2.445746 2.771845 21.313687 213 213 213 0
2.528044 2.772694 21.320212 213 213 213 0
2.612738 2.776034 21.345899 213 213 213 0
2.696665 2.778383 21.363957 214 214 214 0
2.778232 2.778232 21.362797 213 213 213 0
2.864024 2.782194 21.393267 214 214 214 0
2.946780 2.783070 21.400000 213 213 213 0
3.030699 2.784967 21.414587 214 214 214 0
3.116837 2.788749 21.443666 213 213 213 0
3.203303 2.792623 21.473458 214 214 214 0
3.285104 2.792339 21.471270 214 214 214 0
3.370632 2.795158 21.492953 214 214 214 0
3.455556 2.797355 21.509843 214 214 214 0
3.541015 2.799872 21.529200 213 213 213 0
3.622367 2.799102 21.523273 213 213 213 0
3.707661 2.801344 21.540517 214 214 214 0
3.793082 2.803582 21.557728 214 214 214 0
3.881507 2.807899 21.590917 214 214 214 0
3.968838 2.811260 21.616764 213 213 213 0
4.051883 2.811511 21.618692 214 214 214 0
4.136776 2.813008 21.630202 213 213 213 0
4.220303 2.813535 21.634256 214 214 214 0
4.310535 2.818427 21.671869 213 213 213 0
4.398879 2.821922 21.698747 214 214 214 0
4.482216 2.822136 21.700393 213 213 213 0
4.567083 2.823288 21.709247 214 214 214 0
4.653967 2.825623 21.727204 213 213 213 0
4.740722 2.827799 21.743939 214 214 214 0
4.829927 2.831337 21.771139 214 214 214 0
4.915461 2.832638 21.781148 214 214 214 0
4.999254 2.832910 21.783241 214 214 214 0
5.091279 2.837762 21.820547 214 214 214 0
5.176577 2.838768 21.828282 214 214 214 0
5.266580 2.842281 21.855294 214 214 214 0
5.352508 2.843520 21.864821 213 213 213 0
5.439084 2.845059 21.876658 213 213 213 0
5.528506 2.848018 21.899409 214 214 214 0
5.617078 2.850458 21.918167 213 213 213 0
5.702212 2.851106 21.923151 213 213 213 0
5.789839 2.852964 21.937441 213 213 213 0
5.879197 2.855610 21.957787 213 213 213 0
5.974098 2.860836 21.997968 214 214 214 0
6.059735 2.861542 22.003396 214 214 214 0
6.149972 2.864371 22.025150 214 214 214 0
6.230569 2.862694 22.012255 215 215 215 0
6.323798 2.866789 22.043742 214 214 214 0
6.414681 2.869726 22.066327 214 214 214 0
6.508469 2.873869 22.098187 214 214 214 0
6.589774 2.872465 22.087393 213 213 213 0
6.678517 2.874298 22.101487 214 214 214 0
-6.497493 2.842653 21.233638 208 208 208 0
-6.503663 2.881370 21.522835 208 208 208 0
-6.367514 2.857218 21.342430 207 207 207 0
-6.314660 2.870300 21.440148 207 207 207 0
-6.176062 2.844239 21.245482 208 208 208 0
-6.147198 2.868692 21.428142 207 207 207 0
-6.088413 2.879655 21.510028 208 208 208 0
-5.986975 2.870468 21.441401 205 205 205 0
-5.798304 2.818620 21.054116 137 137 137 0
-5.022366 2.475814 18.493476 99 99 99 0
-5.356585 2.678292 20.005919 193 193 193 0
-5.246381 2.661208 19.878302 210 210 210 0
-5.165240 2.658579 19.858668 210 210 210 0
-5.093156 2.660604 19.873791 210 210 210 0
-5.024957 2.664750 19.904762 210 210 210 0
-4.953949 2.667511 19.925387 210 210 210 0
-4.879018 2.668213 19.930630 210 210 210 0
-4.800744 2.667080 19.922166 210 210 210 0
-4.734998 2.672983 19.966258 210 210 210 0
-4.663544 2.675804 19.987329 210 210 210 0
-4.590035 2.677520 20.000153 210 210 210 0
-4.514057 2.677831 20.002469 211 211 211 0
-4.443763 2.681581 20.030483 211 211 211 0
-4.366636 2.681268 20.028142 211 211 211 0
-4.288795 2.680497 20.022386 211 211 211 0
-4.215747 2.682748 20.039202 211 211 211 0
-4.142696 2.685081 20.056626 211 211 211 0
-4.069451 2.687374 20.073752 210 210 210 0
-4.001528 2.693336 20.118292 211 211 211 0
-3.925450 2.693936 20.122772 210 210 210 0
-3.852492 2.696744 20.143747 210 210 210 0
-3.766868 2.690620 20.098002 211 211 211 0
-3.697973 2.696439 20.141464 211 211 211 0
-3.627109 2.701039 20.175826 212 212 212 0
-3.547540 2.699215 20.162206 211 211 211 0
-3.478331 2.705368 20.208168 211 211 211 0
-3.403643 2.707443 20.223666 211 211 211 0
-3.325291 2.706632 20.217608 212 212 212 0
-3.249918 2.708265 20.229803 211 211 211 0
-3.175693 2.710957 20.249916 211 211 211 0
-3.104364 2.716319 20.289964 211 211 211 0
-3.025522 2.715212 20.281694 211 211 211 0
-2.949415 2.716567 20.291814 211 211 211 0
-2.876507 2.721020 20.325083 212 212 212 0
-2.801116 2.723307 20.342166 212 212 212 0
-2.721807 2.721807 20.330957 212 212 212 0
-2.646976 2.724828 20.353524 212 212 212 0
-2.568799 2.724484 20.350954 212 212 212 0
-2.493424 2.727183 20.371115 212 212 212 0
-2.422695 2.735301 20.431755 212 212 212 0
-2.344094 2.734776 20.427833 212 212 212 0
-2.266106 2.734956 20.429176 212 212 212 0
-2.188232 2.735290 20.431674 211 211 211 0
-2.111743 2.737444 20.447762 212 212 212 0
-2.036874 2.741946 20.481389 212 212 212 0
-1.957491 2.740487 20.470494 212 212 212 0
-1.883115 2.746209 20.513234 212 212 212 0
-1.803791 2.744899 20.503448 211 211 211 0
-1.725953 2.745835 20.510435 212 212 212 0
-1.649972 2.749954 20.541206 212 212 212 0
-1.572087 2.751152 20.550154 212 212 212 0
-1.494482 2.752993 20.563906 212 212 212 0
-1.417143 2.755556 20.583048 212 212 212 0
-1.338576 2.755893 20.585565 212 212 212 0
-1.260215 2.756721 20.591750 212 212 212 0
-1.182553 2.759291 20.610950 212 212 212 0
-1.105191 2.762978 20.638491 213 213 213 0
-1.027250 2.765672 20.658617 212 212 212 0
-0.948695 2.767028 20.668746 212 212 212 0
-0.870534 2.769882 20.690062 213 213 213 0
-0.791642 2.770747 20.696520 212 212 212 0
-0.714271 2.777722 20.748624 213 213 213 0
-0.634370 2.775368 20.731041 212 212 212 0
-0.556349 2.781743 20.778660 212 212 212 0
-0.476146 2.777519 20.747104 213 213 213 0
-0.397336 2.781352 20.775739 213 213 213 0
-0.318079 2.783189 20.789461 213 213 213 0
-0.238535 2.782908 20.787362 213 213 213 0
-0.159490 2.791082 20.848416 213 213 213 0
-0.079653 2.787848 20.824262 213 213 213 0
0.000000 2.790907 20.847112 212 212 212 0
0.079772 2.792035 20.855536 213 213 213 0
0.159870 2.797728 20.898065 213 213 213 0
0.239671 2.796166 20.886392 213 213 213 0
0.320060 2.800528 20.918977 213 213 213 0
0.400272 2.801902 20.929238 213 213 213 0
0.480813 2.804743 20.950460 212 212 212 0
0.561253 2.806264 20.961821 212 212 212 0
0.641980 2.808662 20.979734 213 213 213 0
0.722231 2.808676 20.979837 213 213 213 0
0.803250 2.811375 21.000000 213 213 213 0
0.884361 2.813876 21.018680 212 212 212 0
0.965739 2.816738 21.040061 213 213 213 0
1.046644 2.817888 21.048651 212 212 212 0
1.127783 2.819458 21.060378 213 213 213 0
1.208685 2.820264 21.066397 213 213 213 0
1.291393 2.824922 21.101189 213 213 213 0
1.372999 2.826762 21.114938 214 214 214 0
1.453817 2.826866 21.115715 213 213 213 0
1.532994 2.823937 21.093834 214 214 214 0
1.618983 2.833220 21.163171 214 214 214 0
1.700837 2.834728 21.174437 213 213 213 0
1.783532 2.837437 21.194676 213 213 213 0
1.867353 2.841624 21.225946 213 213 213 0
1.948939 2.842202 21.230268 213 213 213 0
2.028834 2.840367 21.216563 213 213 213 0
2.111658 2.842616 21.233359 213 213 213 0
2.196657 2.847518 21.269979 213 213 213 0
2.279454 2.849318 21.283422 214 214 214 0
2.365893 2.855388 21.328766 213 213 213 0
2.445522 2.853109 21.311737 214 214 214 0
2.526402 2.852390 21.306367 214 214 214 0
2.611880 2.856743 21.338885 214 214 214 0
2.695623 2.858994 21.355695 213 213 213 0
2.780426 2.862203 21.379668 213 213 213 0
2.863748 2.863748 21.391205 213 213 213 0
2.945388 2.863571 21.389888 214 214 214 0
3.033184 2.869228 21.432146 213 213 213 0
3.116815 2.870751 21.443516 214 214 214 0
3.202578 2.874109 21.468598 213 213 213 0
3.284174 2.873653 21.465191 213 213 213 0
3.370710 2.877436 21.493450 213 213 213 0
3.457541 2.881284 21.522198 214 214 214 0
3.540992 2.882203 21.529062 214 214 214 0
3.626933 2.885061 21.550407 214 214 214 0
3.711504 2.886725 21.562841 214 214 214 0
3.795829 2.888131 21.573342 214 214 214 0
3.881054 2.890147 21.588397 213 213 213 0
3.966692 2.892379 21.605074 214 214 214 0
4.051863 2.894188 21.618581 214 214 214 0
4.136500 2.895550 21.628757 214 214 214 0
4.222910 2.898076 21.647625 214 214 214 0
4.309032 2.900310 21.664315 213 213 213 0
4.396840 2.903574 21.688693 214 214 214 0
4.479138 2.903145 21.685492 214 214 214 0
4.568360 2.907138 21.715319 213 213 213 0
4.653807 2.908629 21.726457 213 213 213 0
4.740177 2.910635 21.741436 213 213 213 0
4.828797 2.913929 21.766045 214 214 214 0
4.914558 2.915416 21.777150 215 215 215 0
5.001645 2.917626 21.793658 214 214 214 0
5.091267 2.921218 21.820493 214 214 214 0
5.175572 2.921694 21.824045 213 213 213 0
5.266532 2.925851 21.855097 214 214 214 0
5.350796 2.926217 21.857827 213 213 213 0
5.439153 2.928775 21.876937 214 214 214 0
5.528803 2.931941 21.900584 214 214 214 0
5.619739 2.935685 21.928550 214 214 214 0
5.703460 2.935604 21.927950 214 214 214 0
5.791110 2.937520 21.942256 214 214 214 0
5.879830 2.939915 21.960151 213 213 213 0
5.971857 2.943873 21.989716 214 214 214 0
6.059110 2.945401 22.001125 214 214 214 0
6.145356 2.946404 22.008617 214 214 214 0
6.229847 2.946549 22.009705 214 214 214 0
6.325543 2.951920 22.049822 213 213 213 0
6.414156 2.953888 22.064520 214 214 214 0
6.507381 2.957901 22.094496 213 213 213 0
6.589047 2.956624 22.084958 213 213 213 0
6.682699 2.960689 22.115326 213 213 213 0
-6.541009 2.943454 21.375848 207 207 207 0
-6.446071 2.937450 21.332244 208 208 208 0
-6.378192 2.943781 21.378219 207 207 207 0
-6.322860 2.956142 21.467991 206 206 206 0
-6.244086 2.957725 21.479485 208 208 208 0
-6.173490 2.963275 21.519791 207 207 207 0
-6.078924 2.957314 21.476501 207 207 207 0
-6.033611 2.975479 21.608418 203 203 203 0
-5.756242 2.878121 20.901386 135 135 135 0
-4.728924 2.397764 17.412957 86 86 86 0
-5.381215 2.767482 20.097907 193 193 193 0
-5.235658 2.731648 19.837673 210 210 210 0
-5.178138 2.741367 19.908258 210 210 210 0
-5.095975 2.738136 19.884791 211 211 211 0
-5.015448 2.735699 19.867095 210 210 210 0
-4.960113 2.747140 19.950179 210 210 210 0
-4.878122 2.743944 19.926969 210 210 210 0
-4.805661 2.746092 19.942573 210 210 210 0
-4.732190 2.747723 19.954417 210 210 210 0
-4.657861 2.748901 19.962973 210 210 210 0
-4.584913 2.750948 19.977833 210 210 210 0
-4.505124 2.748889 19.962886 211 211 211 0
-4.436174 2.753487 19.996278 210 210 210 0
-4.367214 2.758240 20.030794 210 210 210 0
-4.286987 2.755921 20.013947 211 211 211 0
-4.217657 2.760649 20.048283 211 211 211 0
-4.144682 2.763121 20.066240 211 211 211 0
-4.069916 2.764471 20.076042 211 211 211 0
-3.993188 2.764515 20.076361 211 211 211 0
-3.918459 2.765971 20.086936 211 211 211 0
-3.848413 2.770858 20.122423 211 211 211 0
-3.769989 2.769788 20.114652 212 212 212 0
-3.702087 2.776565 20.163873 211 211 211 0
-3.625096 2.776669 20.164629 211 211 211 0
-3.547628 2.776405 20.162706 210 210 210 0
-3.472348 2.777878 20.173409 211 211 211 0
-3.399976 2.781798 20.201875 211 211 211 0
-3.330098 2.787989 20.246837 211 211 211 0
-3.252524 2.787878 20.246025 212 212 212 0
-3.175887 2.788584 20.251152 211 211 211 0
-3.100671 2.790604 20.265826 211 211 211 0
-3.026690 2.793868 20.289527 211 211 211 0
-2.947329 2.792206 20.277461 211 211 211 0
-2.869880 2.792315 20.278252 212 212 212 0
-2.798160 2.798160 20.320695 212 212 212 0
-2.724569 2.802414 20.351591 212 212 212 0
-2.647629 2.803372 20.358549 212 212 212 0
-2.568272 2.801751 20.346777 212 212 212 0
-2.493769 2.805490 20.373926 212 212 212 0
-2.419509 2.809753 20.404887 212 212 212 0
-2.342431 2.810918 20.413346 212 212 212 0
-2.263762 2.810188 20.408043 211 211 211 0
-2.184925 2.809189 20.400789 212 212 212 0
-2.112245 2.816327 20.452629 211 211 211 0
-2.033565 2.815705 20.448115 212 212 212 0
-1.958445 2.820160 20.480466 212 212 212 0
-1.880332 2.820498 20.482923 212 212 212 0
-1.805071 2.825328 20.517999 212 212 212 0
-1.726337 2.824915 20.514998 212 212 212 0
-1.649458 2.827642 20.534802 213 213 213 0
-1.572924 2.831263 20.561096 212 212 212 0
-1.495081 2.832786 20.572156 212 212 212 0
-1.418327 2.836655 20.600252 212 212 212 0
-1.340230 2.838133 20.610991 212 212 212 0
-1.261565 2.838522 20.613815 212 212 212 0
-1.183161 2.839586 20.621536 212 212 212 0
-1.105800 2.843487 20.649866 212 212 212 0
-1.027250 2.844692 20.658617 212 212 212 0
-0.949697 2.849091 20.690566 213 213 213 0
-0.870805 2.849906 20.696484 212 212 212 0
-0.791531 2.849510 20.693610 212 212 212 0
-0.713247 2.852988 20.718869 212 212 212 0
-0.635185 2.858333 20.757683 213 213 213 0
-0.555516 2.856939 20.747560 213 213 213 0
-0.476001 2.856006 20.740782 213 213 213 0
-0.397171 2.859633 20.767126 213 213 213 0
-0.318037 2.862334 20.786737 212 212 212 0
-0.239076 2.868913 20.834514 212 212 212 0
-0.159503 2.871058 20.850098 213 213 213 0
-0.079720 2.869919 20.841819 213 213 213 0
0.000000 2.870508 20.846100 213 213 213 0
0.079809 2.873126 20.865115 213 213 213 0
0.159826 2.876860 20.892228 213 213 213 0
0.239764 2.877172 20.894494 213 213 213 0
0.320128 2.881151 20.923393 213 213 213 0
0.399804 2.878588 20.904777 214 214 214 0
0.480649 2.883891 20.943293 213 213 213 0
0.561171 2.886021 20.958755 213 213 213 0
0.641234 2.885553 20.955362 213 213 213 0
0.722262 2.889048 20.980744 213 213 213 0
0.802912 2.890484 20.991167 213 213 213 0
0.884305 2.894088 21.017341 213 213 213 0
0.964699 2.894097 21.017411 212 212 212 0
1.047358 2.900377 21.063014 214 214 214 0
1.128421 2.901653 21.072278 213 213 213 0
1.209212 2.902108 21.075583 214 214 214 0
1.291380 2.905606 21.100986 213 213 213 0
1.373328 2.908225 21.120004 213 213 213 0
1.454628 2.909257 21.127501 213 213 213 0
1.535253 2.908901 21.124914 214 214 214 0
1.617633 2.911740 21.145534 213 213 213 0
1.699884 2.914087 21.162576 213 213 213 0
1.782574 2.916939 21.183291 214 214 214 0
1.867064 2.922362 21.222669 213 213 213 0
1.948068 2.922102 21.220785 212 212 212 0
2.031249 2.924999 21.241821 213 213 213 0
2.110952 2.922856 21.226261 213 213 213 0
2.196233 2.928311 21.265874 214 214 214 0
2.280590 2.932187 21.294025 214 214 214 0
2.362000 2.932138 21.293669 214 214 214 0
2.446156 2.935387 21.317265 214 214 214 0
2.526849 2.934406 21.310137 214 214 214 0
2.613615 2.940316 21.353060 213 213 213 0
2.696448 2.941579 21.362231 214 214 214 0
2.781114 2.944709 21.384960 213 213 213 0
2.862499 2.944285 21.381882 213 213 213 0
2.948004 2.948004 21.408886 213 213 213 0
3.032887 2.950917 21.430046 213 213 213 0
3.117365 2.953294 21.447302 214 214 214 0
3.199084 2.953001 21.445176 214 214 214 0
3.284502 2.956052 21.467335 214 214 214 0
3.369884 2.958923 21.488181 213 213 213 0
3.455618 2.961958 21.510228 213 213 213 0
3.537604 2.961715 21.508461 214 214 214 0
3.622572 2.963922 21.524490 214 214 214 0
3.707615 2.966092 21.540246 213 213 213 0
3.794046 2.969254 21.563208 214 214 214 0
3.880677 2.972433 21.586299 214 214 214 0
3.969164 2.976873 21.618540 213 213 213 0
4.050211 2.975665 21.609771 214 214 214 0
4.135062 2.977245 21.621238 213 213 213 0
4.222120 2.980320 21.643572 214 214 214 0
4.310975 2.984521 21.674083 214 214 214 0
4.396924 2.986590 21.689105 213 213 213 0
4.483203 2.988802 21.705169 213 213 213 0
4.568593 2.990352 21.716426 213 213 213 0
4.653949 2.991825 21.727122 214 214 214 0
4.740429 2.993955 21.742592 214 214 214 0
4.829530 2.997640 21.769351 214 214 214 0
4.915374 2.999211 21.780765 214 214 214 0
5.003100 3.001860 21.800000 213 213 213 0
5.091171 3.004625 21.820082 213 213 213 0
5.172583 3.003435 21.811440 214 214 214 0
5.265434 3.008819 21.850539 214 214 214 0
5.349677 3.009193 21.853257 214 214 214 0
5.440175 3.013020 21.881044 214 214 214 0
5.528506 3.015549 21.899409 214 214 214 0
5.617386 3.018297 21.919368 214 214 214 0
5.703477 3.019488 21.928018 214 214 214 0
5.789792 3.020761 21.937263 214 214 214 0
5.878237 3.023093 21.954201 214 214 214 0
5.973477 3.028805 21.995682 214 214 214 0
6.059867 3.029934 22.003876 214 214 214 0
6.144254 3.030043 22.004669 214 214 214 0
6.232974 3.032258 22.020754 213 213 213 0
6.322296 3.034702 22.038506 214 214 214 0
6.413282 3.037870 22.061513 213 213 213 0
6.506069 3.041798 22.090040 214 214 214 0
6.590366 3.041707 22.089377 214 214 214 0
6.680830 3.044429 22.109142 214 214 214 0
-6.543937 3.026571 21.385415 206 206 206 0
-6.491972 3.040544 21.484146 207 207 207 0
-6.392678 3.032424 21.426772 206 206 206 0
-6.326652 3.040080 21.480866 207 207 207 0
-6.245760 3.040699 21.485242 207 207 207 0
-6.162330 3.040083 21.480890 206 206 206 0
-6.094582 3.047291 21.531820 207 207 207 0
-6.035365 3.059021 21.614702 202 202 202 0
-5.778592 2.969554 20.982541 128 128 128 0
-5.696784 2.968746 20.976834 83 83 83 0
-5.375448 2.841308 20.076371 195 195 195 0
-5.240903 2.810339 19.857545 210 210 210 0
-5.178702 2.817823 19.910428 211 211 211 0
-5.100840 2.816882 19.903775 210 210 210 0
-5.021368 2.815009 19.890544 209 209 209 0
-4.955747 2.820963 19.932616 210 210 210 0
-4.880423 2.821495 19.936369 211 211 211 0
-4.791977 2.814336 19.885787 211 211 211 0
-4.732845 2.824440 19.957178 210 210 210 0
-4.664091 2.829039 19.989677 210 210 210 0
-4.580392 2.824575 19.958133 211 211 211 0
-4.514461 2.831102 20.004257 211 211 211 0
-4.438691 2.831579 20.007622 210 210 210 0
-4.367117 2.834795 20.030351 211 211 211 0
-4.289563 2.834176 20.025973 211 211 211 0
-4.218931 2.838190 20.054335 211 211 211 0
-4.147896 2.842077 20.081802 211 211 211 0
-4.075867 2.845417 20.105399 211 211 211 0
-3.995155 2.842707 20.086251 211 211 211 0
-3.924519 2.847200 20.118001 210 210 210 0
-3.847629 2.847246 20.118322 210 210 210 0
-3.769533 2.846382 20.112220 211 211 211 0
-3.699546 2.851733 20.150031 211 211 211 0
-3.620194 2.849940 20.137361 211 211 211 0
-3.549766 2.855247 20.174859 211 211 211 0
-3.469561 2.852751 20.157220 211 211 211 0
-3.398545 2.857867 20.193375 212 212 212 0
-3.322341 2.858758 20.199670 211 211 211 0
-3.250136 2.863215 20.231161 211 211 211 0
-3.171670 2.862239 20.224261 211 211 211 0
-3.098181 2.865818 20.249552 211 211 211 0
-3.023900 2.868828 20.270825 211 211 211 0
-2.947753 2.870181 20.280381 211 211 211 0
-2.875157 2.875157 20.315541 211 211 211 0
-2.796314 2.873989 20.307288 212 212 212 0
-2.721014 2.876500 20.325031 212 212 212 0
-2.648003 2.881651 20.361426 212 212 212 0
-2.569537 2.880996 20.356801 212 212 212 0
-2.495499 2.885421 20.388066 211 211 211 0
-2.418107 2.886128 20.393059 212 212 212 0
-2.341304 2.887608 20.403517 212 212 212 0
-2.267272 2.892726 20.439682 211 211 211 0
-2.187325 2.890393 20.423200 212 212 212 0
-2.111282 2.893239 20.443306 212 212 212 0
-2.034787 2.895658 20.460397 212 212 212 0
-1.959371 2.899870 20.490159 212 212 212 0
-1.882500 2.902188 20.506537 212 212 212 0
-1.805078 2.903821 20.518077 213 213 213 0
-1.728648 2.907272 20.542463 212 212 212 0
-1.650239 2.907564 20.544528 212 212 212 0
-1.571222 2.906761 20.538854 212 212 212 0
-1.494746 2.910820 20.567536 212 212 212 0
-1.419544 2.917952 20.617923 213 213 213 0
-1.338532 2.913276 20.584887 212 212 212 0
-1.261095 2.916283 20.606132 212 212 212 0
-1.183213 2.918592 20.622447 213 213 213 0
-1.106632 2.924670 20.665396 212 212 212 0
-1.026490 2.921547 20.643329 213 213 213 0
-0.948216 2.923665 20.658294 212 212 212 0
-0.869706 2.925374 20.670370 213 213 213 0
-0.791333 2.927932 20.688445 212 212 212 0
-0.713632 2.933819 20.730040 212 212 212 0
-0.634391 2.934058 20.731730 212 212 212 0
-0.555189 2.934570 20.735349 213 213 213 0
-0.476475 2.938263 20.761441 212 212 212 0
-0.397281 2.939877 20.772849 213 213 213 0
-0.318103 2.942451 20.791037 213 213 213 0
-0.238596 2.942682 20.792664 212 212 212 0
-0.159165 2.944551 20.805872 213 213 213 0
-0.079674 2.947924 20.829708 213 213 213 0
0.000000 2.949744 20.842564 213 213 213 0
0.079833 2.953833 20.871457 213 213 213 0
0.159643 2.953397 20.868375 213 213 213 0
0.239823 2.957815 20.899596 213 213 213 0
0.319917 2.959234 20.909617 212 212 212 0
0.400250 2.961848 20.928090 213 213 213 0
0.480886 2.965466 20.953655 213 213 213 0
0.561449 2.967658 20.969143 213 213 213 0
0.642106 2.969740 20.983854 213 213 213 0
0.723145 2.972928 21.006378 213 213 213 0
0.803069 2.971356 20.995275 213 213 213 0
0.884707 2.975834 21.026913 213 213 213 0
0.964699 2.974489 21.017411 213 213 213 0
1.046840 2.979469 21.052599 212 212 212 0
1.128178 2.981614 21.067752 213 213 213 0
1.210273 2.985341 21.094091 213 213 213 0
1.291414 2.986395 21.101534 213 213 213 0
1.372859 2.987987 21.112785 213 213 213 0
1.454955 2.990741 21.132247 214 214 214 0
1.538299 2.995634 21.166819 213 213 213 0
1.617633 2.992622 21.145534 214 214 214 0
1.701380 2.997670 21.181202 213 213 213 0
1.783134 2.998907 21.189946 213 213 213 0
1.866494 3.002621 21.216185 213 213 213 0
1.947453 3.002324 21.214089 213 213 213 0
2.030546 3.005209 21.234472 213 213 213 0
2.113194 3.007237 21.248805 213 213 213 0
2.196847 3.010494 21.271819 213 213 213 0
2.280717 3.013804 21.295208 213 213 213 0
2.363010 3.014875 21.302774 214 214 214 0
2.442318 3.012192 21.283813 214 214 214 0
2.529725 3.019349 21.334385 214 214 214 0
2.614573 3.023100 21.360889 213 213 213 0
2.695151 3.021836 21.351962 213 213 213 0
2.780038 3.025335 21.376684 214 214 214 0
2.862122 3.025672 21.379065 213 213 213 0
2.947344 3.029215 21.404095 213 213 213 0
3.033245 3.033245 21.432577 214 214 214 0
3.117466 3.035427 21.447994 213 213 213 0
