ply
format ascii 1.0
element vertex 1123
property float x
property float y
property float z
property uchar red
property uchar green
property uchar blue
property uchar alpha
end_header
2.810189 3.278553 24.489661 202 202 202 0
2.928086 3.305904 24.693960 201 201 201 0
3.033585 3.317983 24.784189 201 201 201 0
3.134087 3.324032 24.829370 200 200 200 0
3.267394 3.363494 25.124139 199 199 199 0
3.388159 3.388159 25.308379 197 197 197 0
3.516477 3.418797 25.537232 198 198 198 0
3.658324 3.460577 25.849312 196 196 196 0
3.839465 3.536349 26.415306 199 199 199 0
4.012117 3.600618 26.895372 209 209 209 0
4.124458 3.608901 26.957243 211 211 211 0
4.224914 3.606634 26.940311 213 213 213 0
4.328726 3.607272 26.945075 212 212 212 0
4.427939 3.604136 26.921651 212 212 212 0
4.540671 3.611898 26.979628 212 212 212 0
4.649691 3.616426 27.013454 211 211 211 0
4.755861 3.618590 27.029616 210 210 210 0
4.856591 3.616610 27.014830 210 210 210 0
4.961794 3.617975 27.025022 210 210 210 0
5.076507 3.626076 27.085537 210 210 210 0
5.195741 3.637019 27.167273 209 209 209 0
5.294267 3.633320 27.139648 209 209 209 0
5.389626 3.627633 27.097162 209 209 209 0
5.501643 3.633161 27.138455 209 209 209 0
5.611905 3.637346 27.169718 210 210 210 0
5.730415 3.646628 27.239049 209 209 209 0
5.823580 3.639738 27.187584 208 208 208 0
5.922624 3.636699 27.164883 209 209 209 0
6.037764 3.643478 27.215523 209 209 209 0
6.125027 3.633491 27.140920 188 188 188 0
7.320124 4.270072 31.895966 77 77 77 0
-6.025653 2.711544 19.691677 186 186 186 0
-5.953706 2.713081 19.702842 188 188 188 0
-5.877829 2.712844 19.701119 189 189 189 0
-5.806388 2.714675 19.714415 191 191 191 0
-5.709976 2.704726 19.642162 192 192 192 0
-5.622201 2.698657 19.598087 194 194 194 0
-5.510843 2.680951 19.469503 194 194 194 0
-5.426058 2.675864 19.432565 194 194 194 0
-5.368794 2.684397 19.494530 194 194 194 0
-5.285939 2.680195 19.464013 193 193 193 0
-5.227372 2.688363 19.523333 195 195 195 0
-5.138073 2.680734 19.467928 196 196 196 0
-5.042266 2.669435 19.385874 196 196 196 0
-4.956890 2.663404 19.342074 196 196 196 0
-4.886398 2.665308 19.355905 196 196 196 0
-4.814674 2.666588 19.365203 197 197 197 0
-4.746608 2.669967 19.389740 198 198 198 0
-4.666593 2.666624 19.365464 198 198 198 0
-4.582628 2.660881 19.323753 198 198 198 0
-4.499053 2.655179 19.282346 198 198 198 0
-4.426764 2.656058 19.288733 199 199 199 0
-4.359958 2.660313 19.319633 200 200 200 0
-4.280282 2.656727 19.293585 199 199 199 0
-4.209615 2.658704 19.307947 199 199 199 0
-4.134479 2.657880 19.301957 200 200 200 0
-4.053535 2.653223 19.268139 201 201 201 0
-3.978832 2.652555 19.263287 202 202 202 0
-3.918719 2.661772 19.330222 201 201 201 0
-3.845575 2.662321 19.334215 201 201 201 0
-3.772597 2.663010 19.339213 201 201 201 0
-3.692357 2.658497 19.306440 202 202 202 0
-3.612630 2.654177 19.275070 203 203 203 0
-3.550482 2.662861 19.338137 202 202 202 0
-3.482590 2.667516 19.371938 202 202 202 0
-3.410304 2.668933 19.382231 202 202 202 0
-3.339479 2.671583 19.401473 204 204 204 0
-3.261358 2.668383 19.378239 203 203 203 0
-3.191201 2.671703 19.402349 204 204 204 0
-3.118492 2.672993 19.411717 204 204 204 0
-3.052879 2.680577 19.466789 204 204 204 0
-2.979837 2.681854 19.476061 204 204 204 0
-2.909782 2.685953 19.505829 205 205 205 0
-2.835163 2.685944 19.505766 205 205 205 0
-2.762020 2.687371 19.516128 206 206 206 0
-2.690339 2.690339 19.537684 205 205 205 0
-2.626316 2.701353 19.617671 205 205 205 0
-2.558173 2.708654 19.670687 206 206 206 0
-2.475724 2.700790 19.613582 206 206 206 0
-2.409274 2.710433 19.683613 206 206 206 0
-2.335575 2.712280 19.697025 206 206 206 0
-2.264903 2.717884 19.737717 205 205 205 0
-2.195507 2.725457 19.792716 203 203 203 0
-2.120291 2.726088 19.797298 204 204 204 0
-2.045443 2.727257 19.805787 204 204 204 0
-1.975024 2.734648 19.859464 205 205 205 0
-1.905952 2.744571 19.931528 205 205 205 0
-1.835543 2.753314 19.995019 205 205 205 0
-1.762524 2.758733 20.034369 205 205 205 0
-1.688885 2.763630 20.069938 205 205 205 0
-1.617066 2.772112 20.131535 205 205 205 0
-1.543096 2.777572 20.171183 205 205 205 0
-1.469245 2.783832 20.216648 205 205 205 0
-1.402151 2.804303 20.365308 205 205 205 0
-1.324123 2.804024 20.363286 204 204 204 0
-1.248682 2.809535 20.403301 203 203 203 0
-1.175319 2.820766 20.484868 204 204 204 0
-1.100287 2.829310 20.546917 203 203 203 0
-1.023582 2.834535 20.584860 204 204 204 0
-0.949217 2.847652 20.680119 204 204 204 0
-0.871972 2.853726 20.724225 203 203 203 0
-0.797892 2.872413 20.859933 202 202 202 0
-0.721976 2.887903 20.972428 201 201 201 0
-0.645047 2.902713 21.079982 203 203 203 0
-0.566482 2.913333 21.157106 202 202 202 0
-0.488106 2.928636 21.268234 202 202 202 0
-0.408431 2.940705 21.355883 201 201 201 0
-0.327988 2.951890 21.437107 200 200 200 0
-0.247657 2.971882 21.582295 199 199 199 0
-0.166064 2.989153 21.707719 199 199 199 0
-0.083698 3.013139 21.881911 199 199 199 0
0.000000 3.030654 22.009108 198 198 198 0
0.084514 3.042511 22.095213 198 198 198 0
0.171353 3.084346 22.399025 196 196 196 0
0.257845 3.094145 22.470190 198 198 198 0
0.350678 3.156106 22.920157 196 196 196 0
0.445638 3.208597 23.301358 198 198 198 0
0.534219 3.205312 23.277501 204 204 204 0
0.621989 3.198798 23.230199 204 204 204 0
0.710055 3.195246 23.204401 205 205 205 0
0.802433 3.209733 23.309611 204 204 204 0
0.893672 3.217221 23.363986 204 204 204 0
0.984684 3.222602 23.403065 205 205 205 0
1.071352 3.214055 23.340994 205 205 205 0
1.164807 3.225619 23.424977 205 205 205 0
1.258735 3.236748 23.505793 205 205 205 0
1.349937 3.239849 23.528316 205 205 205 0
1.437999 3.235497 23.496710 203 203 203 0
1.532543 3.245386 23.568524 203 203 203 0
1.627278 3.254555 23.635113 202 202 202 0
1.723680 3.265921 23.717653 204 204 204 0
1.816788 3.270219 23.748866 203 203 203 0
1.911752 3.277290 23.800215 204 204 204 0
2.010726 3.290279 23.894550 204 204 204 0
2.115067 3.310540 24.041686 203 203 203 0
2.208190 3.312286 24.054362 202 202 202 0
2.297991 3.309107 24.031275 202 202 202 0
2.404946 3.329925 24.182463 202 202 202 0
2.506922 3.342562 24.274237 203 203 203 0
2.604002 3.348002 24.313741 202 202 202 0
2.711302 3.365754 24.442655 202 202 202 0
2.830455 3.396546 24.666273 202 202 202 0
2.942277 3.416838 24.813638 201 201 201 0
3.046904 3.427767 24.893007 200 200 200 0
3.168579 3.456632 25.102628 199 199 199 0
3.292042 3.485691 25.313661 199 199 199 0
3.414193 3.511741 25.502842 197 197 197 0
3.563668 3.563668 25.879941 197 197 197 0
3.736185 3.635207 26.399468 198 198 198 0
3.905804 3.700235 26.871714 209 209 209 0
4.023234 3.713755 26.969895 213 213 213 0
4.120942 3.708848 26.934263 212 212 212 0
4.217254 3.702955 26.891467 211 211 211 0
4.325103 3.707231 26.922523 211 211 211 0
4.425102 3.704736 26.904404 212 212 212 0
4.531865 3.707889 26.927301 211 211 211 0
4.637075 3.709660 26.940161 210 210 210 0
4.755547 3.721732 27.027831 210 210 210 0
4.850259 3.715092 26.979608 211 211 211 0
4.954529 3.715897 26.985453 211 211 211 0
5.068297 3.723647 27.041732 210 210 210 0
5.179790 3.729449 27.083869 209 209 209 0
5.289272 3.733604 27.114044 210 210 210 0
5.387855 3.730053 27.088258 209 209 209 0
5.489809 3.728927 27.080079 209 209 209 0
5.607413 3.738275 27.147967 208 208 208 0
5.709686 3.737249 27.140517 209 209 209 0
5.808615 3.734110 27.117716 210 210 210 0
5.914970 3.735770 27.129777 209 209 209 0
6.033779 3.745104 27.197562 210 210 210 0
6.124369 3.736903 27.138003 192 192 192 0
6.165495 3.699297 26.864903 81 81 81 0
-6.054702 2.800300 19.786608 185 185 185 0
-5.975576 2.798688 19.775217 186 186 186 0
-5.902124 2.799726 19.782552 186 186 186 0
-5.839523 2.806005 19.826918 187 187 187 0
-5.736612 2.792824 19.733786 189 189 189 0
-5.636507 2.780677 19.647953 192 192 192 0
-5.531502 2.765751 19.542491 193 193 193 0
-5.463836 2.769342 19.567861 194 194 194 0
-5.385870 2.767739 19.556537 194 194 194 0
-5.322506 2.773700 19.598660 193 193 193 0
-5.242985 2.771292 19.581644 195 195 195 0
-5.148532 2.760807 19.507556 196 196 196 0
-5.070073 2.758716 19.492785 196 196 196 0
-4.977163 2.748582 19.421180 196 196 196 0
-4.910803 2.753026 19.452578 195 195 195 0
-4.839490 2.754787 19.465017 197 197 197 0
-4.764351 2.754390 19.462217 198 198 198 0
-4.680627 2.748940 19.423704 198 198 198 0
-4.596357 2.742987 19.381643 198 198 198 0
-4.522122 2.742926 19.381214 197 197 197 0
-4.443312 2.740043 19.360838 199 199 199 0
-4.377607 2.745279 19.397836 199 199 199 0
-4.317384 2.754193 19.460824 199 199 199 0
-4.229736 2.745618 19.400235 199 199 199 0
-4.144300 2.738199 19.347808 200 200 200 0
-4.068745 2.737155 19.340437 200 200 200 0
-3.998337 2.739601 19.357719 201 201 201 0
-3.930930 2.744234 19.390453 201 201 201 0
-3.865262 2.750283 19.433193 201 201 201 0
-3.789063 2.748928 19.423620 201 201 201 0
-3.703763 2.740784 19.366079 201 201 201 0
-3.632571 2.742962 19.381464 202 202 202 0
-3.560391 2.744468 19.392106 202 202 202 0
-3.497794 2.753583 19.456511 202 202 202 0
-3.427277 2.756723 19.478701 202 202 202 0
-3.350590 2.754929 19.466025 202 202 202 0
-3.276577 2.755304 19.468671 204 204 204 0
-3.200600 2.754005 19.459492 203 203 203 0
-3.131216 2.758452 19.490917 204 204 204 0
-3.061356 2.762687 19.520840 204 204 204 0
-2.992553 2.768111 19.559167 204 204 204 0
-2.918528 2.768859 19.564455 204 204 204 0
-2.846038 2.771143 19.580588 205 205 205 0
-2.773188 2.773188 19.595041 205 205 205 0
-2.700583 2.775599 19.612079 205 205 205 0
-2.633839 2.784344 19.673864 205 205 205 0
-2.564216 2.790471 19.717159 205 205 205 0
-2.488612 2.790262 19.715680 205 205 205 0
-2.409351 2.785812 19.684242 204 204 204 0
-2.342562 2.795962 19.755955 204 204 204 0
-2.276402 2.807563 19.837929 204 204 204 0
-2.205920 2.814450 19.886593 204 204 204 0
-2.134276 2.820293 19.927881 204 204 204 0
-2.056265 2.817844 19.910575 204 204 204 0
-1.986771 2.827328 19.977588 204 204 204 0
-1.913875 2.832535 20.014377 205 205 205 0
-1.843287 2.841734 20.079375 205 205 205 0
-1.775847 2.856798 20.185817 206 206 206 0
-1.691991 2.845621 20.106841 205 205 205 0
-1.622242 2.858237 20.195984 205 205 205 0
-1.549615 2.866788 20.256409 203 203 203 0
-1.479591 2.881309 20.359012 202 202 202 0
-1.405624 2.889337 20.415739 204 204 204 0
-1.324545 2.882834 20.369783 203 203 203 0
-1.254648 2.901374 20.500788 204 204 204 0
-1.181308 2.913893 20.589249 204 204 204 0
-1.107347 2.926559 20.678745 203 203 203 0
-1.030802 2.933821 20.730053 203 203 203 0
-0.953546 2.940099 20.774413 203 203 203 0
-0.877424 2.951334 20.853802 202 202 202 0
-0.802960 2.970952 20.992418 200 200 200 0
-0.727029 2.988896 21.119209 201 201 201 0
-0.645580 2.985808 21.097391 201 201 201 0
-0.569189 3.008570 21.258222 202 202 202 0
-0.490855 3.026940 21.388020 201 201 201 0
-0.411910 3.048136 21.537795 200 200 200 0
-0.329518 3.048045 21.537146 199 199 199 0
-0.248793 3.068444 21.681289 197 197 197 0
-0.167619 3.100960 21.911040 198 198 198 0
-0.084563 3.128813 22.107848 198 198 198 0
0.000000 3.129586 22.113310 197 197 197 0
0.085399 3.159759 22.326510 196 196 196 0
0.173464 3.209088 22.675059 196 196 196 0
0.261715 3.227813 22.807370 196 196 196 0
0.353852 3.273131 23.127580 194 194 194 0
0.446275 3.302436 23.334651 202 202 202 0
0.534970 3.298984 23.310259 205 205 205 0
0.624268 3.299704 23.315347 204 204 204 0
0.713656 3.300659 23.322093 204 204 204 0
0.805901 3.313150 23.410351 205 205 205 0
0.897299 3.320007 23.458799 204 204 204 0
0.987626 3.322015 23.472988 203 203 203 0
1.077270 3.321582 23.469933 204 204 204 0
1.169598 3.328857 23.521334 204 204 204 0
1.263945 3.340425 23.603075 203 203 203 0
1.360394 3.355639 23.710573 203 203 203 0
1.444874 3.341272 23.609057 204 204 204 0
1.540170 3.352135 23.685812 202 202 202 0
1.637321 3.365605 23.780992 204 204 204 0
1.727210 3.363513 23.766214 203 203 203 0
1.827814 3.381456 23.892992 205 205 205 0
1.923674 3.389330 23.948634 204 204 204 0
2.016016 3.390572 23.957408 202 202 202 0
2.126958 3.421628 24.176846 203 203 203 0
2.213661 3.412728 24.113957 202 202 202 0
2.321325 3.435560 24.275289 202 202 202 0
2.423358 3.448625 24.367604 202 202 202 0
2.520416 3.453904 24.404903 201 201 201 0
2.626298 3.470465 24.521920 201 201 201 0
2.731666 3.485229 24.626243 200 200 200 0
2.842432 3.505667 24.770653 200 200 200 0
2.949093 3.519885 24.871120 200 200 200 0
3.072895 3.553035 25.105350 198 198 198 0
3.197338 3.584894 25.330464 198 198 198 0
3.323058 3.616268 25.552153 198 198 198 0
3.461251 3.659037 25.854348 198 198 198 0
3.638426 3.739494 26.422848 199 199 199 0
3.798232 3.798232 26.837887 207 207 207 0
3.909061 3.806191 26.894122 211 211 211 0
4.001331 3.796135 26.823069 213 213 213 0
4.104903 3.797036 26.829434 212 212 212 0
4.212411 3.801444 26.860583 213 213 213 0
4.317010 3.803081 26.872146 211 211 211 0
4.416721 3.800434 26.853450 211 211 211 0
4.523891 3.804181 26.879922 212 212 212 0
4.632861 3.809241 26.915676 210 210 210 0
4.743695 3.815581 26.960473 211 211 211 0
4.849246 3.817492 26.973973 209 209 209 0
4.947885 3.813995 26.949265 211 211 211 0
5.061440 3.821903 27.005147 210 210 210 0
5.167690 3.824091 27.020602 210 210 210 0
5.272780 3.825350 27.029499 210 210 210 0
5.376596 3.825655 27.031654 209 209 209 0
5.482116 3.827138 27.042133 209 209 209 0
5.591786 3.831409 27.072310 208 208 208 0
5.701939 3.835850 27.103693 209 209 209 0
5.804262 3.834959 27.097394 209 209 209 0
5.904585 3.832801 27.082146 209 209 209 0
6.019725 3.840170 27.134215 209 209 209 0
6.105353 3.828781 27.053741 195 195 195 0
6.176079 3.808582 26.911018 90 90 90 0
-6.074330 2.885307 19.850752 185 185 185 0
-6.008875 2.890345 19.885414 185 185 185 0
-5.933102 2.890485 19.886380 186 186 186 0
-5.862869 2.893364 19.906185 186 186 186 0
-5.747307 2.873653 19.770576 187 187 187 0
-5.649163 2.862242 19.692070 189 189 189 0
-5.556386 2.853279 19.630404 189 189 189 0
-5.482803 2.854062 19.635788 192 192 192 0
-5.414309 2.857552 19.659800 193 193 193 0
-5.334265 2.854959 19.641959 194 194 194 0
-5.262223 2.856636 19.653496 194 194 194 0
-5.168527 2.846435 19.583316 196 196 196 0
-5.081220 2.839506 19.535642 195 195 195 0
-4.992514 2.831575 19.481080 196 196 196 0
-4.934580 2.841122 19.546761 196 196 196 0
-4.858223 2.840192 19.540365 197 197 197 0
-4.783971 2.840483 19.542365 198 198 198 0
-4.704169 2.837435 19.521397 198 198 198 0
-4.622358 2.833058 19.491283 198 198 198 0
-4.523032 2.817627 19.385116 197 197 197 0
-4.470573 2.831363 19.479622 199 199 199 0
-4.402848 2.835732 19.509683 199 199 199 0
-4.324851 2.833523 19.494482 199 199 199 0
-4.249678 2.833119 19.491701 199 199 199 0
-4.161957 2.824185 19.430240 199 199 199 0
-4.083265 2.821165 19.409459 199 199 199 0
-4.014346 2.824910 19.435225 201 201 201 0
-3.946686 2.829699 19.468175 201 201 201 0
-3.879959 2.835354 19.507082 201 201 201 0
-3.804600 2.834800 19.503269 201 201 201 0
-3.716969 2.824896 19.435132 201 201 201 0
-3.646519 2.827913 19.455884 202 202 202 0
-3.575352 2.830487 19.473592 202 202 202 0
-3.510294 2.838110 19.526040 202 202 202 0
-3.439346 2.841199 19.547290 202 202 202 0
-3.368221 2.844276 19.568460 202 202 202 0
-3.292140 2.843212 19.561142 203 203 203 0
-3.213248 2.839615 19.536393 203 203 203 0
-3.145290 2.845739 19.578527 204 204 204 0
-3.073256 2.848384 19.596724 204 204 204 0
-3.003454 2.853281 19.630419 204 204 204 0
-2.925490 2.850477 19.611125 204 204 204 0
-2.852279 2.852279 19.623526 205 205 205 0
-2.782191 2.857385 19.658653 205 205 205 0
-2.710686 2.861279 19.685444 204 204 204 0
-2.644147 2.870789 19.750867 203 203 203 0
-2.576040 2.879103 19.808070 203 203 203 0
-2.493959 2.871831 19.758041 203 203 203 0
-2.424623 2.879239 19.809009 203 203 203 0
-2.352943 2.884253 19.843500 204 204 204 0
-2.287748 2.897814 19.936803 204 204 204 0
-2.211989 2.898469 19.941305 204 204 204 0
-2.136854 2.900016 19.951949 203 203 203 0
-2.065078 2.906407 19.995918 203 203 203 0
-1.992468 2.912068 20.034868 204 204 204 0
-1.921268 2.920328 20.091693 205 205 205 0
-1.849180 2.927869 20.143578 205 205 205 0
-1.776251 2.934676 20.190410 205 205 205 0
-1.703647 2.942662 20.245355 204 204 204 0
-1.628737 2.947237 20.276832 203 203 203 0
-1.559589 2.963219 20.386782 202 202 202 0
-1.482586 2.965172 20.400219 202 202 202 0
-1.407027 2.970390 20.436121 203 203 203 0
-1.335567 2.985385 20.539281 203 203 203 0
-1.259083 2.990321 20.573246 203 203 203 0
-1.187152 3.007452 20.691108 203 203 203 0
-1.112289 3.019069 20.771028 204 204 204 0
-1.036075 3.028528 20.836108 202 202 202 0
-0.958955 3.036690 20.892257 202 202 202 0
-0.882743 3.049475 20.980220 201 201 201 0
-0.806524 3.064791 21.085592 200 200 200 0
-0.728302 3.075054 21.156200 200 200 200 0
-0.649017 3.082828 21.209690 200 200 200 0
-0.571924 3.104728 21.360358 201 201 201 0
-0.493452 3.125194 21.501161 200 200 200 0
-0.412753 3.136921 21.581843 198 198 198 0
-0.332845 3.162030 21.754595 198 198 198 0
-0.251142 3.181134 21.886029 199 199 199 0
-0.169152 3.213894 22.111413 198 198 198 0
-0.085128 3.234872 22.255740 196 196 196 0
0.000000 3.232088 22.236585 196 196 196 0
0.086331 3.280589 22.570271 195 195 195 0
0.175065 3.326241 22.884357 197 197 197 0
0.266858 3.380205 23.255623 194 194 194 0
0.357368 3.395000 23.357410 201 201 201 0
0.447137 3.398245 23.379738 204 204 204 0
0.537705 3.405468 23.429432 203 203 203 0
0.625999 3.398280 23.379979 204 204 204 0
0.717821 3.409650 23.458202 204 204 204 0
0.810302 3.421276 23.538188 203 203 203 0
0.901316 3.425001 23.563820 202 202 202 0
0.986952 3.409470 23.456968 202 202 202 0
1.079427 3.418187 23.516939 203 203 203 0
1.175387 3.435746 23.637746 203 203 203 0
1.270038 3.447247 23.716870 203 203 203 0
1.359792 3.444808 23.700087 203 203 203 0
1.456818 3.459943 23.804219 203 203 203 0
1.547333 3.458743 23.795964 203 203 203 0
1.643371 3.469339 23.868860 203 203 203 0
1.740453 3.480905 23.948435 202 202 202 0
1.835736 3.487899 23.996554 202 202 202 0
1.927960 3.488690 24.001993 202 202 202 0
2.032897 3.511367 24.158012 202 202 202 0
2.138223 3.532717 24.304896 201 201 201 0
2.229104 3.529415 24.282180 202 202 202 0
2.332370 3.545202 24.390797 202 202 202 0
2.436138 3.560510 24.496113 201 201 201 0
2.540821 3.575970 24.602476 201 201 201 0
2.647672 3.593269 24.721494 200 200 200 0
2.757749 3.613602 24.861383 201 201 201 0
2.868250 3.633117 24.995646 199 199 199 0
2.988131 3.662870 25.200343 198 198 198 0
3.109683 3.692749 25.405910 198 198 198 0
3.235486 3.725711 25.632686 199 199 199 0
3.376405 3.773629 25.962363 199 199 199 0
3.561671 3.866957 26.604449 201 201 201 0
3.689617 3.894596 26.794603 207 207 207 0
3.793783 3.896318 26.806451 213 213 213 0
3.898788 3.898788 26.823443 213 213 213 0
4.000900 3.898313 26.820181 213 213 213 0
4.098467 3.893543 26.787364 213 213 213 0
4.205503 3.897784 26.816537 211 211 211 0
4.312876 3.902126 26.846410 210 210 210 0
4.416197 3.902686 26.850265 211 211 211 0
4.510996 3.895860 26.803301 211 211 211 0
4.627005 3.907248 26.881654 210 210 210 0
4.735551 3.911977 26.914187 210 210 210 0
4.840634 3.913704 26.926068 210 210 210 0
4.938848 3.909921 26.900044 209 209 209 0
5.047480 3.914372 26.930666 211 211 211 0
5.162158 3.923240 26.991677 211 211 211 0
5.270668 3.927165 27.018677 210 210 210 0
5.371088 3.925026 27.003960 210 210 210 0
5.479012 3.928349 27.026822 210 210 210 0
5.582512 3.928435 27.027414 209 209 209 0
5.690165 3.931387 27.047726 209 209 209 0
5.794387 3.931905 27.051291 209 209 209 0
5.898078 3.932052 27.052299 209 209 209 0
6.009192 3.937057 27.086735 209 209 209 0
6.113261 3.937354 27.088781 200 200 200 0
6.170955 3.908271 26.888691 100 100 100 0
-6.113970 2.980561 19.980295 186 186 186 0
-6.059440 2.991369 20.052751 185 185 185 0
-5.968122 2.984061 20.003760 186 186 186 0
-5.891558 2.984036 20.003594 186 186 186 0
-5.780931 2.966531 19.886244 187 187 187 0
-5.680125 2.953665 19.800000 188 188 188 0
-5.593431 2.947889 19.761281 189 189 189 0
-5.505824 2.941467 19.718233 189 189 189 0
-5.440924 2.947167 19.756442 189 189 189 0
-5.373432 2.951604 19.786182 191 191 191 0
-5.280513 2.942000 19.721802 193 193 193 0
-5.176787 2.926010 19.614616 195 195 195 0
-5.109797 2.930619 19.645511 195 195 195 0
-5.029701 2.927736 19.626185 195 195 195 0
-4.940755 2.919537 19.571223 195 195 195 0
-4.885355 2.931213 19.649494 196 196 196 0
-4.807277 2.929434 19.637569 197 197 197 0
-4.712315 2.917147 19.555203 197 197 197 0
-4.627668 2.910952 19.513675 198 198 198 0
-4.557738 2.913964 19.533862 197 197 197 0
-4.481945 2.913264 19.529173 197 197 197 0
-4.420146 2.921792 19.586336 199 199 199 0
-4.343506 2.920634 19.578573 200 200 200 0
-4.261764 2.915944 19.547137 199 199 199 0
-4.171449 2.905117 19.474553 199 199 199 0
-4.104993 2.910813 19.512740 199 199 199 0
-4.030728 2.911082 19.514540 200 200 200 0
-3.967914 2.919786 19.572889 201 201 201 0
-3.898353 2.923765 19.599563 200 200 200 0
-3.815661 2.917858 19.559967 201 201 201 0
-3.734256 2.912720 19.525523 201 201 201 0
-3.659208 2.912431 19.523583 201 201 201 0
-3.591827 2.918360 19.563330 202 202 202 0
-3.523056 2.923387 19.597030 202 202 202 0
-3.452819 2.927390 19.623867 202 202 202 0
-3.382736 2.931704 19.652786 202 202 202 0
-3.297339 2.922641 19.592031 202 202 202 0
-3.221578 2.921897 19.587039 204 204 204 0
-3.155249 2.929874 19.640515 203 203 203 0
-3.088963 2.938282 19.696880 204 204 204 0
-3.019868 2.944371 19.737698 204 204 204 0
-2.941067 2.941067 19.715550 204 204 204 0
-2.863069 2.938412 19.697754 202 202 202 0
-2.792672 2.943627 19.732711 203 203 203 0
-2.724782 2.951848 19.787817 201 201 201 0
-2.656870 2.960513 19.845903 203 203 203 0
-2.581078 2.960648 19.846813 202 202 202 0
-2.506828 2.962615 19.859998 202 202 202 0
-2.430719 2.962438 19.858812 202 202 202 0
-2.368268 2.979434 19.972744 203 203 203 0
-2.294546 2.982909 19.996040 203 203 203 0
-2.221829 2.987977 20.030012 204 204 204 0
-2.149670 2.994183 20.071617 204 204 204 0
-2.071433 2.992069 20.057446 203 203 203 0
-2.002230 3.003345 20.133033 204 204 204 0
-1.927848 3.007443 20.160505 204 204 204 0
-1.857828 3.018970 20.237773 204 204 204 0
-1.785664 3.027865 20.297403 204 204 204 0
-1.711705 3.034386 20.341115 203 203 203 0
-1.635288 3.036963 20.358388 202 202 202 0
-1.566747 3.055157 20.480356 202 202 202 0
-1.494331 3.067312 20.561834 201 201 201 0
-1.412729 3.060913 20.518943 202 202 202 0
-1.343514 3.082179 20.661497 202 202 202 0
-1.265716 3.085183 20.681634 203 203 203 0
-1.192443 3.100353 20.783329 203 203 203 0
-1.118610 3.116128 20.889076 201 201 201 0
-1.040369 3.121107 20.922451 200 200 200 0
-0.966136 3.139943 21.048721 200 200 200 0
-0.888200 3.149072 21.109917 201 201 201 0
-0.812575 3.169042 21.243788 201 201 201 0
-0.733548 3.178706 21.308573 201 201 201 0
-0.655176 3.193981 21.410970 200 200 200 0
-0.575706 3.207505 21.501623 198 198 198 0
-0.496545 3.227545 21.635965 197 197 197 0
-0.415430 3.240355 21.721833 199 199 199 0
-0.335460 3.270735 21.925490 198 198 198 0
-0.253168 3.291189 22.062607 199 199 199 0
-0.170403 3.322850 22.274847 196 196 196 0
-0.085645 3.340148 22.390801 196 196 196 0
0.000000 3.368767 22.582651 197 197 197 0
0.087963 3.430571 22.996955 194 194 194 0
0.177130 3.454034 23.154240 194 194 194 0
0.269665 3.505650 23.500249 198 198 198 0
0.359927 3.509293 23.524670 202 202 202 0
0.449989 3.509913 23.528826 202 202 202 0
0.538347 3.499258 23.457404 203 203 203 0
0.628099 3.499408 23.458405 203 203 203 0
0.720970 3.514727 23.561098 202 202 202 0
0.814803 3.530815 23.668946 201 201 201 0
0.904748 3.528519 23.653553 202 202 202 0
0.996591 3.533367 23.686053 203 203 203 0
1.087162 3.533277 23.685451 203 203 203 0
1.179899 3.539698 23.728495 203 203 203 0
1.272242 3.544103 23.758025 203 203 203 0
1.366382 3.552593 23.814935 202 202 202 0
1.461293 3.561901 23.877335 203 203 203 0
1.554925 3.567180 23.912719 202 202 202 0
1.659161 3.594849 24.098202 202 202 202 0
1.745578 3.583028 24.018956 200 200 200 0
1.833921 3.576145 23.972818 202 202 202 0
1.946836 3.615553 24.236987 202 202 202 0
2.048852 3.632056 24.347616 201 201 201 0
2.146922 3.640432 24.403770 202 202 202 0
2.244442 3.647218 24.449257 200 200 200 0
2.346520 3.660571 24.538770 201 201 201 0
2.452874 3.679311 24.664394 199 199 199 0
2.550670 3.684301 24.697845 201 201 201 0
2.664787 3.711667 24.881294 200 200 200 0
2.790140 3.752258 25.153395 200 200 200 0
2.898129 3.767567 25.256024 199 199 199 0
3.008809 3.785276 25.374734 200 200 200 0
3.152915 3.842615 25.759106 197 197 197 0
3.276892 3.872691 25.960723 198 198 198 0
3.443872 3.950324 26.481142 203 203 203 0
3.579750 3.988864 26.739497 211 211 211 0
3.682608 3.989492 26.743703 213 213 213 0
3.789830 3.994686 26.778520 213 213 213 0
3.884973 3.987209 26.728403 211 211 211 0
3.985651 3.985651 26.717953 212 212 212 0
4.084450 3.982339 26.695753 211 211 211 0
4.199358 3.994512 26.777354 212 212 212 0
4.306002 3.998431 26.803625 211 211 211 0
4.410432 4.000160 26.815214 210 210 210 0
4.511927 3.999208 26.808835 210 210 210 0
4.613190 3.998098 26.801396 210 210 210 0
4.732578 4.012403 26.897289 209 209 209 0
4.835238 4.012219 26.896054 210 210 210 0
4.928356 4.004289 26.842898 210 210 210 0
5.043626 4.014314 26.910101 211 211 211 0
5.155640 4.021399 26.957594 210 210 210 0
5.266728 4.027498 26.998478 209 209 209 0
5.356766 4.017575 26.931956 210 210 210 0
5.458412 4.016567 26.925204 209 209 209 0
5.574766 4.026220 26.989910 209 209 209 0
5.685502 4.031537 27.025557 209 209 209 0
5.783400 4.027725 27.000000 209 209 209 0
5.896180 4.034228 27.043594 208 208 208 0
5.994472 4.030765 27.020382 208 208 208 0
6.100081 4.032257 27.030379 202 202 202 0
6.155340 4.000971 26.820655 110 110 110 0
-6.143289 3.071644 20.076107 182 182 182 0
-6.092778 3.084951 20.163078 185 185 185 0
-6.012847 3.083512 20.153670 185 185 185 0
-5.923494 3.077140 20.112023 185 185 185 0
-5.814560 3.060295 20.001928 187 187 187 0
-5.705232 3.042790 19.887520 187 187 187 0
-5.615369 3.035334 19.838787 187 187 187 0
-5.543769 3.037682 19.854128 189 189 189 0
-5.474121 3.041178 19.876983 188 188 188 0
-5.401721 3.043223 19.890349 189 189 189 0
-5.308999 3.033714 19.828193 190 190 190 0
-5.233443 3.033880 19.829282 192 192 192 0
-5.113109 3.007711 19.658243 192 192 192 0
-5.042912 3.010694 19.677738 193 193 193 0
-4.969739 3.011963 19.686032 193 193 193 0
-4.900680 3.015803 19.711133 196 196 196 0
-4.829913 3.018696 19.730038 196 196 196 0
-4.734799 3.006222 19.648509 197 197 197 0
-4.639032 2.992924 19.561595 197 197 197 0
-4.570415 2.996993 19.588191 197 197 197 0
-4.503150 3.002100 19.621567 198 198 198 0
-4.427785 3.001888 19.620185 199 199 199 0
-4.362096 3.008342 19.662367 198 198 198 0
-4.279681 3.003285 19.629312 198 198 198 0
-4.188880 2.992057 19.555929 198 198 198 0
-4.114599 2.992435 19.558401 199 199 199 0
-4.050339 3.000251 19.609483 200 200 200 0
-3.981592 3.004975 19.640359 200 200 200 0
-3.903777 3.002905 19.626831 201 201 201 0
-3.829847 3.003801 19.632688 200 200 200 0
-3.750724 3.000579 19.611627 200 200 200 0
-3.672040 2.997584 19.592050 201 201 201 0
-3.604313 3.003594 19.631336 202 202 202 0
-3.533246 3.007017 19.653709 202 202 202 0
-3.460319 3.008973 19.666490 201 201 201 0
-3.392400 3.015467 19.708933 202 202 202 0
-3.309319 3.008472 19.663215 202 202 202 0
-3.234138 3.008501 19.663403 202 202 202 0
-3.171252 3.020240 19.740132 202 202 202 0
-3.097427 3.021880 19.750853 201 201 201 0
-3.030790 3.030790 19.809086 201 201 201 0
-2.955831 3.031622 19.814522 201 201 201 0
-2.880002 3.031581 19.814257 201 201 201 0
-2.804995 3.032427 19.819786 201 201 201 0
-2.739015 3.043350 19.891174 202 202 202 0
-2.668795 3.050052 19.934980 202 202 202 0
-2.595150 3.053118 19.955021 202 202 202 0
-2.513689 3.046895 19.914350 203 203 203 0
-2.445978 3.057473 19.983482 202 202 202 0
-2.373742 3.062892 20.018904 203 203 203 0
-2.304701 3.072934 20.084536 203 203 203 0
-2.230986 3.077222 20.112565 203 203 203 0
-2.159370 3.084814 20.162184 203 203 203 0
-2.081376 3.083520 20.153724 203 203 203 0
-2.009582 3.091665 20.206958 203 203 203 0
-1.938393 3.101429 20.270781 202 202 202 0
-1.864818 3.108031 20.313926 202 202 202 0
-1.790268 3.113510 20.349740 202 202 202 0
-1.716586 3.121066 20.399125 202 202 202 0
-1.645284 3.133875 20.482843 202 202 202 0
-1.573812 3.147623 20.572702 201 201 201 0
-1.495131 3.147644 20.572836 201 201 201 0
-1.417638 3.150307 20.590242 202 202 202 0
-1.345673 3.166290 20.694706 202 202 202 0
-1.272548 3.181370 20.793266 201 201 201 0
-1.197392 3.193046 20.869583 201 201 201 0
-1.122552 3.207292 20.962692 200 200 200 0
-1.046155 3.218938 21.038810 201 201 201 0
-0.970203 3.234010 21.137320 200 200 200 0
-0.896569 3.260251 21.308829 201 201 201 0
-0.817531 3.270125 21.373366 200 200 200 0
-0.737690 3.278622 21.428902 199 199 199 0
-0.657374 3.286871 21.482815 198 198 198 0
-0.578932 3.308186 21.622129 198 198 198 0
-0.501078 3.340522 21.833480 197 197 197 0
-0.418831 3.350649 21.899665 198 198 198 0
-0.335834 3.358343 21.949957 198 198 198 0
-0.254874 3.398326 22.211282 195 195 195 0
-0.172086 3.441724 22.494929 196 196 196 0
-0.086579 3.463167 22.635082 195 195 195 0
0.000000 3.513625 22.964871 193 193 193 0
0.088706 3.548251 23.191181 192 192 192 0
0.180515 3.610301 23.596736 197 197 197 0
0.270318 3.604242 23.557135 202 202 202 0
0.360602 3.606015 23.568726 201 201 201 0
0.451231 3.609851 23.593799 202 202 202 0
0.541843 3.612286 23.609715 202 202 202 0
0.632165 3.612371 23.610270 202 202 202 0
0.726266 3.631329 23.734174 202 202 202 0
0.816942 3.630853 23.731066 202 202 202 0
0.910009 3.640038 23.791096 202 202 202 0
0.999329 3.633925 23.751145 202 202 202 0
1.091619 3.638731 23.782556 203 203 203 0
1.186595 3.651063 23.863157 202 202 202 0
1.276923 3.648350 23.845427 202 202 202 0
1.372912 3.661100 23.928755 202 202 202 0
1.466956 3.667389 23.969865 202 202 202 0
1.570598 3.695524 24.153752 202 202 202 0
1.668421 3.707603 24.232701 201 201 201 0
1.757075 3.699106 24.177164 201 201 201 0
1.854511 3.709021 24.241970 201 201 201 0
1.951604 3.717341 24.296347 201 201 201 0
2.057915 3.741663 24.455313 201 201 201 0
2.157090 3.751462 24.519358 201 201 201 0
2.258672 3.764454 24.604274 199 199 199 0
2.367883 3.788613 24.762175 200 200 200 0
2.473464 3.805329 24.871428 200 200 200 0
2.569315 3.806393 24.878383 199 199 199 0
2.693628 3.848040 25.150586 200 200 200 0
2.806219 3.870646 25.298342 198 198 198 0
2.920928 3.894571 25.454713 199 199 199 0
3.056688 3.944114 25.778521 199 199 199 0
3.183618 3.979522 26.009948 199 199 199 0
3.344690 4.054170 26.497843 202 202 202 0
3.476997 4.090585 26.735851 210 210 210 0
3.580318 4.091792 26.743741 212 212 212 0
3.671446 4.079384 26.662640 212 212 212 0
3.778830 4.085221 26.700793 212 212 212 0
3.883504 4.087899 26.718291 211 211 211 0
3.983681 4.085826 26.704747 212 212 212 0
4.083667 4.083667 26.690631 211 211 211 0
4.196527 4.094173 26.759301 212 212 212 0
4.302222 4.097354 26.780094 211 211 211 0
4.402847 4.095672 26.769098 210 210 210 0
4.505830 4.096209 26.772606 211 211 211 0
4.612089 4.099635 26.794997 210 210 210 0
4.724344 4.108126 26.850494 210 210 210 0
4.832155 4.112472 26.878903 210 210 210 0
4.920727 4.100605 26.801343 210 210 210 0
5.035082 4.110271 26.864516 209 209 209 0
5.149470 4.119576 26.925333 210 210 210 0
5.252919 4.119937 26.927690 210 210 210 0
5.354764 4.119049 26.921892 209 209 209 0
5.452824 4.115339 26.897640 210 210 210 0
5.563840 4.121363 26.937015 209 209 209 0
5.672483 4.125442 26.963676 209 209 209 0
5.783247 4.130891 26.999287 209 209 209 0
5.884535 4.129498 26.990184 208 208 208 0
5.987051 4.129001 26.986931 208 208 208 0
6.086722 4.126591 26.971186 204 204 204 0
6.167028 4.111352 26.871581 125 125 125 0
-6.192334 3.173571 20.236386 177 177 177 0
-6.129041 3.180895 20.283083 180 180 180 0
-6.036650 3.173111 20.233450 182 182 182 0
-5.951174 3.168807 20.206008 184 184 184 0
-5.838792 3.149875 20.085284 187 187 187 0
-5.746174 3.141242 20.030236 187 187 187 0
-5.661797 3.136941 20.002814 188 188 188 0
-5.578829 3.133315 19.979690 188 188 188 0
-5.502783 3.133529 19.981056 188 188 188 0
-5.430354 3.135838 19.995781 188 188 188 0
-5.338778 3.126999 19.939415 190 190 190 0
-5.240012 3.113631 19.854173 191 191 191 0
-5.148554 3.104275 19.794517 191 191 191 0
-5.065907 3.100033 19.767466 190 190 190 0
-4.993921 3.102284 19.781820 191 191 191 0
-4.929993 3.109688 19.829030 192 192 192 0
-4.850310 3.107230 19.813358 194 194 194 0
-4.745781 3.088524 19.694082 194 194 194 0
-4.663093 3.083658 19.663051 195 195 195 0
-4.590950 3.085721 19.676203 195 195 195 0
-4.516442 3.086236 19.679487 195 195 195 0
-4.454272 3.095341 19.737550 197 197 197 0
-4.370387 3.089412 19.699740 197 197 197 0
-4.288715 3.084865 19.670749 198 198 198 0
-4.203625 3.077654 19.624765 198 198 198 0
-4.132606 3.080670 19.643997 199 199 199 0
-4.061218 3.083518 19.662156 200 200 200 0
-3.997192 3.092167 19.717312 200 200 200 0
-3.912729 3.085037 19.671843 200 200 200 0
-3.842791 3.089302 19.699043 200 200 200 0
-3.761891 3.084751 19.670018 200 200 200 0
-3.680207 3.079357 19.635623 200 200 200 0
-3.619952 3.092042 19.716514 201 201 201 0
-3.550912 3.097604 19.751980 200 200 200 0
-3.478119 3.100062 19.767654 200 200 200 0
-3.401543 3.099184 19.762053 200 200 200 0
-3.320135 3.093762 19.727479 200 200 200 0
-3.247289 3.096253 19.743361 200 200 200 0
-3.179072 3.103380 19.788810 201 201 201 0
-3.113031 3.113031 19.850352 201 201 201 0
-3.044886 3.121009 19.901219 201 201 201 0
-2.961328 3.113191 19.851368 201 201 201 0
-2.888743 3.116802 19.874395 200 200 200 0
-2.818839 3.123578 19.917605 201 201 201 0
-2.749777 3.131691 19.969335 202 202 202 0
-2.680569 3.140095 20.022923 202 202 202 0
-2.599037 3.134133 19.984906 203 203 203 0
-2.529654 3.142903 20.040830 202 202 202 0
-2.454027 3.144222 20.049242 202 202 202 0
-2.388081 3.158429 20.139832 202 202 202 0
-2.317768 3.167617 20.198416 203 203 203 0
-2.245668 3.174910 20.244925 203 203 203 0
-2.161783 3.165468 20.184713 203 203 203 0
-2.091997 3.176736 20.256565 202 202 202 0
-2.023045 3.190186 20.342330 201 201 201 0
-1.949036 3.196419 20.382076 201 201 201 0
-1.878351 3.208849 20.461335 200 200 200 0
-1.803598 3.215110 20.501261 201 201 201 0
-1.724691 3.214198 20.495442 202 202 202 0
-1.652611 3.226527 20.574061 202 202 202 0
-1.582005 3.243110 20.679801 201 201 201 0
-1.507519 3.253068 20.743298 202 202 202 0
-1.428790 3.254467 20.752218 201 201 201 0
-1.350892 3.258033 20.774958 200 200 200 0
-1.282461 3.286307 20.955250 201 201 201 0
-1.207860 3.301484 21.052023 199 199 199 0
-1.130024 3.309357 21.102227 201 201 201 0
-1.049470 3.309867 21.105479 200 200 200 0
-0.977134 3.338541 21.288321 201 201 201 0
-0.900052 3.354740 21.391616 200 200 200 0
-0.819263 3.358979 21.418643 199 199 199 0
-0.744323 3.390803 21.621572 197 197 197 0
-0.661267 3.388991 21.610020 196 196 196 0
-0.583780 3.419284 21.803184 196 196 196 0
-0.503564 3.441019 21.941777 197 197 197 0
-0.420146 3.445195 21.968404 196 196 196 0
-0.340405 3.489152 22.248695 195 195 195 0
-0.257617 3.520765 22.450280 194 194 194 0
-0.172789 3.542178 22.586817 196 196 196 0
-0.087186 3.574634 22.793775 194 194 194 0
0.000000 3.655425 23.308942 193 193 193 0
0.090131 3.695374 23.563679 197 197 197 0
0.181322 3.717102 23.702227 201 201 201 0
0.272173 3.719698 23.718780 201 201 201 0
0.363492 3.725788 23.757615 201 201 201 0
0.455670 3.736490 23.825859 203 203 203 0
0.541373 3.699385 23.589256 202 202 202 0
0.636305 3.726927 23.764881 202 202 202 0
0.728992 3.736083 23.823260 201 201 201 0
0.824303 3.755159 23.944899 202 202 202 0
0.910123 3.731504 23.794062 202 202 202 0
1.005185 3.746598 23.890313 202 202 202 0
1.098469 3.753101 23.931778 202 202 202 0
1.192178 3.759945 23.975417 202 202 202 0
1.288896 3.774623 24.069013 201 201 201 0
1.380071 3.772193 24.053521 201 201 201 0
1.470814 3.768960 24.032905 201 201 201 0
1.576506 3.802162 24.244618 201 201 201 0
1.674489 3.814113 24.320822 201 201 201 0
1.765293 3.809317 24.290241 201 201 201 0
1.862769 3.818676 24.349920 201 201 201 0
1.971603 3.849320 24.545320 199 199 199 0
2.064429 3.847345 24.532728 201 201 201 0
2.172630 3.872950 24.695999 201 201 201 0
2.280759 3.896297 24.844873 200 200 200 0
2.386338 3.913595 24.955170 200 200 200 0
2.493881 3.932658 25.076728 199 199 199 0
2.605249 3.956119 25.226326 199 199 199 0
2.721095 3.984461 25.407053 198 198 198 0
2.835355 4.008606 25.561012 199 199 199 0
2.965224 4.052472 25.840728 197 197 197 0
3.113267 4.117547 26.255680 200 200 200 0
3.253551 4.168613 26.581303 208 208 208 0
3.360330 4.174955 26.621743 212 212 212 0
3.464734 4.178061 26.641551 213 213 213 0
3.560413 4.170770 26.595056 213 213 213 0
3.670586 4.180390 26.656400 212 212 212 0
3.772693 4.180552 26.657432 211 211 211 0
3.878026 4.184186 26.680609 210 210 210 0
3.974657 4.178486 26.644256 211 211 211 0
4.087997 4.190197 26.718933 211 211 211 0
4.183844 4.183844 26.678423 211 211 211 0
4.293939 4.191702 26.728532 211 211 211 0
4.398984 4.194380 26.745610 211 211 211 0
4.494467 4.188026 26.705092 210 210 210 0
4.601397 4.192384 26.732879 211 211 211 0
4.716401 4.203749 26.805350 210 210 210 0
4.826223 4.210109 26.845907 210 210 210 0
4.924272 4.206149 26.820652 211 211 211 0
5.028649 4.207645 26.830193 210 210 210 0
5.137770 4.212971 26.864156 210 210 210 0
5.245868 4.217267 26.891546 210 210 210 0
5.342171 4.212097 26.858579 210 210 210 0
5.450532 4.216449 26.886334 210 210 210 0
5.554653 4.217421 26.892533 209 209 209 0
5.664011 4.222263 26.923404 209 209 209 0
5.777379 4.229867 26.971891 208 208 208 0
5.864553 4.218363 26.898536 208 208 208 0
5.971235 4.221045 26.915639 209 209 209 0
6.081196 4.225916 26.946699 206 206 206 0
6.158542 4.208337 26.834607 141 141 141 0
-6.249148 3.280803 20.422053 178 178 178 0
-6.157876 3.273808 20.378510 177 177 177 0
-6.082615 3.275254 20.387515 179 179 179 0
-6.010844 3.278642 20.408605 179 179 179 0
-5.866764 3.242159 20.181507 182 182 182 0
-5.775607 3.234340 20.132833 187 187 187 0
-5.675225 3.221074 20.050258 187 187 187 0
-5.597210 3.220313 20.045518 188 188 188 0
-5.543734 3.233845 20.129753 188 188 188 0
-5.455485 3.227188 20.088317 188 188 188 0
-5.357418 3.214451 20.009030 189 189 189 0
-5.267294 3.206179 19.957542 190 190 190 0
-5.175509 3.196638 19.898153 190 190 190 0
-5.098532 3.196095 19.894771 191 191 191 0
-5.022982 3.196443 19.896937 191 191 191 0
-4.946579 3.196251 19.895744 192 192 192 0
-4.861352 3.190262 19.858465 193 193 193 0
-4.766470 3.177647 19.779937 193 193 193 0
-4.681965 3.171653 19.742629 193 193 193 0
-4.604989 3.170648 19.736372 193 193 193 0
-4.541804 3.179263 19.789995 192 192 192 0
-4.482490 3.190925 19.862590 194 194 194 0
-4.409438 3.193042 19.875765 196 196 196 0
-4.303241 3.170809 19.737374 195 195 195 0
-4.221823 3.166367 19.709725 195 195 195 0
-4.153381 3.171673 19.742751 196 196 196 0
-4.090740 3.181686 19.805082 197 197 197 0
-4.011674 3.179062 19.788748 197 197 197 0
-3.942580 3.184392 19.821923 198 198 198 0
-3.860379 3.179136 19.789205 196 196 196 0
-3.783141 3.177838 19.781130 197 197 197 0
-3.708586 3.178788 19.787042 197 197 197 0
-3.632908 3.178795 19.787083 199 199 199 0
-3.566332 3.186935 19.837752 199 199 199 0
-3.492971 3.189235 19.852068 199 199 199 0
-3.413358 3.185801 19.830692 198 198 198 0
-3.336116 3.184475 19.822437 199 199 199 0
-3.268915 3.192894 19.874847 199 199 199 0
-3.198285 3.198285 19.908406 200 200 200 0
-3.125972 3.202215 19.932869 200 200 200 0
-3.056317 3.209133 19.975928 200 200 200 0
-2.972336 3.200977 19.925162 200 200 200 0
-2.901066 3.206442 19.959177 200 200 200 0
-2.831147 3.213735 20.004575 201 201 201 0
-2.765602 3.226536 20.084258 201 201 201 0
-2.692422 3.230906 20.111460 202 202 202 0
-2.621651 3.238510 20.158793 203 203 203 0
-2.539192 3.231699 20.116398 202 202 202 0
-2.462863 3.232508 20.121432 202 202 202 0
-2.397040 3.247603 20.215393 202 202 202 0
-2.324865 3.254811 20.260264 201 201 201 0
-2.256230 3.267644 20.340143 202 202 202 0
-2.174696 3.262043 20.305281 201 201 201 0
-2.102533 3.270607 20.358584 200 200 200 0
-2.030158 3.279486 20.413854 201 201 201 0
-1.960268 3.293250 20.499533 200 200 200 0
-1.893496 3.313617 20.626315 200 200 200 0
-1.813003 3.310701 20.608161 201 201 201 0
-1.731044 3.304721 20.570938 201 201 201 0
-1.662144 3.324288 20.692736 202 202 202 0
-1.590162 3.339340 20.786429 201 201 201 0
-1.513586 3.345822 20.826777 201 201 201 0
-1.436851 3.352652 20.869292 198 198 198 0
-1.363414 3.368435 20.967539 199 199 199 0
-1.287317 3.379207 21.034590 199 199 199 0
-1.215796 3.404230 21.190351 199 199 199 0
-1.136565 3.409695 21.224368 200 200 200 0
-1.057897 3.417820 21.274948 199 199 199 0
-0.984248 3.444868 21.443313 199 199 199 0
-0.908671 3.469471 21.596460 198 198 198 0
-0.826165 3.469894 21.599089 197 197 197 0
-0.749972 3.499867 21.785666 197 197 197 0
-0.670447 3.519847 21.910033 197 197 197 0
-0.591081 3.546483 22.075837 196 196 196 0
-0.506989 3.548922 22.091016 195 195 195 0
-0.425774 3.576498 22.262673 194 194 194 0
-0.344410 3.616303 22.510443 194 194 194 0
-0.260538 3.647530 22.704822 195 195 195 0
-0.175303 3.681354 22.915367 192 192 192 0
-0.089694 3.767131 23.449305 192 192 192 0
0.000000 3.818196 23.767169 196 196 196 0
0.090824 3.814598 23.744776 201 201 201 0
0.181793 3.817643 23.763725 202 202 202 0
0.273913 3.834777 23.870382 203 203 203 0
0.365254 3.835163 23.872787 202 202 202 0
0.455932 3.829829 23.839584 202 202 202 0
0.548386 3.838702 23.894817 200 200 200 0
0.640619 3.843712 23.926001 200 200 200 0
0.732035 3.843182 23.922703 201 201 201 0
0.827565 3.861970 24.039653 201 201 201 0
0.913488 3.836649 23.882033 200 200 200 0
1.012677 3.866585 24.068377 199 199 199 0
1.108093 3.878327 24.141470 200 200 200 0
1.200999 3.880151 24.152820 200 200 200 0
1.294130 3.882390 24.166759 200 200 200 0
1.386854 3.883192 24.171751 200 200 200 0
1.488724 3.907902 24.325564 201 201 201 0
1.586170 3.918773 24.393233 201 201 201 0
1.681700 3.923966 24.425557 202 202 202 0
1.778098 3.930532 24.466430 199 199 199 0
1.890084 3.969176 24.706979 201 201 201 0
1.990130 3.980260 24.775970 199 199 199 0
2.076427 3.964088 24.675308 200 200 200 0
2.184599 3.989267 24.832039 200 200 200 0
2.298142 4.021748 25.034221 200 200 200 0
2.406529 4.042968 25.166312 200 200 200 0
2.511977 4.057808 25.258689 198 198 198 0
2.629736 4.090700 25.463432 199 199 199 0
2.749017 4.123525 25.667758 198 198 198 0
2.883996 4.176822 25.999515 199 199 199 0
3.032459 4.245442 26.426656 203 203 203 0
3.148336 4.265488 26.551434 209 209 209 0
3.255371 4.272674 26.596165 213 213 213 0
3.353676 4.268315 26.569030 213 213 213 0
3.454368 4.267161 26.561848 212 212 212 0
3.558562 4.270275 26.581230 213 213 213 0
3.650347 4.258738 26.509416 212 212 212 0
3.764206 4.272882 26.597460 210 210 210 0
3.871872 4.279438 26.638269 211 211 211 0
3.978994 4.285071 26.673333 212 212 212 0
4.071949 4.275546 26.614044 211 211 211 0
4.180255 4.282212 26.655538 210 210 210 0
4.288994 4.288994 26.697750 210 210 210 0
4.390707 4.288598 26.695287 211 211 211 0
4.495997 4.291634 26.714184 210 210 210 0
4.596430 4.290001 26.704023 210 210 210 0
4.707250 4.297924 26.753340 210 210 210 0
4.814258 4.302103 26.779351 210 210 210 0
4.906738 4.293396 26.725154 211 211 211 0
5.013985 4.297701 26.751952 211 211 211 0
5.131069 4.310098 26.829119 210 210 210 0
5.236344 4.312284 26.842723 210 210 210 0
5.344536 4.316740 26.870466 209 209 209 0
5.438793 4.309987 26.828429 209 209 209 0
5.546494 4.313940 26.853031 210 210 210 0
5.651358 4.315583 26.863259 209 209 209 0
5.765450 4.324087 26.916199 209 209 209 0
5.862113 4.319452 26.887343 208 208 208 0
5.967136 4.321029 26.897165 209 209 209 0
6.074178 4.323991 26.915600 207 207 207 0
6.154155 4.307909 26.815491 152 152 152 0
-6.286803 3.379157 20.545109 177 177 177 0
-6.231452 3.391803 20.621998 177 177 177 0
-6.138079 3.383813 20.573417 178 178 178 0
-6.045378 3.375990 20.525858 178 178 178 0
-5.913406 3.345743 20.341954 179 179 179 0
-5.790257 3.319747 20.183903 182 182 182 0
-5.719499 3.323493 20.206673 183 183 183 0
-5.640345 3.322395 20.200000 184 184 184 0
-5.575800 3.329992 20.246187 187 187 187 0
-5.493119 3.326819 20.226896 187 187 187 0
-5.394719 3.313899 20.148342 189 189 189 0
-5.276036 3.287965 19.990665 190 190 190 0
-5.197858 3.286881 19.984076 190 190 190 0
-5.120664 3.286396 19.981130 190 190 190 0
-5.051436 3.291087 20.009651 190 190 190 0
-4.983783 3.296964 20.045382 191 191 191 0
-4.897675 3.290626 20.006844 192 192 192 0
-4.796355 3.273703 19.903954 193 193 193 0
-4.713942 3.269347 19.877470 192 192 192 0
-4.636115 3.268081 19.869772 193 193 193 0
-4.568867 3.274354 19.907915 193 193 193 0
-4.495116 3.276102 19.918538 194 194 194 0
-4.404952 3.265741 19.855544 195 195 195 0
-4.333995 3.269505 19.878429 195 195 195 0
-4.245192 3.259701 19.818825 195 195 195 0
-4.182517 3.269968 19.881244 195 195 195 0
-4.107363 3.270678 19.885565 195 195 195 0
-4.035042 3.273713 19.904016 197 197 197 0
-3.963856 3.277804 19.928890 196 196 196 0
-3.878404 3.270027 19.881603 197 197 197 0
-3.790457 3.259793 19.819382 197 197 197 0
-3.722704 3.266863 19.862369 197 197 197 0
-3.654471 3.273797 19.904526 198 198 198 0
-3.589142 3.283683 19.964632 199 199 199 0
-3.517114 3.287737 19.989280 198 198 198 0
-3.434596 3.281947 19.954078 198 198 198 0
-3.354755 3.278510 19.933183 198 198 198 0
-3.283262 3.283262 19.962076 199 199 199 0
-3.212026 3.288503 19.993935 200 200 200 0
-3.146641 3.300136 20.064667 200 200 200 0
-3.072435 3.302867 20.081271 201 201 201 0
-2.986996 3.293354 20.023433 200 200 200 0
-2.917721 3.301632 20.073760 201 201 201 0
-2.845910 3.307409 20.108887 201 201 201 0
-2.774595 3.314099 20.149561 201 201 201 0
-2.704946 3.323220 20.205014 202 202 202 0
-2.622943 3.317251 20.168727 202 202 202 0
-2.552572 3.326079 20.222396 200 200 200 0
-2.482867 3.336352 20.284860 200 200 200 0
-2.407126 3.338917 20.300452 200 200 200 0
-2.342626 3.357764 20.415044 199 199 199 0
-2.255581 3.344482 20.334290 199 199 199 0
-2.188227 3.360492 20.431628 200 200 200 0
-2.112118 3.363744 20.451400 200 200 200 0
-2.041859 3.376920 20.531508 201 201 201 0
-1.965616 3.380859 20.555460 200 200 200 0
-1.899580 3.403413 20.692587 201 201 201 0
-1.815813 3.394780 20.640100 201 201 201 0
-1.744585 3.409871 20.731853 200 200 200 0
-1.677048 3.433955 20.878277 200 200 200 0
-1.597522 3.434671 20.882635 199 199 199 0
-1.522230 3.445046 20.945714 199 199 199 0
-1.442580 3.446163 20.952500 198 198 198 0
-1.373164 3.473298 21.117483 198 198 198 0
-1.298084 3.488599 21.210515 199 199 199 0
-1.221799 3.502489 21.294965 199 199 199 0
-1.141707 3.506671 21.320390 198 198 198 0
-1.064464 3.520919 21.407019 198 198 198 0
-0.992621 3.556893 21.625737 198 198 198 0
-0.915753 3.579760 21.764767 197 197 197 0
-0.833647 3.584680 21.794682 197 197 197 0
-0.754700 3.605787 21.923010 196 196 196 0
-0.675734 3.632073 22.082827 196 196 196 0
-0.596036 3.661362 22.260901 195 195 195 0
-0.515319 3.693119 22.453984 194 194 194 0
-0.430602 3.703178 22.515144 194 194 194 0
-0.349936 3.761810 22.871623 194 194 194 0
-0.264657 3.793414 23.063773 194 194 194 0
-0.179200 3.852791 23.424782 191 191 191 0
-0.091093 3.917004 23.815196 195 195 195 0
0.000000 3.932682 23.910516 199 199 199 0
0.091682 3.942307 23.969037 200 200 200 0
0.183348 3.941975 23.967014 200 200 200 0
0.275421 3.947708 24.001872 199 199 199 0
0.366462 3.939465 23.951753 199 199 199 0
0.458838 3.946006 23.991523 200 200 200 0
0.550736 3.946942 23.997217 199 199 199 0
0.647274 3.976111 24.174564 199 199 199 0
0.739518 3.974910 24.167259 200 200 200 0
0.831784 3.974079 24.162209 200 200 200 0
0.924316 3.974560 24.165133 200 200 200 0
1.017933 3.979191 24.193290 199 199 199 0
1.114314 3.992960 24.277002 200 200 200 0
1.210388 4.003590 24.341632 199 199 199 0
1.302077 3.999238 24.315171 201 201 201 0
1.399776 4.012691 24.396965 200 200 200 0
1.494507 4.016488 24.420051 202 202 202 0
1.586691 4.013396 24.401250 200 200 200 0
1.695507 4.050379 24.626107 199 199 199 0
1.792320 4.056303 24.662125 200 200 200 0
1.900598 4.086285 24.844417 199 199 199 0
1.994442 4.083858 24.829656 201 201 201 0
2.101851 4.108163 24.977434 200 200 200 0
2.207001 4.126133 25.086685 198 198 198 0
2.321008 4.158473 25.283314 198 198 198 0
