ply
format ascii 1.0
element vertex 1107
property float x
property float y
property float z
property uchar red
property uchar green
property uchar blue
property uchar alpha
end_header
2.978836 -1.654909 21.632795 213 213 213 0
3.068774 -1.658797 21.683618 213 213 213 0
3.151988 -1.658941 21.685506 213 213 213 0
3.239953 -1.661514 21.719141 213 213 213 0
3.328364 -1.664182 21.754015 213 213 213 0
3.415347 -1.666023 21.778075 213 213 213 0
3.505010 -1.669052 21.817677 214 214 214 0
3.592274 -1.670825 21.840849 214 214 214 0
3.682257 -1.673753 21.879125 213 213 213 0
3.771676 -1.676300 21.912421 213 213 213 0
3.861568 -1.678943 21.946964 213 213 213 0
3.950801 -1.681192 21.976366 213 213 213 0
4.038745 -1.682810 21.997522 213 213 213 0
4.129170 -1.685375 22.031050 213 213 213 0
4.221330 -1.688532 22.072313 213 213 213 0
4.313748 -1.691666 22.113277 213 213 213 0
4.404401 -1.694001 22.143797 213 213 213 0
4.494421 -1.696008 22.170038 213 213 213 0
4.584071 -1.697804 22.193516 213 213 213 0
4.678343 -1.701216 22.238114 213 213 213 0
4.768619 -1.703078 22.262462 213 213 213 0
4.861641 -1.705839 22.298547 213 213 213 0
4.953098 -1.707965 22.326336 213 213 213 0
5.049356 -1.711646 22.374461 213 213 213 0
5.142024 -1.714008 22.405336 213 213 213 0
5.234961 -1.716381 22.436350 214 214 214 0
5.325899 -1.718032 22.457933 213 213 213 0
5.421146 -1.720999 22.496716 213 213 213 0
5.518327 -1.724477 22.542186 213 213 213 0
5.613211 -1.727142 22.577017 213 213 213 0
5.706747 -1.729317 22.605454 213 213 213 0
5.801467 -1.731781 22.637662 213 213 213 0
5.894092 -1.733557 22.660870 213 213 213 0
5.990762 -1.736453 22.698729 213 213 213 0
6.082933 -1.737981 22.718703 213 213 213 0
6.186164 -1.742581 22.778843 213 213 213 0
6.285240 -1.745900 22.822224 213 213 213 0
6.380517 -1.748087 22.850810 213 213 213 0
6.475183 -1.750049 22.876463 213 213 213 0
6.571102 -1.752294 22.905801 212 212 212 0
6.668496 -1.754867 22.939442 212 212 212 0
6.768106 -1.757950 22.979733 212 212 212 0
6.864474 -1.760122 23.008126 212 212 212 0
6.966042 -1.763555 23.053007 213 213 213 0
-1.711632 -1.478228 20.340251 75 75 75 0
-1.608942 -1.455710 20.030405 197 197 197 0
-1.530117 -1.453611 20.001532 213 213 213 0
-1.456451 -1.456451 20.040599 213 213 213 0
-1.382085 -1.458867 20.073855 213 213 213 0
-1.306424 -1.460121 20.091108 213 213 213 0
-1.231567 -1.462485 20.123639 213 213 213 0
-1.155926 -1.464173 20.146854 214 214 214 0
-1.079381 -1.464874 20.156508 213 213 213 0
-1.004878 -1.468669 20.208718 213 213 213 0
-0.927850 -1.469096 20.214606 213 213 213 0
-0.851986 -1.471613 20.249230 213 213 213 0
-0.776204 -1.474788 20.292922 213 213 213 0
-0.698850 -1.475351 20.300666 213 213 213 0
-0.622653 -1.478801 20.348144 213 213 213 0
-0.545127 -1.479630 20.359546 213 213 213 0
-0.468085 -1.482270 20.395870 213 213 213 0
-0.390222 -1.482842 20.403747 213 213 213 0
-0.312532 -1.484529 20.426949 213 213 213 0
-0.234957 -1.488059 20.475522 213 213 213 0
-0.156914 -1.490680 20.511599 213 213 213 0
-0.078550 -1.492456 20.536036 213 213 213 0
0.000000 -1.493369 20.548588 213 213 213 0
0.078740 -1.496068 20.585732 213 213 213 0
0.157585 -1.497062 20.599404 213 213 213 0
0.236938 -1.500608 20.648205 213 213 213 0
0.316048 -1.501228 20.656727 213 213 213 0
0.395569 -1.503162 20.683345 213 213 213 0
0.475908 -1.507041 20.736713 213 213 213 0
0.555791 -1.508576 20.757842 213 213 213 0
0.635876 -1.510206 20.780268 214 214 214 0
0.716932 -1.513522 20.825897 213 213 213 0
0.796651 -1.513638 20.827487 213 213 213 0
0.878128 -1.516766 20.870532 213 213 213 0
0.958646 -1.517855 20.885523 213 213 213 0
1.040877 -1.521281 20.932662 213 213 213 0
1.122540 -1.523447 20.962465 213 213 213 0
1.203867 -1.524898 20.982431 213 213 213 0
1.286304 -1.527486 21.018036 213 213 213 0
1.368442 -1.529435 21.044857 213 213 213 0
1.450525 -1.531110 21.067907 213 213 213 0
1.535063 -1.535063 21.122305 213 213 213 0
1.616048 -1.535245 21.124804 213 213 213 0
1.700394 -1.538452 21.168924 213 213 213 0
1.782499 -1.539431 21.182402 213 213 213 0
1.866887 -1.542211 21.220658 214 214 214 0
1.952064 -1.545384 21.264314 213 213 213 0
2.034560 -1.546266 21.276444 213 213 213 0
2.120058 -1.549273 21.317825 213 213 213 0
2.203492 -1.550606 21.336165 214 214 214 0
2.289676 -1.553709 21.378864 213 213 213 0
2.374395 -1.555638 21.405411 213 213 213 0
2.460185 -1.558117 21.439524 213 213 213 0
2.544195 -1.559346 21.456423 213 213 213 0
2.631035 -1.562177 21.495385 213 213 213 0
2.716505 -1.564048 21.521131 213 213 213 0
2.801781 -1.565701 21.543872 214 214 214 0
2.889129 -1.568384 21.580794 214 214 214 0
2.976184 -1.570764 21.613535 213 213 213 0
3.066119 -1.574493 21.664857 213 213 213 0
3.151107 -1.575553 21.679441 213 213 213 0
3.237764 -1.577372 21.704470 213 213 213 0
3.326539 -1.580106 21.742087 213 213 213 0
3.414210 -1.582195 21.770828 213 213 213 0
3.502170 -1.584315 21.800000 213 213 213 0
3.591490 -1.586937 21.836083 214 214 214 0
3.680672 -1.589381 21.869709 213 213 213 0
3.769215 -1.591446 21.898128 213 213 213 0
3.861156 -1.594825 21.944622 213 213 213 0
3.948775 -1.596313 21.965095 213 213 213 0
4.037751 -1.598276 21.992108 213 213 213 0
4.127198 -1.600342 22.020531 214 214 214 0
4.219550 -1.603429 22.063004 213 213 213 0
4.308463 -1.605114 22.086185 213 213 213 0
4.400060 -1.607714 22.121973 213 213 213 0
4.493839 -1.610999 22.167165 213 213 213 0
4.585410 -1.613385 22.200000 213 213 213 0
4.676572 -1.615543 22.229696 213 213 213 0
4.766403 -1.617173 22.252116 213 213 213 0
4.858798 -1.619599 22.285508 213 213 213 0
4.952301 -1.622306 22.322747 213 213 213 0
5.047818 -1.625569 22.367644 213 213 213 0
5.141940 -1.628281 22.404967 213 213 213 0
5.229942 -1.628998 22.414838 212 212 212 0
5.322232 -1.631007 22.442471 213 213 213 0
5.419584 -1.634478 22.490232 213 213 213 0
5.513880 -1.636933 22.524019 213 213 213 0
5.609860 -1.639805 22.563538 213 213 213 0
5.702263 -1.641561 22.587693 213 213 213 0
5.796736 -1.643850 22.619201 213 213 213 0
5.893895 -1.646823 22.660110 212 212 212 0
5.988286 -1.648948 22.689347 213 213 213 0
6.085025 -1.651650 22.726519 212 212 212 0
6.181085 -1.654093 22.760141 212 212 212 0
6.277894 -1.656666 22.795549 213 213 213 0
6.379105 -1.660315 22.845753 212 212 212 0
6.472292 -1.661805 22.866251 213 213 213 0
6.566846 -1.663601 22.890968 213 213 213 0
6.664937 -1.666234 22.927200 213 213 213 0
6.765137 -1.669319 22.969652 212 212 212 0
6.863634 -1.671911 23.005310 212 212 212 0
6.963306 -1.674719 23.043953 212 212 212 0
-2.541873 -2.079714 30.206455 80 80 80 0
-1.607723 -1.378048 20.015219 198 198 198 0
-1.529367 -1.376430 19.991720 213 213 213 0
-1.455970 -1.379340 20.033987 213 213 213 0
-1.381033 -1.381033 20.058580 213 213 213 0
-1.305468 -1.382260 20.076395 213 213 213 0
-1.230360 -1.384155 20.103928 213 213 213 0
-1.154979 -1.385975 20.130360 212 212 212 0
-1.079351 -1.387738 20.155957 213 213 213 0
-1.003799 -1.389876 20.187011 213 213 213 0
-0.927949 -1.391924 20.216762 213 213 213 0
-0.850956 -1.392473 20.224740 213 213 213 0
-0.774727 -1.394508 20.254292 214 214 214 0
-0.698590 -1.397181 20.293110 213 213 213 0
-0.621919 -1.399317 20.324143 214 214 214 0
-0.544559 -1.400295 20.338339 213 213 213 0
-0.467804 -1.403411 20.383601 213 213 213 0
-0.390298 -1.405072 20.407731 214 214 214 0
-0.312618 -1.406779 20.432523 213 213 213 0
-0.234857 -1.409142 20.466841 213 213 213 0
-0.156833 -1.411500 20.501090 213 213 213 0
-0.078546 -1.413823 20.534835 214 214 214 0
0.000000 -1.413854 20.535279 213 213 213 0
0.078704 -1.416666 20.576115 213 213 213 0
0.157590 -1.418310 20.600000 214 214 214 0
0.236636 -1.419816 20.621880 213 213 213 0
0.316106 -1.422477 20.660521 213 213 213 0
0.395683 -1.424459 20.689310 214 214 214 0
0.475126 -1.425379 20.702675 213 213 213 0
0.555482 -1.428383 20.746310 213 213 213 0
0.635560 -1.430010 20.769932 214 214 214 0
0.716614 -1.433227 20.816662 214 214 214 0
0.796372 -1.433469 20.820173 213 213 213 0
0.878545 -1.437619 20.880453 213 213 213 0
0.958010 -1.437014 20.871669 214 214 214 0
1.039819 -1.439750 20.911395 213 213 213 0
1.121586 -1.442040 20.944659 213 213 213 0
1.203247 -1.443897 20.971629 214 214 214 0
1.285355 -1.446024 21.002529 213 213 213 0
1.367276 -1.447704 21.026930 213 213 213 0
1.449896 -1.449896 21.058766 213 213 213 0
1.534128 -1.453385 21.109436 213 213 213 0
1.615655 -1.454090 21.119680 213 213 213 0
1.698879 -1.456182 21.150066 213 213 213 0
1.782264 -1.458216 21.179611 213 213 213 0
1.866494 -1.460734 21.216185 214 214 214 0
1.951405 -1.463554 21.257133 213 213 213 0
2.034796 -1.465053 21.278916 213 213 213 0
2.118096 -1.466374 21.298102 213 213 213 0
2.203879 -1.469252 21.339905 214 214 214 0
2.288588 -1.471235 21.368700 213 213 213 0
2.372532 -1.472606 21.388610 213 213 213 0
2.458411 -1.475047 21.424063 213 213 213 0
2.543378 -1.476800 21.449532 213 213 213 0
2.630246 -1.479513 21.488936 213 213 213 0
2.716205 -1.481566 21.518757 213 213 213 0
2.801781 -1.483296 21.543872 213 213 213 0
2.888200 -1.485360 21.573854 214 214 214 0
2.974728 -1.487364 21.602962 214 214 214 0
3.064196 -1.490690 21.651267 213 213 213 0
3.151028 -1.492592 21.678899 213 213 213 0
3.236785 -1.493901 21.697906 213 213 213 0
3.323615 -1.495627 21.722976 214 214 214 0
3.413134 -1.498449 21.763969 213 213 213 0
3.500658 -1.500282 21.790586 213 213 213 0
3.590690 -1.503080 21.831223 213 213 213 0
3.680930 -1.505835 21.871241 213 213 213 0
3.768882 -1.507553 21.896192 213 213 213 0
3.858911 -1.510009 21.931864 213 213 213 0
3.947880 -1.511954 21.960115 213 213 213 0
4.036967 -1.513863 21.987836 213 213 213 0
4.125042 -1.515322 22.009029 212 212 212 0
4.218023 -1.518488 22.055020 213 213 213 0
4.308378 -1.520604 22.085753 213 213 213 0
4.402560 -1.523963 22.134539 213 213 213 0
4.486741 -1.523799 22.132156 213 213 213 0
4.582516 -1.527505 22.185988 214 214 214 0
4.675244 -1.530080 22.223380 213 213 213 0
4.764951 -1.531592 22.245338 213 213 213 0
4.855751 -1.533395 22.271532 213 213 213 0
4.949111 -1.535931 22.308364 213 213 213 0
5.045082 -1.539178 22.355521 214 214 214 0
5.138470 -1.541541 22.389847 213 213 213 0
5.228387 -1.542803 22.408175 212 212 212 0
5.321996 -1.545096 22.441478 213 213 213 0
5.414664 -1.547047 22.469818 213 213 213 0
5.512816 -1.550480 22.519675 212 212 212 0
5.605542 -1.552304 22.546170 212 212 212 0
5.700620 -1.554715 22.581186 213 213 213 0
5.793628 -1.556497 22.607074 212 212 212 0
5.892565 -1.559797 22.654999 212 212 212 0
5.988358 -1.562180 22.689619 213 213 213 0
6.079800 -1.563377 22.707004 213 213 213 0
6.177346 -1.566088 22.746373 213 213 213 0
6.276616 -1.569154 22.790906 213 213 213 0
6.376390 -1.572261 22.836029 213 213 213 0
6.467263 -1.573118 22.848481 213 213 213 0
6.566018 -1.575844 22.888080 212 212 212 0
6.663658 -1.578235 22.922802 213 213 213 0
6.764724 -1.581364 22.968252 212 212 212 0
6.859471 -1.582955 22.991355 213 213 213 0
6.957134 -1.585170 23.023526 213 213 213 0
-1.695987 -1.310535 20.154326 85 85 85 0
-1.609991 -1.303326 20.043459 197 197 197 0
-1.528397 -1.299138 19.979049 213 213 213 0
-1.453910 -1.300867 20.005639 214 214 214 0
-1.379460 -1.302823 20.035725 213 213 213 0
-1.306426 -1.306426 20.091130 213 213 213 0
-1.230029 -1.306906 20.098511 212 212 212 0
-1.154547 -1.308487 20.122825 213 213 213 0
-1.078726 -1.309882 20.144276 214 214 214 0
-1.003173 -1.311842 20.174418 214 214 214 0
-0.926867 -1.313061 20.193175 213 213 213 0
-0.851962 -1.316669 20.248660 214 214 214 0
-0.775276 -1.317969 20.268653 213 213 213 0
-0.698928 -1.320198 20.302926 213 213 213 0
-0.622284 -1.322354 20.336090 213 213 213 0
-0.544955 -1.323462 20.353132 213 213 213 0
-0.468167 -1.326474 20.399439 214 214 214 0
-0.390124 -1.326422 20.398643 214 214 214 0
-0.312600 -1.328551 20.431383 213 213 213 0
-0.234656 -1.329717 20.449315 214 214 214 0
-0.156856 -1.333276 20.504058 213 213 213 0
-0.078466 -1.333915 20.513873 213 213 213 0
0.000000 -1.335109 20.532249 213 213 213 0
0.078729 -1.338390 20.582703 213 213 213 0
0.157515 -1.338876 20.590175 213 213 213 0
0.236568 -1.340553 20.615970 213 213 213 0
0.315908 -1.342608 20.647560 213 213 213 0
0.395205 -1.343696 20.664298 214 214 214 0
0.474933 -1.345644 20.694262 213 213 213 0
0.555300 -1.348585 20.739480 213 213 213 0
0.635588 -1.350625 20.770855 214 214 214 0
0.715883 -1.352224 20.795444 213 213 213 0
0.796707 -1.354401 20.828933 214 214 214 0
0.877453 -1.356064 20.854502 214 214 214 0
0.957957 -1.357106 20.870529 213 213 213 0
1.040095 -1.360125 20.916948 213 213 213 0
1.121586 -1.361926 20.944659 213 213 213 0
1.203706 -1.364200 20.979630 213 213 213 0
1.284106 -1.364363 20.982122 213 213 213 0
1.366659 -1.366659 21.017436 214 214 214 0
1.449493 -1.368966 21.052911 213 213 213 0
1.532562 -1.371240 21.087890 214 214 214 0
1.614445 -1.372278 21.103854 214 214 214 0
1.698517 -1.374990 21.145557 214 214 214 0
1.781940 -1.376954 21.175763 213 213 213 0
1.866155 -1.379332 21.212328 214 214 214 0
1.949697 -1.381036 21.238532 213 213 213 0
2.033186 -1.382566 21.262073 214 214 214 0
2.116895 -1.384123 21.286018 214 214 214 0
2.202511 -1.386766 21.326663 213 213 213 0
2.285374 -1.387549 21.338695 213 213 213 0
2.372530 -1.390793 21.388596 214 214 214 0
2.456429 -1.391976 21.406789 213 213 213 0
2.542323 -1.394177 21.440633 213 213 213 0
2.628974 -1.396642 21.478546 213 213 213 0
2.715643 -1.398968 21.514304 213 213 213 0
2.801095 -1.400547 21.538598 213 213 213 0
2.886922 -1.402219 21.564311 213 213 213 0
2.974681 -1.404711 21.602624 213 213 213 0
3.062158 -1.406937 21.636867 214 214 214 0
3.150159 -1.409282 21.672921 213 213 213 0
3.236631 -1.410839 21.696872 213 213 213 0
3.323882 -1.412650 21.724718 213 213 213 0
3.412111 -1.414778 21.757443 213 213 213 0
3.501174 -1.417142 21.793803 213 213 213 0
3.588133 -1.418564 21.815675 213 213 213 0
3.678514 -1.421244 21.856884 213 213 213 0
3.766865 -1.423038 21.884472 214 214 214 0
3.856351 -1.425173 21.917312 213 213 213 0
3.945533 -1.427108 21.947063 213 213 213 0
4.037668 -1.430007 21.991654 212 212 212 0
4.121803 -1.430013 21.991747 213 213 213 0
4.214915 -1.433071 22.038769 214 214 214 0
4.306206 -1.435402 22.074615 214 214 214 0
4.398182 -1.437867 22.112527 213 213 213 0
4.489064 -1.439888 22.143613 214 214 214 0
4.582529 -1.442648 22.186054 213 213 213 0
4.671795 -1.444009 22.206988 213 213 213 0
4.762543 -1.445772 22.234092 213 213 213 0
4.854765 -1.447912 22.267012 213 213 213 0
4.947398 -1.450099 22.300642 213 213 213 0
5.044916 -1.453620 22.354786 214 214 214 0
5.137629 -1.455661 22.386182 213 213 213 0
5.228548 -1.457136 22.408863 213 213 213 0
5.317213 -1.457946 22.421307 213 213 213 0
5.413314 -1.460735 22.464212 212 212 212 0
5.510040 -1.463604 22.508332 213 213 213 0
5.606407 -1.466291 22.549650 213 213 213 0
5.696790 -1.467355 22.566015 213 213 213 0
5.793220 -1.469921 22.605481 213 213 213 0
5.890193 -1.472548 22.645878 212 212 212 0
5.984424 -1.474423 22.674713 213 213 213 0
6.076659 -1.475760 22.695273 212 212 212 0
6.175170 -1.478562 22.738359 212 212 212 0
6.273819 -1.481318 22.780750 213 213 213 0
6.373181 -1.484165 22.824535 213 213 213 0
6.466242 -1.485488 22.844874 213 213 213 0
6.562518 -1.487504 22.875881 213 213 213 0
6.662268 -1.490244 22.918017 212 212 212 0
6.759038 -1.492255 22.948946 212 212 212 0
6.860860 -1.495316 22.996012 212 212 212 0
6.956468 -1.496961 23.021321 212 212 212 0
-2.509365 -1.824993 29.820140 86 86 86 0
-1.606967 -1.224356 20.005810 198 198 198 0
-1.528610 -1.222888 19.981829 214 214 214 0
-1.454659 -1.224976 20.015946 213 213 213 0
-1.380271 -1.226908 20.047516 213 213 213 0
-1.304924 -1.228164 20.068043 213 213 213 0
-1.228297 -1.228297 20.070208 213 213 213 0
-1.153822 -1.230744 20.110195 213 213 213 0
-1.078283 -1.232324 20.136008 213 213 213 0
-1.003405 -1.234960 20.179082 213 213 213 0
-0.926948 -1.235931 20.194944 214 214 214 0
-0.850933 -1.237720 20.224187 213 213 213 0
-0.773992 -1.238388 20.235091 213 213 213 0
-0.698173 -1.241197 20.280999 214 214 214 0
-0.621264 -1.242528 20.302751 213 213 213 0
-0.544473 -1.244510 20.335128 213 213 213 0
-0.467405 -1.246412 20.366213 213 213 213 0
-0.389680 -1.246976 20.375427 214 214 214 0
-0.312373 -1.249494 20.416565 213 213 213 0
-0.234610 -1.251255 20.445345 213 213 213 0
-0.156610 -1.252883 20.471945 214 214 214 0
-0.078421 -1.254739 20.502271 213 213 213 0
0.000000 -1.256814 20.536182 213 213 213 0
0.078611 -1.257778 20.551931 213 213 213 0
0.157443 -1.259541 20.580727 214 214 214 0
0.236458 -1.261112 20.606398 213 213 213 0
0.315580 -1.262320 20.626152 213 213 213 0
0.395378 -1.265210 20.673367 213 213 213 0
0.475002 -1.266673 20.697271 214 214 214 0
0.555219 -1.269073 20.736488 213 213 213 0
0.635435 -1.270870 20.765843 213 213 213 0
0.716199 -1.273242 20.804612 213 213 213 0
0.795465 -1.272743 20.796459 213 213 213 0
0.877299 -1.276071 20.850841 214 214 214 0
0.957434 -1.276578 20.859125 214 214 214 0
1.039817 -1.279774 20.911347 213 213 213 0
1.121132 -1.281294 20.936177 214 214 214 0
1.202073 -1.282211 20.951158 213 213 213 0
1.283759 -1.283759 20.976460 213 213 213 0
1.366092 -1.285734 21.008727 213 213 213 0
1.449887 -1.288788 21.058628 214 214 214 0
1.531355 -1.289562 21.071279 214 214 214 0
1.614242 -1.291394 21.101205 213 213 213 0
1.696895 -1.292873 21.125370 213 213 213 0
1.780838 -1.295155 21.162664 214 214 214 0
1.865698 -1.297877 21.207141 214 214 214 0
1.949040 -1.299360 21.231377 213 213 213 0
2.032846 -1.301021 21.258520 213 213 213 0
2.116041 -1.302179 21.277437 214 214 214 0
2.200732 -1.304137 21.309432 213 213 213 0
2.286089 -1.306337 21.345368 213 213 213 0
2.371886 -1.308627 21.382790 213 213 213 0
2.456839 -1.310314 21.410366 213 213 213 0
2.542321 -1.312166 21.440619 213 213 213 0
2.628233 -1.314117 21.472494 213 213 213 0
2.713345 -1.315561 21.496095 214 214 214 0
2.798425 -1.316906 21.518073 213 213 213 0
2.885135 -1.318919 21.550959 213 213 213 0
2.974664 -1.322073 21.602497 213 213 213 0
3.062259 -1.324220 21.637586 213 213 213 0
3.147751 -1.325369 21.656353 213 213 213 0
3.234016 -1.326776 21.679342 213 213 213 0
3.320257 -1.328103 21.701024 213 213 213 0
3.412253 -1.331611 21.758346 213 213 213 0
3.500120 -1.333379 21.787241 214 214 214 0
3.585555 -1.334160 21.800000 213 213 213 0
3.674915 -1.336333 21.835502 214 214 214 0
3.764567 -1.338513 21.871124 213 213 213 0
3.854122 -1.340564 21.904642 213 213 213 0
3.944437 -1.342787 21.940964 213 213 213 0
4.033057 -1.344352 21.966541 213 213 213 0
4.122081 -1.345986 21.993232 213 213 213 0
4.214406 -1.348610 22.036112 213 213 213 0
4.305923 -1.350878 22.073169 213 213 213 0
4.395361 -1.352419 22.098343 214 214 214 0
4.483354 -1.353465 22.115448 213 213 213 0
4.575351 -1.355660 22.151302 213 213 213 0
4.670325 -1.358640 22.200000 214 214 214 0
4.761589 -1.360454 22.229639 213 213 213 0
4.852368 -1.362068 22.256016 212 212 212 0
4.946427 -1.364531 22.296266 213 213 213 0
5.040230 -1.366842 22.334020 214 214 214 0
5.134399 -1.369173 22.372107 213 213 213 0
5.222516 -1.369840 22.383013 213 213 213 0
5.312857 -1.371060 22.402937 213 213 213 0
5.414246 -1.375047 22.468083 213 213 213 0
5.508651 -1.377163 22.502659 213 213 213 0
5.605238 -1.379751 22.544951 212 212 212 0
5.696012 -1.380851 22.562930 213 213 213 0
5.789847 -1.382650 22.592319 213 213 213 0
5.888635 -1.385561 22.639890 212 212 212 0
5.980403 -1.386760 22.659481 212 212 212 0
6.076539 -1.388923 22.694822 213 213 213 0
6.175477 -1.391657 22.739489 213 213 213 0
6.268990 -1.393109 22.763217 212 212 212 0
6.369900 -1.396142 22.812784 213 213 213 0
6.464081 -1.397639 22.837242 212 212 212 0
6.558287 -1.399101 22.861130 213 213 213 0
6.660673 -1.402247 22.912531 213 213 213 0
6.757161 -1.404085 22.942570 212 212 212 0
6.854413 -1.406033 22.974404 213 213 213 0
6.952250 -1.408051 23.007362 213 213 213 0
-1.701180 -1.159895 20.216042 81 81 81 0
-1.606664 -1.147617 20.002037 197 197 197 0
-1.528610 -1.146457 19.981829 213 213 213 0
-1.453987 -1.147885 20.006708 213 213 213 0
-1.379252 -1.149377 20.032714 212 212 212 0
-1.304580 -1.151100 20.062744 213 213 213 0
-1.229839 -1.152974 20.095410 213 213 213 0
-1.154286 -1.154286 20.118272 213 213 213 0
-1.077742 -1.154723 20.125895 213 213 213 0
-1.003139 -1.157468 20.173734 213 213 213 0
-0.926937 -1.158671 20.194696 214 214 214 0
-0.850594 -1.159900 20.216127 213 213 213 0
-0.774353 -1.161529 20.244518 214 214 214 0
-0.697971 -1.163285 20.275114 214 214 214 0
-0.621339 -1.165011 20.305201 213 213 213 0
-0.544158 -1.166053 20.323369 213 213 213 0
-0.467140 -1.167849 20.354672 214 214 214 0
-0.389849 -1.169546 20.384245 213 213 213 0
-0.312577 -1.172162 20.429837 213 213 213 0
-0.234645 -1.173226 20.448385 214 214 214 0
-0.156663 -1.174972 20.478822 214 214 214 0
-0.078408 -1.176124 20.498900 214 214 214 0
0.000000 -1.177616 20.524899 213 213 213 0
0.078535 -1.178027 20.532065 213 213 213 0
0.157302 -1.179766 20.562365 213 213 213 0
0.236460 -1.182298 20.606506 214 214 214 0
0.315660 -1.183725 20.631371 213 213 213 0
0.395387 -1.186162 20.673839 213 213 213 0
0.474732 -1.186831 20.685509 213 213 213 0
0.555051 -1.189395 20.730203 213 213 213 0
0.635373 -1.191324 20.763811 213 213 213 0
0.714778 -1.191297 20.763347 214 214 214 0
0.795383 -1.193075 20.794334 213 213 213 0
0.875703 -1.194140 20.812903 213 213 213 0
0.957705 -1.197131 20.865023 213 213 213 0
1.039531 -1.199459 20.905598 214 214 214 0
1.120510 -1.200547 20.924562 214 214 214 0
1.201326 -1.201326 20.938148 213 213 213 0
1.284287 -1.204019 20.985075 213 213 213 0
1.365525 -1.204875 21.000000 213 213 213 0
1.448758 -1.207298 21.042235 213 213 213 0
1.531324 -1.208940 21.070849 213 213 213 0
1.614289 -1.210717 21.101820 214 214 214 0
1.697290 -1.212350 21.130278 214 214 214 0
1.780897 -1.214248 21.163361 214 214 214 0
1.864450 -1.215945 21.192947 214 214 214 0
1.947630 -1.217269 21.216016 214 214 214 0
2.031963 -1.219178 21.249291 213 213 213 0
2.115843 -1.220678 21.275442 214 214 214 0
2.200093 -1.222274 21.303245 214 214 214 0
2.285215 -1.224223 21.337213 214 214 214 0
2.371852 -1.226820 21.382486 214 214 214 0
2.454301 -1.227150 21.388240 213 213 213 0
2.541165 -1.229596 21.430865 213 213 213 0
2.627194 -1.231497 21.464002 213 213 213 0
2.713894 -1.233588 21.500451 213 213 213 0
2.798345 -1.234564 21.517453 213 213 213 0
2.884045 -1.236019 21.542817 213 213 213 0
2.971231 -1.238013 21.577570 214 214 214 0
3.060814 -1.240870 21.627370 213 213 213 0
3.147316 -1.242361 21.653359 213 213 213 0
3.232775 -1.243375 21.671024 213 213 213 0
3.318783 -1.244544 21.691393 213 213 213 0
3.407834 -1.246768 21.730169 213 213 213 0
3.497642 -1.249158 21.771815 214 214 214 0
3.586439 -1.251083 21.805373 213 213 213 0
3.673616 -1.252369 21.827785 214 214 214 0
3.763892 -1.254631 21.867202 213 213 213 0
3.853677 -1.256634 21.902112 213 213 213 0
3.944073 -1.258747 21.938938 213 213 213 0
4.032725 -1.260226 21.964731 213 213 213 0
4.120008 -1.261227 21.982171 213 213 213 0
4.214736 -1.264421 22.037835 213 213 213 0
4.302890 -1.265556 22.057618 213 213 213 0
4.393378 -1.267321 22.088377 214 214 214 0
4.484457 -1.269186 22.120886 213 213 213 0
4.573813 -1.270504 22.143853 214 214 214 0
4.664702 -1.272191 22.173271 213 213 213 0
4.760787 -1.275211 22.225896 213 213 213 0
4.849891 -1.276287 22.244656 213 213 213 0
4.946351 -1.279229 22.295923 213 213 213 0
5.037272 -1.280662 22.320912 213 213 213 0
5.130425 -1.282606 22.354794 213 213 213 0
5.223209 -1.284396 22.385982 213 213 213 0
5.312432 -1.285266 22.401146 213 213 213 0
5.408468 -1.287730 22.444104 214 214 214 0
5.506804 -1.290657 22.495114 213 213 213 0
5.600828 -1.292499 22.527211 213 213 213 0
5.693641 -1.294009 22.553541 213 213 213 0
5.786599 -1.295507 22.579646 214 214 214 0
5.887309 -1.298671 22.634789 213 213 213 0
5.979896 -1.299977 22.657560 213 213 213 0
6.073286 -1.301418 22.682675 212 212 212 0
6.172300 -1.304007 22.727791 213 213 213 0
6.270269 -1.306306 22.767861 213 213 213 0
6.364137 -1.307699 22.792146 213 213 213 0
6.459263 -1.309310 22.820220 213 213 213 0
6.554889 -1.310978 22.849287 213 213 213 0
6.653118 -1.313115 22.886544 212 212 212 0
6.754046 -1.315723 22.931997 213 213 213 0
6.850267 -1.317359 22.960507 213 213 213 0
6.948897 -1.319411 22.996265 212 212 212 0
-2.556169 -1.626653 30.376342 88 88 88 0
-1.604843 -1.069895 19.979372 199 199 199 0
-1.527029 -1.068921 19.961169 213 213 213 0
-1.453094 -1.070701 19.994409 213 213 213 0
-1.379252 -1.072752 20.032714 213 213 213 0
-1.304722 -1.074477 20.064924 213 213 213 0
-1.228804 -1.075204 20.078499 213 213 213 0
-1.153711 -1.076797 20.108250 213 213 213 0
-1.077611 -1.077611 20.123453 213 213 213 0
-1.003287 -1.080463 20.176722 213 213 213 0
-0.926946 -1.081437 20.194901 213 213 213 0
-0.850932 -1.083005 20.224180 214 214 214 0
-0.773795 -1.083314 20.229946 213 213 213 0
-0.697497 -1.084996 20.261357 213 213 213 0
-0.621301 -1.087276 20.303940 213 213 213 0
-0.543534 -1.087068 20.300058 213 213 213 0
-0.467295 -1.090354 20.361424 213 213 213 0
-0.389501 -1.090603 20.366069 213 213 213 0
-0.312113 -1.092397 20.399564 214 214 214 0
-0.234422 -1.093969 20.428932 213 213 213 0
-0.156520 -1.095642 20.460176 213 213 213 0
-0.078388 -1.097425 20.493467 213 213 213 0
0.000000 -1.099042 20.523657 213 213 213 0
0.078535 -1.099494 20.532097 213 213 213 0
0.157369 -1.101585 20.571154 213 213 213 0
0.236317 -1.102813 20.594086 213 213 213 0
0.315571 -1.104499 20.625559 214 214 214 0
0.394885 -1.105679 20.647602 213 213 213 0
0.474609 -1.107421 20.680122 213 213 213 0
0.554760 -1.109520 20.719326 214 214 214 0
0.634518 -1.110407 20.735896 214 214 214 0
0.715330 -1.112736 20.779379 213 213 213 0
0.795341 -1.113478 20.793239 213 213 213 0
0.876240 -1.115215 20.825669 214 214 214 0
0.957251 -1.116793 20.855140 213 213 213 0
1.038005 -1.117852 20.874913 214 214 214 0
1.119920 -1.119920 20.913540 214 214 214 0
1.201352 -1.121262 20.938595 213 213 213 0
1.284677 -1.124092 20.991452 214 214 214 0
1.366089 -1.125014 21.008673 213 213 213 0
1.447967 -1.126197 21.030751 213 213 213 0
1.531076 -1.128161 21.067437 213 213 213 0
1.613062 -1.129144 21.085783 213 213 213 0
1.696045 -1.130697 21.114789 214 214 214 0
1.779337 -1.132305 21.144824 213 213 213 0
1.863781 -1.134475 21.185343 214 214 214 0
1.946701 -1.135575 21.205890 213 213 213 0
2.029597 -1.136574 21.224545 214 214 214 0
2.113890 -1.138249 21.255811 213 213 213 0
2.199266 -1.140360 21.295243 213 213 213 0
2.284113 -1.142057 21.326922 213 213 213 0
2.368705 -1.143513 21.354114 214 214 214 0
2.453947 -1.145175 21.385155 213 213 213 0
2.539464 -1.146855 21.416521 213 213 213 0
2.624173 -1.148076 21.439325 214 214 214 0
2.711925 -1.150513 21.484846 213 213 213 0
2.796442 -1.151476 21.502824 213 213 213 0
2.883476 -1.153390 21.538568 214 214 214 0
2.971293 -1.155503 21.578016 213 213 213 0
3.059616 -1.157693 21.618909 213 213 213 0
3.145771 -1.158968 21.642733 214 214 214 0
3.230916 -1.159816 21.658562 213 213 213 0
3.318572 -1.161500 21.690011 213 213 213 0
3.407008 -1.163369 21.724907 214 214 214 0
3.494641 -1.164880 21.753132 213 213 213 0
3.585590 -1.167401 21.800211 213 213 213 0
3.674306 -1.169097 21.831883 213 213 213 0
3.760508 -1.169936 21.847541 213 213 213 0
3.852885 -1.172617 21.897611 213 213 213 0
3.940773 -1.173847 21.920584 213 213 213 0
4.030392 -1.175531 21.952025 213 213 213 0
4.118423 -1.176692 21.973711 213 213 213 0
4.210774 -1.179017 22.017120 213 213 213 0
4.300599 -1.180557 22.045876 213 213 213 0
4.392900 -1.182704 22.085975 213 213 213 0
4.482961 -1.184178 22.113508 214 214 214 0
4.573981 -1.185847 22.144666 212 212 212 0
4.665987 -1.187706 22.179377 213 213 213 0
4.758563 -1.189641 22.215515 213 213 213 0
4.849356 -1.191070 22.242202 213 213 213 0
4.942786 -1.193086 22.279855 213 213 213 0
5.034173 -1.194550 22.307182 213 213 213 0
5.128945 -1.196754 22.348342 213 213 213 0
5.220360 -1.198115 22.373772 213 213 213 0
5.314923 -1.200144 22.411651 213 213 213 0
5.406129 -1.201362 22.434397 213 213 213 0
5.501994 -1.203561 22.475467 213 213 213 0
5.596447 -1.205389 22.509589 213 213 213 0
5.691913 -1.207376 22.546695 213 213 213 0
5.783248 -1.208440 22.566570 213 213 213 0
5.881801 -1.210959 22.613615 213 213 213 0
5.979729 -1.213278 22.656926 213 213 213 0
6.069738 -1.213948 22.669423 213 213 213 0
6.169026 -1.216428 22.715735 213 213 213 0
6.264916 -1.218178 22.748424 213 213 213 0
6.362549 -1.220215 22.786460 213 213 213 0
6.456443 -1.221489 22.810255 213 213 213 0
6.553801 -1.223376 22.845494 213 213 213 0
6.649232 -1.224858 22.873174 212 212 212 0
6.751487 -1.227543 22.923309 213 213 213 0
6.847832 -1.229098 22.952345 213 213 213 0
6.945037 -1.230766 22.983495 212 212 212 0
-2.482737 -1.467072 29.503708 89 89 89 0
-1.606243 -0.994341 19.996798 199 199 199 0
-1.526199 -0.992029 19.950315 213 213 213 0
-1.452711 -0.993960 19.989146 213 213 213 0
-1.378889 -0.995865 20.027443 213 213 213 0
-1.304585 -0.997623 20.062815 212 212 212 0
-1.227836 -0.997617 20.062678 213 213 213 0
-1.152884 -0.999166 20.093839 213 213 213 0
-1.077103 -1.000167 20.113975 214 214 214 0
-1.001090 -1.001090 20.132537 213 213 213 0
-0.926120 -1.003296 20.176902 213 213 213 0
-0.850946 -1.005664 20.224514 213 213 213 0
-0.773952 -1.006137 20.234030 213 213 213 0
-0.697564 -1.007593 20.263299 214 214 214 0
-0.621221 -1.009485 20.301354 213 213 213 0
-0.543488 -1.009336 20.298353 214 214 214 0
-0.467060 -1.011963 20.351191 214 214 214 0
-0.389295 -1.012166 20.355269 213 213 213 0
-0.311642 -1.012835 20.368729 214 214 214 0
-0.234309 -1.015338 20.419070 213 213 213 0
-0.156383 -1.016489 20.442215 213 213 213 0
-0.078346 -1.018499 20.482642 213 213 213 0
0.000000 -1.019759 20.507966 214 214 214 0
0.078567 -1.021376 20.540497 214 214 214 0
0.157220 -1.021927 20.551573 213 213 213 0
0.236253 -1.023763 20.588489 213 213 213 0
0.315257 -1.024585 20.605025 213 213 213 0
0.394745 -1.026337 20.640262 213 213 213 0
0.474343 -1.027743 20.668536 214 214 214 0
0.554518 -1.029819 20.710286 213 213 213 0
0.634460 -1.030997 20.733975 213 213 213 0
0.714866 -1.032585 20.765907 213 213 213 0
0.794589 -1.032966 20.773567 213 213 213 0
0.875780 -1.035013 20.814747 213 213 213 0
0.956703 -1.036428 20.843201 213 213 213 0
1.038257 -1.038257 20.879986 213 213 213 0
1.120193 -1.040179 20.918639 213 213 213 0
1.202095 -1.041815 20.951543 214 214 214 0
1.283564 -1.042896 20.973269 213 213 213 0
1.364967 -1.043799 20.991425 214 214 214 0
1.448289 -1.045987 21.035431 214 214 214 0
1.529352 -1.046398 21.043710 214 214 214 0
1.611986 -1.047791 21.071709 213 213 213 0
1.694986 -1.049277 21.101605 214 214 214 0
1.778157 -1.050729 21.130807 214 214 214 0
1.862409 -1.052666 21.169754 213 213 213 0
1.946226 -1.054206 21.200723 214 214 214 0
2.030099 -1.055651 21.229791 213 213 213 0
2.114661 -1.057331 21.263562 214 214 214 0
2.199123 -1.058837 21.293853 213 213 213 0
2.284203 -1.060523 21.327763 213 213 213 0
2.368282 -1.061644 21.350299 214 214 214 0
2.454412 -1.063579 21.389214 214 214 214 0
2.540552 -1.065393 21.425697 213 213 213 0
2.624335 -1.066136 21.440644 214 214 214 0
2.711116 -1.068016 21.478442 213 213 213 0
2.794996 -1.068675 21.491704 213 213 213 0
2.881973 -1.070447 21.527342 214 214 214 0
2.969257 -1.072232 21.563232 213 213 213 0
3.059078 -1.074811 21.615104 214 214 214 0
3.144010 -1.075582 21.630618 213 213 213 0
3.232612 -1.077537 21.669931 214 214 214 0
3.317868 -1.078307 21.685410 213 213 213 0
3.406502 -1.080111 21.721680 214 214 214 0
3.493614 -1.081357 21.746742 213 213 213 0
3.583882 -1.083499 21.789830 214 214 214 0
3.670561 -1.084484 21.809629 213 213 213 0
3.760594 -1.086394 21.848041 213 213 213 0
3.850248 -1.088114 21.882625 213 213 213 0
3.937596 -1.089122 21.902910 213 213 213 0
4.030366 -1.091558 21.951886 213 213 213 0
4.117133 -1.092301 21.966830 213 213 213 0
4.208595 -1.094235 22.005723 214 214 214 0
4.299871 -1.096046 22.042143 213 213 213 0
4.392348 -1.098087 22.083198 213 213 213 0
4.478738 -1.098558 22.092679 213 213 213 0
4.571033 -1.100434 22.130393 213 213 213 0
4.663350 -1.102246 22.166844 214 214 214 0
4.755240 -1.103895 22.200000 213 213 213 0
4.846309 -1.105299 22.228226 214 214 214 0
4.938291 -1.106858 22.259595 214 214 214 0
5.032484 -1.108852 22.299696 213 213 213 0
5.124660 -1.110343 22.329675 213 213 213 0
5.220306 -1.112524 22.373541 213 213 213 0
5.310367 -1.113464 22.392438 213 213 213 0
5.402915 -1.114887 22.421061 212 212 212 0
5.500055 -1.117199 22.467543 213 213 213 0
5.595435 -1.119087 22.505518 213 213 213 0
5.686364 -1.120041 22.524712 213 213 213 0
5.781481 -1.121780 22.559677 213 213 213 0
5.878685 -1.123866 22.601633 213 213 213 0
5.971514 -1.125068 22.625801 213 213 213 0
6.068218 -1.126955 22.663747 213 213 213 0
6.163883 -1.128598 22.696799 212 212 212 0
6.262465 -1.130723 22.739524 213 213 213 0
6.361926 -1.132946 22.784227 213 213 213 0
6.453518 -1.133726 22.799923 212 212 212 0
6.548654 -1.135100 22.827553 213 213 213 0
6.649800 -1.137466 22.875130 212 212 212 0
6.749541 -1.139533 22.916698 213 213 213 0
6.844401 -1.140733 22.940844 213 213 213 0
6.942193 -1.142386 22.974081 213 213 213 0
-1.695542 -0.924841 20.149042 81 81 81 0
-1.606180 -0.917817 19.996014 199 199 199 0
-1.525275 -0.915165 19.938235 213 213 213 0
-1.452338 -0.917266 19.984006 214 214 214 0
-1.376110 -0.917406 19.987067 213 213 213 0
-1.303935 -0.920424 20.052821 213 213 213 0
-1.228051 -0.921038 20.066187 214 214 214 0
-1.151846 -0.921476 20.075740 213 213 213 0
-1.076427 -0.922652 20.101347 213 213 213 0
-1.001545 -0.924503 20.141673 213 213 213 0
-0.926115 -0.926115 20.176790 213 213 213 0
-0.849920 -0.927185 20.200113 213 213 213 0
-0.773459 -0.928151 20.221145 213 213 213 0
-0.697026 -0.929368 20.247672 213 213 213 0
-0.620388 -0.930582 20.274118 213 213 213 0
-0.543582 -0.931854 20.301837 213 213 213 0
-0.466919 -0.933839 20.345066 213 213 213 0
-0.389153 -0.933967 20.347861 213 213 213 0
-0.312084 -0.936253 20.397678 213 213 213 0
-0.234150 -0.936598 20.405193 213 213 213 0
-0.156439 -0.938634 20.449534 213 213 213 0
-0.078310 -0.939723 20.473269 214 214 214 0
0.000000 -0.940493 20.490049 214 214 214 0
0.078516 -0.942187 20.526957 214 214 214 0
0.157232 -0.943392 20.553195 213 213 213 0
0.236191 -0.944764 20.583090 213 213 213 0
0.315520 -0.946559 20.622195 213 213 213 0
0.394777 -0.947465 20.641932 213 213 213 0
0.474307 -0.948615 20.666985 213 213 213 0
0.554490 -0.950555 20.709262 213 213 213 0
0.634129 -0.951193 20.723166 213 213 213 0
0.714970 -0.953293 20.768919 214 214 214 0
0.794402 -0.953282 20.768677 213 213 213 0
0.875387 -0.954968 20.805395 213 213 213 0
0.955880 -0.955880 20.825269 213 213 213 0
1.037593 -0.957778 20.866631 214 214 214 0
1.119383 -0.959471 20.903508 213 213 213 0
1.201353 -0.961082 20.938611 214 214 214 0
1.282492 -0.961869 20.955754 213 213 213 0
1.363838 -0.962709 20.974059 214 214 214 0
1.447258 -0.964838 21.020446 213 213 213 0
1.528787 -0.965550 21.035939 213 213 213 0
1.612458 -0.967475 21.077877 213 213 213 0
1.695187 -0.968678 21.104097 213 213 213 0
1.777928 -0.969779 21.128082 213 213 213 0
1.861984 -0.971470 21.164917 213 213 213 0
1.945191 -0.972596 21.189449 213 213 213 0
2.029396 -0.974110 21.222440 213 213 213 0
2.111120 -0.974363 21.227958 214 214 214 0
2.197631 -0.976725 21.279407 213 213 213 0
2.284205 -0.978945 21.327778 213 213 213 0
2.367343 -0.979590 21.341832 213 213 213 0
2.450898 -0.980359 21.358588 214 214 214 0
2.537673 -0.982325 21.401420 214 214 214 0
2.623320 -0.983745 21.432352 213 213 213 0
2.710122 -0.985499 21.470565 214 214 214 0
2.793731 -0.986023 21.481980 213 213 213 0
2.879212 -0.987158 21.506720 213 213 213 0
2.967700 -0.989233 21.551922 213 213 213 0
3.056349 -0.991248 21.595824 213 213 213 0
3.142905 -0.992496 21.623010 213 213 213 0
3.230334 -0.993949 21.654663 213 213 213 0
3.315108 -0.994533 21.667375 214 214 214 0
3.405266 -0.996663 21.713798 213 213 213 0
3.493042 -0.998012 21.743181 213 213 213 0
3.581410 -0.999463 21.774797 213 213 213 0
3.668940 -1.000620 21.800000 213 213 213 0
3.759443 -1.002518 21.841356 214 214 214 0
3.848576 -1.003976 21.873125 213 213 213 0
3.934718 -1.004609 21.886905 213 213 213 0
4.025539 -1.006385 21.925595 214 214 214 0
4.113781 -1.007457 21.948946 214 214 214 0
4.208086 -1.009941 22.003065 213 213 213 0
4.296909 -1.011037 22.026956 213 213 213 0
4.389238 -1.012901 22.067562 213 213 213 0
4.477694 -1.013817 22.087526 213 213 213 0
4.568246 -1.015166 22.116900 213 213 213 0
4.662179 -1.017203 22.161277 213 213 213 0
4.753726 -1.018656 22.192933 213 213 213 0
4.844000 -1.019789 22.217635 213 213 213 0
4.934725 -1.020978 22.243521 213 213 213 0
5.031273 -1.023310 22.294331 213 213 213 0
5.124625 -1.024925 22.329521 213 213 213 0
5.216976 -1.026290 22.359267 213 213 213 0
5.306298 -1.027025 22.375281 213 213 213 0
5.403940 -1.029322 22.425314 214 214 214 0
5.497663 -1.030812 22.457775 213 213 213 0
5.593975 -1.032734 22.499650 213 213 213 0
5.684211 -1.033493 22.516186 213 213 213 0
5.781193 -1.035438 22.558554 213 213 213 0
5.873656 -1.036527 22.582298 213 213 213 0
5.970278 -1.038309 22.621115 213 213 213 0
6.064495 -1.039628 22.649842 213 213 213 0
6.163122 -1.041654 22.693998 212 212 212 0
6.259962 -1.043327 22.730434 212 212 212 0
6.357604 -1.045086 22.768749 213 213 213 0
6.450218 -1.045981 22.788262 212 212 212 0
6.547599 -1.047616 22.823874 212 212 212 0
6.644581 -1.049144 22.857176 212 212 212 0
6.746851 -1.051457 22.907567 213 213 213 0
6.844317 -1.052972 22.940565 212 212 212 0
6.938187 -1.053902 22.960824 213 213 213 0
-1.701138 -0.850569 20.215542 82 82 82 0
-1.603440 -0.839897 19.961906 200 200 200 0
-1.525338 -0.838936 19.939056 213 213 213 0
-1.451911 -0.840580 19.978134 213 213 213 0
-1.377185 -0.841613 20.002684 214 214 214 0
-1.302638 -0.842884 20.032885 213 213 213 0
-1.226575 -0.843271 20.042082 213 213 213 0
-1.151710 -0.844588 20.073384 213 213 213 0
-1.076197 -0.845583 20.097050 213 213 213 0
-1.000915 -0.846928 20.129016 214 214 214 0
-0.925040 -0.847953 20.153366 213 213 213 0
-0.849582 -0.849582 20.192097 213 213 213 0
-0.772650 -0.849915 20.200000 213 213 213 0
-0.696898 -0.851765 20.243965 213 213 213 0
-0.620245 -0.852837 20.269459 213 213 213 0
-0.543632 -0.854279 20.303708 213 213 213 0
-0.465923 -0.854192 20.301648 213 213 213 0
-0.388953 -0.855697 20.337414 213 213 213 0
-0.311642 -0.857016 20.368759 214 214 214 0
-0.234072 -0.858263 20.398398 214 214 214 0
-0.156224 -0.859234 20.421477 214 214 214 0
-0.078322 -0.861547 20.476463 213 213 213 0
0.000000 -0.861986 20.486883 213 213 213 0
0.078450 -0.862946 20.509709 213 213 213 0
0.157070 -0.863887 20.532082 214 214 214 0
0.236093 -0.865674 20.574556 213 213 213 0
0.315180 -0.866745 20.600000 213 213 213 0
0.394880 -0.868737 20.647343 213 213 213 0
0.474233 -0.869428 20.663764 214 214 214 0
0.554030 -0.870618 20.692052 214 214 214 0
0.634024 -0.871782 20.719723 213 213 213 0
0.714889 -0.873753 20.766555 214 214 214 0
0.794990 -0.874490 20.784065 213 213 213 0
0.875323 -0.875323 20.803862 214 214 214 0
0.955882 -0.876225 20.825315 213 213 213 0
1.037341 -0.877750 20.861556 213 213 213 0
1.119516 -0.879620 20.905994 213 213 213 0
1.199986 -0.879990 20.914786 213 213 213 0
1.281378 -0.880947 20.937542 213 213 213 0
1.363861 -0.882499 20.974417 213 213 213 0
1.445521 -0.883374 20.995224 214 214 214 0
1.528787 -0.885087 21.035939 213 213 213 0
1.610989 -0.886044 21.058685 213 213 213 0
1.693952 -0.887308 21.088722 213 213 213 0
1.778501 -0.889251 21.134892 214 214 214 0
1.861918 -0.890482 21.164170 214 214 214 0
1.944614 -0.891281 21.183156 213 213 213 0
2.027888 -0.892271 21.206674 214 214 214 0
2.111120 -0.893166 21.227958 213 213 213 0
2.197061 -0.895099 21.273890 213 213 213 0
2.282595 -0.896734 21.312742 214 214 214 0
2.367500 -0.898017 21.343253 214 214 214 0
2.450222 -0.898415 21.352698 213 213 213 0
2.535995 -0.899869 21.387264 214 214 214 0
2.621170 -0.901027 21.414789 213 213 213 0
2.708839 -0.902946 21.460402 214 214 214 0
2.792493 -0.903454 21.472454 214 214 214 0
2.879449 -0.904970 21.508487 213 213 213 0
2.966120 -0.906315 21.540453 214 214 214 0
3.055470 -0.908383 21.589615 214 214 214 0
3.141140 -0.909277 21.610873 213 213 213 0
3.227387 -0.910289 21.634903 213 213 213 0
3.314163 -0.911395 21.661198 214 214 214 0
3.404146 -0.913307 21.706651 213 213 213 0
3.491930 -0.914553 21.736259 214 214 214 0
3.580542 -0.915953 21.769519 213 213 213 0
3.669110 -0.917277 21.801009 213 213 213 0
3.757301 -0.918451 21.828912 213 213 213 0
3.847229 -0.919990 21.865470 214 214 214 0
3.935674 -0.921115 21.892220 213 213 213 0
4.023478 -0.922047 21.914366 213 213 213 0
4.112592 -0.923235 21.942601 213 213 213 0
4.206372 -0.925402 21.994104 213 213 213 0
4.297488 -0.926909 22.029926 214 214 214 0
4.387976 -0.928226 22.061215 213 213 213 0
4.475542 -0.928886 22.076913 213 213 213 0
4.567271 -0.930370 22.112182 213 213 213 0
4.660532 -0.932106 22.153452 213 213 213 0
4.751586 -0.933347 22.182940 213 213 213 0
4.843302 -0.934672 22.214434 213 213 213 0
4.933485 -0.935661 22.237932 212 212 212 0
5.028284 -0.937477 22.281084 213 213 213 0
5.122785 -0.939177 22.321503 213 213 213 0
5.216976 -0.940766 22.359267 213 213 213 0
5.306002 -0.941387 22.374032 213 213 213 0
5.400809 -0.942998 22.412319 213 213 213 0
5.494187 -0.944313 22.443575 213 213 213 0
5.590466 -0.946079 22.485533 213 213 213 0
5.683729 -0.947288 22.514277 213 213 213 0
5.776998 -0.948462 22.542183 213 213 213 0
5.872113 -0.949901 22.576367 212 212 212 0
5.966537 -0.951187 22.606940 213 213 213 0
6.061600 -0.952537 22.639030 213 213 213 0
6.160366 -0.954423 22.683849 213 213 213 0
6.256814 -0.955902 22.719005 213 213 213 0
6.355446 -0.957670 22.761019 213 213 213 0
6.448073 -0.958497 22.780687 213 213 213 0
6.543567 -0.959723 22.809819 213 213 213 0
6.641870 -0.961323 22.847850 212 212 212 0
6.741311 -0.963044 22.888757 212 212 212 0
6.841508 -0.964828 22.931149 212 212 212 0
6.938448 -0.966113 22.961687 213 213 213 0
-1.701504 -0.773411 20.219896 87 87 87 0
-1.602730 -0.763205 19.953062 201 201 201 0
-1.525603 -0.762801 19.942522 214 214 214 0
-1.451559 -0.763978 19.973288 214 214 214 0
-1.376699 -0.764833 19.995622 214 214 214 0
-1.300594 -0.765055 20.001440 213 213 213 0
-1.226782 -0.766739 20.045455 213 213 213 0
-1.151840 -0.767893 20.075647 214 214 214 0
-1.076066 -0.768618 20.094599 213 213 213 0
-1.000890 -0.769915 20.128504 213 213 213 0
-0.925314 -0.771095 20.159340 213 213 213 0
-0.849578 -0.772344 20.191988 213 213 213 0
-0.773209 -0.773209 20.214626 214 214 214 0
-0.696531 -0.773924 20.233299 213 213 213 0
-0.619721 -0.774652 20.252334 213 213 213 0
-0.543148 -0.775925 20.285628 214 214 214 0
-0.466445 -0.777408 20.324398 214 214 214 0
-0.389053 -0.778105 20.342617 213 213 213 0
-0.311739 -0.779347 20.375098 213 213 213 0
-0.234095 -0.780316 20.400430 213 213 213 0
-0.156228 -0.781141 20.421999 213 213 213 0
-0.078236 -0.782360 20.453854 214 214 214 0
0.000000 -0.783771 20.490748 213 213 213 0
0.078479 -0.784792 20.517429 214 214 214 0
0.157092 -0.785462 20.534962 214 214 214 0
0.236124 -0.787080 20.577252 214 214 214 0
0.314983 -0.787459 20.587154 213 213 213 0
0.394218 -0.788436 20.612708 213 213 213 0
0.473749 -0.789582 20.642665 214 214 214 0
0.553526 -0.790752 20.673252 214 214 214 0
0.633508 -0.791885 20.702864 213 213 213 0
0.713698 -0.792998 20.731964 213 213 213 0
0.794333 -0.794333 20.766881 214 214 214 0
0.874651 -0.795137 20.787895 214 214 214 0
0.955478 -0.796232 20.816521 214 214 214 0
1.036943 -0.797648 20.853555 213 213 213 0
1.119006 -0.799290 20.896480 213 213 213 0
1.199305 -0.799537 20.902917 214 214 214 0
1.282664 -0.801665 20.958567 213 213 213 0
1.363838 -0.802258 20.974063 213 213 213 0
1.445169 -0.802872 20.990106 214 214 214 0
1.528628 -0.804541 21.033750 213 213 213 0
1.611014 -0.805507 21.059011 214 214 214 0
1.692356 -0.805884 21.068860 213 213 213 0
1.777370 -0.807896 21.121452 214 214 214 0
1.860840 -0.809061 21.151922 214 214 214 0
1.943559 -0.809816 21.171663 214 214 214 0
2.026538 -0.810615 21.192557 214 214 214 0
2.112115 -0.812352 21.237959 213 213 213 0
2.196896 -0.813665 21.272289 214 214 214 0
2.280215 -0.814363 21.290524 214 214 214 0
2.365099 -0.815551 21.321602 214 214 214 0
2.449660 -0.816553 21.347796 214 214 214 0
2.534935 -0.817721 21.378329 214 214 214 0
2.620197 -0.818811 21.406836 214 214 214 0
2.706032 -0.820010 21.438165 213 213 213 0
2.793223 -0.821536 21.478070 213 213 213 0
2.878663 -0.822475 21.502620 213 213 213 0
2.964861 -0.823572 21.531305 214 214 214 0
3.054258 -0.825475 21.581048 214 214 214 0
3.140500 -0.826447 21.606468 214 214 214 0
3.225172 -0.826967 21.620055 213 213 213 0
3.312403 -0.828101 21.649696 213 213 213 0
3.401281 -0.829581 21.688387 213 213 213 0
3.491341 -0.831272 21.732594 214 214 214 0
3.578910 -0.832305 21.759600 214 214 214 0
3.663889 -0.832702 21.769991 214 214 214 0
3.755842 -0.834632 21.820435 214 214 214 0
3.844612 -0.835785 21.850593 214 214 214 0
3.934719 -0.837174 21.886908 213 213 213 0
4.023337 -0.838195 21.913602 213 213 213 0
4.111854 -0.839154 21.938661 214 214 214 0
4.204013 -0.840803 21.981765 213 213 213 0
4.292895 -0.841744 22.006380 213 213 213 0
4.385988 -0.843459 22.051220 213 213 213 0
4.471479 -0.843675 22.056868 213 213 213 0
4.565499 -0.845463 22.103602 214 214 214 0
4.657207 -0.846765 22.137643 213 213 213 0
4.749249 -0.848080 22.172029 213 213 213 0
4.839012 -0.848950 22.194758 213 213 213 0
4.933878 -0.850669 22.239701 213 213 213 0
5.026435 -0.851938 22.272891 213 213 213 0
5.118371 -0.853062 22.302269 213 213 213 0
5.211093 -0.854278 22.334053 213 213 213 0
5.303920 -0.855471 22.365255 213 213 213 0
5.398322 -0.856877 22.402002 213 213 213 0
5.492248 -0.858164 22.435652 213 213 213 0
5.589702 -0.859954 22.482460 213 213 213 0
5.679934 -0.860596 22.499245 213 213 213 0
5.775188 -0.861968 22.535120 213 213 213 0
5.870401 -0.863294 22.569786 213 213 213 0
5.964705 -0.864450 22.600000 213 213 213 0
6.059314 -0.865616 22.630492 213 213 213 0
6.156072 -0.867052 22.668037 213 213 213 0
6.252103 -0.868348 22.701899 213 213 213 0
6.352288 -0.870176 22.749712 213 213 213 0
6.446424 -0.871138 22.774860 213 213 213 0
6.539816 -0.871975 22.796744 213 213 213 0
6.637994 -0.873420 22.834517 213 213 213 0
6.740937 -0.875446 22.887488 212 212 212 0
6.837811 -0.876642 22.918756 213 213 213 0
6.935218 -0.877876 22.950998 213 213 213 0
-1.703748 -0.696988 20.246564 87 87 87 0
-1.603077 -0.687033 19.957385 201 201 201 0
-1.523855 -0.685735 19.919674 213 213 213 0
-1.451100 -0.687363 19.966977 213 213 213 0
-1.375002 -0.687501 19.970979 214 214 214 0
-1.300952 -0.688739 20.006954 214 214 214 0
-1.226496 -0.689904 20.040791 214 214 214 0
-1.151515 -0.690909 20.069987 213 213 213 0
-1.075841 -0.691612 20.090396 213 213 213 0
-1.000103 -0.692379 20.112689 214 214 214 0
-0.924179 -0.693134 20.134618 214 214 214 0
-0.849255 -0.694845 20.184306 214 214 214 0
-0.772501 -0.695251 20.196112 214 214 214 0
-0.696295 -0.696295 20.226424 213 213 213 0
-0.619677 -0.697136 20.250872 214 214 214 0
-0.543138 -0.698320 20.285258 213 213 213 0
-0.466061 -0.699091 20.307660 214 214 214 0
-0.388603 -0.699486 20.319126 213 213 213 0
-0.311495 -0.700863 20.359126 213 213 213 0
-0.234036 -0.702109 20.395312 213 213 213 0
-0.156172 -0.702775 20.414680 213 213 213 0
-0.078210 -0.703891 20.447086 213 213 213 0
0.000000 -0.705110 20.482500 213 213 213 0
0.078378 -0.705401 20.490948 213 213 213 0
0.156990 -0.706454 20.521535 213 213 213 0
0.235866 -0.707599 20.554804 213 213 213 0
0.315016 -0.708787 20.589309 214 214 214 0
0.394367 -0.709860 20.620480 214 214 214 0
0.473749 -0.710624 20.642678 213 213 213 0
0.553290 -0.711373 20.664439 213 213 213 0
0.633196 -0.712346 20.692693 213 213 213 0
0.713497 -0.713497 20.726118 213 213 213 0
0.794335 -0.714901 20.766923 213 213 213 0
0.874211 -0.715263 20.777439 213 213 213 0
0.955478 -0.716609 20.816521 213 213 213 0
1.036476 -0.717560 20.844167 214 214 214 0
1.118306 -0.718911 20.883397 213 213 213 0
1.199691 -0.719815 20.909655 214 214 214 0
1.280390 -0.720219 20.921407 214 214 214 0
1.362815 -0.721490 20.958316 213 213 213 0
1.446438 -0.723219 21.008541 214 214 214 0
1.527885 -0.723735 21.023527 213 213 213 0
1.610084 -0.724538 21.046845 213 213 213 0
