ply
format ascii 1.0
element vertex 1128
property float x
property float y
property float z
property uchar red
property uchar green
property uchar blue
property uchar alpha
end_header
2.342182 0.565354 21.115009 207 207 207 0
2.424830 0.565794 21.131417 208 208 208 0
2.508107 0.566347 21.152068 208 208 208 0
2.594759 0.567603 21.199010 208 208 208 0
2.681778 0.568862 21.246014 208 208 208 0
2.769197 0.570129 21.293322 208 208 208 0
2.852344 0.570469 21.306026 208 208 208 0
2.940062 0.571679 21.351209 206 206 206 0
3.030993 0.573431 21.416662 207 207 207 0
3.120777 0.574880 21.470776 207 207 207 0
3.211718 0.576462 21.529866 207 207 207 0
3.300889 0.577656 21.574436 207 207 207 0
3.394934 0.579623 21.647910 206 206 206 0
3.488140 0.581357 21.712666 206 206 206 0
3.582917 0.583266 21.783960 206 206 206 0
3.673612 0.584438 21.827757 206 206 206 0
3.775044 0.587229 21.931992 204 204 204 0
3.876357 0.589880 22.031016 204 204 204 0
3.973498 0.591798 22.102617 204 204 204 0
4.076133 0.594436 22.201159 204 204 204 0
4.178271 0.596896 22.293028 204 204 204 0
4.287085 0.600192 22.416133 203 203 203 0
4.392687 0.602918 22.517940 201 201 201 0
4.508399 0.606900 22.666663 201 201 201 0
4.628492 0.611310 22.831381 200 200 200 0
4.740781 0.614546 22.952221 199 199 199 0
4.868203 0.619589 23.140597 196 196 196 0
5.000377 0.625047 23.344429 196 196 196 0
5.135100 0.630626 23.552803 194 194 194 0
5.303188 0.640040 23.904384 190 190 190 0
5.479160 0.650070 24.278983 188 188 188 0
6.592897 0.769171 28.727218 195 195 195 0
6.574315 0.754430 28.176643 203 203 203 0
6.703998 0.756903 28.269021 202 202 202 0
6.852838 0.761426 28.437964 201 201 201 0
6.992646 0.764821 28.564731 200 200 200 0
7.148645 0.769854 28.752719 197 197 197 0
7.311298 0.775441 28.961371 197 197 197 0
7.476138 0.781089 29.172326 194 194 194 0
7.663167 0.788855 29.462389 193 193 193 0
7.870462 0.798453 29.820828 189 189 189 0
8.117393 0.811739 30.317060 183 183 183 0
8.331625 0.821428 30.678909 138 138 138 0
-5.112370 0.817979 26.731344 84 84 84 0
-4.907657 0.801250 26.184646 110 110 110 0
-4.736880 0.789480 25.800000 132 132 132 0
-4.598718 0.782760 25.580408 140 140 140 0
-4.455008 0.774784 25.319736 152 152 152 0
-4.326030 0.769072 25.133074 154 154 154 0
-4.184825 0.760877 24.865271 163 163 163 0
-4.066299 0.756521 24.722900 167 167 167 0
-3.929910 0.748554 24.462556 164 164 164 0
-3.806579 0.742747 24.272779 140 140 140 0
-3.677292 0.735458 24.034590 128 128 128 0
-3.553070 0.728835 23.818134 133 133 133 0
-3.420882 0.720186 23.535477 148 148 148 0
-3.314116 0.716566 23.417180 153 153 153 0
-3.203331 0.711851 23.263112 154 154 154 0
-3.078136 0.703574 22.992611 159 159 159 0
-2.966575 0.698018 22.811032 166 166 166 0
-2.862327 0.693897 22.676386 167 167 167 0
-2.763581 0.690895 22.578278 168 168 168 0
-2.669598 0.688928 22.514002 171 171 171 0
-2.574201 0.686454 22.433128 176 176 176 0
-2.475913 0.683011 22.320606 180 180 180 0
-2.380258 0.680074 22.224634 181 181 181 0
-2.282023 0.676155 22.096572 181 181 181 0
-2.185052 0.672324 21.971364 181 181 181 0
-2.094881 0.670362 21.907253 181 181 181 0
-2.008285 0.669428 21.876745 184 184 184 0
-1.922201 0.668592 21.849406 188 188 188 0
-1.831027 0.665828 21.759088 190 190 190 0
-1.740863 0.663186 21.672745 190 190 190 0
-1.650440 0.660176 21.574374 190 190 190 0
-1.564472 0.658725 21.526961 190 190 190 0
-1.480097 0.657821 21.497416 192 192 192 0
-1.396753 0.657296 21.480253 192 192 192 0
-1.313523 0.656762 21.462796 192 192 192 0
-1.226612 0.654193 21.378861 193 193 193 0
-1.141210 0.652120 21.311117 195 195 195 0
-1.057525 0.650785 21.267478 196 196 196 0
-0.975169 0.650112 21.245504 198 198 198 0
-0.893614 0.649901 21.238590 198 198 198 0
-0.812573 0.650058 21.243737 199 199 199 0
-0.729490 0.648435 21.190697 198 198 198 0
-0.645899 0.645899 21.107798 199 199 199 0
-0.564696 0.645367 21.090412 199 199 199 0
-0.483569 0.644758 21.070528 200 200 200 0
-0.402730 0.644367 21.057757 200 200 200 0
-0.322024 0.644047 21.047294 200 200 200 0
-0.241218 0.643248 21.021169 200 200 200 0
-0.160439 0.641757 20.972454 201 201 201 0
-0.080169 0.641348 20.959089 201 201 201 0
0.000000 0.640817 20.941723 201 201 201 0
0.080094 0.640748 20.939477 202 202 202 0
0.160223 0.640894 20.944240 202 202 202 0
0.239992 0.639979 20.914360 203 203 203 0
0.319904 0.639807 20.908733 204 204 204 0
0.399588 0.639341 20.893489 205 205 205 0
0.478809 0.638412 20.863127 205 205 205 0
0.559262 0.639157 20.887472 206 206 206 0
0.639704 0.639704 20.905364 205 205 205 0
0.719490 0.639546 20.900208 206 206 206 0
0.797897 0.638317 20.860047 206 206 206 0
0.878233 0.638715 20.873046 207 207 207 0
0.957807 0.638538 20.867247 206 206 206 0
1.039040 0.639409 20.895724 207 207 207 0
1.119687 0.639821 20.909188 206 206 206 0
1.198305 0.639096 20.885488 207 207 207 0
1.278794 0.639397 20.895330 207 207 207 0
1.359453 0.639743 20.906622 207 207 207 0
1.442153 0.640957 20.946308 206 206 206 0
1.521962 0.640826 20.942027 207 207 207 0
1.604154 0.641662 20.969331 206 206 206 0
1.683441 0.641311 20.957867 207 207 207 0
1.766656 0.642421 20.994134 207 207 207 0
1.848880 0.643089 21.015965 207 207 207 0
1.932408 0.644136 21.050198 207 207 207 0
2.013338 0.644268 21.054510 207 207 207 0
2.094819 0.644560 21.064047 207 207 207 0
2.180558 0.646091 21.114096 207 207 207 0
2.265054 0.647158 21.148961 208 208 208 0
2.350281 0.648353 21.188020 208 208 208 0
2.433253 0.648867 21.204817 208 208 208 0
2.516208 0.649344 21.220388 208 208 208 0
2.602258 0.650565 21.260278 208 208 208 0
2.689782 0.652068 21.309428 208 208 208 0
2.776792 0.653363 21.351723 208 208 208 0
2.863320 0.654473 21.388014 206 206 206 0
2.952126 0.656028 21.438821 206 206 206 0
3.044250 0.658216 21.510332 206 206 206 0
3.134235 0.659839 21.563367 206 206 206 0
3.224300 0.661395 21.614214 206 206 206 0
3.313736 0.662747 21.658407 206 206 206 0
3.409232 0.665216 21.739088 207 207 207 0
3.502276 0.667100 21.800662 206 206 206 0
3.594279 0.668703 21.853044 205 205 205 0
3.689431 0.670806 21.921754 204 204 204 0
3.790222 0.673817 22.020170 203 203 203 0
3.892871 0.677021 22.124871 204 204 204 0
3.992094 0.679505 22.206060 204 204 204 0
4.093826 0.682304 22.297530 204 204 204 0
4.201071 0.685889 22.414680 202 202 202 0
4.307006 0.689121 22.520295 200 200 200 0
4.416972 0.692858 22.642430 200 200 200 0
4.535532 0.697774 22.803075 201 201 201 0
4.651650 0.702136 22.945615 199 199 199 0
4.773743 0.707221 23.111801 197 197 197 0
4.907486 0.713816 23.327327 195 195 195 0
5.037137 0.719591 23.516045 195 195 195 0
5.191563 0.728640 23.811780 190 190 190 0
5.363722 0.739824 24.177247 189 189 189 0
5.446176 0.738465 24.132829 191 191 191 0
6.446259 0.859501 28.088275 203 203 203 0
6.557061 0.859942 28.102695 203 203 203 0
6.694618 0.863822 28.229465 201 201 201 0
6.837550 0.868260 28.374522 202 202 202 0
6.983913 0.872989 28.529054 200 200 200 0
7.134645 0.878110 28.696412 198 198 198 0
7.299147 0.884745 28.913240 197 197 197 0
7.455725 0.890236 29.092675 196 196 196 0
7.644286 0.899328 29.389795 193 193 193 0
7.840557 0.909050 29.707519 190 190 190 0
8.069907 0.922275 30.139707 185 185 185 0
8.318963 0.937348 30.632285 158 158 158 0
9.634804 1.070534 34.984764 75 75 75 0
-5.140653 0.925318 26.879231 79 79 79 0
-4.927495 0.905050 26.290492 106 106 106 0
-4.755415 0.891640 25.900954 130 130 130 0
-4.598750 0.880612 25.580589 138 138 138 0
-4.460002 0.872609 25.348120 152 152 152 0
-4.324664 0.864933 25.125134 153 153 153 0
-4.202343 0.859570 24.969361 162 162 162 0
-4.061056 0.849989 24.691025 167 167 167 0
-3.941570 0.844622 24.535139 168 168 168 0
-3.828940 0.840499 24.415365 168 168 168 0
-3.704950 0.833614 24.215362 150 150 150 0
-3.579613 0.826065 23.996067 136 136 136 0
-3.451021 0.817347 23.742835 139 139 139 0
-3.329680 0.809922 23.527151 151 151 151 0
-3.218114 0.804529 23.370475 154 154 154 0
-3.101806 0.797607 23.169418 154 154 154 0
-2.980821 0.789041 22.920580 161 161 161 0
-2.875715 0.784286 22.782456 167 167 167 0
-2.780936 0.782138 22.720064 170 170 170 0
-2.683854 0.779183 22.634230 171 171 171 0
-2.586285 0.775886 22.538433 171 171 171 0
-2.486975 0.771820 22.420333 175 175 175 0
-2.389254 0.767974 22.308623 179 179 179 0
-2.286596 0.762199 22.140846 180 180 180 0
-2.193115 0.759155 22.052441 181 181 181 0
-2.107311 0.758632 22.037241 182 182 182 0
-2.020601 0.757725 22.010900 183 183 183 0
-1.930777 0.755521 21.946883 183 183 183 0
-1.837449 0.751684 21.835399 186 186 186 0
-1.748250 0.749250 21.764705 190 190 190 0
-1.656192 0.745286 21.649567 191 191 191 0
-1.570711 0.744021 21.612815 190 190 190 0
-1.486121 0.743060 21.584903 192 192 192 0
-1.402839 0.742680 21.573846 192 192 192 0
-1.318815 0.741833 21.549264 192 192 192 0
-1.231230 0.738738 21.459354 192 192 192 0
-1.145214 0.736209 21.385891 193 193 193 0
-1.060654 0.734299 21.330391 194 194 194 0
-0.979149 0.734362 21.332228 197 197 197 0
-0.896463 0.733470 21.306322 197 197 197 0
-0.814008 0.732607 21.281247 199 199 199 0
-0.731442 0.731442 21.247398 198 198 198 0
-0.648152 0.729171 21.181431 199 199 199 0
-0.566236 0.728017 21.147928 200 200 200 0
-0.485006 0.727509 21.133157 200 200 200 0
-0.404327 0.727789 21.141289 199 199 199 0
-0.323368 0.727577 21.135145 200 200 200 0
-0.242112 0.726336 21.099071 201 201 201 0
-0.161068 0.724807 21.054684 200 200 200 0
-0.080456 0.724102 21.034179 201 201 201 0
0.000000 0.723020 21.002752 201 201 201 0
0.080369 0.723321 21.011493 201 201 201 0
0.160797 0.723584 21.019155 202 202 202 0
0.240929 0.722786 20.995959 203 203 203 0
0.320620 0.721395 20.955542 202 202 202 0
0.400551 0.720992 20.943850 202 202 202 0
0.481027 0.721541 20.959797 203 203 203 0
0.561123 0.721443 20.956963 203 203 203 0
0.641223 0.721376 20.955007 204 204 204 0
0.720857 0.720857 20.939915 203 203 203 0
0.800712 0.720640 20.933635 204 204 204 0
0.881379 0.721128 20.947806 204 204 204 0
0.961962 0.721472 20.957784 204 204 204 0
1.043134 0.722170 20.978054 205 205 205 0
1.123294 0.722117 20.976538 204 204 204 0
1.202487 0.721492 20.958380 205 205 205 0
1.283257 0.721832 20.968247 205 205 205 0
1.364908 0.722598 20.990515 206 206 206 0
1.446826 0.723413 21.014170 206 206 206 0
1.528647 0.724096 21.034012 206 206 206 0
1.608596 0.723868 21.027395 207 207 207 0
1.689583 0.724107 21.034334 206 206 206 0
1.773085 0.725353 21.070524 207 207 207 0
1.855719 0.726151 21.093709 207 207 207 0
1.938216 0.726831 21.113461 207 207 207 0
2.020860 0.727510 21.133180 207 207 207 0
2.101365 0.727396 21.129868 207 207 207 0
2.187384 0.729128 21.180191 207 207 207 0
2.272874 0.730567 21.221982 207 207 207 0
2.358356 0.731903 21.260812 207 207 207 0
2.440590 0.732177 21.268759 208 208 208 0
2.525760 0.733285 21.300947 207 207 207 0
2.613202 0.734963 21.349691 207 207 207 0
2.699804 0.736310 21.388823 206 206 206 0
2.787093 0.737760 21.430936 206 206 206 0
2.875107 0.739313 21.476053 206 206 206 0
2.963226 0.740807 21.519436 206 206 206 0
3.057787 0.743786 21.605986 206 206 206 0
3.143544 0.744524 21.627413 206 206 206 0
3.235399 0.746631 21.688616 206 206 206 0
3.325984 0.748346 21.738460 206 206 206 0
3.422493 0.751279 21.823647 205 205 205 0
3.515265 0.753271 21.881514 204 204 204 0
3.608947 0.755361 21.942222 204 204 204 0
3.707077 0.758266 22.026602 204 204 204 0
3.809664 0.761933 22.133125 203 203 203 0
3.910197 0.765039 22.223344 204 204 204 0
4.007336 0.767362 22.290841 204 204 204 0
4.115640 0.771683 22.416341 202 202 202 0
4.225063 0.776032 22.542684 200 200 200 0
4.333206 0.779977 22.657286 200 200 200 0
4.443734 0.784188 22.779620 200 200 200 0
4.562653 0.789690 22.939434 200 200 200 0
4.681564 0.794983 23.093176 196 196 196 0
4.811019 0.801837 23.292274 196 196 196 0
4.945477 0.809260 23.507912 194 194 194 0
5.086490 0.817472 23.746453 191 191 191 0
5.253249 0.829460 24.094708 189 189 189 0
5.361084 0.831892 24.165355 190 190 190 0
6.310392 0.962602 27.962301 201 201 201 0
6.419522 0.962928 27.971774 204 204 204 0
6.552352 0.966740 28.082510 204 204 204 0
6.678764 0.969498 28.162614 202 202 202 0
6.827164 0.975309 28.331422 202 202 202 0
6.973851 0.980698 28.487955 201 201 201 0
7.120480 0.985913 28.639437 199 199 199 0
7.283695 0.993231 28.852028 198 198 198 0
7.441582 0.999615 29.037486 197 197 197 0
7.628207 1.009616 29.327976 193 193 193 0
7.817411 1.019662 29.619819 191 191 191 0
8.038334 1.033500 30.021791 186 186 186 0
8.291019 1.050974 30.529388 167 167 167 0
8.470119 1.058765 30.755696 84 84 84 0
-5.171698 1.034340 27.041559 75 75 75 0
-4.945080 1.009200 26.384314 103 103 103 0
-4.760560 0.991783 25.928978 128 128 128 0
-4.605454 0.979884 25.617876 136 136 136 0
-4.466523 0.970983 25.385186 151 151 151 0
-4.329352 0.962078 25.152374 153 153 153 0
-4.191097 0.952522 24.902537 160 160 160 0
-4.066481 0.945693 24.724009 167 167 167 0
-3.944022 0.939053 24.550401 167 167 167 0
-3.831991 0.934632 24.434822 171 171 171 0
-3.723342 0.930835 24.335568 174 174 174 0
-3.611830 0.926110 24.212033 158 158 158 0
-3.481444 0.916169 23.952141 138 138 138 0
-3.363502 0.909054 23.766130 140 140 140 0
-3.233943 0.898318 23.485426 151 151 151 0
-3.110035 0.888581 23.230886 154 154 154 0
-3.001569 0.882814 23.080114 154 154 154 0
-2.898759 0.878412 22.965015 162 162 162 0
-2.793403 0.872938 22.821919 170 170 170 0
-2.701710 0.871519 22.784823 171 171 171 0
-2.598235 0.866078 22.642574 171 171 171 0
-2.500153 0.862122 22.539131 172 172 172 0
-2.398718 0.856685 22.396993 175 175 175 0
-2.299236 0.851569 22.263234 179 179 179 0
-2.205667 0.848333 22.178653 181 181 181 0
-2.117415 0.846966 22.142898 182 182 182 0
-2.029179 0.845491 22.104343 182 182 182 0
-1.939431 0.843231 22.045248 183 183 183 0
-1.847251 0.839659 21.951879 183 183 183 0
-1.752662 0.834601 21.819628 185 185 185 0
-1.663872 0.831936 21.749957 189 189 189 0
-1.578210 0.830637 21.716000 190 190 190 0
-1.494194 0.830108 21.702168 191 191 191 0
-1.409802 0.829295 21.680924 192 192 192 0
-1.323687 0.827304 21.628868 192 192 192 0
-1.234784 0.823189 21.521285 192 192 192 0
-1.149646 0.821175 21.468640 193 193 193 0
-1.065262 0.819433 21.423075 193 193 193 0
-0.982574 0.818812 21.406845 194 194 194 0
-0.899889 0.818081 21.387741 195 195 195 0
-0.817234 0.817234 21.365600 197 197 197 0
-0.733446 0.814940 21.305609 197 197 197 0
-0.650256 0.812820 21.250191 199 199 199 0
-0.568301 0.811859 21.225076 199 199 199 0
-0.486930 0.811550 21.216986 199 199 199 0
-0.405961 0.811922 21.226720 199 199 199 0
-0.324334 0.810836 21.198322 200 200 200 0
-0.242845 0.809485 21.162996 200 200 200 0
-0.161528 0.807638 21.114729 200 200 200 0
-0.080680 0.806796 21.092708 201 201 201 0
0.000000 0.806380 21.081837 200 200 200 0
0.080710 0.807095 21.100523 201 201 201 0
0.161267 0.806336 21.080669 201 201 201 0
0.241727 0.805755 21.065498 203 203 203 0
0.321596 0.803990 21.019350 202 202 202 0
0.402156 0.804312 21.027772 202 202 202 0
0.482615 0.804359 21.028982 203 203 203 0
0.563382 0.804831 21.041341 204 204 204 0
0.643792 0.804740 21.038943 203 203 203 0
0.723251 0.803612 21.009477 204 204 204 0
0.803734 0.803734 21.012662 203 203 203 0
0.884302 0.803911 21.017285 205 205 205 0
0.965067 0.804222 21.025416 204 204 204 0
1.046261 0.804816 21.040952 204 204 204 0
1.126297 0.804498 21.032626 205 205 205 0
1.205591 0.803728 21.012487 206 206 206 0
1.287817 0.804886 21.042766 205 205 205 0
1.369104 0.805355 21.055034 206 206 206 0
1.451473 0.806374 21.081675 205 205 205 0
1.533118 0.806904 21.095531 206 206 206 0
1.612683 0.806341 21.080820 206 206 206 0
1.695632 0.807444 21.109641 206 206 206 0
1.778850 0.808568 21.139037 206 206 206 0
1.862838 0.809929 21.174624 206 206 206 0
1.945655 0.810690 21.194502 207 207 207 0
2.025874 0.810349 21.185605 207 207 207 0
2.108531 0.810974 21.201924 207 207 207 0
2.195065 0.812987 21.254562 207 207 207 0
2.282025 0.815009 21.307419 207 207 207 0
2.363859 0.815124 21.310429 207 207 207 0
2.447510 0.815837 21.329061 207 207 207 0
2.533127 0.817138 21.363077 206 206 206 0
2.624158 0.820049 21.439200 206 206 206 0
2.711178 0.821569 21.478928 205 205 205 0
2.797538 0.822805 21.511249 206 206 206 0
2.884534 0.824153 21.546475 206 206 206 0
2.976047 0.826680 21.612541 205 205 205 0
3.069431 0.829576 21.688260 206 206 206 0
3.157921 0.831032 21.726324 206 206 206 0
3.246423 0.832416 21.762513 205 205 205 0
3.338217 0.834554 21.818413 205 205 205 0
3.437867 0.838504 21.921677 204 204 204 0
3.535055 0.841680 22.004697 203 203 203 0
3.628595 0.843859 22.061680 203 203 203 0
3.727000 0.847045 22.144977 203 203 203 0
3.827739 0.850609 22.238136 203 203 203 0
3.928593 0.854042 22.327895 203 203 203 0
4.027785 0.856975 22.404588 202 202 202 0
4.140055 0.862511 22.549318 200 200 200 0
4.250478 0.867445 22.678289 200 200 200 0
4.356072 0.871214 22.776847 200 200 200 0
4.473580 0.877173 22.932615 199 199 199 0
4.590838 0.882854 23.081139 197 197 197 0
4.717782 0.890148 23.271833 196 196 196 0
4.854155 0.898918 23.501113 195 195 195 0
4.990247 0.907318 23.720723 191 191 191 0
5.149640 0.919579 24.041271 188 188 188 0
5.292601 0.928526 24.275202 187 187 187 0
6.228846 1.073939 28.076836 200 200 200 0
6.274894 1.063541 27.805001 205 205 205 0
6.405439 1.067573 27.910412 205 205 205 0
6.542377 1.072521 28.039760 205 205 205 0
6.670412 1.075873 28.127396 203 203 203 0
6.815545 1.081833 28.283204 201 201 201 0
6.959448 1.087414 28.429117 200 200 200 0
7.106107 1.093247 28.581628 200 200 200 0
7.276504 1.102501 28.823544 197 197 197 0
7.428951 1.108799 28.988201 197 197 197 0
7.604879 1.118365 29.238289 194 194 194 0
7.796054 1.129863 29.538900 192 192 192 0
8.019481 1.145640 29.951375 187 187 187 0
8.277073 1.165785 30.478038 175 175 175 0
8.437556 1.171883 30.637457 89 89 89 0
-5.132988 1.129257 26.839154 72 72 72 0
-4.946361 1.110408 26.391148 99 99 99 0
-4.763637 1.091667 25.945735 126 126 126 0
-4.619733 1.081214 25.697306 134 134 134 0
-4.473545 1.069761 25.425091 149 149 149 0
-4.329921 1.058425 25.155680 153 153 153 0
-4.207159 1.051790 24.997972 158 158 158 0
-4.070974 1.041412 24.751326 166 166 166 0
-3.949691 1.034443 24.585686 167 167 167 0
-3.834727 1.028829 24.452271 169 169 169 0
-3.730852 1.025984 24.384653 176 176 176 0
-3.624003 1.022155 24.293634 176 176 176 0
-3.505546 1.014763 24.117964 168 168 168 0
-3.381918 1.005435 23.896257 147 147 147 0
-3.262062 0.996741 23.689627 143 143 143 0
-3.136097 0.985631 23.425563 152 152 152 0
-3.026362 0.979117 23.270755 156 156 156 0
-2.918680 0.972893 23.122839 157 157 157 0
-2.818763 0.968950 23.029112 163 163 163 0
-2.718043 0.964467 22.922568 169 169 169 0
-2.613404 0.958248 22.774763 170 170 170 0
-2.510735 0.952348 22.634524 171 171 171 0
-2.408880 0.946346 22.491873 171 171 171 0
-2.309010 0.940708 22.357881 174 174 174 0
-2.218145 0.938446 22.304123 181 181 181 0
-2.127289 0.936007 22.246158 182 182 182 0
-2.036519 0.933404 22.184301 182 182 182 0
-1.946523 0.930946 22.125865 183 183 183 0
-1.854222 0.927111 22.034722 183 183 183 0
-1.761165 0.922515 21.925496 184 184 184 0
-1.670355 0.918695 21.834705 185 185 185 0
-1.585558 0.917955 21.817106 188 188 188 0
-1.499083 0.916107 21.773180 191 191 191 0
-1.414287 0.915127 21.749889 191 191 191 0
-1.328627 0.913431 21.709594 191 191 191 0
-1.239575 0.909022 21.604794 192 192 192 0
-1.152858 0.905817 21.528629 192 192 192 0
-1.069456 0.904924 21.507411 193 193 193 0
-0.986979 0.904731 21.502808 194 194 194 0
-0.903630 0.903630 21.476658 194 194 194 0
-0.819792 0.901772 21.432482 194 194 194 0
-0.736203 0.899803 21.385695 196 196 196 0
-0.652010 0.896513 21.307504 197 197 197 0
-0.570184 0.896004 21.295399 198 198 198 0
-0.488653 0.895863 21.292061 199 199 199 0
-0.406876 0.895127 21.274547 199 199 199 0
-0.325315 0.894615 21.262395 200 200 200 0
-0.243602 0.893209 21.228975 200 200 200 0
-0.161949 0.890721 21.169838 201 201 201 0
-0.080980 0.890781 21.171269 201 201 201 0
0.000000 0.890820 21.172204 200 200 200 0
0.080940 0.890336 21.160685 201 201 201 0
0.161815 0.889980 21.152226 202 202 202 0
0.242425 0.888891 21.126354 202 202 202 0
0.322773 0.887625 21.096266 202 202 202 0
0.403325 0.887315 21.088889 202 202 202 0
0.484513 0.888273 21.111659 203 203 203 0
0.565563 0.888742 21.122797 203 203 203 0
0.646128 0.888426 21.115291 204 204 204 0
0.725311 0.886491 21.069296 203 203 203 0
0.805994 0.886593 21.071734 204 204 204 0
0.886997 0.886997 21.081320 205 205 205 0
0.968697 0.887972 21.104506 204 204 204 0
1.050025 0.888482 21.116634 205 205 205 0
1.130046 0.887893 21.102635 204 204 204 0
1.210060 0.887377 21.090362 204 204 204 0
1.292229 0.888407 21.114845 205 205 205 0
1.375185 0.889825 21.148553 205 205 205 0
1.456788 0.890259 21.158866 205 205 205 0
1.537892 0.890359 21.161227 205 205 205 0
1.618549 0.890202 21.157506 206 206 206 0
1.701697 0.891365 21.185152 206 206 206 0
1.784701 0.892350 21.208563 206 206 206 0
1.869348 0.894036 21.248627 206 206 206 0
1.952524 0.894907 21.269326 206 206 206 0
2.033999 0.894959 21.270574 206 206 206 0
2.116609 0.895488 21.283145 206 206 206 0
2.202808 0.897440 21.329539 206 206 206 0
2.287732 0.898752 21.360706 205 205 205 0
2.373822 0.900415 21.400240 206 206 206 0
2.459485 0.901811 21.433422 205 205 205 0
2.545567 0.903266 21.467989 205 205 205 0
2.634798 0.905712 21.526126 204 204 204 0
2.722710 0.907570 21.570288 205 205 205 0
2.807474 0.908300 21.587650 205 205 205 0
2.896066 0.910192 21.632614 206 206 206 0
2.989370 0.913419 21.709295 206 206 206 0
3.079544 0.915540 21.759716 206 206 206 0
3.170496 0.917775 21.812837 205 205 205 0
3.260072 0.919508 21.854013 204 204 204 0
3.357045 0.923187 21.941472 203 203 203 0
3.456156 0.927261 22.038295 204 204 204 0
3.548389 0.929340 22.087699 203 203 203 0
3.645151 0.932481 22.162343 203 203 203 0
3.748869 0.937217 22.274920 203 203 203 0
3.850110 0.941138 22.368104 202 202 202 0
3.945782 0.943557 22.425588 201 201 201 0
4.054735 0.948980 22.554497 199 199 199 0
4.168733 0.955335 22.705518 199 199 199 0
4.273096 0.959266 22.798966 200 200 200 0
4.384476 0.964585 22.925366 198 198 198 0
4.506127 0.971910 23.099461 195 195 195 0
4.626557 0.978695 23.260717 195 195 195 0
4.759290 0.987777 23.476582 195 195 195 0
4.898367 0.997816 23.715163 192 192 192 0
5.052235 1.010447 24.015378 189 189 189 0
5.218354 1.025034 24.362063 185 185 185 0
6.175249 1.191715 28.323583 196 196 196 0
6.146326 1.165683 27.704873 207 207 207 0
6.264114 1.167886 27.757235 205 205 205 0
6.397560 1.172886 27.876077 204 204 204 0
6.532048 1.177910 27.995493 204 204 204 0
6.660611 1.181721 28.086069 204 204 204 0
6.810283 1.189097 28.261367 202 202 202 0
6.954065 1.195230 28.407127 201 201 201 0
7.100138 1.201562 28.557619 200 200 200 0
7.259457 1.209909 28.756019 198 198 198 0
7.421179 1.218402 28.957872 197 197 197 0
7.591843 1.228092 29.188170 195 195 195 0
7.785181 1.241116 29.497701 192 192 192 0
7.998693 1.256937 29.873737 189 189 189 0
8.255050 1.278951 30.396943 178 178 178 0
8.464762 1.293228 30.736245 111 111 111 0
-4.955666 1.213633 26.440798 98 98 98 0
-4.780232 1.195058 26.036120 122 122 122 0
-4.623423 1.180448 25.717828 134 134 134 0
-4.482493 1.169346 25.475948 146 146 146 0
-4.333479 1.155594 25.176351 153 153 153 0
-4.201247 1.145795 24.962845 156 156 156 0
-4.078224 1.138109 24.795403 165 165 165 0
-3.958900 1.131114 24.643012 167 167 167 0
-3.836083 1.122756 24.460917 167 167 167 0
-3.732022 1.119607 24.392299 175 175 175 0
-3.623213 1.114835 24.288338 178 178 178 0
-3.515823 1.110260 24.188668 179 179 179 0
-3.402630 1.103556 24.042607 175 175 175 0
-3.281675 1.093892 23.832065 159 159 159 0
-3.162594 1.084318 23.623485 147 147 147 0
-3.049775 1.076391 23.450790 155 155 155 0
-2.944852 1.070855 23.330178 158 158 158 0
-2.839449 1.064793 23.198115 158 158 158 0
-2.732472 1.057731 23.044249 163 163 163 0
-2.628451 1.051380 22.905891 169 169 169 0
-2.523536 1.044222 22.749930 170 170 170 0
-2.419691 1.037011 22.592823 171 171 171 0
-2.322826 1.032367 22.491655 173 173 173 0
-2.230198 1.029322 22.425320 175 175 175 0
-2.142154 1.028234 22.401615 179 179 179 0
-2.048037 1.024019 22.309775 182 182 182 0
-1.955526 1.020274 22.228197 182 182 182 0
-1.860987 1.015084 22.115113 183 183 183 0
-1.769015 1.010865 22.023213 184 184 184 0
-1.676905 1.006143 21.920322 184 184 184 0
-1.593738 1.006571 21.929654 185 185 185 0
-1.507538 1.005025 21.895973 187 187 187 0
-1.420802 1.002919 21.850092 190 190 190 0
-1.332451 0.999338 21.772072 191 191 191 0
-1.244768 0.995815 21.695310 192 192 192 0
-1.157167 0.991857 21.609089 193 193 193 0
-1.074771 0.992097 21.614305 193 193 193 0
-0.992383 0.992383 21.620554 193 193 193 0
-0.907474 0.989971 21.568002 194 194 194 0
-0.823227 0.987873 21.522283 194 194 194 0
-0.738732 0.984976 21.459182 195 195 195 0
-0.655167 0.982750 21.410676 195 195 195 0
-0.572607 0.981612 21.385876 196 196 196 0
-0.490572 0.981144 21.375684 197 197 197 0
-0.408782 0.981077 21.374218 197 197 197 0
-0.326306 0.978918 21.327198 199 199 199 0
-0.244273 0.977090 21.287371 200 200 200 0
-0.162529 0.975172 21.245574 201 201 201 0
-0.081202 0.974418 21.229157 201 201 201 0
0.000000 0.975080 21.243576 201 201 201 0
0.081344 0.976123 21.266289 202 202 202 0
0.162351 0.974106 21.222357 202 202 202 0
0.243148 0.972590 21.189327 202 202 202 0
0.323877 0.971631 21.168421 202 202 202 0
0.405057 0.972137 21.179448 201 201 201 0
0.486236 0.972471 21.186734 203 203 203 0
0.567169 0.972290 21.182795 203 203 203 0
0.648073 0.972109 21.178845 202 202 202 0
0.727965 0.970620 21.146398 204 204 204 0
0.809424 0.971309 21.161421 204 204 204 0
0.890144 0.971066 21.156115 204 204 204 0
0.972352 0.972352 21.184145 204 204 204 0
1.053249 0.972229 21.181469 204 204 204 0
1.133550 0.971614 21.168058 204 204 204 0
1.214212 0.971370 21.162738 205 205 205 0
1.297167 0.972875 21.195544 205 205 205 0
1.379268 0.973601 21.211349 205 205 205 0
1.461478 0.974319 21.226993 205 205 205 0
1.543562 0.974881 21.239241 205 205 205 0
1.624368 0.974621 21.233568 206 206 206 0
1.707910 0.975948 21.262494 205 205 205 0
1.791645 0.977261 21.291091 206 206 206 0
1.875792 0.978674 21.321877 205 205 205 0
1.956761 0.978381 21.315480 205 205 205 0
2.040236 0.979313 21.335802 205 205 205 0
2.125098 0.980815 21.368511 205 205 205 0
2.212325 0.983256 21.421691 204 204 204 0
2.298743 0.985176 21.463521 204 204 204 0
2.382443 0.985839 21.477966 205 205 205 0
2.467928 0.987171 21.506997 205 205 205 0
2.557054 0.989827 21.564869 205 205 205 0
2.645900 0.992212 21.616829 205 205 205 0
2.733792 0.994106 21.658086 205 205 205 0
2.818955 0.994925 21.675929 205 205 205 0
2.908320 0.997138 21.724149 205 205 205 0
3.000953 1.000318 21.793413 205 205 205 0
3.092997 1.003134 21.854772 204 204 204 0
3.183094 1.005188 21.899513 203 203 203 0
3.278306 1.008710 21.976245 202 202 202 0
3.376740 1.013022 22.070194 202 202 202 0
3.473506 1.016636 22.148928 203 203 203 0
3.567965 1.019419 22.209554 203 203 203 0
3.663978 1.022505 22.276808 203 203 203 0
3.766643 1.027266 22.380527 202 202 202 0
3.869489 1.031864 22.480690 200 200 200 0
3.972729 1.036364 22.578739 199 199 199 0
4.082382 1.042310 22.708287 200 200 200 0
4.191652 1.047913 22.830346 200 200 200 0
4.301396 1.053403 22.949957 198 198 198 0
4.419009 1.060562 23.105932 196 196 196 0
4.546212 1.069697 23.304945 194 194 194 0
4.666381 1.076857 23.460941 194 194 194 0
4.802459 1.087349 23.689523 192 192 192 0
4.953471 1.100771 23.981946 190 190 190 0
5.116183 1.116258 24.319351 187 187 187 0
6.124462 1.312385 28.592261 193 193 193 0
6.020241 1.267419 27.612617 206 206 206 0
6.131304 1.268546 27.637162 208 208 208 0
6.258620 1.272940 27.732889 206 206 206 0
6.393602 1.278720 27.858831 205 205 205 0
6.526334 1.283869 27.971000 204 204 204 0
6.658181 1.288680 28.075821 204 204 204 0
6.801377 1.295500 28.224410 203 203 203 0
6.943743 1.301952 28.364962 201 201 201 0
7.088443 1.308636 28.510580 201 201 201 0
7.249099 1.318018 28.714988 199 199 199 0
7.410058 1.327175 28.914479 197 197 197 0
7.580531 1.337741 29.144679 195 195 195 0
7.771819 1.351621 29.447073 192 192 192 0
7.978002 1.367657 29.796458 189 189 189 0
8.226655 1.390421 30.292386 181 181 181 0
8.452414 1.408736 30.691409 124 124 124 0
-4.992122 1.324441 26.635307 90 90 90 0
-4.805429 1.301470 26.173361 116 116 116 0
-4.635962 1.282287 25.787581 133 133 133 0
-4.497676 1.271082 25.562240 142 142 142 0
-4.349852 1.256624 25.271472 153 153 153 0
-4.215756 1.245564 25.049054 154 154 154 0
-4.085754 1.235228 24.841186 164 164 164 0
-3.953635 1.223744 24.610237 167 167 167 0
-3.849386 1.220537 24.545744 168 168 168 0
-3.737974 1.214842 24.431205 174 174 174 0
-3.631990 1.210663 24.347177 178 178 178 0
-3.520779 1.204477 24.222762 178 178 178 0
-3.401669 1.195181 24.035815 179 179 179 0
-3.294419 1.189651 23.924611 181 181 181 0
-3.185000 1.183000 23.790851 169 169 169 0
-3.075990 1.176114 23.652365 155 155 155 0
-2.970721 1.170284 23.535123 157 157 157 0
-2.860842 1.162217 23.372894 157 157 157 0
-2.753721 1.154786 23.223454 157 157 157 0
-2.641167 1.144506 23.016705 163 163 163 0
-2.540038 1.138638 22.898701 169 169 169 0
-2.435256 1.130655 22.738153 172 172 172 0
-2.339284 1.126322 22.651015 172 172 172 0
-2.243532 1.121766 22.559401 173 173 173 0
-2.152417 1.119257 22.508936 175 175 175 0
-2.060957 1.116352 22.450513 178 178 178 0
-1.963302 1.109693 22.316595 182 182 182 0
-1.869004 1.104411 22.210386 183 183 183 0
-1.777532 1.100377 22.129244 184 184 184 0
-1.686680 1.096342 22.048106 185 185 185 0
-1.599865 1.094645 22.013968 185 185 185 0
-1.516023 1.094905 22.019209 185 185 185 0
-1.427491 1.091611 21.952963 185 185 185 0
-1.336282 1.085729 21.834675 188 188 188 0
-1.248428 1.081971 21.759087 192 192 192 0
-1.162371 1.079344 21.706273 192 192 192 0
-1.078365 1.078365 21.686584 193 193 193 0
-0.995140 1.078068 21.680606 193 193 193 0
-0.911424 1.077137 21.661887 193 193 193 0
-0.826041 1.073853 21.595833 194 194 194 0
-0.741011 1.070349 21.525368 195 195 195 0
-0.657071 1.067740 21.472910 195 195 195 0
-0.574884 1.067641 21.470915 195 195 195 0
-0.492687 1.067488 21.467835 195 195 195 0
-0.410341 1.066886 21.455730 195 195 195 0
-0.327415 1.064099 21.399671 196 196 196 0
-0.245013 1.061725 21.351928 198 198 198 0
-0.163065 1.059925 21.315738 198 198 198 0
-0.081574 1.060467 21.326638 199 199 199 0
0.000000 1.060994 21.337235 200 200 200 0
0.081576 1.060491 21.327110 201 201 201 0
0.162901 1.058858 21.294283 202 202 202 0
0.243866 1.056752 21.251929 201 201 201 0
0.325071 1.056479 21.246444 202 202 202 0
0.406688 1.057388 21.264714 202 202 202 0
0.487903 1.057124 21.259405 203 203 203 0
0.569088 1.056878 21.254453 203 203 203 0
0.650144 1.056484 21.246531 202 202 202 0
0.730971 1.055848 21.233737 203 203 203 0
0.811714 1.055229 21.221291 203 203 203 0
0.893691 1.056180 21.240430 204 204 204 0
0.976350 1.057712 21.271237 204 204 204 0
1.056529 1.056529 21.247446 204 204 204 0
1.137474 1.056226 21.241347 204 204 204 0
1.218392 1.055940 21.235589 205 205 205 0
1.302029 1.057899 21.274989 205 205 205 0
1.385032 1.059142 21.299997 205 205 205 0
1.466945 1.059460 21.306390 204 204 204 0
1.548350 1.059397 21.305124 205 205 205 0
1.629865 1.059412 21.305423 205 205 205 0
1.713910 1.060992 21.337188 205 205 205 0
1.798864 1.062965 21.376874 204 204 204 0
1.882062 1.063774 21.393146 203 203 203 0
1.963897 1.063777 21.393210 204 204 204 0
2.047995 1.064957 21.416943 204 204 204 0
2.136267 1.068133 21.480814 204 204 204 0
2.223695 1.070668 21.531786 204 204 204 0
2.308363 1.071740 21.553347 204 204 204 0
2.390057 1.071405 21.546607 204 204 204 0
2.478639 1.074077 21.600336 205 205 205 0
2.567059 1.076509 21.649247 205 205 205 0
2.658752 1.080118 21.721831 205 205 205 0
2.744458 1.081150 21.742589 204 204 204 0
2.832095 1.082860 21.776969 205 205 205 0
2.923317 1.085803 21.836167 204 204 204 0
3.017069 1.089497 21.910450 203 203 203 0
3.108265 1.092093 21.962653 202 202 202 0
3.198086 1.094082 22.002654 202 202 202 0
3.295678 1.098559 22.092695 203 203 203 0
3.390936 1.102054 22.162980 202 202 202 0
3.487820 1.105894 22.240201 203 203 203 0
3.582183 1.108771 22.298057 203 203 203 0
3.682154 1.113209 22.387318 201 201 201 0
3.790825 1.120016 22.524213 200 200 200 0
3.889355 1.123592 22.596109 199 199 199 0
3.997569 1.129748 22.719916 199 199 199 0
4.106448 1.135826 22.842153 199 199 199 0
4.218108 1.142404 22.974445 198 198 198 0
4.332526 1.149446 23.116051 195 195 195 0
4.457798 1.159027 23.308747 194 194 194 0
4.583183 1.168262 23.494469 194 194 194 0
4.708592 1.177148 23.673165 190 190 190 0
4.858298 1.191658 23.964968 189 189 189 0
5.015800 1.207507 24.283709 187 187 187 0
6.031684 1.425671 28.671107 192 192 192 0
5.881604 1.365372 27.458470 205 205 205 0
6.011666 1.371082 27.573288 208 208 208 0
6.123554 1.372521 27.602228 207 207 207 0
6.250337 1.377193 27.696187 206 206 206 0
6.387061 1.383863 27.830333 204 204 204 0
6.514443 1.388324 27.920040 205 205 205 0
6.653026 1.394989 28.054085 204 204 204 0
6.793872 1.401910 28.193265 203 203 203 0
6.938650 1.409413 28.344157 201 201 201 0
7.080976 1.416195 28.480546 200 200 200 0
7.237973 1.425661 28.670919 199 199 199 0
7.401788 1.436168 28.882207 197 197 197 0
7.569653 1.447140 29.102858 195 195 195 0
7.760739 1.462168 29.405094 193 193 193 0
7.960386 1.478357 29.730666 189 189 189 0
8.214878 1.504133 30.249022 183 183 183 0
8.428138 1.521747 30.603260 135 135 135 0
-5.032149 1.437757 26.848867 81 81 81 0
-4.824036 1.407011 26.274706 108 108 108 0
-4.666513 1.390025 25.957521 132 132 132 0
-4.516739 1.374660 25.670584 138 138 138 0
-4.360796 1.356692 25.335055 152 152 152 0
-4.220100 1.342759 25.074866 154 154 154 0
-4.086221 1.330398 24.844025 161 161 161 0
-3.966239 1.322080 24.688697 167 167 167 0
-3.853190 1.315723 24.569996 168 168 168 0
-3.748233 1.311882 24.498257 171 171 171 0
-3.636161 1.305289 24.375138 178 178 178 0
-3.522335 1.297702 24.233473 178 178 178 0
-3.407339 1.289263 24.075880 179 179 179 0
-3.296919 1.282135 23.942765 182 182 182 0
-3.191219 1.276487 23.837301 185 185 185 0
-3.091187 1.272842 23.769220 181 181 181 0
-2.993178 1.269833 23.713036 164 164 164 0
-2.889928 1.264344 23.610526 158 158 158 0
-2.771982 1.251863 23.377456 158 158 158 0
-2.660385 1.241513 23.184183 158 158 158 0
-2.553777 1.232858 23.022560 162 162 162 0
-2.447509 1.223755 22.852560 171 171 171 0
-2.352539 1.219835 22.779362 173 173 173 0
-2.259774 1.216801 22.722710 172 172 172 0
-2.163536 1.211580 22.625218 173 173 173 0
-2.072154 1.208756 22.572482 174 174 174 0
-1.974610 1.201937 22.445127 177 177 177 0
-1.873912 1.192489 22.268706 181 181 181 0
-1.784753 1.189835 22.219143 184 184 184 0
-1.697261 1.188083 22.186416 184 184 184 0
-1.607949 1.184805 22.125204 185 185 185 0
-1.520235 1.182405 22.080397 184 184 184 0
-1.432375 1.179603 22.028068 185 185 185 0
-1.342983 1.175110 21.944164 185 185 185 0
-1.254917 1.171256 21.872194 188 188 188 0
-1.167475 1.167475 21.801596 189 189 189 0
-1.083519 1.166866 21.790216 192 192 192 0
-0.999675 1.166288 21.779421 193 193 193 0
-0.914655 1.164106 21.738677 192 192 192 0
-0.829431 1.161203 21.684459 193 193 193 0
-0.743551 1.156634 21.599143 195 195 195 0
-0.660096 1.155169 21.571781 195 195 195 0
-0.577487 1.154974 21.568149 194 194 194 0
-0.495196 1.155457 21.577155 195 195 195 0
-0.412051 1.153743 21.545151 195 195 195 0
-0.328731 1.150559 21.485691 196 196 196 0
-0.245940 1.147720 21.432688 196 196 196 0
-0.163792 1.146547 21.410781 197 197 197 0
-0.081880 1.146324 21.406612 196 196 196 0
0.000000 1.146742 21.414420 197 197 197 0
0.081853 1.145942 21.399481 199 199 199 0
0.163482 1.144371 21.370147 198 198 198 0
0.244734 1.142093 21.327592 199 199 199 0
0.326124 1.141433 21.315267 200 200 200 0
0.408084 1.142636 21.337734 201 201 201 0
0.490122 1.143619 21.356094 202 202 202 0
0.571239 1.142478 21.334784 202 202 202 0
0.651791 1.140635 21.300374 202 202 202 0
0.732755 1.139842 21.285560 202 202 202 0
0.815343 1.141480 21.316159 203 203 203 0
0.897512 1.142289 21.331253 204 204 204 0
0.979977 1.143307 21.350264 203 203 203 0
1.060945 1.142556 21.336241 203 203 203 0
1.142077 1.142077 21.327299 203 203 203 0
1.222700 1.141186 21.310668 203 203 203 0
1.306427 1.143124 21.346848 203 203 203 0
1.389458 1.144260 21.368062 203 203 203 0
1.471911 1.144820 21.378520 203 203 203 0
1.554146 1.145160 21.384876 203 203 203 0
1.637696 1.146387 21.407793 203 203 203 0
1.721965 1.147977 21.437475 203 203 203 0
1.806689 1.149711 21.469859 203 203 203 0
1.889771 1.150295 21.480768 203 203 203 0
1.972001 1.150334 21.481488 203 203 203 0
2.057843 1.152392 21.519928 204 204 204 0
2.144896 1.154944 21.567580 203 203 203 0
2.230835 1.156729 21.600918 204 204 204 0
2.318171 1.159086 21.644923 204 204 204 0
2.400970 1.159089 21.644986 204 204 204 0
2.490051 1.162024 21.699791 205 205 205 0
2.579071 1.164742 21.750542 205 205 205 0
2.667501 1.167031 21.793305 205 205 205 0
2.753811 1.168283 21.816681 204 204 204 0
2.843844 1.170995 21.867316 202 202 202 0
2.938854 1.175542 21.952222 202 202 202 0
3.031058 1.178745 22.012042 203 203 203 0
3.121643 1.181162 22.057184 202 202 202 0
3.215000 1.184474 22.119020 202 202 202 0
3.312644 1.189154 22.206427 202 202 202 0
3.410537 1.193688 22.291094 202 202 202 0
3.501133 1.195509 22.325092 202 202 202 0
3.601383 1.200461 22.417574 200 200 200 0
3.708739 1.207496 22.548950 199 199 199 0
3.811546 1.212765 22.647332 198 198 198 0
3.912346 1.217174 22.729681 199 199 199 0
4.023497 1.224543 22.867274 198 198 198 0
4.131476 1.230652 22.981370 197 197 197 0
4.247874 1.238963 23.136566 195 195 195 0
4.370439 1.248697 23.318336 195 195 195 0
4.501124 1.260315 23.535289 193 193 193 0
4.629876 1.270946 23.733824 191 191 191 0
4.773173 1.285085 23.997852 188 188 188 0
4.914005 1.298039 24.239760 185 185 185 0
5.982342 1.550978 28.963167 190 190 190 0
5.761688 1.466612 27.387705 206 206 206 0
5.877757 1.469439 27.440507 208 208 208 0
6.003896 1.474641 27.537650 206 206 206 0
6.132546 1.480270 27.642759 207 207 207 0
6.251676 1.483448 27.702119 206 206 206 0
6.381204 1.488948 27.804812 205 205 205 0
6.516955 1.495695 27.930804 203 203 203 0
6.644294 1.500325 28.017265 204 204 204 0
6.786602 1.508134 28.163096 202 202 202 0
6.929992 1.515936 28.308791 201 201 201 0
7.076227 1.524111 28.461447 201 201 201 0
7.232937 1.534259 28.650969 199 199 199 0
7.399847 1.546237 28.874636 198 198 198 0
7.562475 1.556980 29.075261 196 196 196 0
7.750529 1.572571 29.366409 193 193 193 0
7.947533 1.589507 29.682662 190 190 190 0
8.201793 1.617255 30.200839 184 184 184 0
8.417756 1.636786 30.565562 140 140 140 0
-5.027230 1.538948 26.822624 74 74 74 0
-4.838467 1.512021 26.353306 103 103 103 0
-4.672872 1.491342 25.992893 127 127 127 0
-4.517088 1.472963 25.672566 136 136 136 0
-4.367830 1.455943 25.375921 150 150 150 0
-4.232133 1.442773 25.146366 154 154 154 0
-4.102279 1.431028 24.941658 158 158 158 0
-3.976815 1.420291 24.754530 167 167 167 0
-3.860585 1.412409 24.617150 168 168 168 0
-3.752719 1.407270 24.527578 170 170 170 0
-3.644458 1.401714 24.430754 176 176 176 0
-3.530766 1.393723 24.291475 179 179 179 0
-3.412868 1.383595 24.114945 179 179 179 0
-3.297301 1.373875 23.945542 180 180 180 0
-3.197843 1.370504 23.886780 184 184 184 0
-3.098269 1.366884 23.823679 187 187 187 0
-2.997861 1.362664 23.750134 185 185 185 0
-2.899296 1.359045 23.687059 176 176 176 0
-2.784968 1.347565 23.486971 163 163 163 0
-2.676396 1.338198 23.323715 159 159 159 0
-2.570101 1.329363 23.169722 161 161 161 0
-2.467623 1.321941 23.040367 164 164 164 0
-2.369160 1.316200 22.940307 170 170 170 0
-2.276597 1.313421 22.891875 174 174 174 0
-2.179246 1.307548 22.789504 174 174 174 0
-2.082403 1.301502 22.684125 174 174 174 0
-1.985336 1.294784 22.567046 174 174 174 0
-1.888051 1.287308 22.436734 177 177 177 0
-1.795650 1.282607 22.354811 181 181 181 0
-1.706655 1.279991 22.309211 184 184 184 0
-1.618065 1.277420 22.264393 184 184 184 0
-1.529663 1.274719 22.217329 184 184 184 0
-1.436927 1.267877 22.098069 185 185 185 0
-1.350096 1.265715 22.060395 186 186 186 0
-1.260312 1.260312 21.966220 187 187 187 0
-1.173567 1.257393 21.915346 186 186 186 0
-1.089657 1.257296 21.913659 187 187 187 0
-1.004304 1.255381 21.880271 190 190 190 0
-0.918728 1.252811 21.835493 191 191 191 0
-0.832786 1.249179 21.772188 194 194 194 0
-0.747361 1.245602 21.709847 194 194 194 0
-0.663488 1.244041 21.682628 194 194 194 0
-0.580331 1.243566 21.674361 195 195 195 0
-0.497062 1.242655 21.658474 195 195 195 0
-0.413663 1.240989 21.629443 195 195 195 0
-0.330071 1.237766 21.573258 196 196 196 0
-0.247103 1.235515 21.534025 196 196 196 0
-0.164602 1.234517 21.516632 196 196 196 0
-0.082331 1.234965 21.524452 196 196 196 0
0.000000 1.234634 21.518670 197 197 197 0
0.082169 1.232537 21.482118 198 198 198 0
0.164153 1.231148 21.457925 198 198 198 0
0.245855 1.229275 21.425273 198 198 198 0
0.327644 1.228664 21.414621 198 198 198 0
0.410110 1.230330 21.443658 198 198 198 0
0.492100 1.230250 21.442268 199 199 199 0
0.573648 1.229246 21.424762 200 200 200 0
0.654241 1.226703 21.380440 199 199 199 0
0.736637 1.227728 21.398306 199 199 199 0
0.818492 1.227738 21.398487 201 201 201 0
0.901310 1.229060 21.421518 201 201 201 0
0.982406 1.228008 21.403186 200 200 200 0
1.064664 1.228458 21.411032 201 201 201 0
1.145260 1.227064 21.386743 201 201 201 0
1.229761 1.229761 21.433734 201 201 201 0
1.312993 1.230930 21.454126 202 202 202 0
1.395776 1.231567 21.465221 201 201 201 0
1.477616 1.231346 21.461375 202 202 202 0
1.559522 1.231201 21.458846 202 202 202 0
1.644295 1.233221 21.494052 203 203 203 0
1.730039 1.235742 21.537990 203 203 203 0
1.814990 1.237493 21.568512 202 202 202 0
1.898278 1.238008 21.577475 203 203 203 0
1.980136 1.237585 21.570111 203 203 203 0
2.067166 1.240300 21.617427 203 203 203 0
2.154136 1.242771 21.660493 204 204 204 0
2.241142 1.245079 21.700720 203 203 203 0
2.326504 1.246341 21.722725 204 204 204 0
2.412848 1.248025 21.752070 203 203 203 0
2.499745 1.249873 21.784273 204 204 204 0
2.591032 1.253725 21.851415 203 203 203 0
2.678320 1.255463 21.881702 202 202 202 0
2.768053 1.258206 21.929517 201 201 201 0
2.859057 1.261348 21.984287 201 201 201 0
2.954731 1.266313 22.070817 201 201 201 0
3.048227 1.270095 22.136728 201 201 201 0
3.138360 1.272308 22.175303 202 202 202 0
3.232983 1.276177 22.242742 203 203 203 0
3.331872 1.281489 22.335326 202 202 202 0
3.428280 1.285605 22.407060 200 200 200 0
3.521727 1.288437 22.456410 198 198 198 0
3.627348 1.295482 22.579199 198 198 198 0
3.734107 1.302595 22.703186 199 199 199 0
3.836409 1.307867 22.795063 198 198 198 0
3.941375 1.313792 22.898332 198 198 198 0
4.052574 1.321492 23.032534 195 195 195 0
4.167428 1.330030 23.181353 194 194 194 0
4.282304 1.338220 23.324095 194 194 194 0
4.411044 1.350320 23.534981 193 193 193 0
4.538854 1.361656 23.732570 189 189 189 0
4.681683 1.376966 23.999399 188 188 188 0
4.836041 1.395012 24.313932 185 185 185 0
4.930131 1.395320 24.319304 187 187 187 0
5.653453 1.570403 27.370867 205 205 205 0
5.750175 1.568230 27.332978 209 209 209 0
5.874177 1.573440 27.423797 207 207 207 0
5.999840 1.578905 27.519048 207 207 207 0
6.122723 1.583463 27.598480 207 207 207 0
6.246110 1.587994 27.677455 207 207 207 0
6.377312 1.594328 27.787852 205 205 205 0
6.515097 1.602073 27.922843 204 204 204 0
6.642746 1.607116 28.010735 204 204 204 0
6.788835 1.616389 28.172364 203 203 203 0
6.932099 1.624711 28.317397 201 201 201 0
7.074121 1.632489 28.452976 201 201 201 0
7.225255 1.642103 28.620537 200 200 200 0
7.394542 1.655494 28.853933 197 197 197 0
7.553984 1.666320 29.042613 196 196 196 0
7.743319 1.683330 29.339090 193 193 193 0
7.940223 1.701476 29.655360 190 190 190 0
8.186338 1.729508 30.143932 185 185 185 0
8.417621 1.753671 30.565072 144 144 144 0
-4.863105 1.621035 26.487503 97 97 97 0
-4.691698 1.597174 26.097610 122 122 122 0
-4.530960 1.575986 25.751404 135 135 135 0
-4.389035 1.560546 25.499116 147 147 147 0
-4.244968 1.543625 25.222624 154 154 154 0
-4.103292 1.526806 24.947814 157 157 157 0
-3.984291 1.517825 24.801067 166 166 166 0
-3.874381 1.511953 24.705122 168 168 168 0
-3.758019 1.503208 24.562215 169 169 169 0
-3.652882 1.498618 24.487228 175 175 175 0
-3.532631 1.487424 24.304308 178 178 178 0
-3.418395 1.478225 24.154000 178 178 178 0
-3.304749 1.468777 23.999631 179 179 179 0
-3.203548 1.464479 23.929400 184 184 184 0
-3.106881 1.462062 23.889900 186 186 186 0
-3.004354 1.456657 23.801578 187 187 187 0
-2.904409 1.452204 23.728829 187 187 187 0
-2.798370 1.444320 23.600000 185 185 185 0
-2.691996 1.435731 23.459664 175 175 175 0
-2.585359 1.426405 23.307268 165 165 165 0
-2.488409 1.421948 23.234445 163 163 163 0
-2.389838 1.416200 23.140528 163 163 163 0
-2.293341 1.411287 23.060244 167 167 167 0
-2.192364 1.403113 22.926683 172 172 172 0
-2.092069 1.394713 22.789426 173 173 173 0
-1.991114 1.385123 22.632722 175 175 175 0
-1.900944 1.382505 22.589945 176 176 176 0
-1.804582 1.374920 22.466007 176 176 176 0
-1.716809 1.373447 22.441947 177 177 177 0
-1.628408 1.371291 22.406714 183 183 183 0
-1.536608 1.365874 22.318196 184 184 184 0
-1.445391 1.360368 22.228232 185 185 185 0
-1.356793 1.356793 22.169816 186 186 186 0
-1.266406 1.350833 22.072437 187 187 187 0
-1.180606 1.349264 22.046800 187 187 187 0
-1.095677 1.348526 22.034731 187 187 187 0
-1.009056 1.345407 21.983781 187 187 187 0
-0.922405 1.341681 21.922884 188 188 188 0
-0.835847 1.337356 21.852221 191 191 191 0
-0.750747 1.334661 21.808191 192 192 192 0
-0.666638 1.333276 21.785554 194 194 194 0
-0.583351 1.333373 21.787145 195 195 195 0
-0.499154 1.331078 21.749635 195 195 195 0
-0.415664 1.330125 21.734063 195 195 195 0
-0.331323 1.325292 21.655096 196 196 196 0
-0.248051 1.322939 21.616658 196 196 196 0
-0.165265 1.322120 21.603270 197 197 197 0
-0.082692 1.323064 21.618700 197 197 197 0
0.000000 1.322759 21.613715 197 197 197 0
0.082550 1.320792 21.581570 197 197 197 0
0.164767 1.318134 21.538139 198 198 198 0
0.246705 1.315759 21.499337 198 198 198 0
0.329257 1.317026 21.520034 198 198 198 0
0.411704 1.317453 21.527011 198 198 198 0
0.494444 1.318517 21.544390 199 199 199 0
0.575362 1.315113 21.488769 199 199 199 0
0.657329 1.314657 21.481324 199 199 199 0
0.739200 1.314133 21.472761 199 199 199 0
0.822653 1.316245 21.507271 200 200 200 0
0.905942 1.317734 21.531597 200 200 200 0
0.987845 1.317127 21.521686 200 200 200 0
1.068953 1.315635 21.497302 200 200 200 0
1.150638 1.315014 21.487164 201 201 201 0
1.234779 1.317097 21.521201 201 201 201 0
1.319425 1.319425 21.559235 201 201 201 0
1.402330 1.319840 21.566007 202 202 202 0
1.483921 1.319041 21.552954 202 202 202 0
1.567569 1.320058 21.569572 202 202 202 0
1.651579 1.321263 21.589269 203 203 203 0
1.738385 1.324484 21.641888 203 203 203 0
1.823027 1.325838 21.664016 203 203 203 0
1.905425 1.325513 21.658705 203 203 203 0
1.989349 1.326233 21.670471 203 203 203 0
2.076932 1.329236 21.719550 203 203 203 0
2.163643 1.331473 21.756092 203 203 203 0
2.251063 1.333963 21.796785 203 203 203 0
2.333686 1.333535 21.789781 203 203 203 0
2.422825 1.336731 21.842007 202 202 202 0
2.513910 1.340752 21.907710 201 201 201 0
2.604470 1.344243 21.964750 201 201 201 0
2.693372 1.346686 22.004674 201 201 201 0
2.781979 1.348838 22.039841 201 201 201 0
2.875849 1.353341 22.113407 201 201 201 0
2.970496 1.357941 22.188576 201 201 201 0
3.059249 1.359666 22.216767 201 201 201 0
3.153667 1.363748 22.283465 201 201 201 0
3.251267 1.368955 22.368539 200 200 200 0
3.350540 1.374580 22.460465 199 199 199 0
3.445868 1.378347 22.522012 198 198 198 0
3.546308 1.383925 22.613156 198 198 198 0
3.651943 1.391216 22.732291 198 198 198 0
3.758750 1.398605 22.853020 199 199 199 0
3.858675 1.403154 22.927360 196 196 196 0
3.970429 1.411708 23.067127 195 195 195 0
4.089696 1.422503 23.243510 194 194 194 0
4.198401 1.429243 23.353641 194 194 194 0
4.320069 1.440023 23.529787 191 191 191 0
4.454546 1.454546 23.767084 190 190 190 0
4.593893 1.470046 24.020356 187 187 187 0
4.759068 1.493041 24.396094 184 184 184 0
4.951163 1.523435 24.892723 182 182 182 0
5.514554 1.664771 27.202139 198 198 198 0
5.637555 1.670387 27.293900 210 210 210 0
5.746030 1.671572 27.313275 209 209 209 0
5.863945 1.675413 27.376028 209 209 209 0
