ply
format ascii 1.0
element vertex 1135
property float x
property float y
property float z
property uchar red
property uchar green
property uchar blue
property uchar alpha
end_header
0.987974 4.841071 25.829379 198 198 198 0
1.084707 4.831875 25.780309 198 198 198 0
1.181737 4.825428 25.745914 198 198 198 0
1.279385 4.822297 25.729208 198 198 198 0
1.373659 4.807808 25.651901 198 198 198 0
1.467613 4.794203 25.579316 198 198 198 0
1.564064 4.789945 25.556595 199 199 199 0
1.659730 4.783929 25.524497 201 201 201 0
1.756463 4.781483 25.511447 202 202 202 0
1.849692 4.770259 25.451563 201 201 201 0
1.945632 4.766798 25.433096 202 202 202 0
2.039220 4.758181 25.387118 202 202 202 0
2.135539 4.756427 25.377763 202 202 202 0
2.230696 4.752352 25.356022 202 202 202 0
2.327272 4.751513 25.351544 203 203 203 0
2.418857 4.740960 25.295237 203 203 203 0
2.511522 4.733254 25.254121 204 204 204 0
2.607731 4.732549 25.250359 204 204 204 0
2.705875 4.735281 25.264939 205 205 205 0
2.801078 4.732856 25.251997 205 205 205 0
2.893545 4.726124 25.216082 205 205 205 0
2.989523 4.725375 25.212087 205 205 205 0
3.083971 4.722330 25.195839 206 206 206 0
3.182357 4.725318 25.211780 206 206 206 0
3.278563 4.724988 25.210020 206 206 206 0
3.374193 4.723870 25.204055 206 206 206 0
3.464986 4.716231 25.163296 207 207 207 0
3.563867 4.719715 25.181888 206 206 206 0
3.663212 4.723615 25.202694 207 207 207 0
3.761309 4.725747 25.214070 207 207 207 0
3.852287 4.719051 25.178345 207 207 207 0
3.952643 4.723890 25.204163 207 207 207 0
4.051911 4.727230 25.221982 207 207 207 0
4.149672 4.728696 25.229802 208 208 208 0
4.246809 4.729401 25.233568 208 208 208 0
4.344653 4.730844 25.241266 207 207 207 0
4.444971 4.734860 25.262693 208 208 208 0
4.547124 4.740619 25.293419 208 208 208 0
4.650124 4.747001 25.327472 208 208 208 0
4.749011 4.749011 25.338194 207 207 207 0
4.847858 4.750901 25.348277 207 207 207 0
4.951306 4.757137 25.381551 208 208 208 0
5.058042 4.766232 25.430076 208 208 208 0
5.158697 4.769362 25.446774 207 207 207 0
5.262641 4.775360 25.478777 208 208 208 0
5.372032 4.785992 25.535507 208 208 208 0
5.477369 4.792698 25.571282 207 207 207 0
5.583818 4.800124 25.610906 207 207 207 0
5.690819 4.807761 25.651650 207 207 207 0
5.804739 4.820885 25.721677 206 206 206 0
5.912764 4.828758 25.763679 207 207 207 0
6.021617 4.837037 25.807852 207 207 207 0
6.134550 4.848273 25.867803 207 207 207 0
6.254506 4.864616 25.954999 206 206 206 0
6.371310 4.878035 26.026595 206 206 206 0
6.480539 4.885329 26.065516 206 206 206 0
6.607614 4.905653 26.173952 205 205 205 0
6.729977 4.921924 26.260765 205 205 205 0
6.850550 4.936426 26.338141 203 203 203 0
6.981413 4.957815 26.452260 203 203 203 0
7.115410 4.980787 26.574826 203 203 203 0
7.244489 4.999718 26.675832 203 203 203 0
7.380381 5.022759 26.798769 201 201 201 0
7.533346 5.056629 26.979481 199 199 199 0
7.678886 5.084668 27.129079 200 200 200 0
7.826667 5.113422 27.282498 198 198 198 0
7.995277 5.154849 27.503532 196 196 196 0
8.167207 5.197314 27.730098 195 195 195 0
8.360136 5.251881 28.021238 191 191 191 0
8.576979 5.319898 28.384145 189 189 189 0
-2.214760 5.828315 30.474848 77 77 77 0
-2.048819 5.691164 29.757718 109 109 109 0
-1.907137 5.609227 29.329290 121 121 121 0
-1.772599 5.539373 28.964042 138 138 138 0
-1.646666 5.488885 28.700053 142 142 142 0
-1.524842 5.445865 28.475110 150 150 150 0
-1.406611 5.410041 28.287797 157 157 157 0
-1.290770 5.378209 28.121353 158 158 158 0
-1.173661 5.334823 27.894497 162 162 162 0
-1.061486 5.307432 27.751279 169 169 169 0
-0.947522 5.264009 27.524231 170 170 170 0
-0.838999 5.243743 27.418266 170 170 170 0
-0.730228 5.215917 27.272768 173 173 173 0
-0.623628 5.196902 27.173343 179 179 179 0
-0.518240 5.182401 27.097521 179 179 179 0
-0.412666 5.158326 26.971637 179 179 179 0
-0.307851 5.130856 26.828003 180 180 180 0
-0.204176 5.104391 26.689626 184 184 184 0
-0.101856 5.092818 26.629114 187 187 187 0
0.000000 5.081031 26.567482 188 188 188 0
0.101330 5.066483 26.491412 187 187 187 0
0.202049 5.051228 26.411649 187 187 187 0
0.301836 5.030593 26.303753 189 189 189 0
0.401110 5.013879 26.216363 192 192 192 0
0.500449 5.004492 26.167280 193 193 193 0
0.598999 4.991657 26.100168 194 194 194 0
0.698062 4.986159 26.071418 194 194 194 0
0.795888 4.974298 26.009401 193 193 193 0
0.892335 4.957418 25.921142 194 194 194 0
0.988370 4.941849 25.839735 196 196 196 0
1.086046 4.936571 25.812134 198 198 198 0
1.183476 4.931149 25.783786 198 198 198 0
1.280869 4.926418 25.759047 198 198 198 0
1.375912 4.913971 25.693965 198 198 198 0
1.469677 4.898922 25.615278 199 199 199 0
1.564562 4.889256 25.564736 199 199 199 0
1.663615 4.892984 25.584231 199 199 199 0
1.759653 4.887924 25.557772 201 201 201 0
1.852463 4.874902 25.489684 202 202 202 0
1.945732 4.864330 25.434407 202 202 202 0
2.041503 4.860722 25.415542 202 202 202 0
2.137326 4.857559 25.399002 202 202 202 0
2.233561 4.855566 25.388583 202 202 202 0
2.328744 4.851550 25.367583 202 202 202 0
2.423112 4.846223 25.339728 202 202 202 0
2.514979 4.836498 25.288879 204 204 204 0
2.611711 4.836502 25.288897 203 203 203 0
2.709353 4.838130 25.297410 204 204 204 0
2.802923 4.832627 25.268636 205 205 205 0
2.898703 4.831171 25.261027 205 205 205 0
2.992904 4.827264 25.240596 206 206 206 0
3.088398 4.825622 25.232013 206 206 206 0
3.185312 4.826230 25.235190 206 206 206 0
3.284695 4.830434 25.257171 206 206 206 0
3.374930 4.821329 25.209563 205 205 205 0
3.471090 4.820958 25.207622 206 206 206 0
3.569109 4.823121 25.218931 206 206 206 0
3.666585 4.824455 25.225906 207 207 207 0
3.763219 4.824640 25.226877 207 207 207 0
3.857697 4.822122 25.213708 207 207 207 0
3.957797 4.826582 25.237031 207 207 207 0
4.055268 4.827700 25.242877 207 207 207 0
4.154211 4.830477 25.257398 208 208 208 0
4.254684 4.834868 25.280356 207 207 207 0
4.348601 4.831779 25.264205 207 207 207 0
4.450944 4.837983 25.296642 208 208 208 0
4.552921 4.843533 25.325665 207 207 207 0
4.653834 4.847744 25.347681 207 207 207 0
4.754663 4.851697 25.368352 207 207 207 0
4.855905 4.855905 25.390353 207 207 207 0
4.961788 4.864498 25.435285 207 207 207 0
5.068394 4.873455 25.482120 207 207 207 0
5.163323 4.871059 25.469592 207 207 207 0
5.267806 4.877598 25.503782 208 208 208 0
5.377600 4.888727 25.561973 207 207 207 0
5.489778 4.901587 25.629214 207 207 207 0
5.589036 4.902663 25.634841 206 206 206 0
5.698867 4.912816 25.687928 206 206 206 0
5.813378 4.926592 25.759957 206 206 206 0
5.923725 4.936438 25.811439 206 206 206 0
6.034053 4.945945 25.861149 206 206 206 0
6.144581 4.955307 25.910104 206 206 206 0
6.268824 4.975258 26.014418 206 206 206 0
6.383908 4.987428 26.078056 206 206 206 0
6.502389 5.001838 26.153399 205 205 205 0
6.621761 5.016485 26.229988 205 205 205 0
6.744785 5.033422 26.318544 204 204 204 0
6.869618 5.051190 26.411450 203 203 203 0
7.003241 5.074812 26.534966 203 203 203 0
7.126914 5.090653 26.617794 203 203 203 0
7.256659 5.110323 26.720643 202 202 202 0
7.403037 5.140998 26.881036 199 199 199 0
7.551148 5.172019 27.043238 199 199 199 0
7.695531 5.199683 27.187884 199 199 199 0
7.855034 5.236689 27.381381 196 196 196 0
8.029811 5.282770 27.622329 196 196 196 0
8.206774 5.329074 27.864438 194 194 194 0
8.409583 5.390759 28.186973 190 190 190 0
8.642407 5.469878 28.600670 187 187 187 0
-2.062442 5.843586 29.955588 94 94 94 0
-1.917579 5.752738 29.489876 117 117 117 0
-1.786237 5.693632 29.186887 130 130 130 0
-1.655333 5.628133 28.851126 141 141 141 0
-1.530992 5.577184 28.589947 145 145 145 0
-1.412950 5.543111 28.415283 156 156 156 0
-1.293768 5.498514 28.186668 157 157 157 0
-1.177658 5.460051 27.989497 158 158 158 0
-1.062841 5.420490 27.786699 167 167 167 0
-0.950851 5.388156 27.620945 169 169 169 0
-0.840810 5.360162 27.477440 170 170 170 0
-0.731967 5.332901 27.337696 171 171 171 0
-0.625480 5.316582 27.254040 177 177 177 0
-0.518977 5.293563 27.136039 179 179 179 0
-0.413123 5.267316 27.001493 179 179 179 0
-0.308471 5.244004 26.881991 180 180 180 0
-0.204690 5.219600 26.756890 181 181 181 0
-0.102054 5.204762 26.680826 186 186 186 0
0.000000 5.190311 26.606747 187 187 187 0
0.101586 5.180908 26.558545 186 186 186 0
0.202547 5.164936 26.476670 187 187 187 0
0.302189 5.137211 26.334545 187 187 187 0
0.401735 5.122127 26.257219 189 189 189 0
0.500999 5.110192 26.196040 192 192 192 0
0.600421 5.103582 26.162155 193 193 193 0
0.699737 5.098085 26.133975 194 194 194 0
0.796966 5.080659 26.044645 193 193 193 0
0.893441 5.062832 25.953257 194 194 194 0
0.989642 5.047172 25.872984 194 194 194 0
1.088017 5.044442 25.858990 196 196 196 0
1.184958 5.036071 25.816076 198 198 198 0
1.281813 5.028651 25.778039 198 198 198 0
1.377181 5.016875 25.717673 198 198 198 0
1.471593 5.003416 25.648679 198 198 198 0
1.567907 4.997704 25.619398 199 199 199 0
1.665072 4.995216 25.606643 199 199 199 0
1.761352 4.990498 25.582458 199 199 199 0
1.855366 4.980194 25.529636 202 202 202 0
1.949660 4.971632 25.485747 202 202 202 0
2.044553 4.965343 25.453507 202 202 202 0
2.141479 4.964338 25.448357 203 203 203 0
2.237382 4.961151 25.432018 202 202 202 0
2.331362 4.954145 25.396104 203 203 203 0
2.427059 4.951201 25.381012 203 203 203 0
2.519345 4.941792 25.332777 203 203 203 0
2.614908 4.939270 25.319850 203 203 203 0
2.711835 4.939414 25.320591 203 203 203 0
2.808263 4.938670 25.316774 204 204 204 0
2.900482 4.930819 25.276530 204 204 204 0
2.995195 4.927578 25.259918 206 206 206 0
3.092231 4.928243 25.263326 206 206 206 0
3.190041 4.930064 25.272660 206 206 206 0
3.285691 4.928536 25.264826 206 206 206 0
3.378926 4.923578 25.239412 206 206 206 0
3.474063 4.921589 25.229212 206 206 206 0
3.573883 4.926164 25.252665 206 206 206 0
3.671463 4.927490 25.259466 206 206 206 0
3.767427 4.926635 25.255081 206 206 206 0
3.863042 4.925378 25.248640 207 207 207 0
3.960448 4.926411 25.253934 207 207 207 0
4.060520 4.930632 25.275570 207 207 207 0
4.162172 4.936529 25.305803 206 206 206 0
4.257071 4.934332 25.294539 206 206 206 0
4.355670 4.936426 25.305272 206 206 206 0
4.456750 4.941179 25.329636 207 207 207 0
4.561112 4.949291 25.371223 207 207 207 0
4.659984 4.951233 25.381175 206 206 206 0
4.761113 4.955444 25.402763 207 207 207 0
4.863355 4.960623 25.429310 208 208 208 0
4.967887 4.967887 25.466546 207 207 207 0
5.071886 4.974350 25.499679 207 207 207 0
5.173442 4.978217 25.519505 207 207 207 0
5.276849 4.983691 25.547562 207 207 207 0
5.388932 4.997010 25.615838 206 206 206 0
5.495759 5.005066 25.657139 206 206 206 0
5.601255 5.011649 25.690885 206 206 206 0
5.707869 5.018988 25.728504 206 206 206 0
5.821295 5.031967 25.795035 206 206 206 0
5.932296 5.042452 25.848785 206 206 206 0
6.043156 5.052475 25.900167 205 205 205 0
6.160444 5.067462 25.976995 205 205 205 0
6.277419 5.081720 26.050085 205 205 205 0
6.392303 5.093867 26.112350 205 205 205 0
6.512218 5.109586 26.192933 204 204 204 0
6.635384 5.127342 26.283955 205 205 205 0
6.759962 5.145643 26.377766 202 202 202 0
6.881609 5.161207 26.457551 202 202 202 0
7.020383 5.188979 26.599916 203 203 203 0
7.153044 5.211503 26.715383 202 202 202 0
7.279482 5.228924 26.804683 201 201 201 0
7.424477 5.259004 26.958885 199 199 199 0
7.573899 5.291354 27.124718 200 200 200 0
7.719341 5.320086 27.272005 198 198 198 0
7.893364 5.367488 27.514994 195 195 195 0
8.059876 5.408601 27.725750 195 195 195 0
8.247927 5.462912 28.004165 192 192 192 0
8.461338 5.532413 28.360442 190 190 190 0
8.716488 5.627100 28.845827 180 180 180 0
-2.089205 6.035481 30.344298 78 78 78 0
-1.931555 5.908287 29.704813 110 110 110 0
-1.792789 5.826566 29.293945 122 122 122 0
-1.664255 5.769417 29.006621 139 139 139 0
-1.540392 5.721455 28.765487 142 142 142 0
-1.416984 5.667935 28.496406 150 150 150 0
-1.298286 5.625905 28.285093 158 158 158 0
-1.182595 5.590451 28.106844 158 158 158 0
-1.064450 5.535138 27.828750 162 162 162 0
-0.953224 5.507516 27.689872 170 170 170 0
-0.843367 5.481886 27.561014 170 170 170 0
-0.734334 5.455051 27.426097 171 171 171 0
-0.627272 5.436360 27.332129 173 173 173 0
-0.520478 5.412976 27.214560 179 179 179 0
-0.414043 5.382560 27.061637 180 180 180 0
-0.309373 5.362474 26.960652 180 180 180 0
-0.205083 5.332158 26.808233 180 180 180 0
-0.102356 5.322537 26.759866 183 183 183 0
0.000000 5.306906 26.681278 186 186 186 0
0.101665 5.286579 26.579078 187 187 187 0
0.202775 5.272157 26.506574 187 187 187 0
0.302955 5.251228 26.401348 188 188 188 0
0.402403 5.231242 26.300865 188 188 188 0
0.501914 5.219908 26.243879 191 191 191 0
0.601489 5.212902 26.208656 192 192 192 0
0.700562 5.204177 26.164794 193 193 193 0
0.797794 5.185660 26.071695 193 193 193 0
0.895510 5.174059 26.013367 193 193 193 0
0.992220 5.159543 25.940386 194 194 194 0
1.089840 5.151969 25.902309 195 195 195 0
1.186788 5.142748 25.855949 197 197 197 0
1.284077 5.136307 25.823564 198 198 198 0
1.379103 5.122384 25.753567 197 197 197 0
1.473506 5.108155 25.682025 198 198 198 0
1.571155 5.106253 25.672463 198 198 198 0
1.667403 5.100292 25.642495 199 199 199 0
1.762996 5.093100 25.606336 199 199 199 0
1.858664 5.086871 25.575017 200 200 200 0
1.953234 5.078409 25.532473 202 202 202 0
2.046933 5.068595 25.483132 202 202 202 0
2.144550 5.068936 25.484845 202 202 202 0
2.240389 5.065228 25.466202 202 202 202 0
2.335664 5.060605 25.442961 202 202 202 0
2.429238 5.052815 25.403794 202 202 202 0
2.523995 5.047990 25.379540 203 203 203 0
2.619456 5.044878 25.363893 202 202 202 0
2.715603 5.043262 25.355769 203 203 203 0
2.811351 5.041043 25.344612 204 204 204 0
2.904683 5.034784 25.313143 204 204 204 0
3.000303 5.032766 25.302998 203 203 203 0
3.095928 5.030882 25.293527 204 204 204 0
3.194122 5.033162 25.304990 205 205 205 0
3.289434 5.030899 25.293611 205 205 205 0
3.383846 5.027428 25.276159 206 206 206 0
3.479218 5.025537 25.266650 206 206 206 0
3.578250 5.028892 25.283521 206 206 206 0
3.675816 5.030065 25.289414 206 206 206 0
3.774086 5.032114 25.299720 206 206 206 0
3.865754 5.025480 25.266363 206 206 206 0
3.965566 5.029499 25.286571 206 206 206 0
4.066928 5.035244 25.315457 206 206 206 0
4.168475 5.040946 25.344123 206 206 206 0
4.263909 5.039165 25.335169 206 206 206 0
4.361932 5.040455 25.341652 207 207 207 0
4.464892 5.047270 25.375915 207 207 207 0
4.566945 5.052790 25.403671 207 207 207 0
4.667868 5.056857 25.424119 206 206 206 0
4.768442 5.060388 25.441870 207 207 207 0
4.869154 5.063921 25.459631 207 207 207 0
4.975951 5.073519 25.507886 207 207 207 0
5.075992 5.075992 25.520320 207 207 207 0
5.180687 5.082938 25.555246 207 207 207 0
5.288029 5.092176 25.601690 205 205 205 0
5.399570 5.105048 25.666405 206 206 206 0
5.503586 5.110473 25.693679 206 206 206 0
5.611169 5.118961 25.736356 206 206 206 0
5.723333 5.131264 25.798211 206 206 206 0
5.835132 5.142828 25.856351 206 206 206 0
5.937643 5.145957 25.872083 206 206 206 0
6.053974 5.160764 25.946528 205 205 205 0
6.171191 5.175837 26.022309 204 204 204 0
6.294809 5.195715 26.122248 204 204 204 0
6.406412 5.205209 26.169982 204 204 204 0
6.525329 5.220263 26.245666 204 204 204 0
6.650957 5.240148 26.345642 203 203 203 0
6.783260 5.264620 26.468676 203 203 203 0
6.902668 5.278510 26.538514 202 202 202 0
7.034619 5.301452 26.653856 202 202 202 0
7.169811 5.326145 26.778005 200 200 200 0
7.303756 5.349230 26.894067 199 199 199 0
7.455227 5.384331 27.070541 199 199 199 0
7.595701 5.410636 27.202798 198 198 198 0
7.755154 5.449567 27.398529 196 196 196 0
7.924750 5.494493 27.624401 195 195 195 0
8.092886 5.537238 27.839306 193 193 193 0
8.296378 5.602749 28.168670 191 191 191 0
8.528471 5.685647 28.585456 186 186 186 0
8.774377 5.775540 29.037404 163 163 163 0
-1.949137 6.076720 29.975187 95 95 95 0
-1.805620 5.981117 29.503598 117 117 117 0
-1.674471 5.916464 29.184680 133 133 133 0
-1.547241 5.857413 28.893393 141 141 141 0
-1.424218 5.806425 28.641882 145 145 145 0
-1.303564 5.757406 28.400077 156 156 156 0
-1.185800 5.713401 28.183012 159 159 159 0
-1.069240 5.666973 27.953991 159 159 159 0
-0.956201 5.630959 27.776343 166 166 166 0
-0.845374 5.600600 27.626589 170 170 170 0
-0.737096 5.580872 27.529272 170 170 170 0
-0.629520 5.560764 27.430085 171 171 171 0
-0.521860 5.531717 27.286805 176 176 176 0
-0.415250 5.502061 27.140516 179 179 179 0
-0.309748 5.472211 26.993271 179 179 179 0
-0.205726 5.451744 26.892314 180 180 180 0
-0.102511 5.433098 26.800336 180 180 180 0
0.000000 5.422482 26.747970 186 186 186 0
0.101963 5.404053 26.657062 187 187 187 0
0.203172 5.384058 26.558432 187 187 187 0
0.303401 5.360082 26.440164 187 187 187 0
0.403667 5.348589 26.383471 187 187 187 0
0.503264 5.334603 26.314480 190 190 190 0
0.602738 5.324181 26.263073 191 191 191 0
0.701895 5.314346 26.214557 193 193 193 0
0.798968 5.293166 26.110079 193 193 193 0
0.896090 5.276976 26.030216 193 193 193 0
0.993483 5.265460 25.973411 194 194 194 0
1.092210 5.262465 25.958640 194 194 194 0
1.189665 5.254355 25.918631 195 195 195 0
1.285986 5.242867 25.861964 197 197 197 0
1.381838 5.231244 25.804630 198 198 198 0
1.476631 5.217429 25.736485 199 199 199 0
1.573235 5.211342 25.706460 198 198 198 0
1.669370 5.204507 25.672742 198 198 198 0
1.767643 5.204727 25.673828 199 199 199 0
1.860066 5.188605 25.594304 199 199 199 0
1.954171 5.178553 25.544718 199 199 199 0
2.050628 5.175394 25.529134 201 201 201 0
2.148370 5.175618 25.530242 202 202 202 0
2.244917 5.173070 25.517672 203 203 203 0
2.339184 5.165699 25.481311 202 202 202 0
2.433240 5.158468 25.445644 203 203 203 0
2.528356 5.153957 25.423391 204 204 204 0
2.625296 5.153359 25.420443 203 203 203 0
2.720593 5.149693 25.402360 203 203 203 0
2.815932 5.146359 25.385910 203 203 203 0
2.909787 5.140623 25.357617 204 204 204 0
3.005506 5.138446 25.346878 203 203 203 0
3.102676 5.138808 25.348663 204 204 204 0
3.199936 5.139292 25.351051 204 204 204 0
3.294511 5.135561 25.332645 205 205 205 0
3.390342 5.133946 25.324680 204 204 204 0
3.484687 5.130233 25.306366 205 205 205 0
3.584784 5.134961 25.329688 205 205 205 0
3.681199 5.134304 25.326448 206 206 206 0
3.778646 5.135084 25.330293 206 206 206 0
3.876319 5.136122 25.335415 205 205 205 0
3.974978 5.138386 25.346583 205 205 205 0
4.074907 5.142145 25.365123 206 206 206 0
4.172607 5.142981 25.369250 206 206 206 0
4.273905 5.148113 25.394564 206 206 206 0
4.371082 5.148163 25.394811 206 206 206 0
4.472158 5.152703 25.417208 206 206 206 0
4.576468 5.160698 25.456642 207 207 207 0
4.675492 5.162522 25.465641 207 207 207 0
4.776120 5.166008 25.482836 207 207 207 0
4.879531 5.172303 25.513890 206 206 206 0
4.982342 5.177728 25.540651 207 207 207 0
5.085701 5.183502 25.569133 206 206 206 0
5.189137 5.189137 25.596928 206 206 206 0
5.297224 5.199127 25.646207 206 206 206 0
5.407860 5.211210 25.705810 206 206 206 0
5.515497 5.220024 25.749287 205 205 205 0
5.619453 5.225105 25.774350 205 205 205 0
5.732168 5.238016 25.838035 205 205 205 0
5.846236 5.251704 25.905555 205 205 205 0
5.955304 5.260519 25.949038 204 204 204 0
6.067567 5.271821 26.004788 204 204 204 0
6.183470 5.285870 26.074088 205 205 205 0
6.307660 5.306444 26.175578 204 204 204 0
6.422453 5.318594 26.235511 205 205 205 0
6.542962 5.335030 26.316588 204 204 204 0
6.671095 5.357091 26.425409 202 202 202 0
6.796593 5.376410 26.520704 202 202 202 0
6.921212 5.394474 26.609812 202 202 202 0
7.055541 5.419474 26.733130 202 202 202 0
7.190053 5.443897 26.853605 199 199 199 0
7.331935 5.473134 26.997827 199 199 199 0
7.483156 5.508434 27.171954 199 199 199 0
7.627775 5.537973 27.317663 197 197 197 0
7.793009 5.581480 27.532271 195 195 195 0
7.962284 5.626681 27.755239 194 194 194 0
8.139330 5.676112 27.999072 191 191 191 0
8.362337 5.755894 28.392620 188 188 188 0
8.603220 5.845777 28.835996 179 179 179 0
8.824024 5.919915 29.201700 123 123 123 0
-1.980519 6.291061 30.457810 78 78 78 0
-1.822169 6.149822 29.774010 108 108 108 0
-1.684715 6.064973 29.363219 121 121 121 0
-1.555865 6.001195 29.054442 138 138 138 0
-1.430929 5.943860 28.776860 142 142 142 0
-1.309953 5.894788 28.539280 150 150 150 0
-1.188709 5.835481 28.252148 158 158 158 0
-1.073735 5.798169 28.071503 158 158 158 0
-0.959581 5.757485 27.874533 162 162 162 0
-0.848331 5.726231 27.723220 169 169 169 0
-0.740284 5.710764 27.648337 170 170 170 0
-0.631007 5.679065 27.494868 171 171 171 0
-0.523471 5.653483 27.371013 173 173 173 0
-0.416243 5.619286 27.205452 179 179 179 0
-0.310445 5.588012 27.054042 180 180 180 0
-0.206313 5.570443 26.968981 180 180 180 0
-0.102894 5.556252 26.900275 180 180 180 0
0.000000 5.535535 26.799977 183 183 183 0
0.102175 5.517477 26.712548 186 186 186 0
0.203703 5.499982 26.627850 187 187 187 0
0.304111 5.473999 26.502051 187 187 187 0
0.404176 5.456378 26.416740 188 188 188 0
0.504238 5.445774 26.365404 188 188 188 0
0.604148 5.437331 26.324525 189 189 189 0
0.702789 5.421514 26.247947 193 193 193 0
0.800377 5.402544 26.156109 193 193 193 0
0.898108 5.388646 26.088822 193 193 193 0
0.995682 5.376684 26.030907 194 194 194 0
1.094558 5.373284 26.014447 194 194 194 0
1.191874 5.363434 25.966757 194 194 194 0
1.288284 5.351334 25.908175 196 196 196 0
1.383546 5.336534 25.836524 198 198 198 0
1.480425 5.329531 25.802619 198 198 198 0
1.576125 5.319423 25.753681 198 198 198 0
1.673492 5.315797 25.736125 199 199 199 0
1.770547 5.311642 25.716009 198 198 198 0
1.865548 5.302084 25.669736 199 199 199 0
1.958404 5.287691 25.600052 199 199 199 0
2.054597 5.283248 25.578544 199 199 199 0
2.151557 5.281094 25.568112 201 201 201 0
2.247896 5.277668 25.551528 202 202 202 0
2.342306 5.270190 25.515321 203 203 203 0
2.434178 5.257825 25.455461 202 202 202 0
2.532219 5.259223 25.462228 203 203 203 0
2.630243 5.260486 25.468344 203 203 203 0
2.725736 5.256776 25.450380 202 202 202 0
2.819725 5.250523 25.420107 204 204 204 0
2.913753 5.244755 25.392179 203 203 203 0
3.011201 5.245318 25.394907 204 204 204 0
3.108363 5.245362 25.395121 204 204 204 0
3.203761 5.242518 25.381350 204 204 204 0
3.299753 5.240784 25.372956 204 204 204 0
3.395088 5.238136 25.360136 205 205 205 0
3.493321 5.239981 25.369067 204 204 204 0
3.591803 5.242091 25.379286 204 204 204 0
3.688943 5.242182 25.379723 205 205 205 0
3.784253 5.239735 25.367875 205 205 205 0
3.883708 5.243006 25.383712 204 204 204 0
3.981808 5.244333 25.390136 206 206 206 0
4.084681 5.251732 25.425962 205 205 205 0
4.179440 5.248599 25.410792 206 206 206 0
4.279021 5.251525 25.424960 206 206 206 0
4.378559 5.254270 25.438248 206 206 206 0
4.482529 5.262100 25.476154 206 206 206 0
4.581926 5.264340 25.487001 206 206 206 0
4.679007 5.263883 25.484790 206 206 206 0
4.783579 5.271699 25.522630 206 206 206 0
4.887433 5.278427 25.555204 205 205 205 0
4.994008 5.287774 25.600453 205 205 205 0
5.097224 5.293271 25.627067 205 205 205 0
5.199732 5.297840 25.649188 206 206 206 0
5.310005 5.310005 25.708086 205 205 205 0
5.418809 5.320285 25.757857 206 206 206 0
5.524113 5.326823 25.789510 206 206 206 0
5.633828 5.337311 25.840285 206 206 206 0
5.739286 5.343473 25.870120 206 206 206 0
5.855931 5.359666 25.948516 205 205 205 0
5.964787 5.368308 25.990356 204 204 204 0
6.083061 5.385005 26.071192 204 204 204 0
6.201125 5.400979 26.148533 204 204 204 0
6.319865 5.417027 26.226227 204 204 204 0
6.430652 5.425863 26.269004 204 204 204 0
6.562028 5.451531 26.393273 202 202 202 0
6.689927 5.473576 26.500006 202 202 202 0
6.813389 5.491388 26.586241 201 201 201 0
6.941334 5.512236 26.687174 202 202 202 0
7.080100 5.540948 26.826183 200 200 200 0
7.214269 5.565293 26.944049 198 198 198 0
7.357414 5.595780 27.091646 199 199 199 0
7.506588 5.629941 27.257036 198 198 198 0
7.660217 5.666462 27.433849 195 195 195 0
7.828496 5.712687 27.657645 195 195 195 0
8.001831 5.761318 27.893093 192 192 192 0
8.204523 5.829529 28.223332 190 190 190 0
8.437596 5.917275 28.648149 185 185 185 0
8.664912 5.998785 29.042775 156 156 156 0
8.829532 6.035376 29.219930 80 80 80 0
-1.832585 6.299510 29.944193 88 88 88 0
-1.698579 6.228124 29.604869 116 116 116 0
-1.565281 6.149316 29.230262 128 128 128 0
-1.439421 6.089858 28.947634 140 140 140 0
-1.313870 6.021905 28.624623 143 143 143 0
-1.193627 5.968137 28.369043 155 155 155 0
-1.077140 5.924270 28.160521 158 158 158 0
-0.962854 5.884107 27.969610 159 159 159 0
-0.852446 5.860563 27.857697 165 165 165 0
-0.742038 5.830298 27.713836 170 170 170 0
-0.633686 5.808786 27.611577 171 171 171 0
-0.524485 5.769336 27.424059 171 171 171 0
-0.417326 5.738232 27.276206 175 175 175 0
-0.311208 5.705484 27.120542 179 179 179 0
-0.206793 5.686797 27.031717 180 180 180 0
-0.103158 5.673710 26.969507 180 180 180 0
0.000000 5.657312 26.891560 181 181 181 0
0.102481 5.636439 26.792341 183 183 183 0
0.203962 5.608968 26.661762 187 187 187 0
0.304734 5.586793 26.556355 187 187 187 0
0.405253 5.572225 26.487107 188 188 188 0
0.505580 5.561378 26.435547 188 188 188 0
0.605724 5.552472 26.393214 188 188 188 0
0.704181 5.532854 26.299958 190 190 190 0
0.802744 5.518862 26.233448 193 193 193 0
0.899749 5.498464 26.136487 193 193 193 0
0.997655 5.487102 26.082481 193 193 193 0
1.096440 5.482201 26.059184 193 193 193 0
1.195045 5.477292 26.035849 194 194 194 0
1.289950 5.457483 25.941689 194 194 194 0
1.384698 5.439885 25.858039 195 195 195 0
1.481637 5.432670 25.823743 198 198 198 0
1.580091 5.431564 25.818486 198 198 198 0
1.677394 5.426864 25.796146 199 199 199 0
1.772629 5.416366 25.746243 199 199 199 0
1.867819 5.406844 25.700981 199 199 199 0
1.962475 5.396806 25.653266 199 199 199 0
2.058157 5.390411 25.622868 200 200 200 0
2.156219 5.390548 25.623519 199 199 199 0
2.251609 5.384282 25.593733 200 200 200 0
2.344372 5.372520 25.537825 201 201 201 0
2.440001 5.368003 25.516355 202 202 202 0
2.536347 5.365349 25.503738 202 202 202 0
2.634508 5.366591 25.509643 202 202 202 0
2.730165 5.362824 25.491736 203 203 203 0
2.823083 5.354123 25.450378 203 203 203 0
2.918076 5.349806 25.429856 204 204 204 0
3.016251 5.351413 25.437495 203 203 203 0
3.113959 5.352117 25.440841 203 203 203 0
3.209665 5.349442 25.428128 204 204 204 0
3.305035 5.346381 25.413574 204 204 204 0
3.399810 5.342558 25.395405 204 204 204 0
3.497401 5.343252 25.398703 204 204 204 0
3.596400 5.346000 25.411765 205 205 205 0
3.694611 5.347463 25.418720 204 204 204 0
3.792038 5.347745 25.420061 205 205 205 0
3.889015 5.347396 25.418398 205 205 205 0
3.989862 5.352254 25.441494 205 205 205 0
4.088612 5.354135 25.450435 205 205 205 0
4.189078 5.358123 25.469389 205 205 205 0
4.284194 5.355242 25.455697 206 206 206 0
4.387120 5.362036 25.487988 206 206 206 0
4.489340 5.367689 25.514861 206 206 206 0
4.590379 5.371721 25.534025 206 206 206 0
4.688903 5.372701 25.538686 205 205 205 0
4.792142 5.378934 25.568315 206 206 206 0
4.898123 5.387936 25.611102 205 205 205 0
5.004815 5.397349 25.655848 204 204 204 0
5.105629 5.400185 25.669327 205 205 205 0
5.211928 5.408605 25.709350 206 206 206 0
5.320005 5.418524 25.756501 205 205 205 0
5.427845 5.427845 25.800807 205 205 205 0
5.533883 5.435064 25.835124 205 205 205 0
5.643233 5.445225 25.883420 205 205 205 0
5.756829 5.459062 25.949197 205 205 205 0
5.873851 5.475624 26.027920 204 204 204 0
5.984843 5.486106 26.077746 204 204 204 0
6.095256 5.495723 26.123459 204 204 204 0
6.217024 5.515102 26.215575 204 204 204 0
6.336684 5.532026 26.296022 203 203 203 0
6.447008 5.540397 26.335816 202 202 202 0
6.578111 5.566094 26.457963 202 202 202 0
6.707948 5.589956 26.571391 202 202 202 0
6.831845 5.608231 26.658258 202 202 202 0
6.962425 5.631373 26.768263 200 200 200 0
7.105054 5.663449 26.920730 199 199 199 0
7.238478 5.687376 27.034465 198 198 198 0
7.385872 5.721451 27.196437 197 197 197 0
7.536119 5.756758 27.364268 196 196 196 0
7.696837 5.798987 27.565000 194 194 194 0
7.865264 5.845804 27.787542 193 193 193 0
8.053256 5.905721 28.072354 190 190 190 0
8.272394 5.986601 28.456808 187 187 187 0
8.516721 6.083372 28.916801 174 174 174 0
8.719990 6.148711 29.227385 104 104 104 0
-1.853218 6.486262 30.281334 75 75 75 0
-1.710661 6.386468 29.815443 103 103 103 0
-1.574472 6.297886 29.401897 119 119 119 0
-1.447948 6.237316 29.119124 136 136 136 0
-1.321992 6.169296 28.801570 142 142 142 0
-1.200912 6.113732 28.542165 148 148 148 0
-1.082335 6.061076 28.296341 157 157 157 0
-0.967364 6.019154 28.100627 159 159 159 0
-0.855289 5.987025 27.950628 160 160 160 0
-0.744854 5.958829 27.818995 168 168 168 0
-0.635109 5.927686 27.673603 171 171 171 0
-0.525749 5.888386 27.490129 171 171 171 0
-0.418399 5.857585 27.346337 172 172 172 0
-0.312108 5.826025 27.198998 177 177 177 0
-0.207451 5.808632 27.117794 180 180 180 0
-0.103444 5.792851 27.044123 180 180 180 0
0.000000 5.776275 26.966736 181 181 181 0
0.102728 5.752788 26.857088 181 181 181 0
0.204551 5.727436 26.738728 185 185 185 0
0.305518 5.703006 26.624680 188 188 188 0
0.406343 5.688796 26.558339 187 187 187 0
0.506459 5.672336 26.481493 188 188 188 0
0.607371 5.668794 26.464958 188 188 188 0
0.705745 5.645958 26.358349 189 189 189 0
0.803991 5.627940 26.274229 191 191 191 0
0.901822 5.611335 26.196707 193 193 193 0
1.000012 5.600066 26.144097 194 194 194 0
1.099282 5.596345 26.126729 194 194 194 0
1.197038 5.586179 26.079266 194 194 194 0
1.293551 5.572218 26.014091 194 194 194 0
1.388007 5.552027 25.919829 195 195 195 0
1.484884 5.543566 25.880326 195 195 195 0
1.582299 5.538045 25.854554 197 197 197 0
1.679818 5.533519 25.833420 199 199 199 0
1.775897 5.525014 25.793718 199 199 199 0
1.869388 5.509774 25.722567 199 199 199 0
1.965049 5.502137 25.686914 199 199 199 0
2.062049 5.498797 25.671320 199 199 199 0
2.160683 5.499920 25.676566 200 200 200 0
2.254512 5.489247 25.626737 199 199 199 0
2.351227 5.486196 25.612491 200 200 200 0
2.442890 5.472074 25.546563 201 201 201 0
2.539875 5.470500 25.539214 201 201 201 0
2.638245 5.471917 25.545829 202 202 202 0
2.736547 5.473094 25.551327 203 203 203 0
2.828662 5.462243 25.500668 203 203 203 0
2.924386 5.458853 25.484841 203 203 203 0
3.020381 5.456171 25.472321 204 204 204 0
3.118718 5.457757 25.479725 204 204 204 0
3.216048 5.457537 25.478696 204 204 204 0
3.311137 5.453637 25.460490 204 204 204 0
3.407500 5.452000 25.452848 204 204 204 0
3.506837 5.455080 25.467227 204 204 204 0
3.603309 5.453656 25.460580 205 205 205 0
3.703890 5.458364 25.482557 204 204 204 0
3.797759 5.453193 25.458417 204 204 204 0
3.895027 5.453038 25.457696 205 205 205 0
3.996905 5.459188 25.486404 206 206 206 0
4.096732 5.462309 25.500974 205 205 205 0
4.194216 5.462235 25.500631 205 205 205 0
4.290730 5.460929 25.494531 206 206 206 0
4.393588 5.467576 25.525567 205 205 205 0
4.497458 5.475166 25.560998 205 205 205 0
4.600150 5.481030 25.588376 205 205 205 0
4.697835 5.480808 25.587337 205 205 205 0
4.800735 5.486555 25.614168 205 205 205 0
4.908081 5.497051 25.663168 204 204 204 0
5.014883 5.506539 25.707463 204 204 204 0
5.115671 5.509184 25.719812 204 204 204 0
5.224243 5.519954 25.770095 206 206 206 0
5.330998 5.528442 25.809719 205 205 205 0
5.440462 5.539379 25.860781 205 205 205 0
5.543788 5.543788 25.881362 204 204 204 0
5.660024 5.560726 25.960437 203 203 203 0
5.772913 5.573847 26.021693 204 204 204 0
5.887336 5.587980 26.087676 204 204 204 0
5.998734 5.598819 26.138276 204 204 204 0
6.116088 5.614769 26.212741 204 204 204 0
6.232642 5.629483 26.281433 203 203 203 0
6.345329 5.640293 26.331898 202 202 202 0
6.470289 5.661503 26.430921 201 201 201 0
6.599214 5.685477 26.542842 201 201 201 0
6.724162 5.705349 26.635618 201 201 201 0
6.852722 5.727649 26.739723 201 201 201 0
6.988403 5.755156 26.868140 199 199 199 0
7.127689 5.784791 27.006495 198 198 198 0
7.267341 5.813873 27.142263 198 198 198 0
7.417323 5.850283 27.312246 197 197 197 0
7.571539 5.888975 27.492880 194 194 194 0
7.738776 5.936595 27.715196 194 194 194 0
7.910271 5.986151 27.946551 191 191 191 0
8.117758 6.061260 28.297197 189 189 189 0
8.358876 6.159172 28.754304 182 182 182 0
8.579266 6.239466 29.129159 140 140 140 0
-1.734641 6.591637 30.233401 85 85 85 0
-1.587932 6.465150 29.653252 113 113 113 0
-1.456711 6.387119 29.295351 125 125 125 0
-1.328419 6.309988 28.941580 141 141 141 0
-1.206917 6.254026 28.684904 144 144 144 0
-1.087894 6.200993 28.441661 153 153 153 0
-0.971909 6.155421 28.232640 159 159 159 0
-0.860374 6.130168 28.116811 159 159 159 0
-0.749017 6.099139 27.974492 163 163 163 0
-0.637336 6.054691 27.770627 170 170 170 0
-0.528363 6.023342 27.626843 171 171 171 0
-0.420027 5.985385 27.452748 171 171 171 0
-0.313061 5.948167 27.282040 173 173 173 0
-0.208124 5.931546 27.205806 178 178 178 0
-0.103769 5.914855 27.129253 180 180 180 0
0.000000 5.898157 27.052665 180 180 180 0
0.102984 5.870097 26.923963 181 181 181 0
0.204794 5.836638 26.770500 182 182 182 0
0.306369 5.821013 26.698832 186 186 186 0
0.407629 5.808717 26.642437 188 188 188 0
0.508163 5.793053 26.570592 188 188 188 0
0.609095 5.786402 26.540087 187 187 187 0
0.707789 5.763427 26.434709 188 188 188 0
0.805015 5.735729 26.307664 189 189 189 0
0.903707 5.723480 26.251486 192 192 192 0
1.002743 5.715632 26.215491 193 193 193 0
1.101401 5.707261 26.177095 194 194 194 0
1.199698 5.698566 26.137214 194 194 194 0
1.295827 5.681703 26.059868 194 194 194 0
1.390412 5.660964 25.964748 194 194 194 0
1.488724 5.657153 25.947267 195 195 195 0
1.585683 5.648995 25.909850 195 195 195 0
1.683772 5.645590 25.894232 197 197 197 0
1.779256 5.634310 25.842494 199 199 199 0
1.874473 5.623418 25.792537 199 199 199 0
1.970321 5.615415 25.755830 200 200 200 0
2.066895 5.610143 25.731649 199 199 199 0
2.165167 5.609752 25.729857 199 199 199 0
2.261244 5.603953 25.703260 200 200 200 0
2.354397 5.591693 25.647028 199 199 199 0
2.448973 5.583659 25.610176 199 199 199 0
2.546759 5.583280 25.608438 200 200 200 0
2.643619 5.580973 25.597857 200 200 200 0
2.739961 5.577777 25.583198 202 202 202 0
2.832849 5.568013 25.538414 202 202 202 0
2.927837 5.562891 25.514922 203 203 203 0
3.026691 5.565206 25.525541 203 203 203 0
3.124544 5.565593 25.527318 203 203 203 0
3.223345 5.567596 25.536503 204 204 204 0
3.314114 5.556014 25.483379 203 203 203 0
3.412832 5.558040 25.492674 204 204 204 0
3.513334 5.562778 25.514405 204 204 204 0
3.611993 5.564421 25.521940 205 205 205 0
3.709110 5.563665 25.518473 205 205 205 0
3.805838 5.562379 25.512574 204 204 204 0
3.903291 5.562190 25.511708 205 205 205 0
4.003496 5.565836 25.528429 204 204 204 0
4.106706 5.573387 25.563063 205 205 205 0
4.200190 5.567694 25.536952 204 204 204 0
4.300816 5.571512 25.554465 204 204 204 0
4.402374 5.576341 25.576612 204 204 204 0
4.507248 5.585068 25.616639 204 204 204 0
4.609633 5.590406 25.641122 204 204 204 0
4.710157 5.593311 25.654448 204 204 204 0
4.812247 5.597920 25.675588 205 205 205 0
4.920793 5.609704 25.729635 205 205 205 0
5.025729 5.616991 25.763059 205 205 205 0
5.126667 5.619616 25.775098 205 205 205 0
5.235874 5.631034 25.827470 205 205 205 0
5.341959 5.638734 25.862788 205 205 205 0
5.450774 5.648984 25.909798 204 204 204 0
5.556165 5.655383 25.939148 203 203 203 0
5.671449 5.671449 26.012836 203 203 203 0
5.788570 5.688768 26.092272 203 203 203 0
5.901112 5.701074 26.148717 203 203 203 0
6.012935 5.712288 26.200152 204 204 204 0
6.128955 5.727057 26.267890 203 203 203 0
6.250301 5.746244 26.355896 202 202 202 0
6.369699 5.763061 26.433029 202 202 202 0
6.492590 5.782463 26.522020 201 201 201 0
6.622307 5.807253 26.635723 201 201 201 0
6.745635 5.825776 26.720678 201 201 201 0
6.874292 5.848278 26.823887 199 199 199 0
7.018324 5.883007 26.983175 198 198 198 0
7.154194 5.909986 27.106921 198 198 198 0
7.295660 5.940752 27.248032 196 196 196 0
7.457170 5.986742 27.458972 195 195 195 0
7.613462 6.027324 27.645106 194 194 194 0
7.786609 6.079955 27.886505 192 192 192 0
7.983360 6.149345 28.204768 188 188 188 0
8.185852 6.221247 28.534559 185 185 185 0
8.434912 6.326184 29.015866 166 166 166 0
8.631861 6.389820 29.307738 90 90 90 0
-1.603089 6.641370 29.936310 93 93 93 0
-1.469422 6.555885 29.550978 118 118 118 0
-1.336721 6.460820 29.122471 131 131 131 0
-1.215010 6.406417 28.877247 143 143 143 0
-1.093876 6.344478 28.598053 146 146 146 0
-0.978106 6.303349 28.412660 156 156 156 0
-0.865072 6.271769 28.270315 159 159 159 0
-0.751987 6.230749 28.085412 160 160 160 0
-0.639563 6.182442 27.867669 165 165 165 0
-0.529778 6.145423 27.700802 170 170 170 0
-0.421394 6.110220 27.542124 171 171 171 0
-0.314238 6.075272 27.384592 171 171 171 0
-0.208992 6.060773 27.319240 173 173 173 0
-0.104070 6.036032 27.207717 179 179 179 0
0.000000 6.019450 27.132971 180 180 180 0
0.103184 5.984699 26.976331 180 180 180 0
0.205354 5.955263 26.843647 181 181 181 0
0.307122 5.937689 26.764429 183 183 183 0
0.408606 5.924794 26.706307 186 186 186 0
0.509987 5.915851 26.665994 188 188 188 0
0.609938 5.896070 26.576830 188 188 188 0
0.708920 5.873908 26.476934 188 188 188 0
0.807663 5.855558 26.394223 188 188 188 0
0.905916 5.838124 26.315635 188 188 188 0
1.005131 5.829760 26.277935 191 191 191 0
1.104620 5.824360 26.253596 193 193 193 0
1.201500 5.807251 26.176474 193 193 193 0
1.298799 5.794643 26.119642 194 194 194 0
1.394534 5.777356 26.041724 195 195 195 0
1.492011 5.769107 26.004541 195 195 195 0
1.590723 5.766372 25.992210 194 194 194 0
1.688415 5.760473 25.965623 195 195 195 0
1.783259 5.746058 25.900644 197 197 197 0
1.877401 5.731012 25.832826 199 199 199 0
1.974184 5.725134 25.806328 198 198 198 0
2.070147 5.717548 25.772133 198 198 198 0
2.169674 5.720049 25.783406 200 200 200 0
2.264912 5.711517 25.744949 199 199 199 0
2.359469 5.702050 25.702278 199 199 199 0
2.454253 5.693868 25.665395 200 200 200 0
2.552846 5.694810 25.669641 201 201 201 0
2.649558 5.691644 25.655369 201 201 201 0
2.747358 5.690956 25.652270 201 201 201 0
2.838982 5.677965 25.593710 201 201 201 0
2.934816 5.673978 25.575742 201 201 201 0
3.032221 5.673188 25.572179 202 202 202 0
3.131556 5.675944 25.584604 202 202 202 0
3.228363 5.674092 25.576255 202 202 202 0
3.322553 5.667884 25.548271 202 202 202 0
3.419148 5.666017 25.539858 203 203 203 0
3.519448 5.670222 25.558810 204 204 204 0
3.618503 5.672247 25.567940 203 203 203 0
3.716115 5.671965 25.566667 203 203 203 0
3.810262 5.666544 25.542232 204 204 204 0
3.909544 5.668839 25.552576 204 204 204 0
4.015541 5.680521 25.605234 204 204 204 0
4.114473 5.681891 25.611407 204 204 204 0
4.211908 5.681179 25.608199 204 204 204 0
4.308568 5.679476 25.600524 203 203 203 0
4.414541 5.689853 25.647299 204 204 204 0
4.519757 5.698824 25.687734 205 205 205 0
4.621676 5.703345 25.708114 204 204 204 0
4.721414 5.705042 25.715763 204 204 204 0
4.824881 5.711084 25.742998 204 204 204 0
4.931183 5.720172 25.783962 204 204 204 0
5.033851 5.724771 25.804694 205 205 205 0
5.139593 5.732623 25.840087 204 204 204 0
5.244358 5.739109 25.869320 204 204 204 0
5.358301 5.755212 25.941906 203 203 203 0
5.467709 5.765948 25.990299 204 204 204 0
5.571935 5.770932 26.012767 203 203 203 0
5.687274 5.787051 26.085421 204 204 204 0
5.802397 5.802397 26.154594 203 203 203 0
5.912850 5.812632 26.200730 203 203 203 0
6.024304 5.823494 26.249689 203 203 203 0
6.150452 5.847971 26.360022 201 201 201 0
6.271161 5.866570 26.443857 200 200 200 0
6.388366 5.881353 26.510495 201 201 201 0
6.516911 5.905951 26.621369 201 201 201 0
6.643580 5.928117 26.721285 200 200 200 0
6.767290 5.947012 26.806457 199 199 199 0
6.907689 5.979790 26.954204 198 198 198 0
7.047903 6.011447 27.096897 198 198 198 0
7.182245 6.037249 27.213204 197 197 197 0
7.336541 6.078848 27.400714 195 195 195 0
7.496645 6.124020 27.604328 194 194 194 0
7.658712 6.169518 27.809413 192 192 192 0
7.848177 6.235538 28.107001 188 188 188 0
8.051696 6.310789 28.446198 186 186 186 0
8.294178 6.414165 28.912169 175 175 175 0
8.463032 6.458629 29.112596 114 114 114 0
-1.628752 6.864028 30.415545 76 76 76 0
-1.484360 6.736709 29.851374 103 103 103 0
-1.352867 6.651596 29.474224 121 121 121 0
-1.225504 6.573159 29.126660 136 136 136 0
-1.102514 6.504831 28.823887 143 143 143 0
-0.984467 6.453727 28.597439 147 147 147 0
-0.869318 6.411217 28.409072 157 157 157 0
-0.755106 6.364464 28.201899 159 159 159 0
-0.642535 6.318260 27.997163 160 160 160 0
-0.531484 6.271507 27.789994 167 167 167 0
-0.422567 6.232866 27.618771 171 171 171 0
-0.315652 6.207830 27.507830 171 171 171 0
-0.209607 6.183418 27.399659 172 172 172 0
-0.104592 6.170955 27.344433 176 176 176 0
0.000000 6.139658 27.205751 180 180 180 0
0.103446 6.103288 27.044591 181 181 181 0
0.206183 6.082387 26.951975 181 181 181 0
0.308052 6.058347 26.845449 181 181 181 0
0.409824 6.044904 26.785883 183 183 183 0
0.511596 6.036828 26.750096 186 186 186 0
0.611174 6.009876 26.630669 188 188 188 0
0.711034 5.993003 26.555903 188 188 188 0
0.809816 5.972389 26.464559 189 189 189 0
0.908031 5.952649 26.377085 189 189 189 0
1.007775 5.945874 26.347064 189 189 189 0
1.107055 5.937838 26.311456 191 191 191 0
1.204683 5.923026 26.245823 194 194 194 0
1.301930 5.908757 26.182594 194 194 194 0
1.398099 5.891990 26.108296 194 194 194 0
1.496619 5.886702 26.084867 194 194 194 0
1.594369 5.879237 26.051785 194 194 194 0
1.692634 5.874434 26.030504 195 195 195 0
1.786225 5.854848 25.943714 195 195 195 0
1.881155 5.841481 25.884485 195 195 195 0
1.979830 5.840499 25.880131 198 198 198 0
2.077004 5.835391 25.857500 198 198 198 0
2.173081 5.827809 25.823900 199 199 199 0
2.268784 5.819925 25.788966 199 199 199 0
2.365484 5.815149 25.767802 199 199 199 0
2.460085 5.805801 25.726381 200 200 200 0
2.557825 5.804296 25.719711 200 200 200 0
2.655637 5.803059 25.714233 200 200 200 0
2.751979 5.798813 25.695414 200 200 200 0
2.845382 5.788880 25.651403 200 200 200 0
2.941585 5.785117 25.634726 201 201 201 0
3.042110 5.789822 25.655577 201 201 201 0
3.141412 5.791979 25.665132 200 200 200 0
3.234937 5.783675 25.628336 201 201 201 0
3.327539 5.774259 25.586615 202 202 202 0
3.427749 5.778205 25.604101 202 202 202 0
3.529752 5.784872 25.633641 202 202 202 0
3.627742 5.784778 25.633226 202 202 202 0
3.724196 5.782304 25.622261 202 202 202 0
3.820425 5.779617 25.610354 202 202 202 0
3.919223 5.780855 25.615840 203 203 203 0
4.024690 5.791627 25.663573 203 203 203 0
4.124775 5.794327 25.675537 203 203 203 0
4.218850 5.788654 25.650401 203 203 203 0
4.321441 5.794660 25.677012 203 203 203 0
4.423712 5.799978 25.700580 204 204 204 0
4.530115 5.810365 25.746604 203 203 203 0
4.629617 5.811647 25.752284 204 204 204 0
4.731925 5.816324 25.773011 204 204 204 0
4.838611 5.826083 25.816253 204 204 204 0
4.944321 5.834299 25.852659 203 203 203 0
5.046832 5.838492 25.871239 204 204 204 0
5.150328 5.843641 25.894056 203 203 203 0
5.260617 5.856159 25.949525 203 203 203 0
5.374595 5.872243 26.020793 203 203 203 0
5.482334 5.881049 26.059818 203 203 203 0
5.590967 5.890483 26.101619 203 203 203 0
5.702865 5.902966 26.156934 203 203 203 0
5.816314 5.916595 26.217326 203 203 203 0
5.928744 5.928744 26.271159 202 202 202 0
6.045339 5.944584 26.341347 202 202 202 0
6.174287 5.971851 26.462175 201 201 201 0
6.291656 5.987221 26.530282 200 200 200 0
6.412458 6.005317 26.610468 201 201 201 0
6.537900 6.027127 26.707110 200 200 200 0
6.666744 6.051352 26.814455 199 199 199 0
6.796566 6.075718 26.922422 198 198 198 0
6.941058 6.112275 27.084415 197 197 197 0
7.077322 6.140618 27.210005 197 197 197 0
7.218020 6.171930 27.348754 194 194 194 0
7.380350 6.220581 27.564334 194 194 194 0
7.541086 6.266537 27.767970 193 193 193 0
7.710738 6.318522 27.998324 190 190 190 0
7.913560 6.395891 28.341158 187 187 187 0
8.139401 6.489523 28.756055 179 179 179 0
8.350929 6.569397 29.109991 136 136 136 0
9.949918 7.724278 34.227444 76 76 76 0
-1.501966 6.932153 30.205459 80 80 80 0
-1.366906 6.834529 29.780085 109 109 109 0
-1.233729 6.729430 29.322135 124 124 124 0
-1.111674 6.670046 29.063383 139 139 139 0
-0.991028 6.606850 28.788018 144 144 144 0
-0.873040 6.547798 28.530711 150 150 150 0
-0.757777 6.495228 28.301646 158 158 158 0
-0.644688 6.446879 28.090976 158 158 158 0
-0.533863 6.406352 27.914389 162 162 162 0
-0.424511 6.367672 27.745846 169 169 169 0
-0.317357 6.347142 27.656391 171 171 171 0
-0.210656 6.319669 27.536683 171 171 171 0
-0.104904 6.294225 27.425817 172 172 172 0
0.000000 6.264875 27.297932 176 176 176 0
0.103812 6.228709 27.140342 180 180 180 0
0.206774 6.203227 27.029310 180 180 180 0
0.309187 6.183739 26.944398 180 180 180 0
0.411269 6.169031 26.880310 182 182 182 0
0.512979 6.155750 26.822441 183 183 183 0
0.613140 6.131398 26.716329 187 187 187 0
0.712996 6.111391 26.629155 188 188 188 0
0.811630 6.087225 26.523857 188 188 188 0
0.911407 6.076044 26.475136 188 188 188 0
1.011282 6.067692 26.438746 188 188 188 0
1.109973 6.054400 26.380827 189 189 189 0
1.207388 6.036940 26.304750 192 192 192 0
1.304943 6.022816 26.243205 193 193 193 0
1.401727 6.007403 26.176048 194 194 194 0
1.499912 5.999646 26.142250 195 195 195 0
1.597833 5.991874 26.108385 194 194 194 0
1.697868 5.992476 26.111005 194 194 194 0
1.790703 5.969010 26.008760 196 196 196 0
1.886734 5.958109 25.961259 195 195 195 0
1.983414 5.950243 25.926984 196 196 196 0
2.081476 5.947075 25.913180 197 197 197 0
2.180507 5.946838 25.912149 198 198 198 0
2.275212 5.935337 25.862034 199 199 199 0
2.368790 5.921976 25.803816 199 199 199 0
2.463984 5.913563 25.767158 200 200 200 0
2.563694 5.916217 25.778725 199 199 199 0
2.661928 5.915395 25.775142 200 200 200 0
2.757831 5.909639 25.750061 200 200 200 0
2.851031 5.898685 25.702332 200 200 200 0
2.951019 5.902039 25.716945 200 200 200 0
3.048446 5.900219 25.709015 201 201 201 0
3.146324 5.899358 25.705263 201 201 201 0
3.241552 5.893731 25.680745 201 201 201 0
3.338599 5.891645 25.671654 201 201 201 0
3.435631 5.889653 25.662976 202 202 202 0
3.538240 5.897067 25.695280 202 202 202 0
3.636613 5.897210 25.695903 202 202 202 0
3.732037 5.892690 25.676209 202 202 202 0
3.828871 5.890571 25.666977 203 203 203 0
3.931290 5.896935 25.694705 202 202 202 0
4.034269 5.903809 25.724658 202 202 202 0
4.135259 5.907513 25.740796 203 203 203 0
4.231919 5.905003 25.729860 203 203 203 0
4.332579 5.908062 25.743190 203 203 203 0
4.436121 5.914828 25.772671 204 204 204 0
4.538632 5.919955 25.795012 204 204 204 0
4.641655 5.925516 25.819244 204 204 204 0
4.743917 5.929896 25.838327 204 204 204 0
4.848186 5.936554 25.867339 204 204 204 0
4.957301 5.948761 25.920526 203 203 203 0
5.058584 5.951275 25.931483 202 202 202 0
5.163156 5.957487 25.958550 202 202 202 0
5.278482 5.975639 26.037645 203 203 203 0
5.392039 5.991154 26.105248 202 202 202 0
5.494902 5.994438 26.119557 202 202 202 0
5.608110 6.008690 26.181654 203 203 203 0
5.720671 6.021759 26.238600 202 202 202 0
5.837012 6.038289 26.310626 201 201 201 0
5.946603 6.047393 26.350295 201 201 201 0
6.065747 6.065747 26.430271 200 200 200 0
6.195208 6.093648 26.551842 200 200 200 0
6.311174 6.107588 26.612583 200 200 200 0
6.431857 6.125578 26.690971 200 200 200 0
6.563799 6.153562 26.812906 198 198 198 0
6.697040 6.181883 26.936311 197 197 197 0
6.830060 6.209145 27.055098 197 197 197 0
6.970924 6.242618 27.200951 196 196 196 0
7.110989 6.274402 27.339442 195 195 195 0
7.264942 6.317341 27.526538 193 193 193 0
7.428384 6.367186 27.743731 192 192 192 0
7.583820 6.408862 27.925325 190 190 190 0
7.788723 6.490602 28.281492 188 188 188 0
8.002560 6.577447 28.659898 183 183 183 0
8.224391 6.668425 29.056320 154 154 154 0
8.369447 6.695558 29.174543 78 78 78 0
-1.379635 7.013144 30.057403 87 87 87 0
-1.248597 6.924040 29.675517 115 115 115 0
-1.120846 6.837160 29.303160 128 128 128 0
-0.998189 6.765502 28.996043 142 142 142 0
-0.879265 6.704396 28.734154 145 145 145 0
-0.761853 6.639003 28.453887 153 153 153 0
-0.648638 6.594491 28.263113 159 159 159 0
-0.536548 6.545882 28.054782 160 160 160 0
-0.426911 6.510386 27.902649 163 163 163 0
-0.319030 6.486946 27.802188 169 169 169 0
-0.211714 6.457277 27.675034 171 171 171 0
-0.105360 6.426943 27.545027 172 172 172 0
0.000000 6.393785 27.402915 172 172 172 0
0.104074 6.348527 27.208946 177 177 177 0
0.207703 6.334952 27.150763 180 180 180 0
0.310148 6.306343 27.028150 181 181 181 0
0.412803 6.295247 26.980592 181 181 181 0
0.514969 6.282621 26.926482 181 181 181 0
0.615264 6.255181 26.808876 183 183 183 0
0.714352 6.225065 26.679805 187 187 187 0
0.814786 6.212745 26.626999 187 187 187 0
0.914897 6.200966 26.576518 188 188 188 0
1.014473 6.188285 26.522168 188 188 188 0
