ply
    format ascii 1.0
    element vertex 25507
    property float x
    property float y
    property float z
    property uchar red
    property uchar green
    property uchar blue
    property uchar alpha
    end_header
9.081596 5.609221 34.915786 199 199 199 0
9.215104 5.609193 34.915614 200 200 200 0
9.348746 5.609248 34.915951 200 200 200 0
9.482216 5.609198 34.915644 199 199 199 0
9.615662 5.609136 34.915257 200 200 200 0
9.748987 5.609006 34.914450 200 200 200 0
9.882169 5.608799 34.913158 200 200 200 0
10.016144 5.609041 34.914664 199 199 199 0
10.149747 5.609070 34.914849 200 200 200 0
10.283194 5.609015 34.914504 200 200 200 0
10.416703 5.608994 34.914373 199 199 199 0
10.550071 5.608899 34.913779 199 199 199 0
-10.710315 5.756794 35.001028 190 190 190 0
-10.576444 5.756799 35.001055 190 190 190 0
-10.442594 5.756815 35.001154 191 191 191 0
-10.299617 5.751734 34.970264 190 190 190 0
-10.165647 5.751616 34.969547 190 190 190 0
-10.030259 5.750682 34.963866 191 191 191 0
-9.895741 5.750228 34.961105 191 191 191 0
-9.761385 5.749857 34.958849 190 190 190 0
-9.626817 5.749349 34.955762 191 191 191 0
-9.491395 5.748310 34.949444 190 190 190 0
-9.359013 5.749108 34.954295 191 191 191 0
-9.225772 5.749394 34.956035 191 191 191 0
-9.092131 5.749436 34.956288 191 191 191 0
-8.958076 5.749213 34.954936 191 191 191 0
-8.823955 5.748940 34.953277 191 191 191 0
-8.689924 5.748719 34.951932 191 191 191 0
-8.555625 5.748311 34.949450 192 192 192 0
-8.421824 5.748229 34.948952 192 192 192 0
-8.288325 5.748354 34.949715 192 192 192 0
-8.154367 5.748160 34.948534 192 192 192 0
-8.020001 5.747667 34.945539 192 192 192 0
-7.886489 5.747780 34.946224 192 192 192 0
-7.752280 5.747380 34.943792 192 192 192 0
-7.618442 5.747246 34.942977 192 192 192 0
-7.484603 5.747106 34.942125 193 193 193 0
-7.350773 5.746968 34.941285 192 192 192 0
-7.217106 5.746955 34.941204 193 193 193 0
-7.082823 5.746441 34.938084 193 193 193 0
-6.949695 5.746863 34.940650 192 192 192 0
-6.815921 5.746757 34.940001 193 193 193 0
-6.682337 5.746810 34.940323 193 193 193 0
-6.548127 5.746316 34.937320 193 193 193 0
-6.414493 5.746317 34.937326 194 194 194 0
-6.280641 5.746119 34.936122 194 194 194 0
-6.146889 5.746005 34.935432 193 193 193 0
-6.013517 5.746249 34.936916 193 193 193 0
-5.879677 5.746048 34.935690 193 193 193 0
-5.745994 5.745994 34.935361 194 194 194 0
-5.612054 5.745675 34.933423 194 194 194 0
-5.478297 5.745531 34.932549 194 194 194 0
-5.344632 5.745480 34.932237 194 194 194 0
-5.210891 5.745341 34.931393 194 194 194 0
-5.077416 5.745497 34.932343 194 194 194 0
-4.943890 5.745602 34.932978 195 195 195 0
-4.809892 5.745149 34.930227 194 194 194 0
-4.676529 5.745450 34.932055 194 194 194 0
-4.542871 5.745396 34.931730 194 194 194 0
-4.409206 5.745329 34.931319 194 194 194 0
-4.275361 5.745016 34.929419 195 195 195 0
-4.141908 5.745227 34.930702 195 195 195 0
-4.008253 5.745162 34.930306 195 195 195 0
-3.874609 5.745110 34.929991 194 194 194 0
-3.741003 5.745112 34.930004 195 195 195 0
-3.607361 5.745056 34.929661 195 195 195 0
-3.473668 5.744913 34.928793 195 195 195 0
-3.340003 5.744804 34.928131 195 195 195 0
-3.206343 5.744698 34.927486 196 196 196 0
-3.072609 5.744444 34.925939 196 196 196 0
-2.939062 5.744530 34.926462 195 195 195 0
-2.805303 5.744191 34.924402 195 195 195 0
-2.671582 5.743901 34.922640 195 195 195 0
-2.538182 5.744306 34.925100 196 196 196 0
-2.404679 5.744510 34.926340 195 195 195 0
-2.271027 5.744362 34.925440 196 196 196 0
-2.137408 5.744284 34.924968 196 196 196 0
-2.003816 5.744272 34.924896 196 196 196 0
-1.870259 5.744366 34.925466 196 196 196 0
-1.736626 5.744224 34.924601 196 196 196 0
-1.603026 5.744175 34.924303 196 196 196 0
-1.469473 5.744305 34.925093 196 196 196 0
-1.335857 5.744185 34.924367 196 196 196 0
-1.202269 5.744172 34.924285 196 196 196 0
-1.068699 5.744255 34.924793 196 196 196 0
-0.935079 5.744060 34.923603 196 196 196 0
-0.801478 5.743924 34.922777 196 196 196 0
-0.667897 5.743918 34.922743 196 196 196 0
-0.534317 5.743905 34.922662 197 197 197 0
-0.400720 5.743647 34.921097 197 197 197 0
-0.267159 5.743921 34.922760 197 197 197 0
-0.133580 5.743947 34.922921 197 197 197 0
0.000000 5.743811 34.922089 196 196 196 0
0.133576 5.743753 34.921742 198 198 198 0
0.267151 5.743752 34.921734 197 197 197 0
0.400719 5.743637 34.921033 197 197 197 0
0.534292 5.743637 34.921036 197 197 197 0
0.667864 5.743632 34.921003 197 197 197 0
0.801440 5.743655 34.921145 197 197 197 0
0.935011 5.743637 34.921032 197 197 197 0
1.068598 5.743715 34.921507 198 198 198 0
1.202122 5.743472 34.920031 197 197 197 0
1.335665 5.743360 34.919348 197 197 197 0
1.469241 5.743397 34.919574 198 198 198 0
1.602818 5.743430 34.919772 198 198 198 0
1.736316 5.743198 34.918367 197 197 197 0
1.869963 5.743459 34.919952 198 198 198 0
2.003538 5.743475 34.920046 197 197 197 0
2.137110 5.743482 34.920092 198 198 198 0
2.270646 5.743397 34.919577 198 198 198 0
2.404238 5.743458 34.919947 198 198 198 0
2.537717 5.743253 34.918700 198 198 198 0
2.671293 5.743279 34.918857 198 198 198 0
2.804867 5.743299 34.918981 199 199 199 0
2.938439 5.743313 34.919065 198 198 198 0
3.072001 5.743306 34.919020 198 198 198 0
3.205609 5.743383 34.919490 198 198 198 0
3.339117 5.743281 34.918872 198 198 198 0
3.472663 5.743251 34.918685 199 199 199 0
3.606179 5.743173 34.918214 199 199 199 0
3.739761 5.743205 34.918407 199 199 199 0
3.873238 5.743077 34.917628 199 199 199 0
4.006871 5.743182 34.918265 198 198 198 0
4.140405 5.743142 34.918022 198 198 198 0
4.273843 5.742976 34.917016 199 199 199 0
4.407452 5.743044 34.917429 199 199 199 0
4.541068 5.743115 34.917862 199 199 199 0
4.674542 5.743008 34.917211 198 198 198 0
4.808161 5.743082 34.917657 199 199 199 0
4.941819 5.743195 34.918344 199 199 199 0
5.075311 5.743115 34.917858 199 199 199 0
5.208896 5.743142 34.918025 198 198 198 0
5.342550 5.743242 34.918629 199 199 199 0
5.475944 5.743063 34.917543 199 199 199 0
5.609441 5.742999 34.917156 199 199 199 0
5.742858 5.742858 34.916299 199 199 199 0
5.876227 5.742677 34.915194 198 198 198 0
6.010054 5.742941 34.916799 199 199 199 0
6.143684 5.743009 34.917212 198 198 198 0
6.277166 5.742939 34.916789 199 199 199 0
6.410704 5.742923 34.916690 199 199 199 0
6.544343 5.742995 34.917131 199 199 199 0
6.677785 5.742895 34.916521 199 199 199 0
6.811461 5.742996 34.917139 199 199 199 0
6.944919 5.742914 34.916637 200 200 200 0
7.078432 5.742879 34.916426 199 199 199 0
7.211848 5.742768 34.915748 199 199 199 0
7.345539 5.742876 34.916407 199 199 199 0
7.479002 5.742805 34.915975 199 199 199 0
7.612598 5.742837 34.916171 199 199 199 0
7.746056 5.742766 34.915737 199 199 199 0
7.879069 5.742373 34.913346 199 199 199 0
8.013147 5.742755 34.915673 199 199 199 0
8.146792 5.742821 34.916072 199 199 199 0
8.280314 5.742798 34.915934 200 200 200 0
8.413797 5.742750 34.915642 199 199 199 0
8.547375 5.742767 34.915747 199 199 199 0
8.680788 5.742675 34.915184 200 200 200 0
8.814408 5.742721 34.915461 200 200 200 0
8.948043 5.742774 34.915785 199 199 199 0
9.081580 5.742764 34.915724 200 200 200 0
9.215163 5.742783 34.915839 200 200 200 0
9.348753 5.742805 34.915976 199 199 199 0
9.482173 5.742725 34.915487 199 199 199 0
9.615636 5.742671 34.915162 200 200 200 0
9.748973 5.742546 34.914400 199 199 199 0
9.882209 5.742365 34.913299 199 199 199 0
10.016173 5.742606 34.914764 200 200 200 0
10.149737 5.742615 34.914817 200 200 200 0
10.283240 5.742589 34.914660 199 199 199 0
10.416738 5.742560 34.914488 200 200 200 0
10.550103 5.742461 34.913883 199 199 199 0
-10.710300 5.890665 35.000981 190 190 190 0
-10.576430 5.890670 35.001009 189 189 189 0
-10.442570 5.890681 35.001073 190 190 190 0
-10.299505 5.885431 34.969882 190 190 190 0
-10.165401 5.885232 34.968701 191 191 191 0
-10.029999 5.884266 34.962960 190 190 190 0
-9.895691 5.883925 34.960931 190 190 190 0
-9.761342 5.883549 34.958697 190 190 190 0
-9.626776 5.883030 34.955612 191 191 191 0
-9.491939 5.882329 34.951448 191 191 191 0
-9.359394 5.883048 34.955720 192 192 192 0
-9.225770 5.883100 34.956030 192 192 192 0
-9.091892 5.882989 34.955371 191 191 191 0
-8.957872 5.882782 34.954139 192 192 192 0
-8.823945 5.882630 34.953240 191 191 191 0
-8.690006 5.882466 34.952262 191 191 191 0
-8.555583 5.881963 34.949276 192 192 192 0
-8.421720 5.881836 34.948523 191 191 191 0
-8.288296 5.882016 34.949591 192 192 192 0
-8.154172 5.881698 34.947698 193 193 193 0
-8.020064 5.881380 34.945812 192 192 192 0
-7.886260 5.881279 34.945210 192 192 192 0
-7.751951 5.880790 34.942307 192 192 192 0
-7.618435 5.880897 34.942942 192 192 192 0
-7.484496 5.880676 34.941625 192 192 192 0
-7.350752 5.880601 34.941184 192 192 192 0
-7.217223 5.880700 34.941770 193 193 193 0
-7.082851 5.880103 34.938221 193 193 193 0
-6.949858 5.880649 34.941469 192 192 192 0
-6.815906 5.880389 34.939923 192 192 192 0
-6.682223 5.880357 34.939730 193 193 193 0
-6.548245 5.880057 34.937951 193 193 193 0
-6.414578 5.880030 34.937787 193 193 193 0
-6.280489 5.879606 34.935273 193 193 193 0
-6.146904 5.879647 34.935513 193 193 193 0
-6.013473 5.879840 34.936663 193 193 193 0
-5.879733 5.879733 34.936023 193 193 193 0
-5.746010 5.879638 34.935463 193 193 193 0
-5.612027 5.879267 34.933253 193 193 193 0
-5.478400 5.879259 34.933207 194 194 194 0
-5.344670 5.879137 34.932482 194 194 194 0
-5.210942 5.879011 34.931736 194 194 194 0
-5.077385 5.879078 34.932133 194 194 194 0
-4.943756 5.879061 34.932030 194 194 194 0
-4.809947 5.878824 34.930622 194 194 194 0
-4.676565 5.879110 34.932324 194 194 194 0
-4.542942 5.879101 34.932268 195 195 195 0
-4.409137 5.878849 34.930774 194 194 194 0
-4.275447 5.878740 34.930124 194 194 194 0
-4.141845 5.878748 34.930174 195 195 195 0
-4.008235 5.878745 34.930155 195 195 195 0
-3.874659 5.878793 34.930437 195 195 195 0
-3.741040 5.878777 34.930342 195 195 195 0
-3.607353 5.878650 34.929589 196 196 196 0
-3.473680 5.878535 34.928908 195 195 195 0
-3.339998 5.878397 34.928086 196 196 196 0
-3.206343 5.878296 34.927487 195 195 195 0
-3.072659 5.878130 34.926500 195 195 195 0
-2.939037 5.878075 34.926173 195 195 195 0
-2.805306 5.877785 34.924448 196 196 196 0
-2.671591 5.877501 34.922761 196 196 196 0
-2.538187 5.877906 34.925168 195 195 195 0
-2.404663 5.878065 34.926113 195 195 195 0
-2.271047 5.878003 34.925748 195 195 195 0
-2.137429 5.877929 34.925306 196 196 196 0
-2.003809 5.877840 34.924776 196 196 196 0
-1.870240 5.877897 34.925118 196 196 196 0
-1.736621 5.877793 34.924499 196 196 196 0
-1.603010 5.877704 34.923969 196 196 196 0
-1.469486 5.877945 34.925404 197 197 197 0
-1.335862 5.877794 34.924504 196 196 196 0
-1.202262 5.877728 34.924110 197 197 197 0
-1.068699 5.877847 34.924819 197 197 197 0
-0.935070 5.877584 34.923254 197 197 197 0
-0.801476 5.877489 34.922689 197 197 197 0
-0.667889 5.877424 34.922306 196 196 196 0
-0.534316 5.877478 34.922629 197 197 197 0
-0.400719 5.877216 34.921070 197 197 197 0
-0.267155 5.877420 34.922280 197 197 197 0
-0.133580 5.877523 34.922895 196 196 196 0
0.000000 5.877382 34.922053 196 196 196 0
0.133576 5.877352 34.921880 197 197 197 0
0.267152 5.877344 34.921831 197 197 197 0
0.400720 5.877231 34.921161 197 197 197 0
0.534297 5.877265 34.921362 197 197 197 0
0.667871 5.877264 34.921357 197 197 197 0
0.801449 5.877294 34.921532 198 198 198 0
0.935017 5.877250 34.921271 197 197 197 0
1.068597 5.877283 34.921467 197 197 197 0
1.202122 5.877042 34.920038 197 197 197 0
1.335685 5.877016 34.919880 197 197 197 0
1.469225 5.876900 34.919190 197 197 197 0
1.602829 5.877041 34.920031 198 198 198 0
1.736305 5.876725 34.918151 198 198 198 0
1.869957 5.877009 34.919839 198 198 198 0
2.003544 5.877063 34.920158 198 198 198 0
2.137110 5.877051 34.920091 197 197 197 0
2.270645 5.876964 34.919572 198 198 198 0
2.404224 5.876993 34.919746 198 198 198 0
2.537732 5.876852 34.918908 197 197 197 0
2.671289 5.876837 34.918816 198 198 198 0
2.804877 5.876884 34.919098 198 198 198 0
2.938431 5.876861 34.918962 198 198 198 0
3.071992 5.876854 34.918918 198 198 198 0
3.205585 5.876906 34.919227 199 199 199 0
3.339119 5.876850 34.918894 199 199 199 0
3.472649 5.876790 34.918539 198 198 198 0
3.606186 5.876748 34.918289 198 198 198 0
3.739761 5.876768 34.918408 198 198 198 0
3.873244 5.876646 34.917685 198 198 198 0
4.006849 5.876711 34.918071 199 199 199 0
4.140388 5.876680 34.917884 198 198 198 0
4.273838 5.876528 34.916980 198 198 198 0
4.407433 5.876577 34.917275 199 199 199 0
4.541075 5.876686 34.917918 199 199 199 0
4.674548 5.876574 34.917255 199 199 199 0
4.808189 5.876675 34.917856 198 198 198 0
4.941791 5.876724 34.918148 199 199 199 0
5.075310 5.876674 34.917851 198 198 198 0
5.208890 5.876696 34.917981 199 199 199 0
5.342516 5.876767 34.918403 198 198 198 0
5.475945 5.876624 34.917553 199 199 199 0
5.609447 5.876563 34.917192 199 199 199 0
5.742820 5.876374 34.916069 199 199 199 0
5.876236 5.876236 34.915249 200 200 200 0
6.010064 5.876507 34.916857 198 198 198 0
6.143683 5.876566 34.917208 199 199 199 0
6.277198 5.876525 34.916967 199 199 199 0
6.410662 5.876440 34.916459 199 199 199 0
6.544302 5.876516 34.916908 199 199 199 0
6.677801 5.876465 34.916604 199 199 199 0
6.811396 5.876499 34.916807 199 199 199 0
6.944970 5.876513 34.916891 199 199 199 0
7.078434 5.876435 34.916431 200 200 200 0
7.211921 5.876380 34.916103 199 199 199 0
7.345538 5.876430 34.916402 200 200 200 0
7.479015 5.876369 34.916038 200 200 200 0
7.612557 5.876360 34.915983 200 200 200 0
7.746066 5.876326 34.915779 199 199 199 0
7.879118 5.875953 34.913563 199 199 199 0
8.013191 5.876340 34.915867 199 199 199 0
8.146766 5.876356 34.915957 199 199 199 0
8.280305 5.876345 34.915897 199 199 199 0
8.413748 5.876269 34.915440 199 199 199 0
8.547322 5.876284 34.915529 199 199 199 0
8.680752 5.876201 34.915040 199 199 199 0
8.814416 5.876277 34.915490 200 200 200 0
8.948065 5.876341 34.915873 199 199 199 0
9.081501 5.876265 34.915421 199 199 199 0
9.215181 5.876347 34.915907 200 200 200 0
9.348759 5.876363 34.916001 200 200 200 0
9.482185 5.876284 34.915530 200 200 200 0
9.615657 5.876235 34.915238 199 199 199 0
9.748974 5.876094 34.914403 199 199 199 0
9.882223 5.875917 34.913349 199 199 199 0
10.016138 5.876134 34.914643 199 199 199 0
10.149704 5.876144 34.914701 200 200 200 0
10.283254 5.876145 34.914705 200 200 200 0
10.416755 5.876118 34.914547 199 199 199 0
10.550125 5.876019 34.913958 199 199 199 0
-10.710273 6.024529 35.000892 190 190 190 0
-10.576443 6.024556 35.001051 190 190 190 0
-10.442572 6.024561 35.001078 190 190 190 0
-10.299501 6.019189 34.969870 191 191 191 0
-10.165622 6.019118 34.969461 190 190 190 0
-10.030235 6.018141 34.963783 191 191 191 0
-9.895483 6.017524 34.960195 191 191 191 0
-9.761352 6.017272 34.958731 190 190 190 0
-9.627079 6.016925 34.956716 190 190 190 0
-9.491989 6.016050 34.951631 191 191 191 0
-9.358986 6.016491 34.954195 190 190 190 0
-9.226047 6.016987 34.957079 191 191 191 0
-9.091986 6.016755 34.955731 191 191 191 0
-8.958289 6.016761 34.955765 192 192 192 0
-8.823896 6.016293 34.953046 192 192 192 0
-8.690019 6.016167 34.952312 192 192 192 0
-8.555602 6.015658 34.949355 192 192 192 0
-8.421879 6.015628 34.949182 191 191 191 0
-8.288347 6.015736 34.949810 192 192 192 0
-8.154285 6.015456 34.948184 192 192 192 0
-8.020210 6.015157 34.946447 193 193 193 0
-7.886132 6.014846 34.944641 192 192 192 0
-7.752153 6.014602 34.943220 192 192 192 0
-7.618386 6.014515 34.942715 192 192 192 0
-7.484578 6.014393 34.942007 192 192 192 0
-7.350804 6.014294 34.941432 193 193 193 0
-7.217204 6.014337 34.941682 193 193 193 0
-7.083033 6.013896 34.939118 193 193 193 0
-6.949715 6.014177 34.940750 193 193 193 0
-6.816015 6.014131 34.940485 192 192 192 0
-6.682367 6.014130 34.940481 193 193 193 0
-6.548124 6.013583 34.937301 193 193 193 0
-6.414430 6.013528 34.936982 193 193 193 0
-6.280589 6.013329 34.935828 194 194 194 0
-6.146870 6.013242 34.935323 193 193 193 0
-6.013491 6.013491 34.936769 193 193 193 0
-5.879766 6.013397 34.936220 193 193 193 0
-5.745978 6.013232 34.935265 193 193 193 0
-5.612081 6.012944 34.933591 194 194 194 0
-5.478431 6.012912 34.933402 194 194 194 0
-5.344821 6.012924 34.933472 194 194 194 0
-5.211076 6.012780 34.932634 194 194 194 0
-5.077411 6.012724 34.932309 194 194 194 0
-4.943822 6.012757 34.932502 194 194 194 0
-4.809907 6.012384 34.930336 194 194 194 0
-4.676477 6.012614 34.931670 195 195 195 0
-4.542940 6.012715 34.932257 195 195 195 0
-4.409151 6.012479 34.930886 194 194 194 0
-4.275379 6.012251 34.929563 194 194 194 0
-4.141915 6.012458 34.930765 194 194 194 0
-4.008228 6.012342 34.930091 195 195 195 0
-3.874566 6.012257 34.929599 195 195 195 0
-3.741033 6.012375 34.930282 196 196 196 0
-3.607398 6.012330 34.930021 194 194 194 0
-3.473662 6.012108 34.928730 195 195 195 0
-3.340014 6.012025 34.928247 195 195 195 0
-3.206359 6.011924 34.927663 195 195 195 0
-3.072649 6.011705 34.926392 196 196 196 0
-2.939061 6.011716 34.926457 195 195 195 0
-2.805333 6.011428 34.924779 196 196 196 0
-2.671502 6.010880 34.921598 195 195 195 0
-2.538245 6.011632 34.925967 196 196 196 0
-2.404682 6.011705 34.926390 196 196 196 0
-2.271068 6.011652 34.926081 196 196 196 0
-2.137428 6.011515 34.925289 196 196 196 0
-2.003814 6.011443 34.924869 196 196 196 0
-1.870240 6.011487 34.925126 196 196 196 0
-1.736610 6.011343 34.924285 196 196 196 0
-1.603012 6.011293 34.923999 196 196 196 0
-1.469477 6.011495 34.925173 197 197 197 0
-1.335849 6.011322 34.924166 197 197 197 0
-1.202267 6.011337 34.924254 196 196 196 0
-1.068695 6.011408 34.924664 196 196 196 0
-0.935067 6.011144 34.923130 197 197 197 0
-0.801485 6.011137 34.923092 196 196 196 0
-0.667901 6.011108 34.922923 196 196 196 0
-0.534315 6.011046 34.922564 197 197 197 0
-0.400719 6.010790 34.921076 197 197 197 0
-0.267159 6.011081 34.922767 197 197 197 0
-0.133580 6.011098 34.922862 196 196 196 0
0.000000 6.010975 34.922148 197 197 197 0
0.133576 6.010906 34.921749 196 196 196 0
0.267151 6.010907 34.921752 197 197 197 0
0.400720 6.010800 34.921136 198 198 198 0
0.534300 6.010876 34.921573 197 197 197 0
0.667867 6.010800 34.921135 198 198 198 0
0.801433 6.010746 34.920817 197 197 197 0
0.935016 6.010814 34.921217 197 197 197 0
1.068608 6.010922 34.921844 197 197 197 0
1.202128 6.010640 34.920204 198 198 198 0
1.335681 6.010562 34.919752 197 197 197 0
1.469237 6.010516 34.919482 197 197 197 0
1.602828 6.010605 34.920001 197 197 197 0
1.736316 6.010326 34.918376 198 198 198 0
1.869977 6.010641 34.920207 198 198 198 0
2.003551 6.010654 34.920282 197 197 197 0
2.137108 6.010616 34.920066 198 198 198 0
2.270642 6.010522 34.919518 198 198 198 0
2.404226 6.010566 34.919774 198 198 198 0
2.537731 6.010416 34.918902 198 198 198 0
2.671285 6.010392 34.918760 198 198 198 0
2.804903 6.010506 34.919425 198 198 198 0
2.938439 6.010442 34.919056 199 199 199 0
3.071988 6.010411 34.918874 199 199 199 0
3.205611 6.010521 34.919514 198 198 198 0
3.339094 6.010370 34.918633 198 198 198 0
3.472650 6.010355 34.918550 199 199 199 0
3.606188 6.010313 34.918304 199 199 199 0
3.739789 6.010375 34.918663 199 199 199 0
3.873249 6.010214 34.917728 199 199 199 0
4.006885 6.010328 34.918390 199 199 199 0
4.140400 6.010257 34.917981 198 198 198 0
4.273859 6.010114 34.917150 198 198 198 0
4.407437 6.010142 34.917308 198 198 198 0
4.541078 6.010251 34.917942 199 199 199 0
4.674577 6.010171 34.917477 199 199 199 0
4.808179 6.010224 34.917788 199 199 199 0
4.941807 6.010306 34.918261 198 198 198 0
5.075301 6.010225 34.917791 198 198 198 0
5.208877 6.010242 34.917893 199 199 199 0
5.342530 6.010346 34.918494 199 199 199 0
5.475949 6.010188 34.917575 199 199 199 0
5.609448 6.010123 34.917198 199 199 199 0
5.742851 6.009960 34.916252 200 200 200 0
5.876232 6.009783 34.915225 198 198 198 0
6.010072 6.010072 34.916903 199 199 199 0
6.143689 6.010130 34.917242 199 199 199 0
6.277241 6.010125 34.917210 199 199 199 0
6.410662 6.009995 34.916459 199 199 199 0
6.544292 6.010064 34.916856 199 199 199 0
6.677788 6.010009 34.916536 199 199 199 0
6.811457 6.010109 34.917120 199 199 199 0
6.944976 6.010076 34.916925 199 199 199 0
7.078408 6.009969 34.916304 200 200 200 0
7.211823 6.009853 34.915629 200 200 200 0
7.345530 6.009979 34.916365 199 199 199 0
7.479060 6.009959 34.916248 199 199 199 0
7.612599 6.009947 34.916176 200 200 200 0
7.746040 6.009859 34.915665 198 198 198 0
7.879132 6.009508 34.913625 199 199 199 0
8.013164 6.009873 34.915746 200 200 200 0
8.146806 6.009939 34.916130 200 200 200 0
8.280340 6.009924 34.916043 200 200 200 0
8.413773 6.009838 34.915545 199 199 199 0
8.547335 6.009845 34.915584 199 199 199 0
8.680725 6.009733 34.914931 199 199 199 0
8.814403 6.009820 34.915441 200 200 200 0
8.948013 6.009859 34.915668 200 200 200 0
9.081552 6.009850 34.915615 200 200 200 0
9.215118 6.009859 34.915668 200 200 200 0
9.348762 6.009918 34.916011 200 200 200 0
9.482220 6.009858 34.915658 199 199 199 0
9.615627 6.009767 34.915132 199 199 199 0
9.748985 6.009648 34.914443 200 200 200 0
9.882176 6.009431 34.913180 199 199 199 0
10.016085 6.009651 34.914457 199 199 199 0
10.149681 6.009680 34.914624 199 199 199 0
10.283203 6.009664 34.914532 200 200 200 0
10.416766 6.009673 34.914584 200 200 200 0
10.550095 6.009548 34.913859 199 199 199 0
-10.710303 6.158424 35.000992 189 189 189 0
-10.576439 6.158433 35.001040 190 190 190 0
-10.442579 6.158444 35.001101 190 190 190 0
-10.299624 6.153022 34.970287 189 189 189 0
-10.165567 6.152843 34.969270 190 190 190 0
-10.030245 6.151883 34.963816 190 190 190 0
-9.895480 6.151244 34.960184 191 191 191 0
-9.761641 6.151171 34.959765 190 190 190 0
-9.626690 6.150385 34.955301 191 191 191 0
-9.491718 6.149564 34.950632 191 191 191 0
-9.359195 6.150328 34.954977 191 191 191 0
-9.225917 6.150611 34.956586 190 190 190 0
-9.092123 6.150554 34.956261 191 191 191 0
-8.958071 6.150317 34.954916 191 191 191 0
-8.823704 6.149854 34.952284 191 191 191 0
-8.690149 6.149951 34.952835 191 191 191 0
-8.555660 6.149380 34.949590 192 192 192 0
-8.421589 6.149097 34.947977 192 192 192 0
-8.288148 6.149271 34.948968 191 191 191 0
-8.154241 6.149100 34.947997 192 192 192 0
-8.020291 6.148890 34.946802 192 192 192 0
-7.886175 6.148543 34.944833 192 192 192 0
-7.751806 6.147984 34.941655 192 192 192 0
-7.618292 6.148095 34.942285 192 192 192 0
-7.484561 6.148033 34.941930 192 192 192 0
-7.350730 6.147883 34.941080 193 193 193 0
-7.217216 6.147999 34.941739 192 192 192 0
-7.082836 6.147368 34.938150 192 192 192 0
-6.949661 6.147777 34.940477 193 193 193 0
-6.815849 6.147629 34.939636 193 193 193 0
-6.682439 6.147844 34.940855 193 193 193 0
-6.548179 6.147270 34.937595 194 194 194 0
-6.414518 6.147246 34.937460 193 193 193 0
-6.280559 6.146930 34.935663 193 193 193 0
-6.146922 6.146922 34.935620 193 193 193 0
-6.013378 6.147009 34.936113 193 193 193 0
-5.879815 6.147079 34.936510 194 194 194 0
-5.745909 6.146787 34.934850 194 194 194 0
-5.612163 6.146655 34.934101 193 193 193 0
-5.478524 6.146637 34.933997 193 193 193 0
-5.344797 6.146517 34.933316 194 194 194 0
-5.211032 6.146345 34.932341 194 194 194 0
-5.077414 6.146343 34.932328 194 194 194 0
-4.943823 6.146374 34.932505 194 194 194 0
-4.809901 6.145985 34.930292 194 194 194 0
-4.676473 6.146222 34.931638 195 195 195 0
-4.542859 6.146221 34.931635 194 194 194 0
-4.409155 6.146096 34.930921 194 194 194 0
-4.275340 6.145802 34.929251 195 195 195 0
-4.141882 6.146018 34.930480 194 194 194 0
-4.008221 6.145939 34.930032 195 195 195 0
-3.874560 6.145854 34.929550 195 195 195 0
-3.741037 6.145989 34.930314 195 195 195 0
-3.607387 6.145918 34.929914 195 195 195 0
-3.473652 6.145692 34.928626 195 195 195 0
-3.340007 6.145612 34.928174 194 194 194 0
-3.206313 6.145432 34.927153 195 195 195 0
-3.072643 6.145286 34.926321 195 195 195 0
-2.939038 6.145261 34.926176 195 195 195 0
-2.805302 6.144946 34.924390 196 196 196 0
-2.671441 6.144315 34.920801 195 195 195 0
-2.538213 6.145147 34.925531 196 196 196 0
-2.404665 6.145254 34.926137 196 196 196 0
-2.271047 6.145186 34.925754 195 195 195 0
-2.137404 6.145035 34.924896 196 196 196 0
-2.003821 6.145050 34.924979 196 196 196 0
-1.870230 6.145040 34.924923 196 196 196 0
-1.736616 6.144948 34.924397 196 196 196 0
-1.603023 6.144921 34.924244 196 196 196 0
-1.469468 6.145046 34.924956 196 196 196 0
-1.335856 6.144940 34.924353 196 196 196 0
-1.202264 6.144906 34.924161 197 197 197 0
-1.068693 6.144985 34.924607 196 196 196 0
-0.935058 6.144668 34.922806 197 197 197 0
-0.801469 6.144599 34.922417 196 196 196 0
-0.667891 6.144595 34.922392 197 197 197 0
-0.534320 6.144684 34.922897 197 197 197 0
-0.400718 6.144341 34.920950 197 197 197 0
-0.267161 6.144702 34.923000 196 196 196 0
-0.133580 6.144692 34.922943 197 197 197 0
0.000000 6.144564 34.922216 196 196 196 0
0.133576 6.144500 34.921851 197 197 197 0
0.267151 6.144472 34.921692 197 197 197 0
0.400718 6.144340 34.920944 197 197 197 0
0.534299 6.144444 34.921536 197 197 197 0
0.667882 6.144513 34.921925 197 197 197 0
0.801444 6.144405 34.921312 197 197 197 0
0.935019 6.144408 34.921330 197 197 197 0
1.068598 6.144439 34.921508 197 197 197 0
1.202118 6.144158 34.919910 197 197 197 0
1.335687 6.144162 34.919930 198 198 198 0
1.469234 6.144068 34.919399 198 198 198 0
1.602812 6.144114 34.919662 198 198 198 0
1.736319 6.143899 34.918440 198 198 198 0
1.869965 6.144170 34.919976 197 197 197 0
2.003566 6.144270 34.920544 198 198 198 0
2.137121 6.144223 34.920279 198 198 198 0
2.270640 6.144083 34.919486 197 197 197 0
2.404210 6.144093 34.919540 198 198 198 0
2.537734 6.143988 34.918942 198 198 198 0
2.671307 6.144006 34.919045 198 198 198 0
2.804859 6.143977 34.918880 198 198 198 0
2.938464 6.144060 34.919353 198 198 198 0
3.071990 6.143979 34.918892 197 197 197 0
3.205634 6.144131 34.919758 198 198 198 0
3.339078 6.143903 34.918460 198 198 198 0
3.472638 6.143899 34.918436 198 198 198 0
3.606184 6.143869 34.918268 198 198 198 0
3.739763 6.143896 34.918421 198 198 198 0
3.873269 6.143806 34.917909 199 199 199 0
4.006867 6.143862 34.918227 198 198 198 0
4.140388 6.143801 34.917882 198 198 198 0
4.273837 6.143641 34.916969 199 199 199 0
4.407411 6.143663 34.917097 198 198 198 0
4.541038 6.143758 34.917633 199 199 199 0
4.674554 6.143699 34.917303 199 199 199 0
4.808173 6.143776 34.917739 198 198 198 0
4.941818 6.143882 34.918340 198 198 198 0
5.075276 6.143755 34.917616 199 199 199 0
5.208880 6.143808 34.917918 198 198 198 0
5.342557 6.143941 34.918674 199 199 199 0
5.475945 6.143743 34.917550 199 199 199 0
5.609425 6.143656 34.917058 199 199 199 0
5.742889 6.143555 34.916484 199 199 199 0
5.876240 6.143342 34.915272 199 199 199 0
6.010040 6.143596 34.916716 199 199 199 0
6.143682 6.143682 34.917203 199 199 199 0
6.277194 6.143636 34.916945 199 199 199 0
6.410662 6.143551 34.916459 199 199 199 0
6.544312 6.143640 34.916963 199 199 199 0
6.677838 6.143611 34.916801 199 199 199 0
6.811525 6.143729 34.917469 199 199 199 0
6.944982 6.143638 34.916952 199 199 199 0
7.078411 6.143527 34.916321 199 199 199 0
7.211850 6.143427 34.915757 199 199 199 0
7.345555 6.143555 34.916483 200 200 200 0
7.479057 6.143511 34.916234 199 199 199 0
7.612593 6.143496 34.916149 199 199 199 0
7.746030 6.143403 34.915619 199 199 199 0
7.879192 6.143099 34.913891 199 199 199 0
8.013244 6.143487 34.916096 199 199 199 0
8.146796 6.143486 34.916088 199 199 199 0
8.280338 6.143476 34.916036 199 199 199 0
8.413775 6.143391 34.915549 199 199 199 0
8.547367 6.143420 34.915714 199 199 199 0
8.680833 6.143359 34.915368 199 199 199 0
8.814453 6.143407 34.915640 199 199 199 0
8.948049 6.143437 34.915810 199 199 199 0
9.081599 6.143435 34.915797 199 199 199 0
9.215156 6.143437 34.915814 199 199 199 0
9.348815 6.143507 34.916210 199 199 199 0
9.482226 6.143414 34.915680 199 199 199 0
9.615650 6.143332 34.915215 200 200 200 0
9.748933 6.143163 34.914256 200 200 200 0
9.882224 6.143004 34.913350 200 200 200 0
10.016111 6.143215 34.914547 200 200 200 0
10.149786 6.143292 34.914985 200 200 200 0
10.283254 6.143243 34.914708 200 200 200 0
10.416753 6.143213 34.914538 199 199 199 0
10.550100 6.143096 34.913874 200 200 200 0
-10.710295 6.292299 35.000966 190 190 190 0
-10.576427 6.292305 35.000999 189 189 189 0
-10.442580 6.292324 35.001107 190 190 190 0
-10.299694 6.286826 34.970524 190 190 190 0
-10.165332 6.286455 34.968461 191 191 191 0
-10.029838 6.285365 34.962400 191 191 191 0
-9.895863 6.285210 34.961537 191 191 191 0
-9.761623 6.284880 34.959702 190 190 190 0
-9.626802 6.284162 34.955707 191 191 191 0
-9.491762 6.283279 34.950793 190 190 190 0
-9.359034 6.283923 34.954375 190 190 190 0
-9.225898 6.284308 34.956515 191 191 191 0
-9.091850 6.284073 34.955211 191 191 191 0
-8.958237 6.284136 34.955562 191 191 191 0
-8.823727 6.283563 34.952375 192 192 192 0
-8.690042 6.283569 34.952405 191 191 191 0
-8.555542 6.282976 34.949111 192 192 192 0
-8.421751 6.282894 34.948652 191 191 191 0
-8.288348 6.283102 34.949812 192 192 192 0
-8.154411 6.282907 34.948722 192 192 192 0
-8.020215 6.282502 34.946472 192 192 192 0
-7.886391 6.282379 34.945789 193 193 193 0
-7.751894 6.281707 34.942050 192 192 192 0
-7.618046 6.281547 34.941159 193 193 193 0
-7.484533 6.281662 34.941798 192 192 192 0
-7.350678 6.281488 34.940834 193 193 193 0
-7.217370 6.281785 34.942485 192 192 192 0
-7.082726 6.280908 34.937607 193 193 193 0
-6.949817 6.281566 34.941264 193 193 193 0
-6.815951 6.281367 34.940158 193 193 193 0
-6.682559 6.281605 34.941484 194 194 194 0
-6.548289 6.281012 34.938185 193 193 193 0
-6.414606 6.280968 34.937939 193 193 193 0
-6.280598 6.280598 34.935883 193 193 193 0
-6.146986 6.280616 34.935980 194 194 194 0
-6.013578 6.280848 34.937273 193 193 193 0
-5.879726 6.280617 34.935986 193 193 193 0
-5.745991 6.280502 34.935348 194 194 194 0
-5.612093 6.280199 34.933663 194 194 194 0
-5.478434 6.280155 34.933420 193 193 193 0
-5.344724 6.280051 34.932839 194 194 194 0
-5.210935 6.279845 34.931694 194 194 194 0
-5.077396 6.279938 34.932208 193 193 193 0
-4.943817 6.279984 34.932465 195 195 195 0
-4.809846 6.279522 34.929894 194 194 194 0
-4.676515 6.279891 34.931949 194 194 194 0
-4.542865 6.279842 34.931678 194 194 194 0
-4.409137 6.279680 34.930775 194 194 194 0
-4.275372 6.279453 34.929514 194 194 194 0
-4.141882 6.279627 34.930480 194 194 194 0
-4.008202 6.279516 34.929861 194 194 194 0
-3.874585 6.279499 34.929768 194 194 194 0
-3.740976 6.279495 34.929744 195 195 195 0
-3.607320 6.279409 34.929269 195 195 195 0
-3.473666 6.279320 34.928772 195 195 195 0
-3.340062 6.279316 34.928751 195 195 195 0
-3.206298 6.279001 34.926998 194 194 194 0
-3.072657 6.278908 34.926480 196 196 196 0
-2.939022 6.278820 34.925988 195 195 195 0
-2.805240 6.278395 34.923627 195 195 195 0
-2.671317 6.277596 34.919183 196 196 196 0
-2.538224 6.278765 34.925687 196 196 196 0
-2.404682 6.278892 34.926391 196 196 196 0
-2.271080 6.278867 34.926252 195 195 195 0
-2.137435 6.278716 34.925412 196 196 196 0
-2.003810 6.278606 34.924798 196 196 196 0
-1.870251 6.278701 34.925329 196 196 196 0
-1.736604 6.278493 34.924171 196 196 196 0
-1.603041 6.278578 34.924646 196 196 196 0
-1.469453 6.278574 34.924621 196 196 196 0
-1.335843 6.278462 34.923999 196 196 196 0
-1.202262 6.278477 34.924085 196 196 196 0
-1.068687 6.278537 34.924418 196 196 196 0
-0.935066 6.278298 34.923090 196 196 196 0
-0.801475 6.278223 34.922668 197 197 197 0
-0.667897 6.278232 34.922721 197 197 197 0
-0.534315 6.278205 34.922570 196 196 196 0
-0.400719 6.277939 34.921088 196 196 196 0
-0.267159 6.278226 34.922685 197 197 197 0
-0.133579 6.278231 34.922713 197 197 197 0
0.000000 6.278193 34.922501 196 196 196 0
0.133576 6.278090 34.921928 197 197 197 0
0.267152 6.278068 34.921810 197 197 197 0
0.400716 6.277877 34.920745 197 197 197 0
0.534300 6.278027 34.921583 197 197 197 0
0.667880 6.278071 34.921823 197 197 197 0
0.801442 6.277960 34.921209 197 197 197 0
0.935019 6.277986 34.921351 197 197 197 0
1.068595 6.277997 34.921414 197 197 197 0
1.202113 6.277700 34.919762 198 198 198 0
1.335679 6.277693 34.919722 198 198 198 0
1.469239 6.277658 34.919526 197 197 197 0
1.602805 6.277652 34.919496 197 197 197 0
1.736316 6.277451 34.918375 198 198 198 0
1.869967 6.277746 34.920016 198 198 198 0
2.003556 6.277809 34.920365 198 198 198 0
2.137123 6.277799 34.920313 198 198 198 0
2.270637 6.277642 34.919439 198 198 198 0
2.404220 6.277686 34.919685 198 198 198 0
2.537738 6.277561 34.918989 197 197 197 0
2.671296 6.277545 34.918897 198 198 198 0
2.804846 6.277512 34.918714 198 198 198 0
2.938415 6.277524 34.918781 198 198 198 0
3.072011 6.277588 34.919135 198 198 198 0
3.205589 6.277611 34.919266 198 198 198 0
3.339098 6.277504 34.918670 199 199 199 0
3.472622 6.277431 34.918266 198 198 198 0
3.606162 6.277394 34.918056 199 199 199 0
3.739783 6.277493 34.918607 198 198 198 0
3.873320 6.277450 34.918372 198 198 198 0
4.006863 6.277418 34.918192 198 198 198 0
4.140366 6.277329 34.917695 198 198 198 0
4.273869 6.277246 34.917234 198 198 198 0
4.407479 6.277319 34.917642 198 198 198 0
4.541055 6.277340 34.917759 198 198 198 0
4.674586 6.277301 34.917543 198 198 198 0
4.808176 6.277341 34.917763 199 199 199 0
4.941780 6.277396 34.918071 198 198 198 0
5.075249 6.277281 34.917432 199 199 199 0
5.208872 6.277359 34.917864 199 199 199 0
5.342553 6.277500 34.918648 198 198 198 0
5.475945 6.277302 34.917548 199 199 199 0
5.609464 6.277258 34.917301 199 199 199 0
5.742847 6.277066 34.916233 199 199 199 0
5.876231 6.276883 34.915219 199 199 199 0
6.010066 6.277181 34.916871 199 199 199 0
6.143669 6.277227 34.917132 199 199 199 0
6.277219 6.277219 34.917085 199 199 199 0
6.410649 6.277094 34.916388 199 199 199 0
6.544301 6.277187 34.916906 200 200 200 0
6.677860 6.277188 34.916914 199 199 199 0
6.811446 6.277215 34.917060 199 199 199 0
6.944973 6.277187 34.916908 199 199 199 0
7.078482 6.277144 34.916670 199 199 199 0
7.211815 6.276950 34.915589 199 199 199 0
7.345559 6.277114 34.916502 199 199 199 0
7.479039 6.277051 34.916149 199 199 199 0
7.612560 6.277023 34.915997 199 199 199 0
7.746108 6.277018 34.915969 199 199 199 0
7.879192 6.276645 34.913891 200 200 200 0
8.013227 6.277028 34.916024 199 199 199 0
8.146805 6.277046 34.916125 199 199 199 0
8.280337 6.277030 34.916033 200 200 200 0
8.413828 6.276983 34.915773 200 200 200 0
8.547378 6.276981 34.915760 199 199 199 0
8.680740 6.276843 34.914993 199 199 199 0
8.814454 6.276960 34.915643 200 200 200 0
8.948123 6.277042 34.916100 200 200 200 0
9.081548 6.276952 34.915600 200 200 200 0
9.215185 6.277010 34.915922 199 199 199 0
9.348763 6.277026 34.916013 199 199 199 0
9.482202 6.276951 34.915593 200 200 200 0
9.615658 6.276888 34.915242 199 199 199 0
9.748984 6.276743 34.914438 200 200 200 0
9.882181 6.276521 34.913200 200 200 200 0
10.016131 6.276776 34.914619 199 199 199 0
10.149760 6.276825 34.914896 199 199 199 0
10.283269 6.276801 34.914758 200 200 200 0
10.416747 6.276758 34.914521 199 199 199 0
10.550048 6.276611 34.913704 200 200 200 0
-10.710308 6.426185 35.001006 190 190 190 0
-10.576429 6.426184 35.001005 190 190 190 0
-10.442577 6.426201 35.001097 190 190 190 0
-10.299441 6.420431 34.969666 190 190 190 0
-10.165717 6.420453 34.969787 190 190 190 0
-10.030153 6.419298 34.963497 190 190 190 0
-9.895730 6.418852 34.961067 191 191 191 0
-9.761383 6.418444 34.958845 190 190 190 0
-9.627050 6.418034 34.956610 191 191 191 0
-9.491766 6.416969 34.950810 190 190 190 0
-9.358964 6.417575 34.954115 191 191 191 0
-9.225921 6.418032 34.956601 191 191 191 0
-9.091960 6.417854 34.955632 191 191 191 0
-8.957875 6.417582 34.954151 191 191 191 0
-8.823890 6.417375 34.953022 191 191 191 0
-8.689812 6.417092 34.951482 191 191 191 0
-8.555583 6.416687 34.949277 191 191 191 0
-8.421809 6.416616 34.948890 192 192 192 0
-8.288462 6.416874 34.950295 192 192 192 0
-8.154325 6.416518 34.948356 191 191 191 0
-8.020205 6.416164 34.946426 192 192 192 0
-7.886243 6.415927 34.945135 192 192 192 0
-7.751710 6.415208 34.941220 193 193 193 0
-7.618169 6.415300 34.941724 192 192 192 0
-7.484412 6.415211 34.941234 192 192 192 0
-7.350662 6.415123 34.940756 193 193 193 0
-7.217200 6.415289 34.941662 193 193 193 0
-7.082772 6.414586 34.937831 193 193 193 0
-6.949732 6.415137 34.940835 193 193 193 0
-6.815887 6.414953 34.939830 193 193 193 0
-6.682435 6.415138 34.940839 193 193 193 0
-6.548165 6.414529 34.937524 193 193 193 0
-6.414460 6.414460 34.937148 193 193 193 0
-6.280490 6.414117 34.935278 193 193 193 0
-6.146935 6.414193 34.935694 193 193 193 0
-6.013409 6.414303 34.936291 193 193 193 0
-5.879771 6.414296 34.936251 193 193 193 0
-5.745977 6.414114 34.935260 193 193 193 0
-5.612191 6.413932 34.934271 194 194 194 0
-5.478443 6.413787 34.933481 194 194 194 0
-5.344719 6.413663 34.932805 194 194 194 0
-5.211024 6.413568 34.932290 193 193 193 0
-5.077375 6.413527 34.932062 193 193 193 0
-4.943907 6.413717 34.933097 194 194 194 0
-4.809960 6.413280 34.930717 194 194 194 0
-4.676520 6.413513 34.931986 194 194 194 0
-4.542911 6.413522 34.932035 195 195 195 0
-4.409235 6.413432 34.931548 194 194 194 0
-4.275380 6.413069 34.929572 194 194 194 0
-4.141905 6.413272 34.930678 195 195 195 0
-4.008190 6.413104 34.929762 195 195 195 0
-3.874565 6.413073 34.929592 194 194 194 0
-3.741055 6.413237 34.930485 194 194 194 0
-3.607337 6.413043 34.929430 195 195 195 0
-3.473683 6.412954 34.928941 194 194 194 0
-3.340033 6.412863 34.928447 195 195 195 0
-3.206292 6.412585 34.926931 195 195 195 0
-3.072646 6.412478 34.926350 195 195 195 0
-2.939047 6.412467 34.926290 195 195 195 0
-2.805234 6.411963 34.923547 195 195 195 0
-2.671126 6.410703 34.916685 196 196 196 0
-2.538230 6.412370 34.925762 195 195 195 0
-2.404665 6.412439 34.926140 195 195 195 0
-2.271063 6.412414 34.926000 195 195 195 0
-2.137466 6.412397 34.925907 196 196 196 0
-2.003854 6.412334 34.925567 196 196 196 0
-1.870248 6.412278 34.925262 195 195 195 0
-1.736626 6.412156 34.924596 196 196 196 0
-1.603013 6.412053 34.924037 196 196 196 0
-1.469456 6.412172 34.924682 197 197 197 0
-1.335849 6.412073 34.924147 196 196 196 0
-1.202258 6.412044 34.923988 196 196 196 0
-1.068687 6.412119 34.924396 197 197 197 0
-0.935068 6.411897 34.923185 196 196 196 0
-0.801470 6.411763 34.922456 196 196 196 0
-0.667892 6.411767 34.922477 196 196 196 0
-0.534316 6.411792 34.922612 196 196 196 0
-0.400720 6.411524 34.921154 197 197 197 0
-0.267159 6.411805 34.922685 196 196 196 0
-0.133580 6.411828 34.922810 196 196 196 0
0.000000 6.411783 34.922567 197 197 197 0
0.133577 6.411681 34.922009 197 197 197 0
0.267153 6.411661 34.921900 197 197 197 0
0.400721 6.411537 34.921223 197 197 197 0
0.534305 6.411656 34.921873 197 197 197 0
0.667872 6.411567 34.921386 197 197 197 0
0.801439 6.411511 34.921085 197 197 197 0
0.935008 6.411483 34.920933 198 198 198 0
1.068584 6.411503 34.921039 197 197 197 0
1.202106 6.411234 34.919577 198 198 198 0
1.335673 6.411230 34.919553 197 197 197 0
1.469248 6.411265 34.919743 197 197 197 0
1.602816 6.411265 34.919746 197 197 197 0
1.736310 6.410992 34.918255 198 198 198 0
1.869971 6.411330 34.920100 198 198 198 0
2.003561 6.411396 34.920458 198 198 198 0
2.137128 6.411383 34.920387 198 198 198 0
2.270623 6.411172 34.919236 198 198 198 0
2.404211 6.411229 34.919549 197 197 197 0
2.537739 6.411131 34.919012 198 198 198 0
2.671300 6.411119 34.918949 198 198 198 0
2.804871 6.411133 34.919023 198 198 198 0
2.938431 6.411122 34.918967 198 198 198 0
3.072004 6.411139 34.919058 198 198 198 0
3.205630 6.411260 34.919715 198 198 198 0
3.339072 6.411018 34.918400 198 198 198 0
3.472654 6.411053 34.918589 198 198 198 0
3.606207 6.411034 34.918488 198 198 198 0
3.739763 6.411022 34.918421 198 198 198 0
3.873256 6.410906 34.917788 198 198 198 0
4.006880 6.411009 34.918348 199 199 199 0
4.140375 6.410903 34.917772 198 198 198 0
4.273874 6.410811 34.917272 198 198 198 0
4.407461 6.410853 34.917500 199 199 199 0
4.541075 6.410930 34.917918 199 199 199 0
4.674578 6.410850 34.917481 198 198 198 0
4.808129 6.410839 34.917422 198 198 198 0
4.941823 6.411014 34.918377 199 199 199 0
5.075275 6.410873 34.917610 198 198 198 0
5.208914 6.410972 34.918146 199 199 199 0
5.342503 6.411003 34.918318 199 199 199 0
5.475911 6.410823 34.917337 198 198 198 0
5.609426 6.410773 34.917064 199 199 199 0
5.742810 6.410578 34.916002 199 199 199 0
5.876226 6.410429 34.915189 199 199 199 0
6.010023 6.410691 34.916620 198 198 198 0
6.143647 6.410762 34.917005 199 199 199 0
6.277180 6.410737 34.916871 199 199 199 0
6.410686 6.410686 34.916592 199 199 199 0
6.544243 6.410687 34.916594 199 199 199 0
6.677840 6.410726 34.916809 199 199 199 0
6.811413 6.410742 34.916895 199 199 199 0
6.944962 6.410734 34.916851 199 199 199 0
7.078415 6.410640 34.916340 200 200 200 0
7.211878 6.410558 34.915895 199 199 199 0
7.345503 6.410621 34.916234 199 199 199 0
7.479008 6.410578 34.916002 199 199 199 0
7.612545 6.410564 34.915925 199 199 199 0
7.746117 6.410580 34.916011 199 199 199 0
7.879146 6.410153 34.913688 199 199 199 0
8.013162 6.410529 34.915737 199 199 199 0
8.146844 6.410631 34.916293 200 200 200 0
8.280358 6.410600 34.916120 199 199 199 0
8.413830 6.410537 34.915779 199 199 199 0
8.547385 6.410539 34.915788 199 199 199 0
8.680797 6.410434 34.915221 199 199 199 0
8.814481 6.410531 34.915749 199 199 199 0
8.948156 6.410619 34.916226 199 199 199 0
9.081614 6.410551 34.915856 199 199 199 0
9.215163 6.410548 34.915838 199 199 199 0
9.348818 6.410618 34.916222 199 199 199 0
9.482168 6.410480 34.915468 200 200 200 0
9.615576 6.410384 34.914945 199 199 199 0
9.748923 6.410251 34.914220 200 200 200 0
9.882181 6.410064 34.913200 199 199 199 0
10.016112 6.410312 34.914553 199 199 199 0
10.149684 6.410327 34.914633 199 199 199 0
10.283247 6.410336 34.914682 200 200 200 0
10.416755 6.410311 34.914546 200 200 200 0
10.549997 6.410124 34.913532 199 199 199 0
-10.710304 6.560061 35.000994 190 190 190 0
-10.576445 6.560073 35.001057 189 189 189 0
-10.442588 6.560087 35.001133 190 190 190 0
-10.299479 6.554214 34.969796 190 190 190 0
-10.165762 6.554241 34.969940 190 190 190 0
-10.030246 6.553094 34.963821 190 190 190 0
-9.895638 6.552517 34.960742 190 190 190 0
-9.761561 6.552280 34.959480 190 190 190 0
-9.626892 6.551635 34.956036 190 190 190 0
-9.491755 6.550648 34.950769 191 191 191 0
-9.359237 6.551466 34.955135 190 190 190 0
-9.225794 6.551651 34.956120 191 191 191 0
-9.091967 6.551564 34.955658 191 191 191 0
-8.958101 6.551447 34.955031 191 191 191 0
-8.823725 6.550948 34.952368 191 191 191 0
-8.689822 6.550789 34.951520 192 192 192 0
-8.555784 6.550522 34.950099 192 192 192 0
-8.421792 6.550283 34.948820 192 192 192 0
-8.288446 6.550546 34.950226 192 192 192 0
-8.154264 6.550147 34.948096 192 192 192 0
-8.020217 6.549844 34.946479 192 192 192 0
-7.886168 6.549529 34.944799 191 191 191 0
-7.751676 6.548830 34.941070 193 193 193 0
-7.617862 6.548688 34.940314 192 192 192 0
-7.484502 6.548939 34.941651 193 193 193 0
-7.350694 6.548800 34.940908 193 193 193 0
-7.217321 6.549050 34.942245 193 193 193 0
-7.082691 6.548148 34.937433 193 193 193 0
-6.949636 6.548695 34.940349 192 192 192 0
-6.816015 6.548721 34.940487 193 193 193 0
-6.682356 6.548709 34.940425 193 193 193 0
-6.548254 6.548254 34.937999 193 193 193 0
-6.414442 6.548076 34.937048 193 193 193 0
-6.280484 6.547739 34.935248 193 193 193 0
-6.146940 6.547827 34.935719 194 194 194 0
-6.013475 6.548006 34.936674 193 193 193 0
-5.879778 6.547935 34.936293 193 193 193 0
-5.745987 6.547752 34.935319 193 193 193 0
-5.612177 6.547540 34.934188 193 193 193 0
-5.478442 6.547407 34.933477 193 193 193 0
-5.344814 6.547397 34.933424 194 194 194 0
-5.210974 6.547121 34.931950 194 194 194 0
-5.077337 6.547093 34.931801 194 194 194 0
-4.943784 6.547174 34.932232 193 193 193 0
-4.809943 6.546867 34.930595 194 194 194 0
-4.676485 6.547079 34.931729 194 194 194 0
-4.542879 6.547090 34.931788 194 194 194 0
-4.409235 6.547046 34.931551 194 194 194 0
-4.275319 6.546583 34.929080 194 194 194 0
-4.141832 6.546767 34.930063 194 194 194 0
-4.008172 6.546681 34.929605 195 195 195 0
-3.874473 6.546523 34.928760 195 195 195 0
-3.741047 6.546833 34.930415 195 195 195 0
-3.607421 6.546802 34.930247 194 194 194 0
-3.473667 6.546526 34.928778 195 195 195 0
-3.340020 6.546439 34.928314 195 195 195 0
-3.206163 6.545916 34.925521 195 195 195 0
-3.072632 6.546043 34.926198 195 195 195 0
-2.939043 6.546050 34.926237 195 195 195 0
-2.805190 6.545443 34.922996 196 196 196 0
-2.670991 6.543928 34.914913 195 195 195 0
-2.538221 6.545937 34.925636 195 195 195 0
-2.404689 6.546097 34.926487 196 196 196 0
-2.271086 6.546072 34.926354 196 196 196 0
-2.137426 6.545868 34.925264 196 196 196 0
-2.003805 6.545764 34.924711 196 196 196 0
-1.870252 6.545883 34.925348 196 196 196 0
-1.736631 6.545762 34.924700 196 196 196 0
-1.603046 6.545770 34.924745 196 196 196 0
-1.469499 6.545951 34.925710 196 196 196 0
-1.335855 6.545688 34.924304 197 197 197 0
-1.202252 6.545594 34.923802 196 196 196 0
-1.068694 6.545752 34.924646 196 196 196 0
-0.935062 6.545435 34.922954 197 197 197 0
-0.801480 6.545417 34.922860 196 196 196 0
-0.667893 6.545350 34.922504 196 196 196 0
-0.534314 6.545351 34.922509 197 197 197 0
-0.400720 6.545100 34.921170 197 197 197 0
-0.267162 6.545458 34.923080 197 197 197 0
-0.133583 6.545553 34.923585 197 197 197 0
0.000000 6.545398 34.922761 197 197 197 0
0.133577 6.545285 34.922154 197 197 197 0
0.267152 6.545227 34.921848 197 197 197 0
0.400720 6.545087 34.921102 197 197 197 0
0.534301 6.545186 34.921629 197 197 197 0
0.667869 6.545112 34.921232 197 197 197 0
0.801437 6.545068 34.921000 197 197 197 0
0.935018 6.545123 34.921289 197 197 197 0
1.068591 6.545117 34.921259 198 198 198 0
1.202119 6.544868 34.919932 197 197 197 0
1.335665 6.544760 34.919352 197 197 197 0
1.469257 6.544874 34.919962 197 197 197 0
1.602804 6.544783 34.919478 198 198 198 0
1.736297 6.544505 34.917995 198 198 198 0
1.869952 6.544832 34.919741 197 197 197 0
2.003553 6.544939 34.920309 198 198 198 0
2.137131 6.544963 34.920435 198 198 198 0
2.270661 6.544846 34.919812 198 198 198 0
2.404216 6.544809 34.919616 198 198 198 0
2.537725 6.544660 34.918822 197 197 197 0
2.671289 6.544658 34.918812 198 198 198 0
2.804899 6.544765 34.919383 198 198 198 0
2.938440 6.544706 34.919068 198 198 198 0
3.072020 6.544737 34.919233 198 198 198 0
3.205572 6.544710 34.919090 198 198 198 0
3.339056 6.544550 34.918233 198 198 198 0
3.472632 6.544576 34.918374 198 198 198 0
3.606182 6.544552 34.918247 198 198 198 0
3.739769 6.544596 34.918479 198 198 198 0
3.873291 6.544527 34.918111 198 198 198 0
4.006884 6.544578 34.918382 198 198 198 0
4.140374 6.544462 34.917767 198 198 198 0
4.273870 6.544363 34.917235 198 198 198 0
4.407448 6.544392 34.917394 198 198 198 0
4.541085 6.544506 34.917997 199 199 199 0
4.674586 6.544420 34.917542 199 199 199 0
4.808141 6.544415 34.917511 199 199 199 0
4.941823 6.544576 34.918372 198 198 198 0
5.075332 6.544507 34.918002 198 198 198 0
5.208829 6.544426 34.917571 199 199 199 0
5.342497 6.544558 34.918279 199 199 199 0
5.475920 6.544392 34.917393 199 199 199 0
5.609443 6.544351 34.917170 198 198 198 0
5.742848 6.544176 34.916238 199 199 199 0
5.876219 6.543971 34.915144 199 199 199 0
6.010048 6.544274 34.916763 198 198 198 0
6.143664 6.544338 34.917100 199 199 199 0
6.277240 6.544357 34.917204 199 199 199 0
6.410649 6.544204 34.916386 199 199 199 0
6.544295 6.544295 34.916873 199 199 199 0
6.677776 6.544220 34.916474 199 199 199 0
6.811454 6.544338 34.917102 199 199 199 0
6.944959 6.544288 34.916836 199 199 199 0
7.078409 6.544189 34.916309 199 199 199 0
7.211797 6.544038 34.915502 200 200 200 0
7.345497 6.544170 34.916207 199 199 199 0
7.479024 6.544146 34.916079 199 199 199 0
7.612534 6.544108 34.915876 200 200 200 0
7.746063 6.544088 34.915766 199 199 199 0
7.879171 6.543718 34.913797 198 198 198 0
8.013192 6.544107 34.915871 199 199 199 0
8.146773 6.544129 34.915989 200 200 200 0
8.280350 6.544147 34.916086 200 200 200 0
8.413838 6.544096 34.915812 199 199 199 0
8.547405 6.544107 34.915871 200 200 200 0
8.680819 6.544002 34.915309 200 200 200 0
8.814492 6.544093 34.915794 199 199 199 0
8.948123 6.544150 34.916099 200 200 200 0
9.081598 6.544093 34.915795 199 199 199 0
9.215160 6.544099 34.915830 200 200 200 0
