ply
    format ascii 1.0
    element vertex 25529
    property float x
    property float y
    property float z
    property uchar red
    property uchar green
    property uchar blue
    property uchar alpha
    end_header
6.946456 -7.080042 34.924366 200 200 200 0
7.079740 -7.079740 34.922878 199 199 199 0
7.213163 -7.079586 34.922115 199 199 199 0
7.347060 -7.079894 34.923635 200 200 200 0
7.480781 -7.080025 34.924279 200 200 200 0
7.613905 -7.079596 34.922166 200 200 200 0
7.747405 -7.079525 34.921816 200 200 200 0
7.881133 -7.079662 34.922491 200 200 200 0
8.014423 -7.079407 34.921233 200 200 200 0
8.148004 -7.079414 34.921265 200 200 200 0
8.281748 -7.079558 34.921980 199 199 199 0
8.415713 -7.079885 34.923593 199 199 199 0
8.548959 -7.079607 34.922218 199 199 199 0
8.682424 -7.079515 34.921766 199 199 199 0
8.816197 -7.079673 34.922545 200 200 200 0
8.950032 -7.079876 34.923546 200 200 200 0
9.083337 -7.079660 34.922481 200 200 200 0
9.216619 -7.079432 34.921356 200 200 200 0
9.350557 -7.079707 34.922713 199 199 199 0
9.484390 -7.079896 34.923648 199 199 199 0
9.617377 -7.079458 34.921484 200 200 200 0
9.750827 -7.079367 34.921038 200 200 200 0
9.884691 -7.079576 34.922066 200 200 200 0
10.012553 -7.075538 34.902146 200 200 200 0
10.151453 -7.079303 34.920718 200 200 200 0
10.285171 -7.079403 34.921216 199 199 199 0
10.419136 -7.079669 34.922528 199 199 199 0
10.552471 -7.079506 34.921720 200 200 200 0
-10.710184 -6.961620 35.000603 190 190 190 0
-10.576350 -6.961648 35.000744 190 190 190 0
-10.442515 -6.961677 35.000890 190 190 190 0
-10.300857 -6.956423 34.974473 190 190 190 0
-10.167548 -6.956743 34.976084 191 191 191 0
-10.033327 -6.956440 34.974562 191 191 191 0
-9.897678 -6.955125 34.967949 190 190 190 0
-9.763504 -6.954825 34.966439 191 191 191 0
-9.630357 -6.955258 34.968616 191 191 191 0
-8.607466 -6.304060 31.694618 191 191 191 0
-9.360074 -6.953198 34.958261 192 192 192 0
-9.226742 -6.953487 34.959712 191 191 191 0
-9.093487 -6.953843 34.961504 191 191 191 0
-8.959911 -6.953961 34.962094 192 192 192 0
-8.825467 -6.953398 34.959267 191 191 191 0
-8.690949 -6.952759 34.956055 192 192 192 0
-8.556905 -6.952485 34.954675 191 191 191 0
-8.423404 -6.952651 34.955510 192 192 192 0
-8.290077 -6.952968 34.957102 192 192 192 0
-8.155950 -6.952613 34.955321 192 192 192 0
-8.021421 -6.951898 34.951727 193 193 193 0
-7.887803 -6.951962 34.952046 192 192 192 0
-7.754145 -6.951992 34.952199 192 192 192 0
-7.619869 -6.951459 34.949518 193 193 193 0
-7.485729 -6.951034 34.947379 193 193 193 0
-7.352137 -6.951112 34.947770 193 193 193 0
-7.218745 -6.951384 34.949139 193 193 193 0
-7.084327 -6.950660 34.945503 192 192 192 0
-6.950834 -6.950834 34.946377 193 193 193 0
-6.817201 -6.950872 34.946564 193 193 193 0
-6.683732 -6.951081 34.947618 193 193 193 0
-6.549574 -6.950569 34.945041 193 193 193 0
-6.415629 -6.950265 34.943514 193 193 193 0
-6.281878 -6.950163 34.943002 193 193 193 0
-6.148068 -6.949990 34.942129 193 193 193 0
-6.014576 -6.950176 34.943068 194 194 194 0
-5.880762 -6.949991 34.942139 194 194 194 0
-5.746664 -6.949454 34.939435 194 194 194 0
-5.613066 -6.949510 34.939717 194 194 194 0
-5.479554 -6.949678 34.940562 194 194 194 0
-5.345477 -6.949120 34.937758 195 195 195 0
-5.211663 -6.948884 34.936570 194 194 194 0
-5.078157 -6.949057 34.937438 194 194 194 0
-4.944641 -6.949225 34.938284 194 194 194 0
-4.810683 -6.948764 34.935969 194 194 194 0
-4.677155 -6.948917 34.936735 194 194 194 0
-4.543550 -6.948958 34.936945 195 195 195 0
-4.410110 -6.949264 34.938483 195 195 195 0
-4.276346 -6.949062 34.937464 195 195 195 0
-4.142528 -6.948757 34.935931 195 195 195 0
-4.008811 -6.948606 34.935173 195 195 195 0
-3.875283 -6.948784 34.936069 195 195 195 0
-3.741719 -6.948906 34.936683 194 194 194 0
-3.607958 -6.948660 34.935447 196 196 196 0
-3.474094 -6.948188 34.933074 195 195 195 0
-3.340668 -6.948589 34.935086 195 195 195 0
-3.207125 -6.948772 34.936006 195 195 195 0
-3.073224 -6.948158 34.932920 195 195 195 0
-2.939435 -6.947756 34.930899 195 195 195 0
-2.805887 -6.947910 34.931675 196 196 196 0
-2.672352 -6.948115 34.932704 195 195 195 0
-2.538557 -6.947630 34.930267 196 196 196 0
-2.405034 -6.947876 34.931503 196 196 196 0
-2.271499 -6.948114 34.932700 196 196 196 0
-2.137963 -6.948380 34.934038 196 196 196 0
-2.004198 -6.947886 34.931551 196 196 196 0
-1.870531 -6.947686 34.930547 196 196 196 0
-1.736904 -6.947617 34.930200 196 196 196 0
-1.603338 -6.947799 34.931118 196 196 196 0
-1.469774 -6.948022 34.932238 196 196 196 0
-1.336105 -6.947744 34.930841 196 196 196 0
-1.202470 -6.947603 34.930131 196 196 196 0
-1.068897 -6.947831 34.931277 196 196 196 0
-0.935298 -6.947925 34.931749 197 197 197 0
-0.801634 -6.947494 34.929580 196 196 196 0
-0.668001 -6.947206 34.928137 197 197 197 0
-0.534386 -6.947021 34.927206 197 197 197 0
-0.400391 -6.940112 34.892467 196 196 196 0
-0.267201 -6.947238 34.928294 197 197 197 0
-0.133601 -6.947268 34.928444 197 197 197 0
0.000000 -6.947524 34.929736 197 197 197 0
0.133607 -6.947583 34.930032 198 198 198 0
0.267198 -6.947137 34.927786 197 197 197 0
0.400791 -6.947041 34.927304 198 198 198 0
0.534404 -6.947250 34.928354 197 197 197 0
0.668003 -6.947231 34.928262 197 197 197 0
0.801580 -6.947024 34.927220 198 198 198 0
0.935151 -6.946834 34.926263 197 197 197 0
1.068776 -6.947047 34.927336 197 197 197 0
1.202413 -6.947273 34.928473 198 198 198 0
1.335924 -6.946804 34.926114 198 198 198 0
1.469475 -6.946609 34.925132 197 197 197 0
1.603167 -6.947057 34.927384 198 198 198 0
1.736834 -6.947336 34.928787 197 197 197 0
1.870259 -6.946676 34.925468 197 197 197 0
2.003862 -6.946721 34.925696 198 198 198 0
2.137579 -6.947131 34.927759 198 198 198 0
2.271184 -6.947150 34.927853 198 198 198 0
2.404639 -6.946735 34.925767 198 198 198 0
2.538195 -6.946640 34.925288 198 198 198 0
2.671861 -6.946838 34.926285 198 198 198 0
2.805491 -6.946931 34.926750 198 198 198 0
2.939017 -6.946769 34.925935 198 198 198 0
3.072502 -6.946526 34.924716 198 198 198 0
3.206168 -6.946698 34.925581 199 199 199 0
3.339891 -6.946973 34.926961 198 198 198 0
3.473238 -6.946477 34.924469 198 198 198 0
3.606769 -6.946370 34.923930 199 199 199 0
3.740591 -6.946811 34.926149 199 199 199 0
3.878771 -6.955037 34.967508 198 198 198 0
4.007534 -6.946392 34.924040 199 199 199 0
4.141129 -6.946411 34.924136 199 199 199 0
4.275001 -6.946876 34.926476 199 199 199 0
4.408470 -6.946680 34.925491 199 199 199 0
4.541839 -6.946343 34.923794 199 199 199 0
4.675463 -6.946403 34.924096 199 199 199 0
4.809140 -6.946536 34.924765 198 198 198 0
4.942799 -6.946636 34.925271 199 199 199 0
5.076205 -6.946386 34.924012 199 199 199 0
5.209756 -6.946341 34.923788 199 199 199 0
5.343525 -6.946582 34.924998 199 199 199 0
5.476989 -6.946426 34.924211 199 199 199 0
5.610256 -6.946031 34.922226 199 199 199 0
5.743937 -6.946157 34.922860 199 199 199 0
5.877669 -6.946336 34.923762 199 199 199 0
6.010963 -6.946002 34.922079 199 199 199 0
6.144535 -6.945996 34.922049 200 200 200 0
6.278404 -6.946319 34.923677 199 199 199 0
6.412206 -6.946557 34.924872 199 199 199 0
6.545448 -6.946190 34.923025 199 199 199 0
6.678851 -6.946005 34.922099 199 199 199 0
6.812588 -6.946168 34.922917 200 200 200 0
6.946475 -6.946475 34.924460 199 199 199 0
7.079732 -6.946152 34.922835 199 199 199 0
7.213171 -6.946017 34.922157 199 199 199 0
7.347021 -6.946274 34.923450 199 199 199 0
7.480783 -6.946442 34.924292 199 199 199 0
7.613902 -6.946016 34.922152 200 200 200 0
7.747331 -6.945883 34.921482 199 199 199 0
7.881101 -6.946055 34.922349 199 199 199 0
8.014439 -6.945847 34.921303 199 199 199 0
8.148002 -6.945838 34.921256 199 199 199 0
8.281789 -6.946017 34.922157 200 200 200 0
8.415669 -6.946267 34.923412 200 200 200 0
8.549022 -6.946080 34.922474 199 199 199 0
8.682397 -6.945918 34.921657 200 200 200 0
8.816242 -6.946130 34.922723 199 199 199 0
8.950040 -6.946299 34.923577 200 200 200 0
9.083357 -6.946096 34.922556 200 200 200 0
9.216654 -6.945884 34.921489 199 199 199 0
9.350501 -6.946086 34.922505 200 200 200 0
9.484332 -6.946271 34.923436 199 199 199 0
9.617430 -6.945922 34.921677 199 199 199 0
9.750762 -6.945748 34.920805 200 200 200 0
9.884594 -6.945931 34.921724 200 200 200 0
10.013656 -6.942802 34.905992 199 199 199 0
10.151440 -6.945722 34.920675 200 200 200 0
10.285128 -6.945801 34.921071 199 199 199 0
10.419178 -6.946118 34.922667 199 199 199 0
10.552456 -6.945920 34.921670 199 199 199 0
-10.710176 -6.827737 35.000576 190 190 190 0
-10.576358 -6.827775 35.000771 190 190 190 0
-10.442507 -6.827793 35.000861 190 190 190 0
-10.301158 -6.822845 34.975497 191 191 191 0
-10.167391 -6.822854 34.975545 190 190 190 0
-10.033299 -6.822643 34.974463 191 191 191 0
-9.897884 -6.821515 34.968676 191 191 191 0
-9.763350 -6.820971 34.965888 191 191 191 0
-9.630237 -6.821418 34.968180 191 191 191 0
-8.809949 -6.328273 32.440205 191 191 191 0
-9.359949 -6.819392 34.957793 191 191 191 0
-9.226823 -6.819826 34.960018 192 192 192 0
-9.093683 -6.820263 34.962258 192 192 192 0
-8.959945 -6.820256 34.962226 192 192 192 0
-8.825546 -6.819740 34.959580 191 191 191 0
-8.691244 -6.819283 34.957239 192 192 192 0
-8.557102 -6.818940 34.955481 192 192 192 0
-8.423360 -6.818910 34.955327 192 192 192 0
-8.289932 -6.819138 34.956491 192 192 192 0
-8.155890 -6.818859 34.955062 192 192 192 0
-8.021238 -6.818052 34.950927 192 192 192 0
-7.887794 -6.818262 34.952005 193 193 193 0
-7.754345 -6.818476 34.953098 193 193 193 0
-7.619868 -6.817777 34.949516 192 192 192 0
-7.485738 -6.817368 34.947422 192 192 192 0
-7.351975 -6.817286 34.947000 193 193 193 0
-7.218759 -6.817716 34.949206 193 193 193 0
-7.084431 -6.817094 34.946017 193 193 193 0
-6.950899 -6.817228 34.946700 193 193 193 0
-6.817234 -6.817234 34.946731 193 193 193 0
-6.683555 -6.817226 34.946692 193 193 193 0
-6.549577 -6.816907 34.945058 193 193 193 0
-6.415504 -6.816473 34.942832 193 193 193 0
-6.281776 -6.816395 34.942434 193 193 193 0
-6.148083 -6.816353 34.942217 194 194 194 0
-6.014667 -6.816622 34.943598 194 194 194 0
-5.880703 -6.816269 34.941788 194 194 194 0
-5.746738 -6.815899 34.939890 193 193 193 0
-5.613047 -6.815843 34.939605 195 195 195 0
-5.479495 -6.815957 34.940188 195 195 195 0
-5.345400 -6.815385 34.937257 194 194 194 0
-5.211624 -6.815200 34.936307 194 194 194 0
-5.078103 -6.815348 34.937066 194 194 194 0
-4.944580 -6.815502 34.937853 195 195 195 0
-4.810640 -6.815073 34.935655 194 194 194 0
-4.677197 -6.815343 34.937042 195 195 195 0
-4.543520 -6.815280 34.936716 195 195 195 0
-4.410151 -6.815687 34.938804 195 195 195 0
-4.276398 -6.815509 34.937890 195 195 195 0
-4.142514 -6.815103 34.935811 195 195 195 0
-4.008789 -6.814942 34.934983 195 195 195 0
-3.875268 -6.815127 34.935933 195 195 195 0
-3.741749 -6.815329 34.936969 196 196 196 0
-3.607995 -6.815101 34.935798 195 195 195 0
-3.474192 -6.814762 34.934061 195 195 195 0
-3.340666 -6.814959 34.935069 196 196 196 0
-3.207119 -6.815129 34.935942 195 195 195 0
-3.073233 -6.814559 34.933022 196 196 196 0
-2.939440 -6.814156 34.930953 195 195 195 0
-2.805891 -6.814307 34.931727 196 196 196 0
-2.672347 -6.814486 34.932645 196 196 196 0
-2.538548 -6.813998 34.930146 196 196 196 0
-2.405034 -6.814264 34.931507 196 196 196 0
-2.271476 -6.814429 34.932352 196 196 196 0
-2.137920 -6.814618 34.933326 196 196 196 0
-2.004241 -6.814420 34.932309 196 196 196 0
-1.870537 -6.814098 34.930656 197 197 197 0
-1.736893 -6.813965 34.929975 197 197 197 0
-1.603339 -6.814190 34.931131 196 196 196 0
-1.469785 -6.814458 34.932504 197 197 197 0
-1.336113 -6.814175 34.931051 196 196 196 0
-1.202486 -6.814085 34.930592 196 196 196 0
-1.068901 -6.814246 34.931416 196 196 196 0
-0.935294 -6.814287 34.931626 197 197 197 0
-0.801637 -6.813914 34.929715 197 197 197 0
-0.668004 -6.813636 34.928288 197 197 197 0
-0.534392 -6.813497 34.927579 197 197 197 0
-0.400398 -6.806770 34.893095 197 197 197 0
-0.267206 -6.813746 34.928855 197 197 197 0
-0.133601 -6.813656 34.928393 197 197 197 0
0.000000 -6.813973 34.930017 197 197 197 0
0.133606 -6.813885 34.929568 197 197 197 0
0.267197 -6.813530 34.927744 196 196 196 0
0.400789 -6.813405 34.927106 198 198 198 0
0.534401 -6.813613 34.928169 197 197 197 0
0.667999 -6.813591 34.928060 198 198 198 0
0.801579 -6.813422 34.927190 197 197 197 0
0.935146 -6.813203 34.926071 198 198 198 0
1.068778 -6.813462 34.927395 198 198 198 0
1.202398 -6.813590 34.928053 198 198 198 0
1.335931 -6.813247 34.926295 197 197 197 0
1.469490 -6.813090 34.925489 197 197 197 0
1.603169 -6.813466 34.927419 198 198 198 0
1.736814 -6.813655 34.928386 198 198 198 0
1.870265 -6.813108 34.925583 199 199 199 0
2.003868 -6.813151 34.925801 198 198 198 0
2.137582 -6.813542 34.927807 198 198 198 0
2.271181 -6.813544 34.927815 198 198 198 0
2.404643 -6.813156 34.925829 198 198 198 0
2.538209 -6.813087 34.925475 198 198 198 0
2.671853 -6.813224 34.926180 198 198 198 0
2.805491 -6.813334 34.926742 198 198 198 0
2.939002 -6.813142 34.925757 199 199 199 0
3.072507 -6.812949 34.924769 199 199 199 0
3.206167 -6.813105 34.925569 198 198 198 0
3.339855 -6.813304 34.926589 198 198 198 0
3.473249 -6.812911 34.924573 198 198 198 0
3.606763 -6.812775 34.923873 199 199 199 0
3.740543 -6.813132 34.925705 198 198 198 0
3.878954 -6.821608 34.969157 199 199 199 0
4.007511 -6.812769 34.923845 199 199 199 0
4.141153 -6.812864 34.924333 199 199 199 0
4.274972 -6.813236 34.926240 199 199 199 0
4.408469 -6.813088 34.925482 199 199 199 0
4.541852 -6.812777 34.923888 199 199 199 0
4.675463 -6.812817 34.924092 198 198 198 0
4.809153 -6.812967 34.924862 199 199 199 0
4.942801 -6.813050 34.925283 198 198 198 0
5.076203 -6.812798 34.923996 199 199 199 0
5.209800 -6.812816 34.924085 199 199 199 0
5.343554 -6.813032 34.925191 199 199 199 0
5.476986 -6.812837 34.924192 199 199 199 0
5.610264 -6.812464 34.922279 198 198 198 0
5.743936 -6.812575 34.922850 199 199 199 0
5.877653 -6.812735 34.923669 200 200 200 0
6.011020 -6.812489 34.922411 199 199 199 0
6.144585 -6.812475 34.922337 199 199 199 0
6.278382 -6.812713 34.923556 199 199 199 0
6.412130 -6.812889 34.924458 199 199 199 0
6.545433 -6.812593 34.922943 199 199 199 0
6.678862 -6.812439 34.922153 200 200 200 0
6.812586 -6.812586 34.922907 200 200 200 0
6.946491 -6.812904 34.924539 199 199 199 0
7.079730 -6.812571 34.922828 200 200 200 0
7.213100 -6.812372 34.921808 199 199 199 0
7.347045 -6.812715 34.923566 199 199 199 0
7.480784 -6.812856 34.924293 199 199 199 0
7.613920 -6.812455 34.922233 199 199 199 0
7.747354 -6.812328 34.921586 200 200 200 0
7.881142 -6.812512 34.922529 200 200 200 0
8.014407 -6.812246 34.921165 200 200 200 0
8.147972 -6.812239 34.921126 200 200 200 0
8.281723 -6.812385 34.921875 200 200 200 0
8.415713 -6.812720 34.923592 199 199 199 0
8.548995 -6.812481 34.922366 200 200 200 0
8.682378 -6.812328 34.921582 199 199 199 0
8.816245 -6.812553 34.922737 199 199 199 0
8.950159 -6.812808 34.924044 200 200 200 0
9.083405 -6.812554 34.922742 200 200 200 0
9.216650 -6.812306 34.921474 200 200 200 0
9.350452 -6.812472 34.922325 200 200 200 0
9.484359 -6.812708 34.923534 200 200 200 0
9.617434 -6.812349 34.921691 200 200 200 0
9.750825 -6.812220 34.921033 200 200 200 0
9.884642 -6.812388 34.921893 199 199 199 0
10.014385 -6.809782 34.908531 199 199 199 0
10.151389 -6.812117 34.920500 200 200 200 0
10.285143 -6.812238 34.921121 200 200 200 0
10.419266 -6.812597 34.922964 200 200 200 0
10.552473 -6.812356 34.921728 199 199 199 0
-10.710173 -6.693858 35.000567 190 190 190 0
-10.576366 -6.693903 35.000799 190 190 190 0
-10.442501 -6.693911 35.000841 190 190 190 0
-10.301435 -6.689243 34.976436 191 191 191 0
-10.167505 -6.689148 34.975937 190 190 190 0
-10.033406 -6.688937 34.974837 190 190 190 0
-9.897699 -6.687635 34.968025 190 190 190 0
-9.763456 -6.687298 34.966266 191 191 191 0
-9.630246 -6.687671 34.968212 191 191 191 0
-8.937155 -6.293771 32.908607 191 191 191 0
-9.359881 -6.685629 34.957537 191 191 191 0
-9.226773 -6.686068 34.959831 191 191 191 0
-9.093493 -6.686392 34.961525 191 191 191 0
-8.959935 -6.686519 34.962189 191 191 191 0
-8.825541 -6.686016 34.959561 192 192 192 0
-8.691316 -6.685628 34.957531 192 192 192 0
-8.556747 -6.684959 34.954033 192 192 192 0
-8.423681 -6.685461 34.956658 192 192 192 0
-8.289813 -6.685333 34.955989 192 192 192 0
-8.156178 -6.685392 34.956298 192 192 192 0
-8.021282 -6.684402 34.951121 192 192 192 0
-7.888162 -6.684883 34.953637 192 192 192 0
-7.754434 -6.684857 34.953500 192 192 192 0
-7.619788 -6.684025 34.949148 192 192 192 0
-7.485823 -6.683770 34.947819 192 192 192 0
-7.352147 -6.683770 34.947817 193 193 193 0
-7.218742 -6.684020 34.949126 193 193 193 0
-7.084327 -6.683327 34.945503 193 193 193 0
-6.950990 -6.683644 34.947160 193 193 193 0
-6.817273 -6.683601 34.946936 193 193 193 0
-6.683576 -6.683576 34.946801 193 193 193 0
-6.549704 -6.683371 34.945733 193 193 193 0
-6.415522 -6.682836 34.942932 194 194 194 0
-6.281795 -6.682761 34.942541 193 193 193 0
-6.148050 -6.682663 34.942029 194 194 194 0
-6.014695 -6.682995 34.943763 193 193 193 0
-5.880747 -6.682667 34.942051 193 193 193 0
-5.746693 -6.682201 34.939613 194 194 194 0
-5.613053 -6.682206 34.939637 194 194 194 0
-5.479528 -6.682351 34.940397 194 194 194 0
-5.345475 -6.681843 34.937743 194 194 194 0
-5.211626 -6.681571 34.936320 194 194 194 0
-5.078151 -6.681777 34.937397 194 194 194 0
-4.944715 -6.682047 34.938806 194 194 194 0
-4.810697 -6.681524 34.936073 195 195 195 0
-4.677124 -6.681606 34.936502 194 194 194 0
-4.543570 -6.681721 34.937104 195 195 195 0
-4.410143 -6.682035 34.938747 195 195 195 0
-4.276330 -6.681765 34.937334 195 195 195 0
-4.142550 -6.681532 34.936115 195 195 195 0
-4.008831 -6.681384 34.935343 195 195 195 0
-3.875312 -6.681572 34.936323 195 195 195 0
-3.741720 -6.681643 34.936697 195 195 195 0
-3.607987 -6.681458 34.935729 195 195 195 0
-3.474160 -6.681077 34.933737 195 195 195 0
-3.340641 -6.681282 34.934806 195 195 195 0
-3.207136 -6.681533 34.936121 196 196 196 0
-3.073208 -6.680888 34.932748 195 195 195 0
-2.939462 -6.680596 34.931219 195 195 195 0
-2.805893 -6.680699 34.931757 195 195 195 0
-2.672357 -6.680892 34.932766 196 196 196 0
-2.538607 -6.680546 34.930958 196 196 196 0
-2.405020 -6.680612 34.931306 196 196 196 0
-2.271487 -6.680843 34.932511 197 197 197 0
-2.137971 -6.681158 34.934161 196 196 196 0
-2.004235 -6.680784 34.932204 196 196 196 0
-1.870532 -6.680471 34.930568 197 197 197 0
-1.736894 -6.680360 34.929988 196 196 196 0
-1.603340 -6.680582 34.931150 196 196 196 0
-1.469789 -6.680859 34.932598 197 197 197 0
-1.336098 -6.680490 34.930668 197 197 197 0
-1.202478 -6.680434 34.930372 196 196 196 0
-1.068890 -6.680561 34.931038 197 197 197 0
-0.935290 -6.680644 34.931472 196 196 196 0
-0.801638 -6.680319 34.929773 197 197 197 0
-0.668003 -6.680030 34.928262 197 197 197 0
-0.534387 -6.679841 34.927276 197 197 197 0
-0.400403 -6.673380 34.893489 196 196 196 0
-0.267203 -6.680073 34.928487 197 197 197 0
-0.133600 -6.679981 34.928008 197 197 197 0
0.000000 -6.680359 34.929982 197 197 197 0
0.133607 -6.680329 34.929823 197 197 197 0
0.267198 -6.679945 34.927818 198 198 198 0
0.400787 -6.679783 34.926969 198 198 198 0
0.534402 -6.680022 34.928221 198 198 198 0
0.668004 -6.680044 34.928333 197 197 197 0
0.801579 -6.679823 34.927181 198 198 198 0
0.935151 -6.679652 34.926287 197 197 197 0
1.068776 -6.679849 34.927315 197 197 197 0
1.202400 -6.679999 34.928102 197 197 197 0
1.335929 -6.679645 34.926248 198 198 198 0
1.469507 -6.679576 34.925885 198 198 198 0
1.603173 -6.679889 34.927524 198 198 198 0
1.736803 -6.680010 34.928155 198 198 198 0
1.870281 -6.679574 34.925875 198 198 198 0
2.003865 -6.679549 34.925747 198 198 198 0
2.137584 -6.679949 34.927837 199 199 199 0
2.271180 -6.679942 34.927801 198 198 198 0
2.404642 -6.679561 34.925807 199 199 199 0
2.538210 -6.679500 34.925489 198 198 198 0
2.671861 -6.679653 34.926289 198 198 198 0
2.805467 -6.679684 34.926454 198 198 198 0
2.938989 -6.679521 34.925599 198 198 198 0
3.072509 -6.679368 34.924802 198 198 198 0
3.206161 -6.679503 34.925505 198 198 198 0
3.339854 -6.679708 34.926576 198 198 198 0
3.473276 -6.679377 34.924845 199 199 199 0
3.606816 -6.679290 34.924391 198 198 198 0
3.740649 -6.679731 34.926699 199 199 199 0
3.878791 -6.687571 34.967690 198 198 198 0
4.007485 -6.679142 34.923619 199 199 199 0
4.141117 -6.679221 34.924032 199 199 199 0
4.274964 -6.679631 34.926174 199 199 199 0
4.408516 -6.679570 34.925855 199 199 199 0
4.541875 -6.679228 34.924069 198 198 198 0
4.675472 -6.679246 34.924161 199 199 199 0
4.809235 -6.679493 34.925451 199 199 199 0
4.942826 -6.679495 34.925464 198 198 198 0
5.076141 -6.679133 34.923573 199 199 199 0
5.209775 -6.679198 34.923912 199 199 199 0
5.343579 -6.679474 34.925356 200 200 200 0
5.476956 -6.679215 34.923999 199 199 199 0
5.610226 -6.678840 34.922041 199 199 199 0
5.743970 -6.679035 34.923061 199 199 199 0
5.877652 -6.679150 34.923659 199 199 199 0
6.010987 -6.678874 34.922219 200 200 200 0
6.144578 -6.678889 34.922294 199 199 199 0
6.278382 -6.679130 34.923554 200 200 200 0
6.412146 -6.679319 34.924542 199 199 199 0
6.545465 -6.679046 34.923114 199 199 199 0
6.678833 -6.678833 34.922001 200 200 200 0
6.812612 -6.679032 34.923042 199 199 199 0
6.946506 -6.679332 34.924613 199 199 199 0
7.079745 -6.679005 34.922902 200 200 200 0
7.213139 -6.678833 34.922000 200 200 200 0
7.347007 -6.679097 34.923384 199 199 199 0
7.480790 -6.679277 34.924322 200 200 200 0
7.613924 -6.678880 34.922251 199 199 199 0
7.747413 -6.678805 34.921855 199 199 199 0
7.881196 -6.678979 34.922768 200 200 200 0
8.014439 -6.678699 34.921303 200 200 200 0
8.147957 -6.678653 34.921063 199 199 199 0
8.281744 -6.678826 34.921967 199 199 199 0
8.415751 -6.679168 34.923752 199 199 199 0
8.548966 -6.678880 34.922246 199 199 199 0
8.682403 -6.678771 34.921681 199 199 199 0
8.816197 -6.678937 34.922547 200 200 200 0
8.950058 -6.679148 34.923650 200 200 200 0
9.083381 -6.678956 34.922648 200 200 200 0
9.216595 -6.678692 34.921265 200 200 200 0
9.350485 -6.678918 34.922445 200 200 200 0
9.484417 -6.679167 34.923750 200 200 200 0
9.617445 -6.678782 34.921734 200 200 200 0
9.750842 -6.678659 34.921093 200 200 200 0
9.884672 -6.678833 34.922001 200 200 200 0
10.014689 -6.676460 34.909593 200 200 200 0
10.151412 -6.678561 34.920578 200 200 200 0
10.285141 -6.678663 34.921115 200 200 200 0
10.419252 -6.679007 34.922914 200 200 200 0
10.552497 -6.678796 34.921808 200 200 200 0
-10.710185 -6.559988 35.000604 189 189 189 0
-10.576347 -6.560013 35.000736 190 190 190 0
-10.442512 -6.560039 35.000877 191 191 191 0
-10.301193 -6.555305 34.975615 191 191 191 0
-10.167459 -6.555335 34.975778 191 191 191 0
-10.033597 -6.555283 34.975502 190 190 190 0
-9.897903 -6.554017 34.968742 191 191 191 0
-9.763417 -6.553526 34.966127 191 191 191 0
-9.630382 -6.554010 34.968709 191 191 191 0
-9.009444 -6.217786 33.174793 192 192 192 0
-9.359522 -6.551666 34.956199 191 191 191 0
-9.226689 -6.552286 34.959510 192 192 192 0
-9.093692 -6.552808 34.962292 191 191 191 0
-8.960157 -6.552951 34.963056 192 192 192 0
-8.825537 -6.552293 34.959546 192 192 192 0
-8.691219 -6.551842 34.957142 193 193 193 0
-8.556791 -6.551293 34.954213 192 192 192 0
-8.423766 -6.551818 34.957010 192 192 192 0
-8.290363 -6.552061 34.958310 192 192 192 0
-8.155794 -6.551375 34.954650 192 192 192 0
-8.021680 -6.551039 34.952854 192 192 192 0
-7.887842 -6.550920 34.952219 192 192 192 0
-7.754493 -6.551210 34.953767 193 193 193 0
-7.619967 -6.550498 34.949968 192 192 192 0
-7.485837 -6.550108 34.947887 193 193 193 0
-7.352058 -6.550015 34.947392 193 193 193 0
-7.218858 -6.550445 34.949685 193 193 193 0
-7.084414 -6.549741 34.945932 193 193 193 0
-6.950965 -6.549948 34.947035 193 193 193 0
-6.817109 -6.549772 34.946094 194 194 194 0
-6.683710 -6.550036 34.947505 193 193 193 0
-6.549617 -6.549617 34.945268 193 193 193 0
-6.415538 -6.549195 34.943017 193 193 193 0
-6.281793 -6.549103 34.942529 193 193 193 0
-6.148119 -6.549083 34.942422 194 194 194 0
-6.014647 -6.549283 34.943485 194 194 194 0
-5.880661 -6.548918 34.941541 193 193 193 0
-5.746640 -6.548497 34.939292 194 194 194 0
-5.613034 -6.548540 34.939524 194 194 194 0
-5.479538 -6.548717 34.940464 194 194 194 0
-5.345560 -6.548311 34.938299 195 195 195 0
-5.211660 -6.547983 34.936552 195 195 195 0
-5.078101 -6.548078 34.937055 194 194 194 0
-4.944509 -6.548133 34.937353 194 194 194 0
-4.810771 -6.547993 34.936606 194 194 194 0
-4.677162 -6.548026 34.936782 195 195 195 0
-4.543522 -6.548017 34.936733 195 195 195 0
-4.410158 -6.548417 34.938865 194 194 194 0
-4.276333 -6.548135 34.937361 195 195 195 0
-4.142553 -6.547907 34.936144 195 195 195 0
-4.008826 -6.547749 34.935305 195 195 195 0
-3.875275 -6.547879 34.935994 196 196 196 0
-3.741752 -6.548067 34.936997 195 195 195 0
-3.607990 -6.547834 34.935754 195 195 195 0
-3.474183 -6.547498 34.933962 196 196 196 0
-3.340593 -6.547562 34.934306 196 196 196 0
-3.207127 -6.547884 34.936020 196 196 196 0
-3.073226 -6.547308 34.932950 195 195 195 0
-2.939462 -6.546983 34.931217 196 196 196 0
-2.805937 -6.547187 34.932305 196 196 196 0
-2.672359 -6.547280 34.932802 196 196 196 0
-2.538586 -6.546881 34.930671 196 196 196 0
-2.405036 -6.547042 34.931528 196 196 196 0
-2.271466 -6.547165 34.932189 197 197 197 0
-2.137929 -6.547408 34.933481 196 196 196 0
-2.004216 -6.547105 34.931865 196 196 196 0
-1.870546 -6.546912 34.930835 197 197 197 0
-1.736881 -6.546707 34.929741 196 196 196 0
-1.603376 -6.547120 34.931949 196 196 196 0
-1.469783 -6.547216 34.932456 197 197 197 0
-1.336112 -6.546948 34.931027 196 196 196 0
-1.202478 -6.546825 34.930370 196 196 196 0
-1.068897 -6.546996 34.931287 196 196 196 0
-0.935288 -6.547018 34.931400 197 197 197 0
-0.801628 -6.546627 34.929317 197 197 197 0
-0.667997 -6.546368 34.927933 196 196 196 0
-0.534386 -6.546233 34.927216 197 197 197 0
-0.400413 -6.540080 34.894387 198 198 198 0
-0.267202 -6.546460 34.928425 197 197 197 0
-0.133601 -6.546449 34.928369 196 196 196 0
0.000000 -6.546706 34.929736 197 197 197 0
0.133606 -6.546688 34.929643 198 198 198 0
0.267197 -6.546339 34.927777 197 197 197 0
0.400792 -6.546268 34.927399 197 197 197 0
0.534403 -6.546435 34.928289 197 197 197 0
0.667997 -6.546368 34.927935 198 198 198 0
0.801576 -6.546202 34.927051 198 198 198 0
0.935151 -6.546058 34.926280 197 197 197 0
1.068776 -6.546255 34.927331 198 198 198 0
1.202410 -6.546453 34.928387 197 197 197 0
1.335934 -6.546078 34.926387 198 198 198 0
1.469484 -6.545881 34.925336 198 198 198 0
1.603174 -6.546294 34.927539 198 198 198 0
1.736819 -6.546471 34.928483 198 198 198 0
1.870261 -6.545913 34.925506 198 198 198 0
2.003877 -6.546000 34.925969 198 198 198 0
2.137564 -6.546289 34.927514 198 198 198 0
2.271173 -6.546323 34.927692 197 197 197 0
2.404648 -6.545986 34.925894 199 199 199 0
2.538221 -6.545937 34.925635 198 198 198 0
2.671838 -6.546004 34.925992 198 198 198 0
2.805471 -6.546099 34.926501 199 199 199 0
2.938996 -6.545946 34.925680 199 199 199 0
3.072482 -6.545722 34.924489 199 199 199 0
3.206150 -6.545889 34.925377 199 199 199 0
3.339829 -6.546065 34.926318 199 199 199 0
3.473242 -6.545726 34.924508 199 199 199 0
3.606841 -6.545749 34.924632 198 198 198 0
3.740654 -6.546144 34.926737 198 198 198 0
3.878640 -6.553564 34.966331 199 199 199 0
4.007449 -6.545500 34.923303 199 199 199 0
4.141068 -6.545559 34.923615 198 198 198 0
4.274997 -6.546089 34.926446 199 199 199 0
4.408485 -6.545932 34.925607 199 199 199 0
4.541870 -6.545637 34.924032 199 199 199 0
4.675428 -6.545599 34.923831 199 199 199 0
4.809188 -6.545839 34.925109 199 199 199 0
4.942817 -6.545892 34.925396 198 198 198 0
5.076168 -6.545585 34.923757 199 199 199 0
5.209783 -6.545624 34.923966 200 200 200 0
5.343581 -6.545887 34.925365 199 199 199 0
5.476986 -6.545666 34.924189 199 199 199 0
5.610181 -6.545211 34.921763 199 199 199 0
5.743939 -6.545418 34.922867 200 200 200 0
5.877641 -6.545555 34.923594 199 199 199 0
6.010955 -6.545262 34.922035 199 199 199 0
6.144606 -6.545341 34.922455 199 199 199 0
6.278389 -6.545554 34.923593 200 200 200 0
6.412233 -6.545821 34.925016 200 200 200 0
6.545439 -6.545439 34.922976 199 199 199 0
6.678943 -6.545365 34.922580 200 200 200 0
6.812585 -6.545424 34.922899 199 199 199 0
6.946477 -6.545718 34.924468 199 199 199 0
7.079718 -6.545400 34.922767 200 200 200 0
7.213140 -6.545257 34.922005 199 199 199 0
7.347061 -6.545564 34.923643 199 199 199 0
7.480768 -6.545672 34.924219 199 199 199 0
7.613881 -6.545266 34.922056 200 200 200 0
7.747343 -6.545169 34.921535 199 199 199 0
7.881160 -6.545370 34.922608 199 199 199 0
8.014398 -6.545091 34.921123 199 199 199 0
8.147963 -6.545085 34.921088 200 200 200 0
8.281733 -6.545241 34.921921 199 199 199 0
8.415713 -6.545555 34.923594 199 199 199 0
8.549004 -6.545331 34.922403 200 200 200 0
8.682439 -6.545223 34.921825 200 200 200 0
8.816240 -6.545390 34.922717 200 200 200 0
8.950062 -6.545567 34.923662 200 200 200 0
9.083377 -6.545374 34.922632 199 199 199 0
9.216584 -6.545110 34.921224 200 200 200 0
9.350463 -6.545324 34.922365 200 200 200 0
9.484330 -6.545524 34.923428 200 200 200 0
9.617459 -6.545215 34.921785 200 200 200 0
9.750824 -6.545074 34.921027 199 199 199 0
9.884686 -6.545265 34.922049 200 200 200 0
10.014967 -6.543112 34.910560 200 200 200 0
10.151397 -6.544979 34.920525 199 199 199 0
10.285208 -6.545132 34.921340 200 200 200 0
10.419311 -6.545464 34.923112 200 200 200 0
10.552486 -6.545213 34.921769 200 200 200 0
-10.710169 -6.426101 35.000552 190 190 190 0
-10.576352 -6.426138 35.000753 191 191 191 0
-10.442503 -6.426156 35.000848 190 190 190 0
-10.301177 -6.421513 34.975561 190 190 190 0
-10.167380 -6.421503 34.975506 190 190 190 0
-10.033326 -6.421329 34.974558 190 190 190 0
-9.897874 -6.420242 34.968641 191 191 191 0
-9.763369 -6.419750 34.965957 191 191 191 0
-9.630063 -6.420042 34.967550 191 191 191 0
-8.994491 -6.080783 33.119732 191 191 191 0
-9.359451 -6.417909 34.955933 191 191 191 0
-9.226535 -6.418459 34.958928 191 191 191 0
-9.093495 -6.418938 34.961534 191 191 191 0
-8.960083 -6.419164 34.962767 192 192 192 0
-8.825511 -6.418553 34.959441 192 192 192 0
-8.691062 -6.418015 34.956509 192 192 192 0
-8.556724 -6.417543 34.953938 192 192 192 0
-8.423615 -6.417992 34.956384 192 192 192 0
-8.290251 -6.418259 34.957837 192 192 192 0
-8.155844 -6.417713 34.954865 192 192 192 0
-8.021471 -6.417177 34.951942 192 192 192 0
-7.887993 -6.417351 34.952890 193 193 193 0
-7.754346 -6.417390 34.953105 192 192 192 0
-7.619874 -6.416736 34.949540 193 193 193 0
-7.485736 -6.416345 34.947411 193 193 193 0
-7.352294 -6.416548 34.948516 193 193 193 0
-7.218811 -6.416721 34.949461 193 193 193 0
-7.084384 -6.416046 34.945785 193 193 193 0
-6.950865 -6.416183 34.946528 193 193 193 0
-6.817254 -6.416239 34.946838 193 193 193 0
-6.683683 -6.416336 34.947363 193 193 193 0
-6.549586 -6.415921 34.945102 193 193 193 0
-6.415592 -6.415592 34.943311 193 193 193 0
-6.281796 -6.415451 34.942542 193 193 193 0
-6.148127 -6.415437 34.942468 194 194 194 0
-6.014592 -6.415565 34.943165 194 194 194 0
-5.880692 -6.415300 34.941722 194 194 194 0
-5.746672 -6.414890 34.939489 193 193 193 0
-5.613027 -6.414888 34.939476 194 194 194 0
-5.479551 -6.415084 34.940546 194 194 194 0
-5.345427 -6.414512 34.937430 194 194 194 0
-5.211566 -6.414235 34.935921 194 194 194 0
-5.078147 -6.414501 34.937369 194 194 194 0
-4.944570 -6.414577 34.937785 194 194 194 0
-4.810726 -6.414301 34.936280 195 195 195 0
-4.677156 -6.414385 34.936739 195 195 195 0
-4.543526 -6.414389 34.936761 194 194 194 0
-4.410101 -6.414693 34.938414 195 195 195 0
-4.276406 -6.414609 34.937958 195 195 195 0
-4.142585 -6.414325 34.936409 195 195 195 0
-4.008828 -6.414126 34.935324 196 196 196 0
-3.875280 -6.414256 34.936034 195 195 195 0
-3.741710 -6.414360 34.936600 195 195 195 0
-3.607945 -6.414125 34.935323 195 195 195 0
-3.474164 -6.413841 34.933776 196 196 196 0
-3.340642 -6.414032 34.934814 195 195 195 0
-3.207138 -6.414276 34.936143 195 195 195 0
-3.073222 -6.413682 34.932907 195 195 195 0
-2.939463 -6.413374 34.931232 196 196 196 0
-2.805915 -6.413521 34.932032 196 196 196 0
-2.672368 -6.413683 34.932913 196 196 196 0
-2.538581 -6.413258 34.930598 196 196 196 0
-2.405005 -6.413346 34.931080 196 196 196 0
-2.271464 -6.413544 34.932157 196 196 196 0
-2.137943 -6.413830 34.933715 196 196 196 0
-2.004208 -6.413465 34.931729 196 196 196 0
-1.870534 -6.413259 34.930607 197 197 197 0
-1.736907 -6.413195 34.930255 196 196 196 0
-1.603361 -6.413443 34.931606 197 197 197 0
-1.469774 -6.413560 34.932242 196 196 196 0
-1.336123 -6.413392 34.931329 196 196 196 0
-1.202466 -6.413151 34.930016 197 197 197 0
-1.068894 -6.413364 34.931177 196 196 196 0
-0.935297 -6.413463 34.931717 197 197 197 0
-0.801633 -6.413063 34.929538 197 197 197 0
-0.668000 -6.412805 34.928130 198 198 198 0
-0.534381 -6.412572 34.926863 197 197 197 0
-0.400411 -6.406575 34.894201 197 197 197 0
-0.267201 -6.412822 34.928222 197 197 197 0
-0.133600 -6.412810 34.928160 198 198 198 0
0.000000 -6.413097 34.929722 197 197 197 0
0.133608 -6.413194 34.930249 197 197 197 0
0.267198 -6.412741 34.927785 198 198 198 0
0.400787 -6.412595 34.926990 197 197 197 0
0.534398 -6.412777 34.927982 197 197 197 0
0.667995 -6.412756 34.927865 198 198 198 0
0.801579 -6.412629 34.927175 198 198 198 0
0.935151 -6.412462 34.926263 198 198 198 0
1.068776 -6.412655 34.927317 198 198 198 0
1.202407 -6.412837 34.928307 198 198 198 0
1.335922 -6.412426 34.926068 198 198 198 0
1.469476 -6.412260 34.925162 198 198 198 0
1.603174 -6.412697 34.927543 198 198 198 0
1.736820 -6.412875 34.928511 198 198 198 0
1.870267 -6.412345 34.925624 198 198 198 0
2.003885 -6.412433 34.926107 198 198 198 0
2.137577 -6.412731 34.927729 198 198 198 0
2.271191 -6.412776 34.927972 198 198 198 0
2.404645 -6.412387 34.925854 198 198 198 0
2.538183 -6.412253 34.925124 198 198 198 0
2.671858 -6.412458 34.926243 199 199 199 0
2.805442 -6.412439 34.926137 198 198 198 0
2.938977 -6.412313 34.925452 199 199 199 0
3.072504 -6.412183 34.924741 198 198 198 0
3.206181 -6.412361 34.925714 198 198 198 0
3.339827 -6.412467 34.926291 198 198 198 0
3.473255 -6.412163 34.924635 198 198 198 0
3.606812 -6.412110 34.924347 198 198 198 0
3.740650 -6.412543 34.926703 199 199 199 0
3.878338 -6.419318 34.963605 199 199 199 0
4.007453 -6.411924 34.923335 198 198 198 0
4.141105 -6.412033 34.923927 199 199 199 0
4.274979 -6.412468 34.926297 199 199 199 0
4.408480 -6.412335 34.925571 199 199 199 0
4.541854 -6.412029 34.923903 200 200 200 0
4.675467 -6.412069 34.924123 199 199 199 0
4.809216 -6.412288 34.925318 199 199 199 0
4.942759 -6.412228 34.924990 199 199 199 0
5.076176 -6.412012 34.923810 200 200 200 0
5.209766 -6.412020 34.923856 199 199 199 0
5.343541 -6.412249 34.925102 199 199 199 0
5.476992 -6.412089 34.924231 199 199 199 0
5.610267 -6.411734 34.922297 200 200 200 0
5.743920 -6.411818 34.922757 200 200 200 0
5.877634 -6.411964 34.923551 199 199 199 0
6.010939 -6.411668 34.921939 199 199 199 0
6.144627 -6.411784 34.922573 200 200 200 0
6.278389 -6.411972 34.923593 199 199 199 0
6.412187 -6.412187 34.924765 199 199 199 0
6.545460 -6.411879 34.923091 199 199 199 0
6.678920 -6.411763 34.922456 200 200 200 0
6.812601 -6.411860 34.922983 199 199 199 0
6.946471 -6.412127 34.924439 200 200 200 0
7.079740 -6.411840 34.922878 199 199 199 0
7.213184 -6.411719 34.922215 199 199 199 0
7.347018 -6.411943 34.923438 200 200 200 0
7.480790 -6.412106 34.924324 199 199 199 0
7.613863 -6.411674 34.921970 200 200 200 0
7.747347 -6.411597 34.921555 200 200 200 0
7.881157 -6.411788 34.922594 200 200 200 0
8.014386 -6.411509 34.921071 200 200 200 0
8.148026 -6.411562 34.921361 199 199 199 0
8.281754 -6.411681 34.922009 200 200 200 0
8.415706 -6.411967 34.923566 200 200 200 0
8.549035 -6.411776 34.922528 200 200 200 0
8.682414 -6.411629 34.921727 200 200 200 0
8.816291 -6.411848 34.922918 200 200 200 0
8.950085 -6.412001 34.923754 200 200 200 0
9.083436 -6.411837 34.922861 199 199 199 0
9.216651 -6.411584 34.921479 200 200 200 0
9.350500 -6.411771 34.922502 200 200 200 0
9.484387 -6.411980 34.923638 200 200 200 0
9.617387 -6.411591 34.921520 200 200 200 0
9.750749 -6.411452 34.920760 200 200 200 0
9.884623 -6.411647 34.921826 200 200 200 0
10.015010 -6.409606 34.910710 200 200 200 0
10.151400 -6.411410 34.920536 200 200 200 0
10.285207 -6.411557 34.921337 200 200 200 0
10.419306 -6.411881 34.923099 199 199 199 0
10.552513 -6.411653 34.921859 200 200 200 0
-10.710165 -6.292222 35.000538 190 190 190 0
-10.576349 -6.292259 35.000743 190 190 190 0
-10.442511 -6.292282 35.000873 190 190 190 0
-10.301074 -6.287669 34.975212 191 191 191 0
-10.167443 -6.287761 34.975724 191 191 191 0
-10.033632 -6.287743 34.975625 191 191 191 0
-9.897878 -6.286490 34.968657 190 190 190 0
-9.763441 -6.286051 34.966213 192 192 192 0
-9.630194 -6.286377 34.968024 191 191 191 0
-8.884521 -5.881303 32.714796 192 192 192 0
-9.359694 -6.284366 34.956839 191 191 191 0
-9.226662 -6.284828 34.959409 192 192 192 0
-9.093656 -6.285321 34.962152 191 191 191 0
-8.959841 -6.285261 34.961821 191 191 191 0
-8.825521 -6.284841 34.959483 192 192 192 0
-8.691303 -6.284481 34.957478 192 192 192 0
-8.556941 -6.284003 34.954823 192 192 192 0
-8.423555 -6.284239 34.956136 192 192 192 0
-8.290363 -6.284630 34.958307 192 192 192 0
-8.156146 -6.284243 34.956159 192 192 192 0
-8.021394 -6.283426 34.951610 192 192 192 0
-7.887934 -6.283608 34.952625 192 192 192 0
-7.754508 -6.283825 34.953834 192 192 192 0
-7.619929 -6.283099 34.949793 192 192 192 0
-7.485902 -6.282811 34.948188 193 193 193 0
-7.352140 -6.282737 34.947781 193 193 193 0
-7.218792 -6.283023 34.949369 193 193 193 0
-7.084386 -6.282380 34.945792 194 194 194 0
-6.950826 -6.282477 34.946333 193 193 193 0
-6.817214 -6.282531 34.946631 193 193 193 0
-6.683782 -6.282756 34.947882 193 193 193 0
-6.549556 -6.282228 34.944946 193 193 193 0
-6.415501 -6.281844 34.942814 193 193 193 0
-6.281773 -6.281773 34.942414 193 193 193 0
-6.148123 -6.281778 34.942444 194 194 194 0
-6.014543 -6.281856 34.942880 194 194 194 0
-5.880702 -6.281659 34.941782 194 194 194 0
-5.746680 -6.281255 34.939535 194 194 194 0
-5.613087 -6.281312 34.939850 194 194 194 0
-5.479480 -6.281355 34.940090 195 195 195 0
-5.345542 -6.281012 34.938182 194 194 194 0
-5.211689 -6.280754 34.936749 195 195 195 0
-5.078076 -6.280779 34.936885 195 195 195 0
-4.944579 -6.280952 34.937849 195 195 195 0
-4.810790 -6.280753 34.936745 194 194 194 0
-4.677129 -6.280716 34.936539 194 194 194 0
-4.543489 -6.280706 34.936481 195 195 195 0
-4.410103 -6.281056 34.938426 195 195 195 0
-4.276296 -6.280810 34.937062 194 194 194 0
-4.142499 -6.280563 34.935687 195 195 195 0
-4.008863 -6.280552 34.935626 195 195 195 0
-3.875271 -6.280611 34.935954 196 196 196 0
-3.741752 -6.280799 34.936998 195 195 195 0
-3.607940 -6.280487 34.935265 195 195 195 0
-3.474122 -6.280143 34.933350 196 196 196 0
-3.340666 -6.280452 34.935071 196 196 196 0
-3.207144 -6.280657 34.936208 196 196 196 0
-3.073224 -6.280066 34.932919 195 195 195 0
-2.939488 -6.279816 34.931531 196 196 196 0
-2.805906 -6.279884 34.931908 195 195 195 0
-2.672367 -6.280062 34.932897 195 195 195 0
-2.538588 -6.279665 34.930690 196 196 196 0
-2.405000 -6.279723 34.931016 196 196 196 0
-2.271475 -6.279961 34.932338 197 197 197 0
-2.137915 -6.280126 34.933257 196 196 196 0
-2.004216 -6.279875 34.931861 196 196 196 0
-1.870532 -6.279642 34.930562 196 196 196 0
-1.736910 -6.279599 34.930325 197 197 197 0
-1.603362 -6.279834 34.931630 197 197 197 0
-1.469776 -6.279953 34.932292 197 197 197 0
-1.336108 -6.279708 34.930929 197 197 197 0
-1.202492 -6.279678 34.930764 197 197 197 0
-1.068894 -6.279750 34.931161 197 197 197 0
-0.935297 -6.279854 34.931743 197 197 197 0
-0.801632 -6.279451 34.929500 197 197 197 0
-0.667996 -6.279164 34.927903 197 197 197 0
-0.534387 -6.279053 34.927286 197 197 197 0
-0.400393 -6.272823 34.892635 197 197 197 0
-0.267203 -6.279262 34.928448 197 197 197 0
-0.133599 -6.279171 34.927944 197 197 197 0
0.000000 -6.279488 34.929706 197 197 197 0
0.133607 -6.279535 34.929967 197 197 197 0
0.267198 -6.279142 34.927783 197 197 197 0
0.400790 -6.279046 34.927248 198 198 198 0
0.534401 -6.279207 34.928142 198 198 198 0
0.668005 -6.279245 34.928358 198 198 198 0
0.801582 -6.279055 34.927301 198 198 198 0
0.935154 -6.278893 34.926399 198 198 198 0
1.068762 -6.278979 34.926875 198 198 198 0
1.202401 -6.279205 34.928135 198 198 198 0
1.335918 -6.278816 34.925966 198 198 198 0
1.469493 -6.278744 34.925569 197 197 197 0
1.603172 -6.279089 34.927488 198 198 198 0
1.736806 -6.279220 34.928215 198 198 198 0
1.870257 -6.278721 34.925441 198 198 198 0
2.003874 -6.278807 34.925917 198 198 198 0
2.137574 -6.279124 34.927683 198 198 198 0
2.271164 -6.279099 34.927544 198 198 198 0
2.404636 -6.278773 34.925728 199 199 199 0
2.538186 -6.278672 34.925166 198 198 198 0
2.671858 -6.278865 34.926243 198 198 198 0
2.805458 -6.278883 34.926339 198 198 198 0
2.938951 -6.278668 34.925143 198 198 198 0
3.072493 -6.278572 34.924614 199 199 199 0
3.206157 -6.278724 34.925458 199 199 199 0
3.339835 -6.278890 34.926378 199 199 199 0
3.473215 -6.278504 34.924233 199 199 199 0
3.606817 -6.278534 34.924400 199 199 199 0
3.740621 -6.278900 34.926434 198 198 198 0
3.877877 -6.284835 34.959452 198 198 198 0
4.007484 -6.278392 34.923608 199 199 199 0
4.141081 -6.278414 34.923732 199 199 199 0
4.274984 -6.278883 34.926342 198 198 198 0
4.408496 -6.278768 34.925700 199 199 199 0
4.541866 -6.278462 34.923998 199 199 199 0
4.675498 -6.278526 34.924355 200 200 200 0
4.809189 -6.278664 34.925122 199 199 199 0
4.942792 -6.278681 34.925218 199 199 199 0
5.076200 -6.278457 34.923974 199 199 199 0
5.209807 -6.278486 34.924132 200 200 200 0
5.343572 -6.278697 34.925308 200 200 200 0
5.476976 -6.278484 34.924123 199 199 199 0
5.610230 -6.278114 34.922064 199 199 199 0
5.743931 -6.278250 34.922820 199 199 199 0
5.877649 -6.278398 34.923642 199 199 199 0
6.010924 -6.278077 34.921856 199 199 199 0
6.144600 -6.278178 34.922422 200 200 200 0
6.278391 -6.278391 34.923605 200 200 200 0
6.412235 -6.278647 34.925028 199 199 199 0
6.545461 -6.278300 34.923096 199 199 199 0
6.678916 -6.278181 34.922437 199 199 199 0
6.812684 -6.278356 34.923407 200 200 200 0
6.946383 -6.278461 34.923996 200 200 200 0
7.079743 -6.278263 34.922890 200 200 200 0
7.213128 -6.278093 34.921944 200 200 200 0
7.347032 -6.278373 34.923505 200 200 200 0
7.480745 -6.278482 34.924113 200 200 200 0
7.613928 -6.278151 34.922272 200 200 200 0
7.747347 -6.278022 34.921553 200 200 200 0
7.881180 -6.278228 34.922699 199 199 199 0
8.014331 -6.277892 34.920831 200 200 200 0
8.148012 -6.277976 34.921298 199 199 199 0
8.281742 -6.278095 34.921958 199 199 199 0
8.415668 -6.278356 34.923407 199 199 199 0
8.549009 -6.278178 34.922421 199 199 199 0
8.682389 -6.278035 34.921626 200 200 200 0
8.816176 -6.278186 34.922465 199 199 199 0
8.950083 -6.278417 34.923747 200 200 200 0
9.083397 -6.278231 34.922712 200 200 200 0
9.216620 -6.277988 34.921361 200 200 200 0
9.350500 -6.278193 34.922503 200 200 200 0
9.484392 -6.278400 34.923656 201 201 201 0
9.617383 -6.278014 34.921507 200 200 200 0
9.750833 -6.277933 34.921060 200 200 200 0
9.884570 -6.278038 34.921640 200 200 200 0
10.014923 -6.276018 34.910406 199 199 199 0
10.151417 -6.277850 34.920595 200 200 200 0
10.285127 -6.277934 34.921065 200 200 200 0
10.419338 -6.278319 34.923204 200 200 200 0
10.552483 -6.278060 34.921761 200 200 200 0
-10.710180 -6.158353 35.000588 190 190 190 0
-10.576337 -6.158373 35.000701 190 190 190 0
-10.442505 -6.158401 35.000855 191 191 191 0
-10.301080 -6.153892 34.975230 191 191 191 0
-10.167652 -6.154105 34.976444 191 191 191 0
-10.033474 -6.153864 34.975073 191 191 191 0
-9.897854 -6.152720 34.968569 191 191 191 0
-9.763782 -6.152520 34.967435 191 191 191 0
-9.630242 -6.152654 34.968198 191 191 191 0
-8.785081 -5.691743 32.348637 191 191 191 0
-9.359917 -6.150803 34.957674 191 191 191 0
-9.226729 -6.151153 34.959664 191 191 191 0
-9.093464 -6.151461 34.961415 191 191 191 0
-8.959839 -6.151531 34.961815 192 192 192 0
-8.825462 -6.151079 34.959246 192 192 192 0
-8.691044 -6.150585 34.956438 192 192 192 0
-8.556999 -6.150343 34.955061 192 192 192 0
-8.423649 -6.150601 34.956528 192 192 192 0
-8.290047 -6.150680 34.956977 192 192 192 0
-8.155790 -6.150268 34.954633 192 192 192 0
-8.021425 -6.149759 34.951741 192 192 192 0
-7.887996 -6.149963 34.952902 193 193 193 0
-7.754629 -6.150223 34.954380 193 193 193 0
-7.619980 -6.149458 34.950029 193 193 193 0
-7.485793 -6.149045 34.947682 193 193 193 0
-7.352017 -6.148960 34.947200 193 193 193 0
-7.218787 -6.149337 34.949345 193 193 193 0
-7.084242 -6.148587 34.945081 193 193 193 0
-6.950970 -6.148935 34.947061 193 193 193 0
-6.817100 -6.148757 34.946045 193 193 193 0
-6.683656 -6.148963 34.947219 193 193 193 0
-6.549533 -6.148541 34.944819 193 193 193 0
-6.415504 -6.148191 34.942831 193 193 193 0
-6.281803 -6.148147 34.942582 193 193 193 0
-6.147938 -6.147938 34.941395 194 194 194 0
-6.014750 -6.148411 34.944083 194 194 194 0
-5.880715 -6.148020 34.941860 194 194 194 0
-5.746739 -6.147675 34.939896 194 194 194 0
-5.613086 -6.147666 34.939846 194 194 194 0
-5.479583 -6.147825 34.940749 194 194 194 0
-5.345419 -6.147232 34.937380 194 194 194 0
-5.211724 -6.147161 34.936977 194 194 194 0
-5.078233 -6.147334 34.937962 195 195 195 0
-4.944568 -6.147301 34.937772 195 195 195 0
-4.810751 -6.147070 34.936461 195 195 195 0
-4.677177 -6.147147 34.936899 195 195 195 0
-4.543551 -6.147157 34.936956 195 195 195 0
-4.410240 -6.147607 34.939510 195 195 195 0
-4.276377 -6.147291 34.937718 195 195 195 0
-4.142562 -6.147027 34.936216 195 195 195 0
-4.008866 -6.146928 34.935655 195 195 195 0
-3.875264 -6.146971 34.935898 195 195 195 0
-3.741749 -6.147159 34.936967 196 196 196 0
-3.607961 -6.146896 34.935470 195 195 195 0
-3.474192 -6.146648 34.934059 195 195 195 0
-3.340672 -6.146837 34.935135 195 195 195 0
-3.207177 -6.147089 34.936567 195 195 195 0
-3.073192 -6.146384 34.932560 195 195 195 0
-2.939469 -6.146162 34.931298 195 195 195 0
-2.805916 -6.146293 34.932041 196 196 196 0
-2.672327 -6.146353 34.932382 196 196 196 0
-2.538586 -6.146051 34.930670 196 196 196 0
-2.405029 -6.146185 34.931432 195 195 195 0
-2.271447 -6.146268 34.931902 196 196 196 0
-2.137936 -6.146565 34.933588 196 196 196 0
-2.004215 -6.146259 34.931853 196 196 196 0
-1.870542 -6.146068 34.930762 197 197 197 0
-1.736892 -6.145924 34.929945 196 196 196 0
-1.603341 -6.146141 34.931179 197 197 197 0
-1.469791 -6.146397 34.932634 197 197 197 0
-1.336106 -6.146089 34.930884 196 196 196 0
-1.202486 -6.146040 34.930603 197 197 197 0
-1.068902 -6.146188 34.931445 196 196 196 0
-0.935297 -6.146238 34.931730 196 196 196 0
-0.801639 -6.145901 34.929817 197 197 197 0
-0.668003 -6.145623 34.928237 197 197 197 0
-0.534390 -6.145480 34.927421 197 197 197 0
-0.400367 -6.138957 34.890352 197 197 197 0
-0.267201 -6.145631 34.928282 197 197 197 0
-0.133601 -6.145634 34.928297 197 197 197 0
0.000000 -6.145866 34.929618 197 197 197 0
0.133608 -6.145964 34.930174 198 198 198 0
0.267197 -6.145532 34.927716 197 197 197 0
0.400793 -6.145493 34.927497 198 198 198 0
0.534401 -6.145606 34.928139 198 198 198 0
0.667996 -6.145565 34.927906 197 197 197 0
0.801590 -6.145526 34.927686 197 197 197 0
0.935153 -6.145289 34.926334 198 198 198 0
1.068790 -6.145544 34.927789 198 198 198 0
1.202409 -6.145648 34.928376 198 198 198 0
1.335924 -6.145252 34.926128 198 198 198 0
1.469495 -6.145159 34.925598 198 198 198 0
1.603192 -6.145569 34.927930 197 197 197 0
1.736819 -6.145667 34.928484 198 198 198 0
1.870279 -6.145203 34.925846 198 198 198 0
2.003875 -6.145216 34.925924 198 198 198 0
2.137572 -6.145519 34.927646 198 198 198 0
2.271146 -6.145454 34.927276 198 198 198 0
2.404636 -6.145182 34.925729 199 199 199 0
2.538182 -6.145073 34.925112 198 198 198 0
2.671847 -6.145249 34.926110 198 198 198 0
2.805433 -6.145235 34.926030 198 198 198 0
2.938963 -6.145105 34.925292 198 198 198 0
3.072480 -6.144961 34.924471 198 198 198 0
3.206160 -6.145139 34.925485 198 198 198 0
3.339842 -6.145310 34.926455 198 198 198 0
3.473226 -6.144938 34.924340 199 199 199 0
3.606798 -6.144915 34.924210 199 199 199 0
