ply
    format ascii 1.0
    element vertex 25597
    property float x
    property float y
    property float z
    property uchar red
    property uchar green
    property uchar blue
    property uchar alpha
    end_header
-9.134472 1.157891 33.635172 196 196 196 0
-8.907835 1.145293 33.269223 196 196 196 0
-8.780931 1.145339 33.270555 196 196 196 0
-8.866822 1.173550 34.090050 196 196 196 0
-8.728060 1.172426 34.057398 196 196 196 0
-8.495742 1.158510 33.653166 196 196 196 0
-8.283995 1.147015 33.319237 197 197 197 0
-8.216365 1.155426 33.563582 197 197 197 0
-8.254606 1.179229 34.255029 196 196 196 0
-8.080392 1.172960 34.072916 196 196 196 0
-7.869951 1.161140 33.729566 197 197 197 0
-7.742776 1.161416 33.737587 197 197 197 0
-7.713557 1.176644 34.179937 196 196 196 0
-7.636702 1.185005 34.422817 197 197 197 0
-7.447007 1.175843 34.156666 198 198 198 0
-7.286126 1.170985 34.015527 197 197 197 0
-7.219580 1.181386 34.317672 198 198 198 0
-7.167786 1.194631 34.702427 197 197 197 0
-7.003996 1.189358 34.549245 197 197 197 0
-6.830618 1.182222 34.341969 197 197 197 0
-6.699458 1.182257 34.342988 197 197 197 0
-6.601888 1.188340 34.519675 198 198 198 0
-6.521388 1.197806 34.794655 198 198 198 0
-6.328664 1.186624 34.469846 198 198 198 0
-6.189404 1.185205 34.428611 198 198 198 0
-6.086892 1.190914 34.594442 198 198 198 0
-5.983082 1.196616 34.760099 198 198 198 0
-5.845255 1.195620 34.731167 199 199 199 0
-5.697420 1.192483 34.640039 198 198 198 0
-5.581891 1.196119 34.745663 199 199 199 0
-5.457285 1.197941 34.798565 199 199 199 0
-5.316004 1.196101 34.745124 199 199 199 0
-5.192983 1.198381 34.811350 199 199 199 0
-5.070754 1.200968 34.886507 199 199 199 0
-4.926033 1.198224 34.806805 199 199 199 0
-4.812094 1.203024 34.946218 199 199 199 0
-4.685424 1.204823 34.998496 199 199 199 0
-4.551567 1.204827 34.998596 200 200 200 0
-4.412564 1.203426 34.957922 199 199 199 0
-4.275601 1.202513 34.931380 200 200 200 0
-4.149731 1.204761 34.996680 200 200 200 0
-4.015962 1.204789 34.997490 199 199 199 0
-3.882294 1.204850 34.999270 200 200 200 0
-3.740575 1.202328 34.926006 200 200 200 0
-3.614442 1.204814 34.998226 200 200 200 0
-3.480345 1.204735 34.995924 200 200 200 0
-3.346622 1.204784 34.997351 199 199 199 0
-3.212912 1.204842 34.999039 200 200 200 0
-3.079009 1.204830 34.998684 200 200 200 0
-2.944918 1.204739 34.996049 200 200 200 0
-2.810930 1.204684 34.994455 200 200 200 0
-2.677327 1.204797 34.997741 201 201 201 0
-2.543534 1.204832 34.998744 200 200 200 0
-2.409313 1.204656 34.993648 201 201 201 0
-2.275322 1.204582 34.991502 201 201 201 0
-2.141647 1.204676 34.994230 200 200 200 0
-2.007926 1.204755 34.996529 201 201 201 0
-1.792568 1.152365 33.474656 201 201 201 0
-1.739961 1.204588 34.991677 200 200 200 0
-1.606216 1.204662 34.993819 201 201 201 0
-1.472501 1.204774 34.997054 201 201 201 0
-1.338604 1.204744 34.996181 201 201 201 0
-1.204584 1.204584 34.991548 201 201 201 0
-1.070769 1.204615 34.992443 201 201 201 0
-0.936972 1.204678 34.994269 202 202 202 0
-0.803103 1.204655 34.993611 201 201 201 0
-0.669212 1.204581 34.991467 201 201 201 0
-0.535374 1.204593 34.991796 201 201 201 0
-0.401548 1.204643 34.993251 201 201 201 0
-0.267699 1.204645 34.993332 201 201 201 0
-0.133838 1.204545 34.990408 202 202 202 0
0.000000 1.204488 34.988752 202 202 202 0
0.133842 1.204577 34.991353 201 201 201 0
0.267692 1.204615 34.992459 202 202 202 0
0.401513 1.204540 34.990283 202 202 202 0
0.535323 1.204476 34.988416 202 202 202 0
0.669202 1.204564 34.990965 202 202 202 0
0.803078 1.204617 34.992493 201 201 201 0
0.936904 1.204591 34.991750 202 202 202 0
1.070687 1.204523 34.989769 202 202 202 0
1.204546 1.204546 34.990429 202 202 202 0
1.338409 1.204568 34.991086 202 202 202 0
1.472219 1.204542 34.990339 202 202 202 0
1.606015 1.204511 34.989433 202 202 202 0
1.739886 1.204536 34.990160 202 202 202 0
1.873718 1.204533 34.990062 202 202 202 0
2.007549 1.204529 34.989954 202 202 202 0
2.141368 1.204520 34.989677 202 202 202 0
2.275098 1.204464 34.988058 203 203 203 0
2.408964 1.204482 34.988577 203 203 203 0
2.542779 1.204474 34.988365 202 202 202 0
2.676620 1.204479 34.988500 203 203 203 0
2.810368 1.204444 34.987468 203 203 203 0
2.944304 1.204488 34.988761 203 203 203 0
3.078171 1.204502 34.989153 203 203 203 0
3.212126 1.204547 34.990483 203 203 203 0
3.345870 1.204513 34.989485 203 203 203 0
3.479605 1.204479 34.988487 203 203 203 0
3.613439 1.204480 34.988514 203 203 203 0
3.747318 1.204495 34.988967 203 203 203 0
3.881142 1.204492 34.988887 203 203 203 0
4.014846 1.204454 34.987769 204 204 204 0
4.148585 1.204428 34.987011 203 203 203 0
4.282580 1.204476 34.988402 203 203 203 0
4.416423 1.204479 34.988494 204 204 204 0
4.549921 1.204391 34.985940 203 203 203 0
4.683777 1.204400 34.986194 204 204 204 0
4.817911 1.204478 34.988463 204 204 204 0
4.951729 1.204475 34.988369 203 203 203 0
5.085239 1.204399 34.986161 204 204 204 0
5.219137 1.204416 34.986675 203 203 203 0
5.353327 1.204499 34.989066 204 204 204 0
5.487252 1.204519 34.989648 203 203 203 0
5.620662 1.204428 34.987003 203 203 203 0
5.754472 1.204424 34.986907 204 204 204 0
5.888534 1.204473 34.988317 204 204 204 0
6.022448 1.204490 34.988802 203 203 203 0
6.156063 1.204447 34.987571 204 204 204 0
6.289779 1.204426 34.986950 204 204 204 0
6.423848 1.204472 34.988280 204 204 204 0
6.557650 1.204466 34.988127 204 204 204 0
6.691034 1.204386 34.985800 204 204 204 0
6.824787 1.204374 34.985451 203 203 203 0
6.958950 1.204434 34.987178 204 204 204 0
7.092696 1.204420 34.986785 204 204 204 0
7.226045 1.204341 34.984484 204 204 204 0
7.360155 1.204389 34.985884 204 204 204 0
7.494326 1.204445 34.987515 204 204 204 0
7.628157 1.204446 34.987534 205 205 205 0
7.761614 1.204388 34.985862 204 204 204 0
7.895394 1.204382 34.985683 204 204 204 0
8.029525 1.204429 34.987039 204 204 204 0
8.163254 1.204414 34.986623 204 204 204 0
8.296912 1.204390 34.985925 204 204 204 0
8.430852 1.204407 34.986416 205 205 205 0
8.564768 1.204420 34.986796 204 204 204 0
8.698537 1.204413 34.986573 204 204 204 0
8.832285 1.204402 34.986273 205 205 205 0
8.966006 1.204389 34.985878 205 205 205 0
9.099876 1.204395 34.986066 204 204 204 0
9.233731 1.204400 34.986192 204 204 204 0
9.367564 1.204401 34.986235 204 204 204 0
9.501208 1.204379 34.985578 204 204 204 0
9.635210 1.204401 34.986240 204 204 204 0
9.769017 1.204399 34.986182 204 204 204 0
9.902790 1.204393 34.986009 204 204 204 0
10.036520 1.204382 34.985690 204 204 204 0
10.170410 1.204391 34.985932 204 204 204 0
10.304389 1.204409 34.986467 205 205 205 0
10.438356 1.204426 34.986947 204 204 204 0
10.572097 1.204416 34.986669 204 204 204 0
-9.885592 1.235699 32.305858 195 195 195 0
-9.648381 1.221314 31.929780 195 195 195 0
-9.611749 1.232276 32.216353 195 195 195 0
-9.624046 1.249876 32.676501 196 196 196 0
-9.619756 1.265757 33.091697 196 196 196 0
-9.452421 1.260323 32.949615 196 196 196 0
-9.269322 1.252611 32.748003 195 195 195 0
-9.224819 1.263674 33.037225 196 196 196 0
-9.312975 1.293469 33.816178 196 196 196 0
-9.130880 1.286040 33.621948 196 196 196 0
-8.909130 1.272733 33.274060 196 196 196 0
-8.780500 1.272536 33.268921 196 196 196 0
-8.859183 1.302821 34.060680 196 196 196 0
-8.718356 1.301247 34.019534 196 196 196 0
-8.494723 1.287079 33.649132 196 196 196 0
-8.293218 1.275880 33.356331 197 197 197 0
-8.204816 1.282002 33.516405 196 196 196 0
-8.254585 1.310252 34.254942 197 197 197 0
-8.061861 1.300300 33.994777 197 197 197 0
-7.882728 1.292251 33.784327 196 196 196 0
-7.755633 1.292606 33.793609 197 197 197 0
-7.714867 1.307605 34.185739 197 197 197 0
-7.618315 1.313503 34.339935 197 197 197 0
-7.448438 1.306743 34.163229 197 197 197 0
-7.290645 1.301901 34.036627 197 197 197 0
-7.216799 1.312145 34.304451 198 198 198 0
-7.162265 1.326345 34.675697 198 198 198 0
-7.011985 1.323016 34.588657 198 198 198 0
-6.827843 1.313047 34.328020 198 198 198 0
-6.710481 1.315781 34.399493 198 198 198 0
-6.610301 1.322060 34.563668 198 198 198 0
-6.521816 1.330983 34.796938 198 198 198 0
-6.331551 1.319073 34.485570 198 198 198 0
-6.196797 1.318467 34.469736 199 199 199 0
-6.080801 1.321913 34.559822 198 198 198 0
-5.983994 1.329776 34.765395 198 198 198 0
-5.838306 1.326888 34.689876 198 198 198 0
-5.697975 1.325111 34.643412 199 199 199 0
-5.580180 1.328614 34.735017 198 198 198 0
-5.455908 1.330709 34.789788 199 199 199 0
-5.314189 1.328547 34.733258 199 199 199 0
-5.192858 1.331502 34.810513 199 199 199 0
-5.068342 1.333774 34.869911 199 199 199 0
-4.923804 1.330758 34.791053 199 199 199 0
-4.811836 1.336621 34.944340 199 199 199 0
-4.685457 1.338702 34.998747 199 199 199 0
-4.551531 1.338685 34.998312 199 199 199 0
-4.413408 1.337396 34.964613 199 199 199 0
-4.273196 1.335374 34.911732 200 200 200 0
-4.149799 1.338645 34.997251 200 200 200 0
-4.015903 1.338634 34.996977 200 200 200 0
-3.882284 1.338719 34.999181 200 200 200 0
-3.738244 1.335087 34.904239 199 199 199 0
-3.614502 1.338705 34.998812 200 200 200 0
-3.480368 1.338603 34.996164 200 200 200 0
-3.346621 1.338649 34.997348 200 200 200 0
-3.212948 1.338728 34.999430 200 200 200 0
-3.078977 1.338685 34.998313 200 200 200 0
-2.944913 1.338597 34.995999 200 200 200 0
-2.810923 1.338535 34.994376 200 200 200 0
-2.677321 1.338660 34.997656 200 200 200 0
-2.543528 1.338699 34.998668 200 200 200 0
-2.409279 1.338488 34.993162 200 200 200 0
-2.275322 1.338425 34.991491 201 201 201 0
-2.141694 1.338559 34.995003 200 200 200 0
-2.007972 1.338648 34.997341 200 200 200 0
-1.815833 1.297024 33.909114 201 201 201 0
-1.739916 1.338397 34.990763 201 201 201 0
-1.606224 1.338520 34.993977 201 201 201 0
-1.472504 1.338640 34.997117 201 201 201 0
-1.338617 1.338617 34.996510 201 201 201 0
-1.204584 1.338426 34.991540 201 201 201 0
-1.070771 1.338464 34.992522 201 201 201 0
-0.936966 1.338523 34.994075 201 201 201 0
-0.803102 1.338504 34.993560 201 201 201 0
-0.669210 1.338420 34.991368 201 201 201 0
-0.535366 1.338416 34.991258 202 202 202 0
-0.401546 1.338486 34.993097 201 201 201 0
-0.267698 1.338491 34.993235 201 201 201 0
-0.133840 1.338397 34.990762 201 201 201 0
0.000000 1.338313 34.988582 201 201 201 0
0.133843 1.338427 34.991567 202 202 202 0
0.267694 1.338470 34.992681 201 201 201 0
0.401511 1.338370 34.990072 202 202 202 0
0.535322 1.338305 34.988372 202 202 202 0
0.669208 1.338416 34.991267 202 202 202 0
0.803079 1.338465 34.992549 202 202 202 0
0.936900 1.338428 34.991578 203 203 203 0
1.070686 1.338358 34.989751 202 202 202 0
1.204539 1.338376 34.990230 202 202 202 0
1.338403 1.338403 34.990933 202 202 202 0
1.472220 1.338382 34.990382 203 203 203 0
1.606016 1.338347 34.989458 202 202 202 0
1.739897 1.338382 34.990385 202 202 202 0
1.873723 1.338373 34.990150 203 203 203 0
2.007542 1.338361 34.989842 203 203 203 0
2.141352 1.338345 34.989414 203 203 203 0
2.275122 1.338307 34.988417 203 203 203 0
2.408957 1.338309 34.988477 203 203 203 0
2.542793 1.338312 34.988547 203 203 203 0
2.676635 1.338318 34.988698 203 203 203 0
2.810379 1.338276 34.987605 203 203 203 0
2.944314 1.338325 34.988877 202 202 202 0
3.078180 1.338339 34.989264 203 203 203 0
3.212102 1.338376 34.990219 203 203 203 0
3.345877 1.338351 34.989566 203 203 203 0
3.479607 1.338310 34.988505 203 203 203 0
3.613420 1.338304 34.988337 203 203 203 0
3.747265 1.338309 34.988468 203 203 203 0
3.881134 1.338322 34.988814 203 203 203 0
4.014832 1.338277 34.987647 203 203 203 0
4.148616 1.338263 34.987275 203 203 203 0
4.282562 1.338301 34.988249 204 204 204 0
4.416425 1.338311 34.988514 203 203 203 0
4.549942 1.338218 34.986099 204 204 204 0
4.683801 1.338229 34.986376 204 204 204 0
4.817910 1.338308 34.988452 203 203 203 0
4.951714 1.338301 34.988264 203 203 203 0
5.085237 1.338220 34.986151 204 204 204 0
5.219164 1.338247 34.986856 203 203 203 0
5.353388 1.338347 34.989464 203 203 203 0
5.487238 1.338351 34.989561 203 203 203 0
5.620642 1.338248 34.986880 204 204 204 0
5.754428 1.338239 34.986641 204 204 204 0
5.888542 1.338305 34.988365 203 203 203 0
6.022437 1.338319 34.988741 203 203 203 0
6.156025 1.338266 34.987353 204 204 204 0
6.289801 1.338255 34.987071 204 204 204 0
6.423802 1.338292 34.988028 204 204 204 0
6.557679 1.338302 34.988282 204 204 204 0
6.691020 1.338204 34.985725 204 204 204 0
6.824790 1.338194 34.985466 204 204 204 0
6.958948 1.338259 34.987168 204 204 204 0
7.092697 1.338245 34.986788 204 204 204 0
7.226079 1.338163 34.984647 205 205 205 0
7.360073 1.338195 34.985491 204 204 204 0
7.494353 1.338277 34.987641 204 204 204 0
7.628151 1.338272 34.987504 204 204 204 0
7.761554 1.338199 34.985594 204 204 204 0
7.895435 1.338209 34.985863 204 204 204 0
8.029526 1.338254 34.987041 204 204 204 0
8.163236 1.338235 34.986546 204 204 204 0
8.296900 1.338210 34.985873 204 204 204 0
8.430895 1.338237 34.986597 204 204 204 0
8.564800 1.338250 34.986927 204 204 204 0
8.698542 1.338237 34.986595 204 204 204 0
8.832365 1.338237 34.986590 204 204 204 0
8.966030 1.338213 34.985974 205 205 205 0
9.099918 1.338223 34.986230 204 204 204 0
9.233738 1.338223 34.986218 205 205 205 0
9.367516 1.338217 34.986056 204 204 204 0
9.501262 1.338206 34.985776 205 205 205 0
9.635251 1.338229 34.986386 204 204 204 0
9.769073 1.338229 34.986385 205 205 205 0
9.902864 1.338225 34.986270 204 204 204 0
10.036612 1.338215 34.986012 205 205 205 0
10.170419 1.338213 34.985961 205 205 205 0
10.304435 1.338238 34.986623 204 204 204 0
10.438445 1.338262 34.987246 205 205 205 0
10.572176 1.338250 34.986930 205 205 205 0
-9.889733 1.359838 32.319388 195 195 195 0
-9.650914 1.343798 31.938160 195 195 195 0
-9.595904 1.353269 32.163245 195 195 195 0
-9.584626 1.369232 32.542657 195 195 195 0
-9.578097 1.386303 32.948389 195 195 195 0
-9.460191 1.387495 32.976701 196 196 196 0
-9.270952 1.378114 32.753761 196 196 196 0
-9.217710 1.388970 33.011765 195 195 195 0
-9.316266 1.423318 33.828127 196 196 196 0
-9.128581 1.414287 33.613480 196 196 196 0
-8.905340 1.399411 33.259907 196 196 196 0
-8.784261 1.400390 33.283173 196 196 196 0
-8.850863 1.431757 34.028691 197 197 197 0
-8.718224 1.431350 34.019020 196 196 196 0
-8.481718 1.413620 33.597616 196 196 196 0
-8.285248 1.402119 33.324275 196 196 196 0
-8.203160 1.409918 33.509639 197 197 197 0
-8.253070 1.441012 34.248655 196 196 196 0
-8.071845 1.432101 34.036874 197 197 197 0
-7.861031 1.417563 33.691336 197 197 197 0
-7.743750 1.419687 33.741829 197 197 197 0
-7.725741 1.440392 34.233926 197 197 197 0
-7.614726 1.444172 34.323761 197 197 197 0
-7.449426 1.437609 34.167760 197 197 197 0
-7.285956 1.431170 34.014732 197 197 197 0
-7.215888 1.443178 34.300123 197 197 197 0
-7.155411 1.457584 34.642515 197 197 197 0
-7.009278 1.454756 34.575299 197 197 197 0
-6.827072 1.444188 34.324143 198 198 198 0
-6.704211 1.446006 34.367353 199 199 199 0
-6.607363 1.453620 34.548306 198 198 198 0
-6.523606 1.464483 34.806489 197 197 197 0
-6.334476 1.451651 34.501501 198 198 198 0
-6.193272 1.449489 34.450128 198 198 198 0
-6.083806 1.454823 34.576902 198 198 198 0
-5.979808 1.461731 34.741078 198 198 198 0
-5.839804 1.459951 34.698778 198 198 198 0
-5.697007 1.457374 34.637526 198 198 198 0
-5.580877 1.461658 34.739351 198 198 198 0
-5.455811 1.463754 34.789166 199 199 199 0
-5.312630 1.460973 34.723072 198 198 198 0
-5.199001 1.466385 34.851691 198 198 198 0
-5.066977 1.466756 34.860519 199 199 199 0
-4.927044 1.464797 34.813949 199 199 199 0
-4.812135 1.470375 34.946516 199 199 199 0
-4.685482 1.472580 34.998934 200 200 200 0
-4.551524 1.472552 34.998266 199 199 199 0
-4.413113 1.471038 34.962273 199 199 199 0
-4.273336 1.468959 34.912874 199 199 199 0
-4.149711 1.472478 34.996504 200 200 200 0
-4.015906 1.472499 34.997001 200 200 200 0
-3.882324 1.472606 34.999543 200 200 200 0
-3.738423 1.468666 34.905911 200 200 200 0
-3.614466 1.472560 34.998459 200 200 200 0
-3.480369 1.472464 34.996166 200 200 200 0
-3.346616 1.472511 34.997290 200 200 200 0
-3.212976 1.472614 34.999735 200 200 200 0
-3.078967 1.472549 34.998201 201 201 201 0
-2.944877 1.472439 34.995573 200 200 200 0
-2.810924 1.472389 34.994383 200 200 200 0
-2.677291 1.472510 34.997262 200 200 200 0
-2.543529 1.472569 34.998679 200 200 200 0
-2.409299 1.472349 34.993446 200 200 200 0
-2.275336 1.472276 34.991704 200 200 200 0
-2.141717 1.472430 34.995371 200 200 200 0
-2.008018 1.472546 34.998131 201 201 201 0
-1.843044 1.448106 34.417254 200 200 200 0
-1.739898 1.472222 34.990411 200 200 200 0
-1.606204 1.472354 34.993548 201 201 201 0
-1.472515 1.472515 34.997394 201 201 201 0
-1.338608 1.472469 34.996295 201 201 201 0
-1.204598 1.472286 34.991942 202 202 202 0
-1.070755 1.472288 34.991988 201 201 201 0
-0.936969 1.472379 34.994163 201 201 201 0
-0.803102 1.472353 34.993547 201 201 201 0
-0.669207 1.472255 34.991197 201 201 201 0
-0.535367 1.472258 34.991279 201 201 201 0
-0.401544 1.472327 34.992921 201 201 201 0
-0.267698 1.472338 34.993171 202 202 202 0
-0.133837 1.472212 34.990176 201 201 201 0
0.000000 1.472143 34.988538 201 201 201 0
0.133843 1.472273 34.991642 202 202 202 0
0.267693 1.472309 34.992494 201 201 201 0
0.401513 1.472214 34.990233 201 201 201 0
0.535322 1.472137 34.988398 202 202 202 0
0.669202 1.472244 34.990936 201 201 201 0
0.803079 1.472311 34.992533 202 202 202 0
0.936902 1.472274 34.991658 202 202 202 0
1.070681 1.472186 34.989575 203 203 203 0
1.204541 1.472217 34.990293 202 202 202 0
1.338397 1.472237 34.990773 203 203 203 0
1.472219 1.472219 34.990352 203 203 203 0
1.606024 1.472189 34.989631 202 202 202 0
1.739882 1.472208 34.990086 203 203 203 0
1.873726 1.472213 34.990219 202 202 202 0
2.007547 1.472201 34.989926 202 202 202 0
2.141382 1.472200 34.989898 203 203 203 0
2.275126 1.472140 34.988480 202 202 202 0
2.408958 1.472141 34.988490 203 203 203 0
2.542799 1.472147 34.988628 202 202 202 0
2.676665 1.472166 34.989081 202 202 202 0
2.810356 1.472091 34.987318 202 202 202 0
2.944320 1.472160 34.988950 202 202 202 0
3.078183 1.472174 34.989290 203 203 203 0
3.212119 1.472221 34.990404 202 202 202 0
3.345863 1.472180 34.989419 203 203 203 0
3.479596 1.472137 34.988394 203 203 203 0
3.613426 1.472137 34.988392 203 203 203 0
3.747339 1.472169 34.989160 203 203 203 0
3.881105 1.472143 34.988554 204 204 204 0
4.014825 1.472102 34.987579 203 203 203 0
4.148589 1.472080 34.987049 203 203 203 0
4.282584 1.472138 34.988430 203 203 203 0
4.416440 1.472147 34.988633 204 204 204 0
4.549946 1.472041 34.986126 203 203 203 0
4.683802 1.472052 34.986385 203 203 203 0
4.817910 1.472139 34.988450 203 203 203 0
4.951766 1.472147 34.988628 204 204 204 0
5.085219 1.472037 34.986026 204 204 204 0
5.219126 1.472061 34.986599 204 204 204 0
5.353363 1.472175 34.989303 204 204 204 0
5.487240 1.472186 34.989574 204 204 204 0
5.620638 1.472072 34.986855 203 203 203 0
5.754436 1.472065 34.986689 204 204 204 0
5.888511 1.472128 34.988185 204 204 204 0
6.022470 1.472159 34.988934 203 203 203 0
6.156029 1.472094 34.987378 204 204 204 0
6.289780 1.472076 34.986958 203 203 203 0
6.423853 1.472133 34.988309 203 203 203 0
6.557690 1.472135 34.988344 204 204 204 0
6.691074 1.472036 34.986008 203 203 203 0
6.824797 1.472015 34.985504 203 203 203 0
6.958960 1.472088 34.987231 204 204 204 0
7.092717 1.472073 34.986889 204 204 204 0
7.226064 1.471976 34.984574 204 204 204 0
7.360115 1.472023 34.985690 205 205 205 0
7.494341 1.472103 34.987588 204 204 204 0
7.628173 1.472104 34.987609 204 204 204 0
7.761603 1.472028 34.985816 204 204 204 0
7.895392 1.472022 34.985676 204 204 204 0
8.029538 1.472082 34.987093 204 204 204 0
8.163315 1.472073 34.986885 204 204 204 0
8.296853 1.472022 34.985677 205 205 205 0
8.430857 1.472054 34.986440 204 204 204 0
8.564779 1.472071 34.986842 204 204 204 0
8.698569 1.472066 34.986703 204 204 204 0
8.832377 1.472063 34.986637 204 204 204 0
8.965991 1.472028 34.985820 204 204 204 0
9.099928 1.472047 34.986265 204 204 204 0
9.233790 1.472053 34.986417 204 204 204 0
9.367467 1.472031 34.985873 205 205 205 0
9.501205 1.472018 34.985564 204 204 204 0
9.635194 1.472043 34.986179 205 205 205 0
9.769078 1.472053 34.986403 204 204 204 0
9.902794 1.472037 34.986022 205 205 205 0
10.036502 1.472020 34.985629 205 205 205 0
10.170436 1.472037 34.986021 204 204 204 0
10.304479 1.472068 34.986772 205 205 205 0
10.438410 1.472083 34.987130 204 204 204 0
10.572160 1.472073 34.986877 204 204 204 0
-9.899205 1.484881 32.350342 195 195 195 0
-9.643403 1.464821 31.913307 195 195 195 0
-9.597542 1.476545 32.168735 195 195 195 0
-9.606614 1.497135 32.617313 194 194 194 0
-9.591730 1.514484 32.995286 195 195 195 0
-9.457685 1.513230 32.967964 195 195 195 0
-9.274300 1.503941 32.765589 196 196 196 0
-9.216539 1.515048 33.007572 196 196 196 0
-9.300408 1.550068 33.770543 196 196 196 0
-9.130862 1.543244 33.621878 196 196 196 0
-8.899728 1.525668 33.238945 196 196 196 0
-8.788787 1.528485 33.300319 196 196 196 0
-8.858346 1.563238 34.057463 196 196 196 0
-8.725746 1.562820 34.048371 197 197 197 0
-8.498699 1.545218 33.664880 196 196 196 0
-8.286194 1.529759 33.328082 196 196 196 0
-8.203604 1.538176 33.511455 196 196 196 0
-8.243775 1.570243 34.210085 196 196 196 0
-8.064202 1.560813 34.004646 198 198 198 0
-7.874208 1.549025 33.747812 197 197 197 0
-7.742094 1.548419 33.734614 197 197 197 0
-7.726095 1.571409 34.235495 197 197 197 0
-7.626818 1.577962 34.378264 197 197 197 0
-7.450614 1.568550 34.173210 198 198 198 0
-7.290092 1.562162 34.034041 198 198 198 0
-7.214934 1.574167 34.295587 197 197 197 0
-7.164193 1.592043 34.685031 197 197 197 0
-7.001475 1.585240 34.536812 198 198 198 0
-6.834882 1.577280 34.363407 198 198 198 0
-6.702598 1.577082 34.359082 198 198 198 0
-6.608721 1.586093 34.555406 198 198 198 0
-6.512129 1.594807 34.745255 199 199 199 0
-6.327305 1.581826 34.462443 198 198 198 0
-6.193177 1.581237 34.449599 198 198 198 0
-6.080264 1.586156 34.556773 198 198 198 0
-5.978114 1.594164 34.731239 198 198 198 0
-5.847906 1.594883 34.746917 199 199 199 0
-5.695430 1.589422 34.627936 198 198 198 0
-5.578808 1.593945 34.726474 198 198 198 0
-5.453699 1.596205 34.775698 198 198 198 0
-5.314735 1.594421 34.736832 198 198 198 0
-5.197443 1.599213 34.841250 199 199 199 0
-5.065525 1.599639 34.850531 199 199 199 0
-4.924932 1.597275 34.799022 199 199 199 0
-4.811658 1.603886 34.943053 199 199 199 0
-4.685450 1.606440 34.998695 200 200 200 0
-4.551595 1.606445 34.998812 200 200 200 0
-4.413551 1.604928 34.965744 199 199 199 0
-4.273754 1.602658 34.916294 200 200 200 0
-4.149729 1.606347 34.996659 199 199 199 0
-4.015945 1.606378 34.997346 200 200 200 0
-3.882228 1.606439 34.998674 200 200 200 0
-3.738923 1.602396 34.910579 199 199 199 0
-3.614441 1.606418 34.998222 200 200 200 0
-3.480334 1.606308 34.995816 200 200 200 0
-3.346534 1.606336 34.996436 200 200 200 0
-3.212908 1.606454 34.998993 200 200 200 0
-3.079003 1.606436 34.998612 200 200 200 0
-2.944871 1.606293 34.995494 200 200 200 0
-2.810905 1.606231 34.994150 201 201 201 0
-2.677305 1.606383 34.997448 200 200 200 0
-2.543516 1.606431 34.998501 200 200 200 0
-2.409275 1.606183 34.993104 200 200 200 0
-2.275301 1.606095 34.991178 201 201 201 0
-2.141696 1.606272 34.995030 201 201 201 0
-2.008008 1.606407 34.997965 200 200 200 0
-1.850826 1.586422 34.562575 201 201 201 0
-1.739857 1.606022 34.989579 200 200 200 0
-1.606202 1.606202 34.993515 200 200 200 0
-1.472516 1.606381 34.997406 202 202 202 0
-1.338618 1.606342 34.996548 202 202 202 0
-1.204598 1.606130 34.991947 202 202 202 0
-1.070771 1.606156 34.992501 201 201 201 0
-0.936955 1.606209 34.993659 201 201 201 0
-0.803106 1.606212 34.993732 202 202 202 0
-0.669204 1.606089 34.991042 201 201 201 0
-0.535364 1.606091 34.991094 201 201 201 0
-0.401546 1.606184 34.993105 201 201 201 0
-0.267696 1.606174 34.992889 202 202 202 0
-0.133838 1.606060 34.990405 202 202 202 0
0.000000 1.605971 34.988483 201 201 201 0
0.133842 1.606099 34.991273 202 202 202 0
0.267694 1.606163 34.992653 202 202 202 0
0.401517 1.606067 34.990569 202 202 202 0
0.535319 1.605956 34.988151 202 202 202 0
0.669200 1.606081 34.990874 201 201 201 0
0.803075 1.606150 34.992374 202 202 202 0
0.936902 1.606117 34.991658 202 202 202 0
1.070688 1.606031 34.989788 201 201 201 0
1.204533 1.606044 34.990073 203 203 203 0
1.338396 1.606075 34.990741 202 202 202 0
1.472222 1.606060 34.990417 202 202 202 0
1.606011 1.606011 34.989338 202 202 202 0
1.739895 1.606057 34.990342 202 202 202 0
1.873717 1.606043 34.990053 202 202 202 0
2.007548 1.606039 34.989950 203 203 203 0
2.141356 1.606017 34.989477 203 203 203 0
2.275110 1.605960 34.988236 203 203 203 0
2.408971 1.605981 34.988684 202 202 202 0
2.542813 1.605987 34.988822 202 202 202 0
2.676636 1.605982 34.988706 203 203 203 0
2.810381 1.605932 34.987625 202 202 202 0
2.944299 1.605981 34.988698 203 203 203 0
3.078156 1.605994 34.988981 202 202 202 0
3.212098 1.606049 34.990170 202 202 202 0
3.345892 1.606028 34.989718 203 203 203 0
3.479631 1.605984 34.988752 203 203 203 0
3.613439 1.605973 34.988514 203 203 203 0
3.747295 1.605984 34.988750 203 203 203 0
3.881147 1.605992 34.988932 204 204 204 0
4.014844 1.605938 34.987751 203 203 203 0
4.148586 1.605904 34.987024 203 203 203 0
4.282573 1.605965 34.988345 204 204 204 0
4.416455 1.605984 34.988753 203 203 203 0
4.549937 1.605860 34.986058 203 203 203 0
4.683760 1.605860 34.986066 203 203 203 0
4.817910 1.605970 34.988450 203 203 203 0
4.951757 1.605975 34.988568 204 204 204 0
5.085205 1.605854 34.985928 204 204 204 0
5.219159 1.605895 34.986818 203 203 203 0
5.353304 1.605991 34.988916 203 203 203 0
5.487222 1.606016 34.989461 203 203 203 0
5.620641 1.605898 34.986875 204 204 204 0
5.754456 1.605895 34.986812 204 204 204 0
5.888499 1.605954 34.988111 204 204 204 0
6.022456 1.605988 34.988850 203 203 203 0
6.155999 1.605913 34.987205 204 204 204 0
6.289753 1.605894 34.986803 204 204 204 0
6.423841 1.605960 34.988240 204 204 204 0
6.557687 1.605964 34.988328 203 203 203 0
6.691028 1.605847 34.985767 204 204 204 0
6.824754 1.605824 34.985281 204 204 204 0
6.958957 1.605913 34.987213 204 204 204 0
7.092745 1.605905 34.987029 205 205 205 0
7.226059 1.605791 34.984552 205 205 205 0
7.360122 1.605845 34.985725 205 205 205 0
7.494365 1.605935 34.987699 204 204 204 0
7.628178 1.605932 34.987631 204 204 204 0
7.761565 1.605841 34.985641 205 205 205 0
7.895350 1.605834 34.985489 204 204 204 0
8.029519 1.605904 34.987009 204 204 204 0
8.163297 1.605895 34.986808 204 204 204 0
8.296869 1.605846 34.985742 204 204 204 0
8.430852 1.605876 34.986416 205 205 205 0
8.564800 1.605900 34.986927 204 204 204 0
8.698562 1.605888 34.986673 205 205 205 0
8.832287 1.605870 34.986284 205 205 205 0
8.966058 1.605861 34.986082 204 204 204 0
9.099953 1.605874 34.986363 205 205 205 0
9.233741 1.605868 34.986232 204 204 204 0
9.367552 1.605866 34.986187 205 205 205 0
9.501265 1.605848 34.985785 205 205 205 0
9.635224 1.605871 34.986289 204 204 204 0
9.769077 1.605876 34.986397 205 205 205 0
9.902868 1.605871 34.986287 205 205 205 0
10.036591 1.605855 34.985937 204 204 204 0
10.170478 1.605865 34.986163 204 204 204 0
10.304462 1.605890 34.986713 204 204 204 0
10.438517 1.605926 34.987489 204 204 204 0
10.572237 1.605909 34.987132 205 205 205 0
-9.880564 1.605592 32.289424 195 195 195 0
-9.641682 1.586606 31.907611 195 195 195 0
-9.612855 1.602143 32.220061 195 195 195 0
-9.640240 1.627573 32.731481 195 195 195 0
-9.613592 1.644430 33.070492 196 196 196 0
-9.468503 1.641207 33.005674 195 195 195 0
-9.268545 1.628258 32.745257 195 195 195 0
-9.233659 1.644350 33.068885 196 196 196 0
-9.301866 1.679504 33.775837 195 195 195 0
-9.144632 1.674369 33.672586 196 196 196 0
-8.909218 1.654569 33.274389 196 196 196 0
-8.777269 1.653688 33.256679 197 197 197 0
-8.854572 1.692786 34.042952 196 196 196 0
-8.720921 1.692119 34.029541 196 196 196 0
-8.475110 1.669340 33.571441 196 196 196 0
-8.283666 1.656733 33.317911 196 196 196 0
-8.211519 1.667965 33.543788 197 197 197 0
-8.244574 1.701261 34.213398 197 197 197 0
-8.073612 1.692854 34.044328 197 197 197 0
-7.865272 1.676205 33.709511 197 197 197 0
-7.749676 1.679097 33.767653 197 197 197 0
-7.724870 1.702090 34.230063 197 197 197 0
-7.627543 1.709622 34.381533 197 197 197 0
-7.444821 1.697942 34.146638 198 198 198 0
-7.285762 1.691338 34.013828 197 197 197 0
-7.207722 1.703643 34.261305 197 197 197 0
-7.157210 1.723032 34.651221 197 197 197 0
-6.999901 1.716957 34.529047 197 197 197 0
-6.826712 1.706678 34.322332 198 198 198 0
-6.706978 1.709622 34.381534 198 198 198 0
-6.617591 1.720574 34.601783 198 198 198 0
-6.516647 1.728906 34.769359 198 198 198 0
-6.329737 1.714304 34.475689 198 198 198 0
-6.200101 1.714922 34.488118 198 198 198 0
-6.083681 1.719301 34.576191 198 198 198 0
-5.981302 1.727932 34.749755 198 198 198 0
-5.838722 1.725077 34.692350 199 199 199 0
-5.696023 1.722054 34.631544 198 198 198 0
-5.582337 1.727866 34.748441 198 198 198 0
-5.451929 1.728660 34.764414 198 198 198 0
-5.310765 1.725998 34.710879 199 199 199 0
-5.193359 1.731120 34.813872 199 199 199 0
-5.065987 1.733101 34.853713 199 199 199 0
-4.925116 1.730446 34.800323 199 199 199 0
-4.814368 1.738522 34.962728 199 199 199 0
-4.685391 1.740288 34.998252 199 199 199 0
-4.551532 1.740292 34.998323 199 199 199 0
-4.415529 1.739451 34.981412 200 200 200 0
-4.273973 1.736302 34.918082 199 199 199 0
-4.149664 1.740182 34.996112 199 199 199 0
-4.015919 1.740231 34.997111 200 200 200 0
-3.882245 1.740317 34.998826 199 199 199 0
-3.741002 1.736894 34.929993 200 200 200 0
-3.614439 1.740285 34.998198 199 199 199 0
-3.480354 1.740177 34.996021 200 200 200 0
-3.346609 1.740237 34.997222 200 200 200 0
-3.212937 1.740341 34.999312 200 200 200 0
-3.079013 1.740312 34.998727 200 200 200 0
-2.944836 1.740131 34.995086 201 201 201 0
-2.810896 1.740078 34.994037 200 200 200 0
-2.677266 1.740223 34.996943 200 200 200 0
-2.543499 1.740289 34.998268 200 200 200 0
-2.409266 1.740026 34.992976 200 200 200 0
-2.275295 1.739932 34.991084 200 200 200 0
-2.141694 1.740126 34.994996 201 201 201 0
-2.008015 1.740280 34.998090 201 201 201 0
-1.848374 1.716348 34.516795 200 200 200 0
-1.739887 1.739887 34.990194 201 201 201 0
-1.606213 1.740064 34.993750 200 200 200 0
-1.472514 1.740244 34.997371 201 201 201 0
-1.338607 1.740188 34.996249 201 201 201 0
-1.204586 1.739958 34.991611 201 201 201 0
-1.070767 1.739997 34.992388 201 201 201 0
-0.936987 1.740119 34.994845 202 202 202 0
-0.803112 1.740076 34.993978 202 202 202 0
-0.669206 1.739936 34.991176 201 201 201 0
-0.535368 1.739946 34.991381 201 201 201 0
-0.401546 1.740031 34.993072 202 202 202 0
-0.267697 1.740030 34.993063 201 201 201 0
-0.133838 1.739889 34.990225 202 202 202 0
0.000000 1.739801 34.988448 201 201 201 0
0.133842 1.739948 34.991421 201 201 201 0
0.267692 1.740001 34.992472 202 202 202 0
0.401513 1.739891 34.990273 201 201 201 0
0.535324 1.739803 34.988489 202 202 202 0
0.669202 1.739926 34.990971 202 202 202 0
0.803076 1.739997 34.992397 202 202 202 0
0.936902 1.739961 34.991680 202 202 202 0
1.070680 1.739854 34.989527 202 202 202 0
1.204549 1.739904 34.990520 202 202 202 0
1.338395 1.739913 34.990716 202 202 202 0
1.472214 1.739889 34.990226 203 203 203 0
1.606023 1.739858 34.989598 202 202 202 0
1.739907 1.739907 34.990587 202 202 202 0
1.873743 1.739904 34.990528 202 202 202 0
2.007562 1.739887 34.990182 202 202 202 0
2.141352 1.739848 34.989412 203 203 203 0
2.275128 1.739803 34.988506 202 202 202 0
2.408962 1.739806 34.988548 202 202 202 0
2.542817 1.739822 34.988876 203 203 203 0
2.676657 1.739827 34.988982 203 203 203 0
2.810405 1.739774 34.987921 202 202 202 0
2.944300 1.739814 34.988712 202 202 202 0
3.078184 1.739843 34.989305 203 203 203 0
3.212116 1.739896 34.990369 203 203 203 0
3.345875 1.739855 34.989544 203 203 203 0
3.479600 1.739800 34.988437 203 203 203 0
3.613447 1.739808 34.988591 203 203 203 0
3.747300 1.739818 34.988794 203 203 203 0
3.881143 1.739823 34.988895 203 203 203 0
4.014895 1.739788 34.988194 203 203 203 0
4.148592 1.739732 34.987074 204 204 204 0
4.282561 1.739790 34.988245 203 203 203 0
4.416427 1.739804 34.988526 203 203 203 0
4.549941 1.739683 34.986093 204 204 204 0
4.683761 1.739683 34.986079 203 203 203 0
4.817883 1.739791 34.988256 204 204 204 0
4.951776 1.739813 34.988701 203 203 203 0
5.085226 1.739683 34.986074 203 203 203 0
5.219182 1.739727 34.986972 204 204 204 0
5.353307 1.739825 34.988936 203 203 203 0
5.487242 1.739857 34.989585 204 204 204 0
5.620645 1.739723 34.986896 204 204 204 0
5.754386 1.739698 34.986385 204 204 204 0
5.888466 1.739774 34.987915 204 204 204 0
6.022443 1.739817 34.988777 204 204 204 0
6.156044 1.739751 34.987460 204 204 204 0
6.289708 1.739707 34.986558 204 204 204 0
6.423832 1.739788 34.988191 204 204 204 0
6.557665 1.739789 34.988210 204 204 204 0
6.691004 1.739661 34.985643 203 203 203 0
6.824785 1.739651 34.985443 204 204 204 0
6.958946 1.739737 34.987161 203 203 203 0
7.092730 1.739726 34.986951 204 204 204 0
7.226089 1.739614 34.984697 204 204 204 0
7.360127 1.739666 34.985751 204 204 204 0
7.494389 1.739769 34.987808 204 204 204 0
7.628128 1.739748 34.987399 205 205 205 0
7.761594 1.739668 34.985775 204 204 204 0
7.895335 1.739650 34.985422 204 204 204 0
8.029505 1.739726 34.986948 204 204 204 0
8.163255 1.739710 34.986626 205 205 205 0
8.296885 1.739669 34.985809 204 204 204 0
8.430865 1.739702 34.986471 205 205 205 0
8.564787 1.739722 34.986875 204 204 204 0
8.698558 1.739712 34.986660 204 204 204 0
8.832383 1.739712 34.986662 205 205 205 0
8.966054 1.739682 34.986065 204 204 204 0
9.099955 1.739697 34.986372 204 204 204 0
9.233725 1.739687 34.986168 204 204 204 0
9.367543 1.739686 34.986153 204 204 204 0
9.501237 1.739663 34.985684 204 204 204 0
9.635216 1.739692 34.986258 204 204 204 0
9.769072 1.739698 34.986379 204 204 204 0
9.902858 1.739691 34.986250 204 204 204 0
10.036561 1.739671 34.985834 205 205 205 0
10.170472 1.739686 34.986143 205 205 205 0
10.304423 1.739708 34.986581 204 204 204 0
10.438559 1.739760 34.987628 205 205 205 0
10.572297 1.739745 34.987331 205 205 205 0
-9.886128 1.730072 32.307609 195 195 195 0
-9.655008 1.711014 31.951711 195 195 195 0
-9.604566 1.723896 32.192276 195 195 195 0
-9.637240 1.752225 32.721297 195 195 195 0
-9.629439 1.773844 33.125005 196 196 196 0
-9.471480 1.768010 33.016051 195 195 195 0
-9.269845 1.753754 32.749850 195 195 195 0
-9.218449 1.767922 33.014410 196 196 196 0
-9.299870 1.808308 33.768592 196 196 196 0
-9.124142 1.799127 33.597136 196 196 196 0
-8.908091 1.781618 33.270180 195 195 195 0
-8.790046 1.783488 33.305090 196 196 196 0
-8.863565 1.824852 34.077529 196 196 196 0
-8.724109 1.822948 34.041983 196 196 196 0
-8.498975 1.802813 33.665975 196 196 196 0
-8.282021 1.783820 33.311295 196 196 196 0
-8.202443 1.794284 33.506713 197 197 197 0
-8.245780 1.832395 34.218403 197 197 197 0
-8.074889 1.823362 34.049712 196 196 196 0
-7.876468 1.807714 33.757498 197 197 197 0
-7.755459 1.809607 33.792848 196 196 196 0
-7.729084 1.834020 34.248738 197 197 197 0
-7.625555 1.840651 34.372571 196 196 196 0
-7.446442 1.828951 34.154076 197 197 197 0
-7.287745 1.821936 34.023085 198 198 198 0
-7.212373 1.835877 34.283415 197 197 197 0
-7.155436 1.855113 34.642633 198 198 198 0
-6.998676 1.848707 34.523003 197 197 197 0
-6.823696 1.837149 34.307172 198 198 198 0
-6.712407 1.842621 34.409364 198 198 198 0
-6.608635 1.850418 34.554955 198 198 198 0
-6.525367 1.864391 34.815886 197 197 197 0
-6.328338 1.845765 34.468074 197 197 197 0
-6.201382 1.847220 34.495244 199 199 199 0
-6.085389 1.852075 34.585897 198 198 198 0
-5.980686 1.860658 34.746180 198 198 198 0
-5.840679 1.858398 34.703975 198 198 198 0
-5.694590 1.854052 34.622829 198 198 198 0
-5.582299 1.860766 34.748206 199 199 199 0
-5.452720 1.861905 34.769459 199 199 199 0
-5.321003 1.862351 34.777794 199 199 199 0
-5.198597 1.866163 34.848981 199 199 199 0
-5.057538 1.863304 34.795586 198 198 198 0
-4.922977 1.862748 34.785212 199 199 199 0
-4.807343 1.869522 34.911715 199 199 199 0
-4.685509 1.874204 34.999137 199 199 199 0
-4.551559 1.874171 34.998532 200 200 200 0
-4.413386 1.872346 34.964436 200 200 200 0
-4.272804 1.869352 34.908531 200 200 200 0
-4.149766 1.874088 34.996972 200 200 200 0
-4.015983 1.874125 34.997669 199 199 199 0
-3.882276 1.874202 34.999107 199 199 199 0
-3.738660 1.869330 34.908121 200 200 200 0
-3.614446 1.874157 34.998272 199 199 199 0
-3.480364 1.874042 34.996120 199 199 199 0
-3.346616 1.874105 34.997290 200 200 200 0
-3.212913 1.874199 34.999051 200 200 200 0
-3.078985 1.874165 34.998412 200 200 200 0
-2.944874 1.874011 34.995528 200 200 200 0
-2.810918 1.873945 34.994305 200 200 200 0
-2.677291 1.874103 34.997263 200 200 200 0
-2.543510 1.874165 34.998421 200 200 200 0
-2.409277 1.873882 34.993123 200 200 200 0
-2.275292 1.873770 34.991041 201 201 201 0
-2.141691 1.873979 34.994945 200 200 200 0
-2.008001 1.874134 34.997839 201 201 201 0
-1.838034 1.838034 34.323705 200 200 200 0
-1.739890 1.873728 34.990246 201 201 201 0
-1.606216 1.873918 34.993806 201 201 201 0
-1.472504 1.874096 34.997120 200 200 200 0
-1.338603 1.874044 34.996162 200 200 200 0
-1.204598 1.873819 34.991945 201 201 201 0
-1.070766 1.873841 34.992354 201 201 201 0
-0.936971 1.873942 34.994242 201 201 201 0
-0.803102 1.873905 34.993553 201 201 201 0
-0.669208 1.873784 34.991291 201 201 201 0
-0.535361 1.873763 34.990909 201 201 201 0
-0.401546 1.873880 34.993086 201 201 201 0
-0.267694 1.873858 34.992685 202 202 202 0
-0.133840 1.873759 34.990837 201 201 201 0
0.000000 1.873646 34.988718 201 201 201 0
0.133843 1.873800 34.991588 202 202 202 0
0.267694 1.873860 34.992710 201 201 201 0
0.401514 1.873731 34.990306 202 202 202 0
0.535324 1.873633 34.988470 202 202 202 0
0.669203 1.873769 34.991010 202 202 202 0
0.803081 1.873855 34.992629 202 202 202 0
0.936907 1.873814 34.991863 202 202 202 0
1.070687 1.873702 34.989764 202 202 202 0
1.204542 1.873732 34.990332 202 202 202 0
1.338398 1.873758 34.990810 203 203 203 0
1.472214 1.873726 34.990223 203 203 203 0
1.606027 1.873699 34.989704 202 202 202 0
1.739895 1.873733 34.990344 202 202 202 0
1.873719 1.873719 34.990079 203 203 203 0
2.007564 1.873726 34.990216 202 202 202 0
2.141376 1.873704 34.989798 202 202 202 0
2.275126 1.873633 34.988481 203 203 203 0
2.408985 1.873655 34.988883 203 203 203 0
2.542822 1.873658 34.988946 203 203 203 0
2.676664 1.873665 34.989068 203 203 203 0
2.810398 1.873599 34.987838 202 202 202 0
2.944317 1.873656 34.988916 203 203 203 0
3.078206 1.873690 34.989551 203 203 203 0
3.212115 1.873734 34.990363 203 203 203 0
3.345863 1.873683 34.989418 204 204 204 0
3.479598 1.873630 34.988413 202 202 202 0
3.613443 1.873637 34.988551 203 203 203 0
3.747286 1.873643 34.988662 203 203 203 0
3.881173 1.873670 34.989163 203 203 203 0
4.014873 1.873607 34.988000 204 204 204 0
4.148631 1.873575 34.987398 204 204 204 0
4.282583 1.873630 34.988420 204 204 204 0
4.416437 1.873640 34.988608 204 204 204 0
4.549978 1.873520 34.986373 203 203 203 0
4.683774 1.873510 34.986176 203 203 203 0
4.817914 1.873633 34.988486 204 204 204 0
4.951761 1.873639 34.988598 203 203 203 0
5.085218 1.873502 34.986023 203 203 203 0
5.219158 1.873544 34.986812 204 204 204 0
5.353333 1.873667 34.989107 204 204 204 0
5.487251 1.873695 34.989644 204 204 204 0
5.620637 1.873546 34.986844 204 204 204 0
5.754406 1.873528 34.986509 203 203 203 0
5.888468 1.873604 34.987929 203 203 203 0
6.022407 1.873638 34.988566 204 204 204 0
6.155989 1.873562 34.987148 203 203 203 0
6.289764 1.873547 34.986868 204 204 204 0
6.423836 1.873619 34.988212 204 204 204 0
6.557688 1.873625 34.988332 204 204 204 0
6.691082 1.873503 34.986048 204 204 204 0
6.824746 1.873460 34.985241 204 204 204 0
6.958975 1.873570 34.987306 204 204 204 0
7.092734 1.873552 34.986974 203 203 203 0
7.226021 1.873413 34.984365 204 204 204 0
7.360141 1.873490 34.985814 204 204 204 0
7.494400 1.873600 34.987862 204 204 204 0
7.628155 1.873582 34.987526 204 204 204 0
7.761550 1.873478 34.985577 204 204 204 0
7.895415 1.873488 34.985774 204 204 204 0
8.029482 1.873546 34.986850 204 204 204 0
8.163246 1.873532 34.986591 204 204 204 0
8.296914 1.873497 34.985932 204 204 204 0
8.430875 1.873528 34.986512 204 204 204 0
8.564794 1.873549 34.986902 204 204 204 0
8.698583 1.873541 34.986758 205 205 205 0
8.832299 1.873518 34.986328 204 204 204 0
8.966073 1.873508 34.986140 204 204 204 0
9.099903 1.873509 34.986171 204 204 204 0
9.233761 1.873517 34.986305 205 205 205 0
9.367547 1.873509 34.986170 205 205 205 0
9.501236 1.873483 34.985681 204 204 204 0
9.635209 1.873513 34.986234 204 204 204 0
9.769106 1.873527 34.986501 205 205 205 0
9.902854 1.873513 34.986237 205 205 205 0
10.036598 1.873498 34.985963 205 205 205 0
10.170472 1.873508 34.986143 205 205 205 0
10.304497 1.873545 34.986832 204 204 204 0
10.438590 1.873593 34.987733 205 205 205 0
10.572282 1.873569 34.987283 204 204 204 0
-9.911823 1.858467 32.391580 194 194 194 0
-9.659131 1.834012 31.965353 195 195 195 0
-9.605841 1.847277 32.196551 195 195 195 0
-9.621423 1.874303 32.667594 195 195 195 0
-9.612062 1.897117 33.065227 195 195 195 0
-9.472854 1.894571 33.020843 195 195 195 0
-9.260593 1.877147 32.717163 195 195 195 0
-9.224124 1.895368 33.034736 195 195 195 0
-9.307494 1.939061 33.796273 195 195 195 0
-9.124317 1.927673 33.597778 196 196 196 0
-8.894010 1.905859 33.217592 196 196 196 0
-8.784246 1.909619 33.283116 197 197 197 0
-8.863314 1.955143 34.076562 196 196 196 0
-8.722325 1.952759 34.035022 196 196 196 0
-8.480341 1.927350 33.592162 196 196 196 0
-8.295850 1.914427 33.366919 196 196 196 0
-8.198859 1.921607 33.492070 197 197 197 0
-8.252576 1.964899 34.246608 196 196 196 0
-8.064742 1.951147 34.006923 196 196 196 0
-7.881584 1.938094 33.779424 197 197 197 0
-7.745240 1.936310 33.748325 197 197 197 0
-7.725468 1.964102 34.232714 197 197 197 0
-7.625009 1.971985 34.370108 197 197 197 0
-7.447589 1.959892 34.159334 197 197 197 0
-7.287091 1.951899 34.020032 198 198 198 0
-7.205222 1.965061 34.249423 197 197 197 0
-7.151354 1.986487 34.622873 197 197 197 0
-6.998103 1.980595 34.520179 198 198 198 0
-6.823647 1.968360 34.306923 197 197 197 0
-6.708960 1.973224 34.391696 198 198 198 0
-6.609169 1.982751 34.557745 198 198 198 0
-6.525588 1.997629 34.817063 198 198 198 0
-6.334343 1.979482 34.500781 198 198 198 0
-6.194162 1.976860 34.455080 198 198 198 0
-6.085885 1.984528 34.588718 198 198 198 0
-5.977207 1.992402 34.725968 198 198 198 0
-5.840904 1.991217 34.705314 199 199 199 0
-5.692031 1.985592 34.607272 198 198 198 0
-5.574466 1.990881 34.699444 198 198 198 0
-5.450133 1.993951 34.752960 198 198 198 0
-5.306329 1.989873 34.681886 199 199 199 0
-5.192212 1.997004 34.806178 198 198 198 0
-5.062487 1.998350 34.829632 199 199 199 0
-4.924287 1.996332 34.794466 199 199 199 0
-4.810218 2.004257 34.932589 200 200 200 0
-4.685445 2.008048 34.998657 198 198 198 0
-4.551544 2.008034 34.998419 199 199 199 0
-4.410301 2.004682 34.939994 199 199 199 0
-4.274219 2.003540 34.920087 199 199 199 0
-4.149732 2.007935 34.996682 199 199 199 0
-4.015927 2.007963 34.997184 200 200 200 0
-3.882237 2.008054 34.998758 200 200 200 0
-3.738861 2.002961 34.910003 199 199 199 0
-3.614460 2.008033 34.998398 200 200 200 0
-3.480322 2.007878 34.995693 201 201 201 0
-3.346600 2.007960 34.997127 200 200 200 0
-3.212948 2.008093 34.999437 200 200 200 0
-3.079007 2.008048 34.998664 200 200 200 0
-2.944871 2.007866 34.995491 200 200 200 0
-2.810912 2.007795 34.994240 200 200 200 0
-2.677300 2.007975 34.997391 200 200 200 0
-2.543501 2.008027 34.998296 200 200 200 0
-2.409268 2.007724 34.993004 200 200 200 0
-2.275305 2.007622 34.991239 200 200 200 0
-2.141630 2.007778 34.993954 201 201 201 0
-2.007945 2.007945 34.996869 201 201 201 0
-1.800120 1.928700 33.615692 200 200 200 0
-1.739900 2.007577 34.990453 200 200 200 0
-1.606207 2.007758 34.993608 201 201 201 0
-1.472501 2.007956 34.997060 200 200 200 0
-1.338603 2.007904 34.996154 201 201 201 0
-1.204592 2.007653 34.991765 201 201 201 0
-1.070764 2.007682 34.992277 201 201 201 0
-0.936967 2.007786 34.994096 201 201 201 0
-0.803104 2.007760 34.993634 201 201 201 0
-0.669210 2.007630 34.991374 201 201 201 0
-0.535370 2.007636 34.991471 201 201 201 0
-0.401549 2.007743 34.993346 201 201 201 0
-0.267696 2.007717 34.992886 201 201 201 0
-0.133837 2.007558 34.990115 202 202 202 0
0.000000 2.007479 34.988742 201 201 201 0
0.133843 2.007638 34.991511 202 202 202 0
0.267694 2.007703 34.992653 202 202 202 0
0.401517 2.007586 34.990612 201 201 201 0
0.535324 2.007465 34.988500 201 201 201 0
0.669203 2.007610 34.991025 202 202 202 0
0.803073 2.007683 34.992296 202 202 202 0
0.936913 2.007671 34.992083 202 202 202 0
1.070679 2.007524 34.989521 202 202 202 0
1.204537 2.007562 34.990183 202 202 202 0
1.338393 2.007589 34.990656 203 203 203 0
1.472210 2.007559 34.990136 203 203 203 0
1.606042 2.007553 34.990025 201 201 201 0
1.739883 2.007558 34.990110 202 202 202 0
1.873714 2.007551 34.990000 202 202 202 0
2.007564 2.007564 34.990217 202 202 202 0
2.141366 2.007531 34.989643 203 203 203 0
2.275136 2.007473 34.988631 202 202 202 0
2.408980 2.007484 34.988820 203 203 203 0
2.542818 2.007488 34.988902 203 203 203 0
2.676668 2.007501 34.989129 203 203 203 0
2.810404 2.007431 34.987908 203 203 203 0
2.944313 2.007486 34.988871 202 202 202 0
3.078180 2.007509 34.989263 203 203 203 0
3.212089 2.007556 34.990076 203 203 203 0
3.345860 2.007516 34.989387 202 202 202 0
3.479605 2.007464 34.988485 203 203 203 0
3.613396 2.007442 34.988101 203 203 203 0
3.747331 2.007499 34.989088 204 204 204 0
3.881143 2.007488 34.988892 202 202 202 0
4.014878 2.007439 34.988043 203 203 203 0
4.148621 2.007397 34.987319 203 203 203 0
4.282599 2.007468 34.988552 203 203 203 0
4.416463 2.007483 34.988811 203 203 203 0
4.549946 2.007329 34.986127 203 203 203 0
4.683786 2.007337 34.986260 203 203 203 0
4.817891 2.007454 34.988314 203 203 203 0
4.951779 2.007478 34.988723 204 204 204 0
5.085218 2.007323 34.986021 204 204 204 0
5.219188 2.007380 34.987012 204 204 204 0
5.353298 2.007487 34.988879 204 204 204 0
5.487239 2.007526 34.989566 203 203 203 0
5.620637 2.007370 34.986848 203 203 203 0
5.754419 2.007356 34.986589 204 204 204 0
5.888433 2.007420 34.987718 204 204 204 0
6.022420 2.007473 34.988644 204 204 204 0
6.156023 2.007399 34.987341 204 204 204 0
6.289767 2.007372 34.986881 203 203 203 0
6.423838 2.007449 34.988222 204 204 204 0
6.557674 2.007451 34.988254 204 204 204 0
6.691066 2.007320 34.985967 203 203 203 0
6.824775 2.007287 34.985388 204 204 204 0
6.958968 2.007395 34.987272 205 205 205 0
7.092758 2.007384 34.987093 204 204 204 0
7.226070 2.007242 34.984605 204 204 204 0
7.360137 2.007310 34.985797 204 204 204 0
7.494334 2.007411 34.987554 204 204 204 0
7.628183 2.007416 34.987651 204 204 204 0
7.761571 2.007303 34.985670 204 204 204 0
7.895382 2.007300 34.985629 204 204 204 0
8.029488 2.007372 34.986876 204 204 204 0
8.163245 2.007355 34.986584 204 204 204 0
8.296860 2.007305 34.985706 204 204 204 0
8.430748 2.007321 34.985988 204 204 204 0
8.564748 2.007363 34.986714 204 204 204 0
8.698514 2.007349 34.986482 205 205 205 0
8.832303 2.007342 34.986346 205 205 205 0
8.966048 2.007324 34.986043 204 204 204 0
9.099920 2.007335 34.986236 204 204 204 0
9.233735 2.007334 34.986207 204 204 204 0
9.367570 2.007336 34.986255 204 204 204 0
9.501216 2.007299 34.985607 205 205 205 0
9.635188 2.007331 34.986157 204 204 204 0
9.769030 2.007335 34.986230 204 204 204 0
9.902831 2.007331 34.986154 205 205 205 0
10.036577 2.007315 34.985888 205 205 205 0
10.170524 2.007340 34.986321 204 204 204 0
10.304469 2.007364 34.986739 205 205 205 0
10.438576 2.007418 34.987686 204 204 204 0
10.572271 2.007393 34.987247 204 204 204 0
-9.892699 1.978540 32.329082 195 195 195 0
-9.669278 1.958335 31.998934 195 195 195 0
-9.602100 1.969662 32.184013 195 195 195 0
-9.623728 1.999736 32.675419 195 195 195 0
-9.612866 2.023761 33.067994 195 195 195 0
-9.461363 2.018424 32.980785 195 195 195 0
-9.250730 2.000158 32.682317 196 196 196 0
-9.208387 2.018277 32.978375 195 195 195 0
-9.302043 2.067121 33.776483 196 196 196 0
-9.134504 2.058480 33.635291 195 195 195 0
-8.906158 2.035693 33.262963 196 196 196 0
-8.782233 2.036460 33.275487 196 196 196 0
