ply
    format ascii 1.0
    element vertex 25597
    property float x
    property float y
    property float z
    property uchar red
    property uchar green
    property uchar blue
    property uchar alpha
    end_header
8.566496 -2.677030 34.993857 205 205 205 0
8.700085 -2.676949 34.992799 205 205 205 0
8.834045 -2.676983 34.993246 205 205 205 0
8.968085 -2.677040 34.993989 205 205 205 0
9.101507 -2.676914 34.992338 205 205 205 0
9.235294 -2.676897 34.992115 205 205 205 0
9.369575 -2.677021 34.993744 205 205 205 0
9.503513 -2.677046 34.994065 205 205 205 0
9.636870 -2.676908 34.992267 205 205 205 0
9.770826 -2.676939 34.992660 205 205 205 0
9.905178 -2.677075 34.994445 205 205 205 0
10.039069 -2.677085 34.994577 205 205 205 0
10.172339 -2.676931 34.992565 205 205 205 0
10.306272 -2.676954 34.992860 205 205 205 0
10.440844 -2.677139 34.995287 205 205 205 0
10.574835 -2.677174 34.995732 205 205 205 0
-9.781416 -2.323086 31.965411 195 195 195 0
-9.571495 -2.302005 31.675336 195 195 195 0
-9.517091 -2.318266 31.899083 195 195 195 0
-9.462152 -2.334817 32.126822 196 196 196 0
-9.490780 -2.372695 32.648021 196 196 196 0
-9.378292 -2.375834 32.691213 196 196 196 0
-9.186340 -2.358655 32.454830 195 195 195 0
-9.090932 -2.366133 32.557729 196 196 196 0
-9.176029 -2.421452 33.318914 196 196 196 0
-9.058213 -2.424029 33.354371 197 197 197 0
-8.863512 -2.405810 33.103687 196 196 196 0
-8.786874 -2.419574 33.293074 196 196 196 0
-9.090903 -2.540105 34.951569 196 196 196 0
-8.621381 -2.444869 33.641132 197 197 197 0
-8.452616 -2.433329 33.482336 197 197 197 0
-8.188760 -2.393637 32.936188 197 197 197 0
-8.017672 -2.380246 32.751929 197 197 197 0
-8.061161 -2.431144 33.452271 197 197 197 0
-7.973428 -2.443470 33.621877 197 197 197 0
-7.764035 -2.418306 33.275626 197 197 197 0
-7.605837 -2.408515 33.140903 197 197 197 0
-7.544213 -2.429492 33.429546 197 197 197 0
-7.482938 -2.451307 33.729719 197 197 197 0
-7.345046 -2.448349 33.689008 198 198 198 0
-7.180238 -2.436152 33.521185 197 197 197 0
-7.069559 -2.442211 33.604559 198 198 198 0
-7.043434 -2.478245 34.100381 198 198 198 0
-6.923278 -2.481930 34.151084 197 197 197 0
-6.750288 -2.466452 33.938102 198 198 198 0
-6.600399 -2.458972 33.835187 198 198 198 0
-6.524722 -2.479394 34.116193 198 198 198 0
-6.445170 -2.499148 34.387996 198 198 198 0
-6.263496 -2.479301 34.114902 198 198 198 0
-6.092966 -2.463114 33.892174 198 198 198 0
-5.981184 -2.470489 33.993658 198 198 198 0
-5.881452 -2.483280 34.169655 199 199 199 0
-5.764322 -2.489139 34.250279 198 198 198 0
-5.623460 -2.484784 34.190361 199 199 199 0
-5.496935 -2.486709 34.216840 199 199 199 0
-5.385033 -2.495503 34.337848 199 199 199 0
-5.247398 -2.492514 34.296717 198 198 198 0
-5.123576 -2.496101 34.346080 199 199 199 0
-5.012004 -2.506002 34.482314 199 199 199 0
-4.875408 -2.503588 34.449095 199 199 199 0
-4.741820 -2.502627 34.435876 199 199 199 0
-4.632881 -2.514993 34.606022 199 199 199 0
-4.511263 -2.521000 34.688678 200 200 200 0
-4.371001 -2.516637 34.628650 199 199 199 0
-4.226812 -2.509670 34.532777 199 199 199 0
-4.115929 -2.522666 34.711611 200 200 200 0
-3.987418 -2.525365 34.748743 200 200 200 0
-3.843307 -2.518029 34.647798 200 200 200 0
-3.693390 -2.506229 34.485433 200 200 200 0
-3.560617 -2.505619 34.477048 200 200 200 0
-3.458411 -2.527300 34.775374 200 200 200 0
-3.329074 -2.530097 34.813850 200 200 200 0
-3.184704 -2.521224 34.691763 200 200 200 0
-3.043137 -2.513895 34.590924 200 200 200 0
-2.923102 -2.524497 34.736799 200 200 200 0
-2.801916 -2.535067 34.882237 201 201 201 0
-2.664957 -2.531709 34.836039 201 201 201 0
-2.518943 -2.518943 34.660382 201 201 201 0
-2.391686 -2.524558 34.737638 201 201 201 0
-2.275824 -2.543568 34.999209 201 201 201 0
-2.138554 -2.539533 34.943692 201 201 201 0
-1.995762 -2.527965 34.784523 201 201 201 0
-1.866386 -2.532952 34.853142 201 201 201 0
-1.740230 -2.543413 34.997084 201 201 201 0
-1.606495 -2.543617 34.999892 201 201 201 0
-1.464485 -2.529565 34.806537 201 201 201 0
-1.329841 -2.526697 34.767074 201 201 201 0
-1.204032 -2.541844 34.975498 201 201 201 0
-1.070974 -2.543562 34.999137 201 201 201 0
-0.933966 -2.535049 34.882001 201 201 201 0
-0.800018 -2.533389 34.859154 202 202 202 0
-0.668469 -2.540180 34.952604 202 202 202 0
-0.535054 -2.541505 34.970835 201 201 201 0
-0.401047 -2.539967 34.949661 201 201 201 0
-0.267417 -2.540464 34.956500 202 202 202 0
-0.133875 -2.543616 34.999882 202 202 202 0
0.000000 -2.543517 34.998511 202 202 202 0
0.133870 -2.543532 34.998726 202 202 202 0
0.267742 -2.543546 34.998909 202 202 202 0
0.401610 -2.543529 34.998674 202 202 202 0
0.535474 -2.543501 34.998299 202 202 202 0
0.669318 -2.543408 34.997021 202 202 202 0
0.803216 -2.543518 34.998523 202 202 202 0
0.937093 -2.543538 34.998799 202 202 202 0
1.070985 -2.543590 34.999523 203 203 203 0
1.204828 -2.543526 34.998638 202 202 202 0
1.338666 -2.543466 34.997814 203 203 203 0
1.472531 -2.543463 34.997774 203 203 203 0
1.606399 -2.543466 34.997808 203 203 203 0
1.740276 -2.543480 34.998003 202 202 202 0
1.874093 -2.543412 34.997071 202 202 202 0
2.007899 -2.543339 34.996067 203 203 203 0
2.141817 -2.543408 34.997013 203 203 203 0
2.275708 -2.543438 34.997425 202 202 202 0
2.409407 -2.543263 34.995022 203 203 203 0
2.543246 -2.543246 34.994787 203 203 203 0
2.677276 -2.543412 34.997069 203 203 203 0
2.811160 -2.543431 34.997327 203 203 203 0
2.944820 -2.543254 34.994888 203 203 203 0
3.078686 -2.543263 34.995014 204 204 204 0
3.212672 -2.543365 34.996422 203 203 203 0
3.346700 -2.543492 34.998175 203 203 203 0
3.480324 -2.543313 34.995713 203 203 203 0
3.614061 -2.543228 34.994540 204 204 204 0
3.748017 -2.543297 34.995493 204 204 204 0
3.882085 -2.543435 34.997382 203 203 203 0
4.015789 -2.543333 34.995982 203 203 203 0
4.149513 -2.543250 34.994837 203 203 203 0
4.283469 -2.543310 34.995662 203 203 203 0
4.417546 -2.543436 34.997396 204 204 204 0
4.551240 -2.543340 34.996078 204 204 204 0
4.684732 -2.543140 34.993331 204 204 204 0
4.818739 -2.543223 34.994474 204 204 204 0
4.952896 -2.543379 34.996615 204 204 204 0
5.086546 -2.543273 34.995156 204 204 204 0
5.220050 -2.543101 34.992793 204 204 204 0
5.354229 -2.543259 34.994961 204 204 204 0
5.488363 -2.543388 34.996736 204 204 204 0
5.622182 -2.543368 34.996462 204 204 204 0
5.755658 -2.543198 34.994122 204 204 204 0
5.889616 -2.543243 34.994748 204 204 204 0
6.023640 -2.543315 34.995730 204 204 204 0
6.157344 -2.543251 34.994853 204 204 204 0
6.291082 -2.543203 34.994198 204 204 204 0
6.425094 -2.543266 34.995064 204 204 204 0
6.559025 -2.543296 34.995466 205 205 205 0
6.692687 -2.543221 34.994442 205 205 205 0
6.826379 -2.543161 34.993615 204 204 204 0
6.960265 -2.543174 34.993789 205 205 205 0
7.094178 -2.543196 34.994098 204 204 204 0
7.228054 -2.543204 34.994208 204 204 204 0
7.362616 -2.543449 34.997579 204 204 204 0
7.495627 -2.543159 34.993590 204 204 204 0
7.629672 -2.543224 34.994484 204 204 204 0
7.763659 -2.543267 34.995081 205 205 205 0
7.897482 -2.543257 34.994935 204 204 204 0
8.031205 -2.543215 34.994357 204 204 204 0
8.165073 -2.543219 34.994418 204 204 204 0
8.298851 -2.543196 34.994101 204 204 204 0
8.432815 -2.543230 34.994564 205 205 205 0
8.566500 -2.543180 34.993873 205 205 205 0
8.700098 -2.543105 34.992851 204 204 204 0
8.834085 -2.543146 34.993405 204 204 204 0
8.968128 -2.543201 34.994160 205 205 205 0
9.101481 -2.543061 34.992237 204 204 204 0
9.235334 -2.543063 34.992265 205 205 205 0
9.369535 -2.543160 34.993596 204 204 204 0
9.503532 -2.543199 34.994136 204 204 204 0
9.636909 -2.543073 34.992406 205 205 205 0
9.770816 -2.543089 34.992627 205 205 205 0
9.905136 -2.543211 34.994297 205 205 205 0
10.039033 -2.543222 34.994451 205 205 205 0
10.172341 -2.543085 34.992575 205 205 205 0
10.306327 -2.543120 34.993048 204 204 204 0
10.440804 -2.543273 34.995155 204 204 204 0
10.574854 -2.543319 34.995793 205 205 205 0
-9.814455 -2.208252 32.073382 195 195 195 0
-9.576243 -2.181929 31.691049 195 195 195 0
-9.511983 -2.195073 31.881961 195 195 195 0
-9.473220 -2.214519 32.164401 196 196 196 0
-9.496179 -2.249095 32.666595 195 195 195 0
-9.371593 -2.249182 32.667861 196 196 196 0
-9.202019 -2.238329 32.510224 196 196 196 0
-9.088623 -2.241030 32.549461 195 195 195 0
-9.195362 -2.298841 33.389115 196 196 196 0
-9.056814 -2.296094 33.349217 197 197 197 0
-8.871689 -2.281291 33.134226 196 196 196 0
-8.801167 -2.295957 33.347226 196 196 196 0
-9.091659 -2.406616 34.954475 197 197 197 0
-8.624373 -2.316996 33.652805 197 197 197 0
-8.443013 -2.302640 33.444297 197 197 197 0
-8.187399 -2.267280 32.930716 196 196 196 0
-8.032418 -2.259118 32.812166 196 196 196 0
-8.073202 -2.306629 33.502240 197 197 197 0
-7.968769 -2.313514 33.602230 197 197 197 0
-7.768767 -2.292423 33.295906 197 197 197 0
-7.586630 -2.275989 33.057209 197 197 197 0
-7.537944 -2.299712 33.401767 198 198 198 0
-7.476535 -2.320304 33.700858 197 197 197 0
-7.350873 -2.321328 33.715735 198 198 198 0
-7.175699 -2.306475 33.499993 197 197 197 0
-7.069030 -2.313501 33.602043 197 197 197 0
-7.040486 -2.346829 34.086109 198 198 198 0
-6.929625 -2.353458 34.182390 198 198 198 0
-6.749985 -2.336533 33.936576 198 198 198 0
-6.601199 -2.329835 33.839286 198 198 198 0
-6.532032 -2.351532 34.154416 198 198 198 0
-6.438900 -2.365310 34.354541 199 199 199 0
-6.263696 -2.348886 34.115992 198 198 198 0
-6.100333 -2.336298 33.933157 198 198 198 0
-5.982589 -2.341013 34.001641 198 198 198 0
-5.885207 -2.354083 34.191471 199 199 199 0
-5.763784 -2.357912 34.247085 199 199 199 0
-5.615161 -2.350532 34.139905 199 199 199 0
-5.500535 -2.357372 34.239249 199 199 199 0
-5.382411 -2.363010 34.321129 199 199 199 0
-5.243421 -2.359539 34.270723 199 199 199 0
-5.118730 -2.362491 34.313593 199 199 199 0
-5.017691 -2.376801 34.521437 199 199 199 0
-4.873450 -2.370867 34.435255 200 200 200 0
-4.742085 -2.371042 34.437797 199 199 199 0
-4.632910 -2.382640 34.606238 199 199 199 0
-4.509001 -2.387118 34.671287 199 199 199 0
-4.368040 -2.382567 34.605186 199 199 199 0
-4.222106 -2.374935 34.494329 199 199 199 0
-4.115772 -2.389803 34.710288 200 200 200 0
-3.987113 -2.392268 34.746085 200 200 200 0
-3.840945 -2.384035 34.626505 200 200 200 0
-3.695974 -2.375983 34.509563 200 200 200 0
-3.560918 -2.373946 34.479966 200 200 200 0
-3.460023 -2.395400 34.791580 200 200 200 0
-3.330232 -2.397767 34.825951 200 200 200 0
-3.184727 -2.388545 34.692011 201 201 201 0
-3.045543 -2.383468 34.618276 200 200 200 0
-2.921639 -2.390432 34.719418 200 200 200 0
-2.802074 -2.401777 34.884203 201 201 201 0
-2.664004 -2.397603 34.823578 201 201 201 0
-2.518964 -2.386387 34.660670 201 201 201 0
-2.392655 -2.392655 34.751709 201 201 201 0
-2.275835 -2.409707 34.999378 200 200 200 0
-2.138326 -2.405617 34.939972 201 201 201 0
-1.995210 -2.394253 34.774909 200 200 200 0
-1.866042 -2.399197 34.846726 201 201 201 0
-1.740247 -2.409573 34.997426 201 201 201 0
-1.606498 -2.409747 34.999958 201 201 201 0
-1.464356 -2.396219 34.803467 201 201 201 0
-1.329268 -2.392683 34.752113 202 202 202 0
-1.204180 -2.408360 34.979804 201 201 201 0
-1.070982 -2.409710 34.999425 202 202 202 0
-0.933437 -2.400266 34.862257 201 201 201 0
-0.799702 -2.399106 34.845407 202 202 202 0
-0.669047 -2.408570 34.982859 202 202 202 0
-0.535179 -2.408304 34.978998 201 201 201 0
-0.401136 -2.406817 34.957394 201 201 201 0
-0.267513 -2.407621 34.969072 202 202 202 0
-0.133873 -2.409722 34.999591 202 202 202 0
0.000000 -2.409664 34.998746 201 201 201 0
0.133869 -2.409643 34.998447 202 202 202 0
0.267742 -2.409676 34.998926 202 202 202 0
0.401610 -2.409659 34.998677 202 202 202 0
0.535475 -2.409638 34.998372 202 202 202 0
0.669311 -2.409521 34.996675 203 203 203 0
0.803220 -2.409661 34.998711 202 202 202 0
0.937105 -2.409698 34.999246 202 202 202 0
1.071000 -2.409749 34.999984 203 203 203 0
1.204824 -2.409648 34.998516 203 203 203 0
1.338660 -2.409588 34.997649 202 202 202 0
1.472517 -2.409573 34.997424 202 202 202 0
1.606390 -2.409585 34.997606 203 203 203 0
1.740275 -2.409612 34.997998 202 202 202 0
1.874090 -2.409544 34.997011 203 203 203 0
2.007899 -2.409478 34.996056 203 203 203 0
2.141817 -2.409544 34.997006 203 203 203 0
2.275713 -2.409579 34.997511 203 203 203 0
2.409417 -2.409417 34.995164 203 203 203 0
2.543240 -2.409385 34.994703 203 203 203 0
2.677282 -2.409554 34.997150 203 203 203 0
2.811211 -2.409609 34.997958 203 203 203 0
2.944831 -2.409407 34.995018 203 203 203 0
3.078652 -2.409380 34.994623 203 203 203 0
3.212671 -2.409504 34.996420 203 203 203 0
3.346694 -2.409619 34.998104 203 203 203 0
3.480382 -2.409495 34.996302 203 203 203 0
3.614046 -2.409364 34.994393 204 204 204 0
3.748039 -2.409454 34.995698 203 203 203 0
3.882114 -2.409588 34.997646 203 203 203 0
4.015812 -2.409487 34.996187 203 203 203 0
4.149486 -2.409379 34.994611 203 203 203 0
4.283463 -2.409448 34.995616 203 203 203 0
4.417505 -2.409548 34.997071 203 203 203 0
4.551278 -2.409500 34.996367 204 204 204 0
4.684756 -2.409303 34.993510 204 204 204 0
4.818767 -2.409384 34.994677 204 204 204 0
4.952886 -2.409512 34.996547 204 204 204 0
5.086544 -2.409415 34.995140 204 204 204 0
5.220048 -2.409253 34.992778 204 204 204 0
5.354287 -2.409429 34.995339 204 204 204 0
5.488380 -2.409533 34.996844 204 204 204 0
5.622164 -2.409499 34.996355 204 204 204 0
5.755663 -2.409347 34.994150 204 204 204 0
5.889659 -2.409406 34.995001 204 204 204 0
6.023663 -2.409465 34.995865 204 204 204 0
6.157366 -2.409404 34.994976 204 204 204 0
6.291043 -2.409336 34.993982 204 204 204 0
6.425060 -2.409397 34.994879 204 204 204 0
6.559024 -2.409437 34.995460 204 204 204 0
6.692666 -2.409360 34.994332 204 204 204 0
6.826372 -2.409308 34.993577 204 204 204 0
6.960271 -2.409325 34.993822 204 204 204 0
7.094221 -2.409358 34.994306 204 204 204 0
7.228031 -2.409344 34.994096 205 205 205 0
7.362643 -2.409592 34.997707 204 204 204 0
7.495631 -2.409310 34.993611 205 205 205 0
7.629656 -2.409365 34.994407 204 204 204 0
7.763705 -2.409426 34.995289 204 204 204 0
7.897499 -2.409406 34.995008 205 205 205 0
8.031209 -2.409363 34.994374 204 204 204 0
8.165050 -2.409359 34.994321 204 204 204 0
8.298800 -2.409329 34.993887 204 204 204 0
8.432814 -2.409375 34.994560 205 205 205 0
8.566516 -2.409333 34.993939 204 204 204 0
8.700133 -2.409268 34.992994 204 204 204 0
8.834090 -2.409297 34.993422 205 205 205 0
8.968136 -2.409350 34.994188 204 204 204 0
9.101555 -2.409235 34.992520 204 204 204 0
9.235244 -2.409194 34.991926 205 205 205 0
9.369568 -2.409317 34.993718 205 205 205 0
9.503472 -2.409331 34.993914 205 205 205 0
9.636855 -2.409214 34.992211 205 205 205 0
9.770791 -2.409236 34.992536 205 205 205 0
9.905138 -2.409358 34.994307 205 205 205 0
10.039060 -2.409374 34.994545 205 205 205 0
10.172375 -2.409247 34.992692 205 205 205 0
10.306291 -2.409263 34.992925 205 205 205 0
10.440798 -2.409415 34.995134 205 205 205 0
10.574751 -2.409437 34.995454 205 205 205 0
-9.807247 -2.084040 32.049827 195 195 195 0
-9.580683 -2.061666 31.705745 196 196 196 0
-9.524649 -2.075885 31.924415 196 196 196 0
-9.483019 -2.093654 32.197671 196 196 196 0
-9.488069 -2.122331 32.638696 196 196 196 0
-9.370399 -2.123957 32.663700 195 195 195 0
-9.199918 -2.113495 32.502803 196 196 196 0
-9.089518 -2.116737 32.552664 195 195 195 0
-9.193731 -2.170742 33.383191 196 196 196 0
-9.041422 -2.164848 33.292543 196 196 196 0
-8.867950 -2.153645 33.120260 197 197 197 0
-8.792605 -2.166294 33.314785 196 196 196 0
-9.094895 -2.273724 34.966917 196 196 196 0
-8.631512 -2.190085 33.680664 197 197 197 0
-8.434836 -2.172609 33.411908 197 197 197 0
-8.194522 -2.143183 32.959365 197 197 197 0
-8.022665 -2.131020 32.772323 197 197 197 0
-8.074006 -2.178700 33.505575 198 198 198 0
-7.972515 -2.186012 33.618026 198 198 198 0
-7.767514 -2.164717 33.290535 197 197 197 0
-7.611662 -2.156638 33.166283 197 197 197 0
-7.538528 -2.172118 33.404354 198 198 198 0
-7.475124 -2.190985 33.694497 198 198 198 0
-7.343862 -2.190275 33.683576 197 197 197 0
-7.172636 -2.177407 33.485696 198 198 198 0
-7.073472 -2.186346 33.623156 197 197 197 0
-7.043279 -2.217329 34.099632 198 198 198 0
-6.929366 -2.222627 34.181113 198 198 198 0
-6.749195 -2.206468 33.932604 198 198 198 0
-6.597793 -2.199264 33.821830 198 198 198 0
-6.526368 -2.218965 34.124800 198 198 198 0
-6.446891 -2.236676 34.397177 198 198 198 0
-6.263725 -2.218403 34.116149 198 198 198 0
-6.097696 -2.205550 33.918488 199 199 199 0
-5.981247 -2.210461 33.994016 199 199 199 0
-5.890587 -2.225333 34.222726 199 199 199 0
-5.763968 -2.226988 34.248176 199 199 199 0
-5.617495 -2.220870 34.154098 199 199 199 0
-5.493949 -2.223741 34.198253 199 199 199 0
-5.386360 -2.233369 34.346307 199 199 199 0
-5.242906 -2.228235 34.267361 199 199 199 0
-5.126263 -2.234525 34.364087 200 200 200 0
-5.009889 -2.241266 34.467759 200 200 200 0
-4.877323 -2.240932 34.462627 199 199 199 0
-4.740458 -2.238550 34.425983 199 199 199 0
-4.632941 -2.250286 34.606469 200 200 200 0
-4.514926 -2.257463 34.716848 199 199 199 0
-4.376001 -2.254303 34.668258 199 199 199 0
-4.226949 -2.245567 34.533898 200 200 200 0
-4.116708 -2.257549 34.718176 200 200 200 0
-3.989447 -2.260687 34.766426 200 200 200 0
-3.842111 -2.252272 34.637016 200 200 200 0
-3.696100 -2.244061 34.510736 200 200 200 0
-3.561888 -2.242670 34.489354 200 200 200 0
-3.459927 -2.262260 34.790619 200 200 200 0
-3.332291 -2.265958 34.847487 200 200 200 0
-3.188106 -2.258242 34.728825 200 200 200 0
-3.047176 -2.252261 34.636845 200 200 200 0
-2.922948 -2.258642 34.734975 201 201 201 0
-2.801610 -2.267970 34.878428 201 201 201 0
-2.663550 -2.264017 34.817644 201 201 201 0
-2.517058 -2.252104 34.634437 201 201 201 0
-2.390970 -2.258138 34.727234 201 201 201 0
-2.275807 -2.275807 34.998958 201 201 201 0
-2.139362 -2.273072 34.956888 200 200 200 0
-1.996067 -2.262209 34.789842 201 201 201 0
-1.866341 -2.266271 34.852305 201 201 201 0
-1.740230 -2.275685 34.997084 202 202 202 0
-1.606498 -2.275873 34.999963 201 201 201 0
-1.464497 -2.263314 34.806828 202 202 202 0
-1.328197 -2.257935 34.724107 201 201 201 0
-1.204872 -2.275868 34.999899 201 201 201 0
-1.070977 -2.275826 34.999254 201 201 201 0
-0.933736 -2.267645 34.873435 201 201 201 0
-0.799367 -2.264873 34.830798 202 202 202 0
-0.668862 -2.274132 34.973194 202 202 202 0
-0.535289 -2.274980 34.986242 202 202 202 0
-0.401250 -2.273752 34.967346 202 202 202 0
-0.267572 -2.274364 34.976758 202 202 202 0
-0.133874 -2.275861 34.999788 201 201 201 0
0.000000 -2.275772 34.998408 202 202 202 0
0.133867 -2.275736 34.997855 202 202 202 0
0.267741 -2.275801 34.998865 202 202 202 0
0.401607 -2.275773 34.998427 202 202 202 0
0.535476 -2.275773 34.998428 202 202 202 0
0.669313 -2.275665 34.996773 203 203 203 0
0.803221 -2.275794 34.998747 202 202 202 0
0.937101 -2.275817 34.999115 202 202 202 0
1.070983 -2.275839 34.999439 203 203 203 0
1.204820 -2.275772 34.998409 203 203 203 0
1.338658 -2.275718 34.997592 203 203 203 0
1.472527 -2.275723 34.997665 203 203 203 0
1.606414 -2.275753 34.998123 202 202 202 0
1.740277 -2.275747 34.998025 202 202 202 0
1.874070 -2.275657 34.996642 202 202 202 0
2.007868 -2.275584 34.995528 203 203 203 0
2.141828 -2.275693 34.997195 203 203 203 0
2.275721 -2.275721 34.997625 203 203 203 0
2.409423 -2.275566 34.995244 203 203 203 0
2.543244 -2.275534 34.994753 203 203 203 0
2.677276 -2.275684 34.997068 204 204 204 0
2.811181 -2.275718 34.997584 203 203 203 0
2.944821 -2.275543 34.994899 203 203 203 0
3.078678 -2.275544 34.994915 203 203 203 0
3.212672 -2.275643 34.996429 203 203 203 0
3.346699 -2.275755 34.998160 204 204 204 0
3.480367 -2.275625 34.996152 204 204 204 0
3.614043 -2.275509 34.994369 203 203 203 0
3.748060 -2.275608 34.995895 203 203 203 0
3.882127 -2.275729 34.997761 204 204 204 0
4.015800 -2.275620 34.996076 203 203 203 0
4.149506 -2.275535 34.994778 203 203 203 0
4.283466 -2.275591 34.995640 204 204 204 0
4.417499 -2.275681 34.997024 204 204 204 0
4.551243 -2.275621 34.996098 204 204 204 0
4.684736 -2.275443 34.993359 204 204 204 0
4.818739 -2.275516 34.994476 204 204 204 0
4.952896 -2.275655 34.996617 204 204 204 0
5.086583 -2.275577 34.995410 204 204 204 0
5.220013 -2.275390 34.992543 204 204 204 0
5.354254 -2.275558 34.995127 203 203 203 0
5.488397 -2.275677 34.996951 203 203 203 0
5.622166 -2.275639 34.996365 204 204 204 0
5.755664 -2.275495 34.994155 204 204 204 0
5.889628 -2.275538 34.994822 204 204 204 0
6.023715 -2.275626 34.996164 204 204 204 0
6.157362 -2.275547 34.994954 204 204 204 0
6.291066 -2.275492 34.994111 204 204 204 0
6.425080 -2.275549 34.994988 203 203 203 0
6.559022 -2.275579 34.995448 204 204 204 0
6.692648 -2.275500 34.994240 205 205 205 0
6.826373 -2.275458 34.993584 205 205 205 0
6.960270 -2.275473 34.993818 204 204 204 0
7.094223 -2.275505 34.994317 205 205 205 0
7.228053 -2.275498 34.994207 205 205 205 0
7.362550 -2.275697 34.997265 204 204 204 0
7.495660 -2.275468 34.993743 204 204 204 0
7.629624 -2.275502 34.994263 204 204 204 0
7.763666 -2.275557 34.995114 205 205 205 0
7.897546 -2.275564 34.995220 205 205 205 0
8.031212 -2.275510 34.994389 205 205 205 0
8.165020 -2.275497 34.994191 205 205 205 0
8.298857 -2.275493 34.994127 205 205 205 0
8.432819 -2.275523 34.994581 204 204 204 0
8.566483 -2.275472 34.993805 204 204 204 0
8.700093 -2.275409 34.992832 205 205 205 0
8.834133 -2.275458 34.993594 205 205 205 0
8.968098 -2.275487 34.994040 204 204 204 0
9.101522 -2.275381 34.992396 204 204 204 0
9.235322 -2.275369 34.992221 205 205 205 0
9.369569 -2.275467 34.993721 204 204 204 0
9.503564 -2.275501 34.994253 204 204 204 0
9.636879 -2.275374 34.992298 205 205 205 0
9.770814 -2.275395 34.992619 205 205 205 0
9.905135 -2.275504 34.994293 205 205 205 0
10.039004 -2.275508 34.994349 205 205 205 0
10.172372 -2.275399 34.992679 204 204 204 0
10.306246 -2.275405 34.992771 204 204 204 0
10.440699 -2.275537 34.994802 204 204 204 0
10.574759 -2.275581 34.995480 205 205 205 0
-9.785048 -1.957010 31.977280 195 195 195 0
-9.585795 -1.941427 31.722662 196 196 196 0
-9.522708 -1.953376 31.917908 196 196 196 0
-9.495195 -1.973028 32.239013 196 196 196 0
-9.493434 -1.998618 32.657153 195 195 195 0
-9.374410 -1.999874 32.677681 195 195 195 0
-9.197554 -1.988660 32.494451 196 196 196 0
-9.080132 -1.990166 32.519050 196 196 196 0
-9.179141 -2.039809 33.330213 197 197 197 0
-9.047769 -2.038934 33.315913 196 196 196 0
-8.855097 -2.024022 33.072259 196 196 196 0
-8.792287 -2.038791 33.313581 196 196 196 0
-9.096298 -2.140305 34.972309 196 196 196 0
-8.654697 -2.066793 33.771132 197 197 197 0
-8.443675 -2.046952 33.446921 197 197 197 0
-8.196187 -2.017523 32.966063 197 197 197 0
-8.025798 -2.006449 32.785122 196 196 196 0
-8.080526 -2.052197 33.532631 197 197 197 0
-7.976616 -2.058482 33.635320 197 197 197 0
-7.758491 -2.035014 33.251865 198 198 198 0
-7.604912 -2.027977 33.136873 197 197 197 0
-7.561383 -2.050544 33.505629 198 198 198 0
-7.492213 -2.066817 33.771525 198 198 198 0
-7.352827 -2.063951 33.724697 198 198 198 0
-7.172671 -2.049335 33.485861 197 197 197 0
-7.068448 -2.056276 33.599276 198 198 198 0
-7.032137 -2.083596 34.045689 197 197 197 0
-6.922495 -2.089810 34.147219 198 198 198 0
-6.744946 -2.075368 33.911244 198 198 198 0
-6.601295 -2.070995 33.839780 198 198 198 0
-6.526179 -2.088377 34.123813 198 198 198 0
-6.449741 -2.106038 34.412383 198 198 198 0
-6.262087 -2.087362 34.107226 198 198 198 0
-6.097059 -2.075595 33.914946 199 199 199 0
-5.982186 -2.080760 33.999353 199 199 199 0
-5.888207 -2.093585 34.208898 199 199 199 0
-5.764622 -2.096226 34.252063 199 199 199 0
-5.619989 -2.091159 34.169260 199 199 199 0
-5.498126 -2.094524 34.224249 199 199 199 0
-5.386069 -2.101881 34.344454 199 199 199 0
-5.244460 -2.097784 34.277519 199 199 199 0
-5.119676 -2.100380 34.319934 199 199 199 0
-5.009350 -2.109200 34.464050 200 200 200 0
-4.872524 -2.107037 34.428716 199 199 199 0
-4.741602 -2.107379 34.434293 199 199 199 0
-4.636073 -2.119348 34.629864 199 199 199 0
-4.515257 -2.124827 34.719395 199 199 199 0
-4.371357 -2.119446 34.631471 199 199 199 0
-4.228098 -2.114049 34.543283 199 199 199 0
-4.115291 -2.124021 34.706231 200 200 200 0
-3.986879 -2.126335 34.744044 200 200 200 0
-3.841688 -2.119552 34.633199 200 200 200 0
-3.694587 -2.111192 34.496609 200 200 200 0
-3.561585 -2.110569 34.486418 200 200 200 0
-3.460910 -2.129791 34.800501 200 200 200 0
-3.330316 -2.131402 34.826837 200 200 200 0
-3.182597 -2.121731 34.668811 200 200 200 0
-3.042787 -2.116722 34.586955 200 200 200 0
-2.923107 -2.125896 34.736858 201 201 201 0
-2.801715 -2.134640 34.879738 200 200 200 0
-2.663165 -2.130532 34.812618 201 201 201 0
-2.519206 -2.121436 34.663991 201 201 201 0
-2.391239 -2.125545 34.731133 200 200 200 0
-2.275819 -2.141948 34.999146 201 201 201 0
-2.138142 -2.138142 34.936957 201 201 201 0
-1.995481 -2.128513 34.779629 200 200 200 0
-1.865778 -2.132317 34.841785 201 201 201 0
-1.740247 -2.141843 34.997429 201 201 201 0
-1.606497 -2.141996 34.999942 202 202 202 0
-1.464539 -2.130238 34.807810 201 201 201 0
-1.328581 -2.125730 34.734151 201 201 201 0
-1.204058 -2.140547 34.976266 202 202 202 0
-1.070988 -2.141975 34.999597 201 201 201 0
-0.933771 -2.134333 34.874716 201 201 201 0
-0.798833 -2.130222 34.807551 201 201 201 0
-0.668597 -2.139511 34.959330 202 202 202 0
-0.535495 -2.141979 34.999663 202 202 202 0
-0.401451 -2.141073 34.984848 202 202 202 0
-0.267509 -2.140071 34.968475 202 202 202 0
-0.133874 -2.141983 34.999728 202 202 202 0
0.000000 -2.141894 34.998264 202 202 202 0
0.133869 -2.141899 34.998354 202 202 202 0
0.267741 -2.141930 34.998849 202 202 202 0
0.401610 -2.141919 34.998677 202 202 202 0
0.535475 -2.141901 34.998376 201 201 201 0
0.669312 -2.141797 34.996681 202 202 202 0
0.803218 -2.141914 34.998594 203 203 203 0
0.937101 -2.141945 34.999108 202 202 202 0
1.070983 -2.141966 34.999443 202 202 202 0
1.204821 -2.141903 34.998418 203 203 203 0
1.338667 -2.141867 34.997822 202 202 202 0
1.472522 -2.141850 34.997549 203 203 203 0
1.606395 -2.141859 34.997704 203 203 203 0
1.740286 -2.141890 34.998202 203 203 203 0
1.874090 -2.141817 34.997004 203 203 203 0
2.007888 -2.141747 34.995872 203 203 203 0
2.141804 -2.141804 34.996793 203 203 203 0
2.275721 -2.141855 34.997629 203 203 203 0
2.409384 -2.141675 34.994690 203 203 203 0
2.543267 -2.141699 34.995074 204 204 204 0
2.677277 -2.141821 34.997083 203 203 203 0
2.811173 -2.141846 34.997489 203 203 203 0
2.944819 -2.141686 34.994876 203 203 203 0
3.078652 -2.141671 34.994628 204 204 204 0
3.212673 -2.141782 34.996443 203 203 203 0
3.346717 -2.141899 34.998352 203 203 203 0
3.480337 -2.141746 34.995850 204 204 204 0
3.614026 -2.141645 34.994200 203 203 203 0
3.748007 -2.141718 34.995399 203 203 203 0
3.882092 -2.141844 34.997447 203 203 203 0
4.015789 -2.141754 34.995980 203 203 203 0
4.149478 -2.141666 34.994544 203 203 203 0
4.283471 -2.141735 34.995675 203 203 203 0
4.417513 -2.141825 34.997136 204 204 204 0
4.551258 -2.141768 34.996214 204 204 204 0
4.684742 -2.141596 34.993401 203 203 203 0
4.818773 -2.141677 34.994717 204 204 204 0
4.952874 -2.141783 34.996461 203 203 203 0
5.086596 -2.141725 34.995500 204 204 204 0
5.220049 -2.141558 34.992784 204 204 204 0
5.354255 -2.141702 34.995128 204 204 204 0
5.488372 -2.141804 34.996795 204 204 204 0
5.622165 -2.141777 34.996356 204 204 204 0
5.755613 -2.141624 34.993848 204 204 204 0
5.889645 -2.141689 34.994922 204 204 204 0
6.023638 -2.141738 34.995720 204 204 204 0
6.157379 -2.141697 34.995049 204 204 204 0
6.291100 -2.141651 34.994301 204 204 204 0
6.425091 -2.141697 34.995048 204 204 204 0
6.559028 -2.141724 34.995482 204 204 204 0
6.692700 -2.141664 34.994511 204 204 204 0
6.826407 -2.141618 34.993757 205 205 205 0
6.960236 -2.141611 34.993646 205 205 205 0
7.094207 -2.141647 34.994239 204 204 204 0
7.228059 -2.141647 34.994236 204 204 204 0
7.362588 -2.141844 34.997449 205 205 205 0
7.495617 -2.141605 34.993546 204 204 204 0
7.629628 -2.141650 34.994283 204 204 204 0
7.763612 -2.141686 34.994870 204 204 204 0
7.897503 -2.141696 34.995028 205 205 205 0
8.031209 -2.141656 34.994377 204 204 204 0
8.165068 -2.141657 34.994399 205 205 205 0
8.298789 -2.141623 34.993838 205 205 205 0
8.432789 -2.141661 34.994457 205 205 205 0
8.566535 -2.141634 34.994014 204 204 204 0
8.700152 -2.141576 34.993070 204 204 204 0
8.834108 -2.141602 34.993496 205 205 205 0
8.968094 -2.141634 34.994027 205 205 205 0
9.101546 -2.141540 34.992489 204 204 204 0
9.235324 -2.141525 34.992231 204 204 204 0
9.369585 -2.141619 34.993781 205 205 205 0
9.503531 -2.141641 34.994129 205 205 205 0
9.636818 -2.141515 34.992076 204 204 204 0
9.770776 -2.141540 34.992482 205 205 205 0
9.905171 -2.141659 34.994420 204 204 204 0
10.039028 -2.141659 34.994434 205 205 205 0
10.172338 -2.141545 34.992562 205 205 205 0
10.306305 -2.141570 34.992972 205 205 205 0
10.440767 -2.141696 34.995028 205 205 205 0
10.574820 -2.141736 34.995680 205 205 205 0
-9.796300 -1.836806 32.014054 195 195 195 0
-9.596039 -1.822033 31.756563 195 195 195 0
-9.516832 -1.830160 31.898214 196 196 196 0
-9.473696 -1.845525 32.166015 196 196 196 0
-9.524127 -1.879762 32.762735 196 196 196 0
-9.389343 -1.877869 32.729735 196 196 196 0
-9.196432 -1.864142 32.490485 196 196 196 0
-9.102901 -1.870459 32.600595 196 196 196 0
-9.189561 -1.914492 33.368052 196 196 196 0
-9.062587 -1.914631 33.370476 196 196 196 0
-8.866981 -1.900067 33.116643 196 196 196 0
-8.796266 -1.912232 33.328657 197 197 197 0
-9.096341 -2.006546 34.972475 197 197 197 0
-8.633176 -1.932801 33.687157 196 196 196 0
-8.435031 -1.917053 33.412680 196 196 196 0
-8.188710 -1.889702 32.935987 197 197 197 0
-8.025404 -1.880954 32.783514 197 197 197 0
-8.072361 -1.921991 33.498750 197 197 197 0
-7.974032 -1.929201 33.624424 197 197 197 0
-7.762704 -1.908862 33.269918 197 197 197 0
-7.606072 -1.901518 33.141927 197 197 197 0
-7.550712 -1.919673 33.458345 197 197 197 0
-7.492332 -1.937672 33.772064 198 198 198 0
-7.360026 -1.936849 33.757718 198 198 198 0
-7.185735 -1.924750 33.546847 198 198 198 0
-7.065196 -1.926872 33.583818 199 199 199 0
-7.037972 -1.954992 34.073936 198 198 198 0
-6.927643 -1.960654 34.172613 198 198 198 0
-6.751586 -1.947573 33.944625 199 199 199 0
-6.601885 -1.941731 33.842805 198 198 198 0
-6.527830 -1.958349 34.132443 198 198 198 0
-6.452648 -1.975300 34.427893 198 198 198 0
-6.261988 -1.956871 34.106687 198 198 198 0
-6.105924 -1.948699 33.964256 199 199 199 0
-5.979628 -1.949879 33.984815 198 198 198 0
-5.889613 -1.963204 34.217071 198 198 198 0
-5.763666 -1.964886 34.246384 199 199 199 0
-5.622531 -1.961348 34.184713 199 199 199 0
-5.498389 -1.963711 34.225891 199 199 199 0
-5.384504 -1.969941 34.334476 199 199 199 0
-5.251942 -1.969478 34.326417 200 200 200 0
-5.122728 -1.970280 34.340394 199 199 199 0
-5.013691 -1.979088 34.493917 199 199 199 0
-4.873492 -1.975740 34.435558 200 200 200 0
-4.744035 -1.976681 34.451957 200 200 200 0
-4.633092 -1.985611 34.607596 200 200 200 0
-4.519201 -1.993765 34.749722 199 199 199 0
-4.369939 -1.986336 34.620235 200 200 200 0
-4.229591 -1.982621 34.555480 200 200 200 0
-4.117213 -1.992200 34.722440 199 199 199 0
-3.988603 -1.994301 34.759065 200 200 200 0
-3.841626 -1.987048 34.632642 200 200 200 0
-3.694613 -1.979257 34.496852 200 200 200 0
-3.560107 -1.977837 34.472110 200 200 200 0
-3.456597 -1.994191 34.757138 200 200 200 0
-3.329122 -1.997473 34.814346 200 200 200 0
-3.185616 -1.991010 34.701701 200 200 200 0
-3.044534 -1.985566 34.606808 200 200 200 0
-2.922386 -1.992536 34.728294 201 201 201 0
-2.798797 -1.999141 34.843416 200 200 200 0
-2.663948 -1.997961 34.822848 201 201 201 0
-2.518794 -1.988522 34.658331 200 200 200 0
-2.391054 -1.992545 34.728451 200 200 200 0
-2.275824 -2.008080 34.999209 201 201 201 0
-2.140700 -2.006907 34.978764 201 201 201 0
-1.994820 -1.994820 34.768104 201 201 201 0
-1.866430 -1.999746 34.853968 201 201 201 0
-1.740238 -2.007967 34.997242 201 201 201 0
-1.606498 -2.008122 34.999956 202 202 202 0
-1.464126 -1.996536 34.798005 201 201 201 0
-1.328461 -1.992692 34.731007 202 202 202 0
-1.203224 -2.005373 34.952032 202 202 202 0
-1.070970 -2.008068 34.999007 201 201 201 0
-0.933631 -2.000637 34.869492 201 201 201 0
-0.799259 -1.998147 34.826085 202 202 202 0
-0.668149 -2.004447 34.935898 202 202 202 0
-0.535490 -2.008087 34.999342 202 202 202 0
-0.401462 -2.007308 34.985756 202 202 202 0
-0.267594 -2.006958 34.979664 202 202 202 0
-0.133873 -2.008094 34.999452 203 203 203 0
0.000000 -2.008037 34.998462 202 202 202 0
0.133868 -2.008023 34.998230 202 202 202 0
0.267742 -2.008065 34.998953 202 202 202 0
0.401605 -2.008027 34.998284 203 203 203 0
0.535475 -2.008030 34.998343 202 202 202 0
0.669312 -2.007937 34.996723 202 202 202 0
0.803218 -2.008045 34.998598 202 202 202 0
0.937101 -2.008074 34.999112 202 202 202 0
1.070983 -2.008092 34.999431 202 202 202 0
1.204821 -2.008034 34.998417 203 203 203 0
1.338660 -2.007990 34.997648 202 202 202 0
1.472533 -2.007999 34.997811 202 202 202 0
1.606392 -2.007990 34.997654 202 202 202 0
1.740259 -2.007991 34.997666 203 203 203 0
1.874106 -2.007971 34.997320 203 203 203 0
2.007912 -2.007912 34.996292 202 202 202 0
2.141802 -2.007939 34.996758 203 203 203 0
2.275690 -2.007962 34.997150 203 203 203 0
2.409426 -2.007855 34.995293 203 203 203 0
2.543256 -2.007834 34.994921 202 202 202 0
2.677262 -2.007947 34.996893 203 203 203 0
2.811177 -2.007983 34.997532 204 204 204 0
2.944815 -2.007828 34.994828 204 204 204 0
3.078651 -2.007816 34.994608 203 203 203 0
3.212697 -2.007935 34.996695 204 204 204 0
3.346718 -2.008031 34.998358 203 203 203 0
3.480324 -2.007879 34.995721 203 203 203 0
3.614037 -2.007798 34.994303 204 204 204 0
3.748052 -2.007885 34.995814 204 204 204 0
3.882060 -2.007962 34.997159 204 204 204 0
4.015807 -2.007903 34.996137 203 203 203 0
4.149459 -2.007803 34.994385 204 204 204 0
4.283431 -2.007858 34.995352 204 204 204 0
4.417544 -2.007975 34.997380 203 203 203 0
4.551236 -2.007898 34.996047 204 204 204 0
4.684739 -2.007745 34.993384 203 203 203 0
4.818775 -2.007823 34.994732 204 204 204 0
4.952889 -2.007928 34.996566 204 204 204 0
5.086575 -2.007858 34.995353 204 204 204 0
5.220050 -2.007712 34.992796 204 204 204 0
5.354252 -2.007844 34.995109 204 204 204 0
5.488383 -2.007945 34.996866 204 204 204 0
5.622142 -2.007908 34.996217 204 204 204 0
5.755654 -2.007786 34.994097 204 204 204 0
5.889611 -2.007822 34.994720 204 204 204 0
6.023635 -2.007878 34.995704 204 204 204 0
6.157357 -2.007834 34.994925 203 203 203 0
6.291051 -2.007782 34.994027 204 204 204 0
6.425064 -2.007833 34.994902 204 204 204 0
6.558978 -2.007851 34.995216 204 204 204 0
6.692668 -2.007800 34.994341 204 204 204 0
6.826371 -2.007756 34.993574 204 204 204 0
6.960307 -2.007781 34.994001 205 205 205 0
7.094185 -2.007788 34.994131 204 204 204 0
7.228023 -2.007784 34.994059 205 205 205 0
7.362626 -2.007989 34.997629 205 205 205 0
7.495665 -2.007767 34.993768 204 204 204 0
7.629668 -2.007807 34.994464 204 204 204 0
7.763658 -2.007842 34.995076 205 205 205 0
7.897528 -2.007846 34.995141 205 205 205 0
8.031236 -2.007809 34.994494 205 205 205 0
8.165045 -2.007798 34.994301 205 205 205 0
8.298778 -2.007769 34.993794 205 205 205 0
8.432909 -2.007836 34.994956 205 205 205 0
8.566485 -2.007770 34.993813 204 204 204 0
8.700097 -2.007715 34.992848 205 205 205 0
8.834143 -2.007760 34.993634 204 204 204 0
8.968146 -2.007794 34.994227 206 206 206 0
9.101544 -2.007694 34.992481 204 204 204 0
9.235292 -2.007672 34.992107 205 205 205 0
9.369571 -2.007765 34.993729 204 204 204 0
9.503502 -2.007782 34.994022 205 205 205 0
9.636811 -2.007669 34.992053 205 205 205 0
9.770871 -2.007713 34.992823 206 206 206 0
9.905124 -2.007795 34.994255 205 205 205 0
10.039002 -2.007800 34.994344 205 205 205 0
10.172350 -2.007701 34.992605 204 204 204 0
10.306254 -2.007712 34.992799 205 205 205 0
10.440777 -2.007842 34.995062 205 205 205 0
10.574796 -2.007873 34.995600 204 204 204 0
-9.791323 -1.713481 31.997786 195 195 195 0
-9.590188 -1.699527 31.737197 195 195 195 0
-9.543424 -1.712922 31.987343 196 196 196 0
-9.458513 -1.719730 32.114466 196 196 196 0
-9.506889 -1.751269 32.703436 196 196 196 0
-9.382528 -1.751405 32.705979 196 196 196 0
-9.196444 -1.739868 32.490527 196 196 196 0
-9.085652 -1.742454 32.538819 196 196 196 0
-9.171211 -1.783291 33.301421 196 196 196 0
-9.038389 -1.782217 33.281372 197 197 197 0
-8.855507 -1.771101 33.073790 196 196 196 0
-8.808196 -1.787170 33.373861 196 196 196 0
-9.095190 -1.872539 34.968049 197 197 197 0
-8.638412 -1.805041 33.707587 196 196 196 0
-8.437834 -1.789844 33.423783 196 196 196 0
-8.201120 -1.766395 32.985903 196 196 196 0
-8.030273 -1.756622 32.803402 197 197 197 0
-8.071054 -1.793568 33.493325 197 197 197 0
-7.981682 -1.802315 33.656679 198 198 198 0
-7.760292 -1.781051 33.259581 197 197 197 0
-7.609306 -1.775505 33.156020 197 197 197 0
-7.555368 -1.792799 33.478979 197 197 197 0
-7.502588 -1.810969 33.818291 197 197 197 0
-7.356302 -1.806811 33.740633 198 198 198 0
-7.177484 -1.794371 33.508330 197 197 197 0
-7.067860 -1.799092 33.596485 198 198 198 0
-7.032915 -1.823348 34.049457 198 198 198 0
-6.920696 -1.828108 34.138344 198 198 198 0
-6.745866 -1.816195 33.915865 198 198 198 0
-6.598134 -1.811253 33.823577 198 198 198 0
-6.528185 -1.827892 34.134299 199 199 199 0
-6.447731 -1.842209 34.401657 198 198 198 0
-6.263729 -1.826921 34.116171 199 199 199 0
-6.103707 -1.818125 33.951922 198 198 198 0
-5.983266 -1.820994 34.005488 198 198 198 0
-5.886349 -1.831309 34.198108 199 199 199 0
-5.763637 -1.833885 34.246212 198 198 198 0
-5.617183 -1.828850 34.152200 199 199 199 0
-5.498426 -1.832809 34.226117 199 199 199 0
-5.384854 -1.838731 34.336710 199 199 199 0
-5.250808 -1.837783 34.319008 199 199 199 0
-5.120428 -1.838102 34.324972 200 200 200 0
-5.013094 -1.846929 34.489812 199 199 199 0
-4.876014 -1.844978 34.453379 199 199 199 0
-4.742301 -1.844228 34.439370 199 199 199 0
-4.640310 -1.856124 34.661515 200 200 200 0
-4.516780 -1.859851 34.731103 199 199 199 0
-4.373440 -1.855399 34.647973 200 200 200 0
-4.228424 -1.849935 34.545944 200 200 200 0
-4.121151 -1.861165 34.755647 199 199 199 0
-3.989457 -1.861747 34.766510 200 200 200 0
-3.845121 -1.856265 34.664148 200 200 200 0
-3.694172 -1.847086 34.492738 200 200 200 0
-3.562402 -1.847171 34.494330 200 200 200 0
-3.459318 -1.862710 34.784497 200 200 200 0
-3.331189 -1.865466 34.835960 200 200 200 0
-3.181992 -1.856162 34.662223 200 200 200 0
-3.044023 -1.852884 34.601002 201 201 201 0
-2.919880 -1.858105 34.698515 200 200 200 0
-2.800960 -1.867307 34.870339 200 200 200 0
-2.662597 -1.863818 34.805190 200 200 200 0
-2.517840 -1.855251 34.645206 200 200 200 0
-2.390784 -1.859499 34.724536 200 200 200 0
-2.275834 -1.874216 34.999362 200 200 200 0
-2.138613 -1.871286 34.944657 201 201 201 0
-1.995197 -1.862184 34.774680 201 201 201 0
-1.866930 -1.866930 34.863305 201 201 201 0
-1.740244 -1.874109 34.997369 201 201 201 0
-1.606482 -1.874230 34.999618 201 201 201 0
-1.464155 -1.863469 34.798683 202 202 202 0
-1.328326 -1.859656 34.727473 201 201 201 0
-1.203227 -1.871687 34.952131 201 201 201 0
-1.070974 -1.874204 34.999145 201 201 201 0
-0.933598 -1.867197 34.868288 202 202 202 0
-0.799089 -1.864540 34.818675 202 202 202 0
-0.668334 -1.871336 34.945584 202 202 202 0
-0.535292 -1.873520 34.986373 202 202 202 0
-0.401224 -1.872378 34.965042 201 201 201 0
-0.267525 -1.872678 34.970652 202 202 202 0
-0.133875 -1.874246 34.999929 202 202 202 0
0.000000 -1.874170 34.998508 202 202 202 0
0.133869 -1.874169 34.998482 202 202 202 0
0.267740 -1.874177 34.998645 202 202 202 0
0.401611 -1.874184 34.998766 202 202 202 0
0.535471 -1.874148 34.998098 202 202 202 0
0.669318 -1.874091 34.997037 202 202 202 0
0.803214 -1.874166 34.998436 202 202 202 0
0.937092 -1.874183 34.998750 203 203 203 0
1.070998 -1.874246 34.999923 203 203 203 0
1.204819 -1.874163 34.998379 203 203 203 0
1.338675 -1.874145 34.998042 203 203 203 0
1.472520 -1.874116 34.997496 203 203 203 0
1.606387 -1.874119 34.997548 202 202 202 0
1.740260 -1.874127 34.997695 203 203 203 0
1.874075 -1.874075 34.996732 203 203 203 0
2.007901 -1.874041 34.996097 203 203 203 0
2.141814 -1.874087 34.996957 203 203 203 0
2.275669 -1.874080 34.996829 203 203 203 0
2.409378 -1.873961 34.994601 203 203 203 0
2.543253 -1.873976 34.994884 203 203 203 0
2.677279 -1.874095 34.997107 202 202 202 0
2.811188 -1.874125 34.997666 204 204 204 0
2.944804 -1.873966 34.994702 203 203 203 0
3.078700 -1.873991 34.995164 204 204 204 0
3.212673 -1.874059 34.996442 203 203 203 0
3.346698 -1.874151 34.998150 204 204 204 0
3.480367 -1.874044 34.996152 203 203 203 0
3.614033 -1.873943 34.994264 203 203 203 0
3.748061 -1.874031 34.995901 203 203 203 0
3.882078 -1.874107 34.997324 204 204 204 0
4.015784 -1.874033 34.995939 203 203 203 0
4.149524 -1.873978 34.994929 204 204 204 0
4.283471 -1.874019 34.995680 204 204 204 0
4.417519 -1.874099 34.997177 203 203 203 0
4.551249 -1.874044 34.996149 204 204 204 0
4.684736 -1.873894 34.993357 204 204 204 0
4.818747 -1.873957 34.994531 203 203 203 0
4.952863 -1.874056 34.996381 204 204 204 0
5.086592 -1.874008 34.995476 204 204 204 0
5.220074 -1.873873 34.992953 204 204 204 0
5.354223 -1.873978 34.994921 204 204 204 0
5.488372 -1.874078 34.996791 204 204 204 0
5.622162 -1.874054 34.996337 204 204 204 0
5.755646 -1.873931 34.994046 204 204 204 0
5.889616 -1.873969 34.994746 204 204 204 0
6.023663 -1.874029 34.995864 204 204 204 0
6.157301 -1.873961 34.994605 204 204 204 0
6.291040 -1.873927 34.993963 204 204 204 0
6.425104 -1.873989 34.995123 204 204 204 0
6.559033 -1.874010 34.995510 204 204 204 0
6.692641 -1.873940 34.994203 204 204 204 0
6.826422 -1.873920 34.993834 204 204 204 0
6.960287 -1.873923 34.993900 204 204 204 0
7.094205 -1.873941 34.994229 205 205 205 0
7.228059 -1.873941 34.994233 204 204 204 0
7.362576 -1.874110 34.997388 204 204 204 0
7.495613 -1.873903 34.993525 204 204 204 0
7.629708 -1.873963 34.994649 205 205 205 0
7.763578 -1.873967 34.994716 205 205 205 0
7.897479 -1.873978 34.994923 205 205 205 0
8.031217 -1.873951 34.994411 205 205 205 0
8.165085 -1.873954 34.994469 204 204 204 0
8.298781 -1.873918 34.993806 205 205 205 0
8.432921 -1.873983 34.995005 205 205 205 0
8.566494 -1.873921 34.993848 205 205 205 0
8.700149 -1.873878 34.993057 204 204 204 0
8.834167 -1.873914 34.993729 205 205 205 0
8.968128 -1.873937 34.994157 204 204 204 0
9.101513 -1.873841 34.992362 205 205 205 0
9.235304 -1.873830 34.992153 205 205 205 0
9.369568 -1.873914 34.993719 205 205 205 0
9.503488 -1.873927 34.993973 205 205 205 0
9.636893 -1.873840 34.992350 205 205 205 0
9.770796 -1.873851 34.992556 205 205 205 0
9.905152 -1.873948 34.994355 205 205 205 0
10.038944 -1.873936 34.994141 205 205 205 0
10.172369 -1.873858 34.992671 205 205 205 0
10.306236 -1.873861 34.992737 206 206 206 0
10.440757 -1.873982 34.994996 205 205 205 0
10.574744 -1.874005 34.995428 205 205 205 0
-9.802692 -1.592937 32.034941 196 196 196 0
-9.595273 -1.578969 31.754026 196 196 196 0
-9.514532 -1.585755 31.890504 196 196 196 0
-9.459943 -1.597133 32.119322 196 196 196 0
-9.488289 -1.622997 32.639453 195 195 195 0
-9.386609 -1.627012 32.720205 196 196 196 0
-9.190958 -1.614628 32.471148 196 196 196 0
-9.084251 -1.617743 32.533802 195 195 195 0
-9.172453 -1.656137 33.305929 196 196 196 0
-9.046086 -1.656326 33.309717 196 196 196 0
-8.856990 -1.644870 33.079329 197 197 197 0
-8.796273 -1.657269 33.328683 197 197 197 0
-9.094746 -1.738701 34.966344 197 197 197 0
-8.629040 -1.674291 33.671018 197 197 197 0
-8.437212 -1.661875 33.421320 197 197 197 0
-8.183095 -1.636619 32.913403 196 196 196 0
-8.030104 -1.631115 32.802710 197 197 197 0
-8.056679 -1.662489 33.433672 197 197 197 0
-7.976196 -1.672428 33.633548 197 197 197 0
-7.761986 -1.654194 33.266844 198 198 198 0
-7.602445 -1.647196 33.126121 198 198 198 0
-7.552478 -1.664105 33.466168 197 197 197 0
-7.486152 -1.677931 33.744204 197 197 197 0
-7.356691 -1.677842 33.742420 197 197 197 0
-7.182089 -1.667271 33.529828 198 198 198 0
-7.069901 -1.671067 33.606183 197 197 197 0
-7.040161 -1.694854 34.084536 198 198 198 0
-6.921756 -1.697789 34.143572 197 197 197 0
-6.745792 -1.686448 33.915494 198 198 198 0
-6.609382 -1.684744 33.881233 198 198 198 0
-6.535398 -1.699203 34.172014 198 198 198 0
-6.450571 -1.711376 34.416815 199 199 199 0
-6.261850 -1.695918 34.105939 198 198 198 0
-6.098096 -1.686707 33.920712 199 199 199 0
-5.982471 -1.690698 34.000970 199 199 199 0
-5.885944 -1.700384 34.195756 199 199 199 0
-5.763663 -1.702900 34.246362 198 198 198 0
-5.622309 -1.699768 34.183364 199 199 199 0
-5.498973 -1.702063 34.229521 200 200 200 0
-5.386842 -1.708023 34.349381 199 199 199 0
-5.247706 -1.705504 34.298730 199 199 199 0
-5.116590 -1.705530 34.299245 199 199 199 0
-5.016161 -1.716055 34.510910 200 200 200 0
-4.871728 -1.711688 34.423090 199 199 199 0
-4.744528 -1.713302 34.455543 199 199 199 0
-4.639027 -1.723067 34.651929 200 200 200 0
-4.518399 -1.727623 34.743554 200 200 200 0
-4.370931 -1.721882 34.628094 199 199 199 0
-4.230858 -1.718786 34.565829 200 200 200 0
-4.117460 -1.726677 34.724520 200 200 200 0
-3.991343 -1.729582 34.782948 200 200 200 0
-3.845797 -1.723978 34.670248 200 200 200 0
-3.694523 -1.715314 34.496015 200 200 200 0
-3.562089 -1.715080 34.491304 201 201 201 0
-3.458707 -1.729353 34.778348 200 200 200 0
-3.329503 -1.731341 34.818329 201 201 201 0
-3.186057 -1.725781 34.706508 200 200 200 0
-3.044042 -1.720545 34.601216 201 201 201 0
-2.921074 -1.726089 34.712709 200 200 200 0
-2.801405 -1.734203 34.875879 201 201 201 0
-2.661153 -1.729750 34.786320 201 201 201 0
-2.519172 -1.723644 34.663529 201 201 201 0
-2.390305 -1.726331 34.717571 201 201 201 0
-2.275792 -1.740311 34.998719 200 200 200 0
-2.138796 -1.737772 34.947655 201 201 201 0
-1.995160 -1.729139 34.774038 201 201 201 0
-1.867242 -1.733868 34.869132 201 201 201 0
-1.740257 -1.740257 34.997629 201 201 201 0
-1.606494 -1.740368 34.999869 201 201 201 0
-1.464119 -1.730323 34.797846 201 201 201 0
-1.328234 -1.726704 34.725069 201 201 201 0
-1.202217 -1.736536 34.922797 202 202 202 0
-1.070976 -1.740335 34.999201 202 202 202 0
-0.934081 -1.734722 34.886306 202 202 202 0
-0.799147 -1.731485 34.821207 202 202 202 0
-0.668589 -1.738332 34.958918 202 202 202 0
-0.535229 -1.739493 34.982269 202 202 202 0
-0.401137 -1.738261 34.957487 202 202 202 0
-0.267670 -1.739858 34.989595 202 202 202 0
-0.133874 -1.740360 34.999689 201 201 201 0
0.000000 -1.740288 34.998246 202 202 202 0
0.133869 -1.740293 34.998341 202 202 202 0
0.267741 -1.740318 34.998857 202 202 202 0
0.401609 -1.740307 34.998622 202 202 202 0
0.535475 -1.740294 34.998369 202 202 202 0
0.669312 -1.740211 34.996696 202 202 202 0
0.803218 -1.740306 34.998616 203 203 203 0
0.937112 -1.740350 34.999500 202 202 202 0
1.070989 -1.740358 34.999654 202 202 202 0
1.204832 -1.740313 34.998762 203 203 203 0
1.338663 -1.740261 34.997717 202 202 202 0
1.472525 -1.740257 34.997633 202 202 202 0
1.606394 -1.740260 34.997691 202 202 202 0
1.740257 -1.740257 34.997622 203 203 203 0
1.874075 -1.740212 34.996726 203 203 203 0
2.007894 -1.740175 34.995973 203 203 203 0
2.141797 -1.740210 34.996677 203 203 203 0
2.275709 -1.740248 34.997445 203 203 203 0
2.409410 -1.740129 34.995061 203 203 203 0
2.543252 -1.740120 34.994871 203 203 203 0
2.677295 -1.740242 34.997322 203 203 203 0
2.811188 -1.740259 34.997669 203 203 203 0
2.944826 -1.740124 34.994962 204 204 204 0
3.078674 -1.740120 34.994872 203 203 203 0
3.212714 -1.740220 34.996883 203 203 203 0
3.346688 -1.740278 34.998045 203 203 203 0
3.480340 -1.740170 34.995873 204 204 204 0
3.614029 -1.740088 34.994224 203 203 203 0
3.748025 -1.740155 34.995566 203 203 203 0
3.882101 -1.740252 34.997534 204 204 204 0
4.015787 -1.740174 34.995962 204 204 204 0
4.149480 -1.740104 34.994559 203 203 203 0
4.283466 -1.740158 34.995636 204 204 204 0
4.417530 -1.740239 34.997265 204 204 204 0
4.551236 -1.740179 34.996051 204 204 204 0
4.684767 -1.740056 34.993590 204 204 204 0
4.818745 -1.740102 34.994515 203 203 203 0
4.952874 -1.740199 34.996462 204 204 204 0
5.086558 -1.740138 34.995240 204 204 204 0
5.219991 -1.739997 34.992399 204 204 204 0
5.354227 -1.740124 34.994950 204 204 204 0
