ply
    format ascii 1.0
    element vertex 25597
    property float x
    property float y
    property float z
    property uchar red
    property uchar green
    property uchar blue
    property uchar alpha
    end_header
-4.664778 0.259154 33.876385 200 200 200 0
-4.542578 0.259576 33.931486 200 200 200 0
-4.441282 0.261252 34.150571 200 200 200 0
-4.316179 0.261587 34.194326 200 200 200 0
-4.165408 0.260338 34.031112 200 200 200 0
-4.034646 0.260300 34.026111 200 200 200 0
-3.933059 0.262204 34.275026 200 200 200 0
-3.800185 0.262082 34.259046 200 200 200 0
-3.659339 0.261381 34.167496 200 200 200 0
-3.511720 0.260127 34.003587 200 200 200 0
-3.396576 0.261275 34.153605 201 201 201 0
-3.282538 0.262603 34.327190 201 201 201 0
-3.148892 0.262408 34.301653 201 201 201 0
-3.005862 0.261379 34.167227 200 200 200 0
-2.870903 0.260991 34.116498 201 201 201 0
-2.752545 0.262147 34.267606 202 202 202 0
-2.628180 0.262818 34.355290 202 202 202 0
-2.489037 0.262004 34.248874 201 201 201 0
-2.353356 0.261484 34.180912 201 201 201 0
-2.238330 0.263333 34.422605 202 202 202 0
-2.117994 0.264749 34.607749 202 202 202 0
-1.976282 0.263504 34.444996 202 202 202 0
-1.834104 0.262015 34.250304 202 202 202 0
-1.711385 0.263290 34.416996 202 202 202 0
-1.590158 0.265026 34.643971 201 201 201 0
-1.450488 0.263725 34.473876 202 202 202 0
-1.311032 0.262206 34.275344 202 202 202 0
-1.180510 0.262336 34.292238 202 202 202 0
-1.056598 0.264150 34.529350 202 202 202 0
-0.924766 0.264219 34.538417 202 202 202 0
-0.789670 0.263223 34.408265 202 202 202 0
-0.658086 0.263234 34.409725 202 202 202 0
-0.529063 0.264532 34.579285 202 202 202 0
-0.396686 0.264457 34.569558 202 202 202 0
-0.263858 0.263858 34.491203 202 202 202 0
-0.131715 0.263429 34.435196 203 203 203 0
0.000000 0.263886 34.494958 202 202 202 0
0.132390 0.264781 34.611879 203 203 203 0
0.264563 0.264563 34.583372 203 203 203 0
0.397249 0.264833 34.618657 203 203 203 0
0.529348 0.264674 34.597908 202 202 202 0
0.661627 0.264651 34.594893 203 203 203 0
0.796394 0.265465 34.701275 203 203 203 0
0.926850 0.264814 34.616230 203 203 203 0
1.056926 0.264231 34.540059 203 203 203 0
1.189244 0.264277 34.545948 203 203 203 0
1.324326 0.264865 34.622909 203 203 203 0
1.458219 0.265131 34.657620 203 203 203 0
1.591448 0.265241 34.672068 203 203 203 0
1.721293 0.264814 34.616246 203 203 203 0
1.852661 0.264666 34.596844 203 203 203 0
1.989285 0.265238 34.671640 203 203 203 0
2.125070 0.265634 34.723362 203 203 203 0
2.252912 0.265048 34.646860 203 203 203 0
2.384349 0.264928 34.631060 203 203 203 0
2.531935 0.266519 34.839142 204 204 204 0
2.660620 0.266062 34.779348 203 203 203 0
2.784318 0.265173 34.663157 204 204 204 0
2.916407 0.265128 34.657243 204 204 204 0
3.068416 0.266819 34.878269 204 204 204 0
3.194265 0.266189 34.795914 204 204 204 0
3.316068 0.265285 34.677840 204 204 204 0
3.439454 0.264573 34.584757 204 204 204 0
3.590963 0.265997 34.770885 203 203 203 0
3.730015 0.266430 34.827401 204 204 204 0
3.851048 0.265590 34.717583 204 204 204 0
3.983786 0.265586 34.717089 204 204 204 0
4.132550 0.266616 34.851783 204 204 204 0
4.267741 0.266734 34.867169 204 204 204 0
4.394112 0.266310 34.811741 204 204 204 0
4.521517 0.265972 34.767525 204 204 204 0
4.670687 0.266896 34.888415 204 204 204 0
4.813567 0.267420 34.956915 204 204 204 0
4.935199 0.266768 34.871572 204 204 204 0
5.057050 0.266161 34.792225 205 205 205 0
5.203127 0.266827 34.879348 204 204 204 0
5.344994 0.267250 34.934600 205 205 205 0
5.464339 0.266553 34.843547 204 204 204 0
5.587055 0.266050 34.777808 204 204 204 0
5.719853 0.266040 34.776425 205 205 205 0
5.866379 0.266654 34.856676 205 205 205 0
5.997217 0.266543 34.842217 204 204 204 0
6.126162 0.266355 34.817629 205 205 205 0
6.260620 0.266409 34.824752 205 205 205 0
6.395652 0.266486 34.834707 205 205 205 0
6.530437 0.266548 34.842936 205 205 205 0
6.672154 0.266886 34.887080 205 205 205 0
6.799160 0.266634 34.854083 205 205 205 0
6.931756 0.266606 34.850457 205 205 205 0
7.081116 0.267212 34.929664 205 205 205 0
7.218973 0.267369 34.950244 205 205 205 0
7.338783 0.266865 34.884293 205 205 205 0
7.467458 0.266695 34.862080 205 205 205 0
7.628683 0.267673 34.989946 205 205 205 0
7.747536 0.267156 34.922409 205 205 205 0
7.858652 0.266395 34.822875 205 205 205 0
7.986076 0.266203 34.797718 205 205 205 0
8.148323 0.267158 34.922630 205 205 205 0
8.285783 0.267283 34.938998 205 205 205 0
8.403507 0.266778 34.872943 205 205 205 0
8.527673 0.266490 34.835264 205 205 205 0
8.682562 0.267156 34.922323 206 206 206 0
8.817927 0.267210 34.929399 205 205 205 0
8.926891 0.266474 34.833249 205 205 205 0
9.066888 0.266673 34.859237 205 205 205 0
9.237327 0.267749 34.999818 206 206 206 0
9.371244 0.267750 34.999979 205 205 205 0
9.475562 0.266917 34.891141 206 206 206 0
9.613244 0.267035 34.906479 206 206 206 0
9.772676 0.267745 34.999288 206 206 206 0
9.890835 0.267320 34.943772 205 205 205 0
9.999601 0.266656 34.856996 206 206 206 0
10.134249 0.266691 34.861536 205 205 205 0
10.300845 0.267554 34.974433 205 205 205 0
10.412845 0.266996 34.901443 205 205 205 0
10.554436 0.267201 34.928223 205 205 205 0
-9.760311 0.366012 31.896443 196 196 196 0
-9.526251 0.361756 31.525610 196 196 196 0
-9.408342 0.361859 31.534581 196 196 196 0
-9.288008 0.361870 31.535550 196 196 196 0
-9.330411 0.368306 32.096356 196 196 196 0
-9.281767 0.371271 32.354742 196 196 196 0
-9.087771 0.368423 32.106594 197 197 197 0
-8.917607 0.366477 31.936992 197 197 197 0
-8.978887 0.374120 32.603074 197 197 197 0
-8.952305 0.378266 32.964394 196 196 196 0
-8.725456 0.373948 32.588070 197 197 197 0
-8.498451 0.369498 32.200251 197 197 197 0
-8.417161 0.371345 32.361251 197 197 197 0
-8.522683 0.381613 33.256005 197 197 197 0
-8.317894 0.378086 32.948680 197 197 197 0
-8.095248 0.373627 32.560073 198 198 198 0
-7.923091 0.371395 32.365568 198 198 198 0
-7.917134 0.377006 32.854586 198 198 198 0
-7.882943 0.381433 33.240326 198 198 198 0
-7.692554 0.378322 32.969264 198 198 198 0
-7.532332 0.376617 32.820617 197 197 197 0
-7.431296 0.377863 32.929195 198 198 198 0
-7.388290 0.382153 33.303085 198 198 198 0
-7.275377 0.382915 33.369461 198 198 198 0
-7.122905 0.381584 33.253526 198 198 198 0
-6.963626 0.379834 33.101013 198 198 198 0
-6.916660 0.384259 33.486614 198 198 198 0
-6.833039 0.386776 33.705950 198 198 198 0
-6.664973 0.384518 33.509165 199 199 199 0
-6.501407 0.382436 33.327728 198 198 198 0
-6.384536 0.383072 33.383195 199 199 199 0
-6.196636 0.379386 33.061953 199 199 199 0
-6.199890 0.387493 33.768464 198 198 198 0
-6.029078 0.384835 33.536801 199 199 199 0
-5.882208 0.383622 33.431132 200 200 200 0
-5.776736 0.385116 33.561285 200 200 200 0
-5.674821 0.386920 33.718486 199 199 199 0
-5.545950 0.386927 33.719108 200 200 200 0
-5.417316 0.386951 33.721234 199 199 199 0
-5.302813 0.388011 33.813570 200 200 200 0
-5.188753 0.389156 33.913416 199 199 199 0
-5.049102 0.388392 33.846836 200 200 200 0
-4.932152 0.389380 33.932935 200 200 200 0
-4.800708 0.389247 33.921270 200 200 200 0
-4.664326 0.388694 33.873104 201 201 201 0
-4.541935 0.389309 33.926684 200 200 200 0
-4.442172 0.391956 34.157419 200 200 200 0
-4.316502 0.392409 34.196885 200 200 200 0
-4.167466 0.390700 34.047926 200 200 200 0
-4.035089 0.390492 34.029842 201 201 201 0
-3.930312 0.393031 34.251085 201 201 201 0
-3.801120 0.393219 34.267476 200 200 200 0
-3.655925 0.391706 34.135616 200 200 200 0
-3.512983 0.390331 34.015815 201 201 201 0
-3.396744 0.391932 34.155289 201 201 201 0
-3.284689 0.394163 34.349689 201 201 201 0
-3.148144 0.393518 34.293505 201 201 201 0
-3.004667 0.391913 34.153642 201 201 201 0
-2.870675 0.391456 34.113780 201 201 201 0
-2.752796 0.393257 34.270726 201 201 201 0
-2.628257 0.394239 34.356297 201 201 201 0
-2.488453 0.392914 34.240838 201 201 201 0
-2.353539 0.392256 34.183569 201 201 201 0
-2.237367 0.394830 34.407801 202 202 202 0
-2.116608 0.396864 34.585100 201 201 201 0
-1.976637 0.395327 34.451183 202 202 202 0
-1.835085 0.393233 34.268629 202 202 202 0
-1.711492 0.394960 34.419146 202 202 202 0
-1.589433 0.397358 34.628161 201 201 201 0
-1.450422 0.395570 34.472300 202 202 202 0
-1.310434 0.393130 34.259714 202 202 202 0
-1.180610 0.393537 34.295147 202 202 202 0
-1.057618 0.396607 34.562693 203 203 203 0
-0.924387 0.396166 34.524252 202 202 202 0
-0.789519 0.394759 34.401684 202 202 202 0
-0.658802 0.395281 34.447164 202 202 202 0
-0.529157 0.396868 34.585421 202 202 202 0
-0.396396 0.396396 34.544272 202 202 202 0
-0.263826 0.395739 34.487052 203 203 203 0
-0.131702 0.395106 34.431885 203 203 203 0
0.000000 0.396001 34.509891 203 203 203 0
0.132325 0.396974 34.594687 203 203 203 0
0.264601 0.396902 34.588405 202 202 202 0
0.397258 0.397258 34.619474 202 202 202 0
0.529116 0.396837 34.582713 203 203 203 0
0.661514 0.396908 34.588973 203 203 203 0
0.796241 0.398120 34.694594 203 203 203 0
0.926801 0.397200 34.614414 203 203 203 0
1.057345 0.396504 34.553762 203 203 203 0
1.189329 0.396443 34.548420 203 203 203 0
1.324686 0.397406 34.632311 203 203 203 0
1.458289 0.397715 34.659263 203 203 203 0
1.592200 0.398050 34.688442 203 203 203 0
1.720370 0.397008 34.597684 204 204 204 0
1.852683 0.397004 34.597259 204 204 204 0
1.991125 0.398225 34.703708 203 203 203 0
2.126010 0.398627 34.738720 203 203 203 0
2.252498 0.397500 34.640498 204 204 204 0
2.384667 0.397444 34.635681 204 204 204 0
2.532261 0.399831 34.843627 204 204 204 0
2.661587 0.399238 34.791990 204 204 204 0
2.786166 0.398024 34.686161 204 204 204 0
2.916788 0.397744 34.661766 204 204 204 0
3.069434 0.400361 34.889838 204 204 204 0
3.194968 0.399371 34.803573 203 203 203 0
3.314892 0.397787 34.665541 204 204 204 0
3.439670 0.396885 34.586930 204 204 204 0
3.592073 0.399119 34.781630 204 204 204 0
3.729300 0.399568 34.820727 205 205 205 0
3.851529 0.398434 34.721921 204 204 204 0
3.984397 0.398440 34.722413 204 204 204 0
4.133321 0.399999 34.858283 204 204 204 0
4.269032 0.400222 34.877709 204 204 204 0
4.395689 0.399608 34.824232 204 204 204 0
4.520553 0.398872 34.760118 205 205 205 0
4.670445 0.400324 34.886614 204 204 204 0
4.814224 0.401185 34.961687 204 204 204 0
4.937120 0.400307 34.885147 205 205 205 0
5.054632 0.399050 34.775589 204 204 204 0
5.205048 0.400388 34.892230 204 204 204 0
5.346843 0.401013 34.946687 205 205 205 0
5.464771 0.399861 34.846299 204 204 204 0
5.587365 0.399098 34.779739 205 205 205 0
5.724638 0.399393 34.805521 204 204 204 0
5.866927 0.400018 34.859937 204 204 204 0
5.998881 0.399925 34.851885 204 204 204 0
6.124414 0.399418 34.807693 205 205 205 0
6.262768 0.399751 34.836700 205 205 205 0
6.397874 0.399867 34.846809 204 204 204 0
6.530536 0.399829 34.843460 205 205 205 0
6.672953 0.400377 34.891256 205 205 205 0
6.798635 0.399920 34.851393 205 205 205 0
6.931296 0.399882 34.848145 204 204 204 0
7.085315 0.401056 34.950376 205 205 205 0
7.217368 0.400965 34.942472 206 206 206 0
7.336818 0.400190 34.874952 205 205 205 0
7.469682 0.400162 34.872466 206 206 206 0
7.627349 0.401439 34.983825 205 205 205 0
7.746583 0.400685 34.918110 205 205 205 0
7.862742 0.399800 34.840997 205 205 205 0
7.983137 0.399157 34.784911 205 205 205 0
8.148644 0.400753 34.924008 205 205 205 0
8.288601 0.401061 34.950881 205 205 205 0
8.402824 0.400134 34.870105 205 205 205 0
8.529488 0.399820 34.842682 206 206 206 0
8.680438 0.400636 34.913780 205 205 205 0
8.819434 0.400883 34.935371 205 205 205 0
8.928686 0.399792 34.840253 205 205 205 0
9.065403 0.399944 34.853530 205 205 205 0
9.237312 0.401622 34.999760 205 205 205 0
9.370913 0.401611 34.998741 206 206 206 0
9.475900 0.400390 34.892385 205 205 205 0
9.615594 0.400650 34.915010 206 206 206 0
9.772670 0.401617 34.999264 205 205 205 0
9.892729 0.401057 34.950466 206 206 206 0
10.001385 0.400055 34.863214 205 205 205 0
10.132583 0.399970 34.855806 206 206 206 0
10.304213 0.401463 34.985869 206 206 206 0
10.415921 0.400612 34.911751 206 206 206 0
10.552891 0.400743 34.923111 206 206 206 0
-9.761945 0.488097 31.901780 197 197 197 0
-9.521009 0.482076 31.508261 196 196 196 0
-9.399052 0.482003 31.503443 196 196 196 0
-9.285073 0.482341 31.525584 196 196 196 0
-9.328853 0.490992 32.090997 196 196 196 0
-9.283314 0.495110 32.360134 196 196 196 0
-9.088880 0.491291 32.110510 197 197 197 0
-8.923056 0.488935 31.956510 197 197 197 0
-8.995818 0.499768 32.664552 197 197 197 0
-8.952098 0.504344 32.963631 196 196 196 0
-8.724444 0.498540 32.584290 197 197 197 0
-8.521142 0.493979 32.286225 197 197 197 0
-8.414401 0.494965 32.350639 197 197 197 0
-8.504653 0.507740 33.185653 197 197 197 0
-8.316657 0.504040 32.943779 197 197 197 0
-8.096445 0.498243 32.564887 197 197 197 0
-7.926227 0.495389 32.378380 197 197 197 0
-7.916940 0.502663 32.853780 198 198 198 0
-7.891376 0.509121 33.275885 197 197 197 0
-7.700528 0.504953 33.003443 198 198 198 0
-7.532102 0.502140 32.819616 197 197 197 0
-7.439330 0.504361 32.964795 198 198 198 0
-7.404599 0.510662 33.376599 198 198 198 0
-7.274800 0.510512 33.366814 198 198 198 0
-7.120722 0.508623 33.243334 198 198 198 0
-6.971115 0.506990 33.136613 199 199 199 0
-6.916417 0.512327 33.485439 199 199 199 0
-6.830974 0.515545 33.695767 198 198 198 0
-6.674048 0.513388 33.554791 198 198 198 0
-6.504999 0.510196 33.346144 198 198 198 0
-6.383279 0.510662 33.376625 199 199 199 0
-6.195682 0.505770 33.056858 199 199 199 0
-6.210802 0.517567 33.827899 199 199 199 0
-6.029169 0.513121 33.537302 200 200 200 0
-5.881263 0.511414 33.425762 199 199 199 0
-5.774243 0.513266 33.546798 199 199 199 0
-5.675090 0.515917 33.720085 199 199 199 0
-5.544407 0.515759 33.709722 199 199 199 0
-5.414085 0.515627 33.701122 199 199 199 0
-5.301906 0.517259 33.807786 200 200 200 0
-5.176828 0.517683 33.835474 200 200 200 0
-5.046289 0.517568 33.827982 200 200 200 0
-4.929040 0.518846 33.911522 200 200 200 0
-4.800964 0.519023 33.923083 200 200 200 0
-4.663587 0.518176 33.867734 200 200 200 0
-4.541176 0.518992 33.921018 200 200 200 0
-4.439800 0.522329 34.139178 199 199 199 0
-4.313351 0.522830 34.171920 201 201 201 0
-4.166560 0.520820 34.040519 200 200 200 0
-4.032043 0.520264 34.004162 200 200 200 0
-3.932452 0.524327 34.269734 200 200 200 0
-3.801817 0.524388 34.273758 200 200 200 0
-3.657003 0.522429 34.145683 201 201 201 0
-3.512054 0.520304 34.006819 201 201 201 0
-3.399270 0.522965 34.180690 200 200 200 0
-3.283626 0.525380 34.338578 200 200 200 0
-3.146698 0.524450 34.277759 201 201 201 0
-3.005476 0.522691 34.162837 201 201 201 0
-2.872461 0.522266 34.135009 201 201 201 0
-2.753103 0.524401 34.274544 201 201 201 0
-2.628053 0.525611 34.353638 201 201 201 0
-2.489549 0.524116 34.255919 201 201 201 0
-2.353289 0.522953 34.179943 201 201 201 0
-2.237933 0.526572 34.416502 201 201 201 0
-2.116415 0.529104 34.581936 201 201 201 0
-1.974443 0.526518 34.412955 201 201 201 0
-1.834981 0.524280 34.266694 201 201 201 0
-1.710998 0.526461 34.409218 202 202 202 0
-1.590278 0.530093 34.646580 202 202 202 0
-1.449900 0.527236 34.459887 201 201 201 0
-1.311853 0.524741 34.296803 202 202 202 0
-1.180505 0.524669 34.292098 202 202 202 0
-1.058077 0.529038 34.577672 202 202 202 0
-0.924512 0.528293 34.528928 201 201 201 0
-0.790022 0.526681 34.423608 202 202 202 0
-0.659008 0.527206 34.457920 202 202 202 0
-0.528992 0.528992 34.574672 202 202 202 0
-0.396700 0.528933 34.570793 203 203 203 0
-0.263879 0.527757 34.493949 203 203 203 0
-0.131752 0.527010 34.445070 202 202 202 0
0.000000 0.527883 34.502135 202 202 202 0
0.132436 0.529745 34.623836 202 202 202 0
0.264652 0.529304 34.595001 203 203 203 0
0.397344 0.529792 34.626955 203 203 203 0
0.529429 0.529429 34.603212 203 203 203 0
0.661517 0.529213 34.589104 203 203 203 0
0.795684 0.530456 34.670320 202 202 202 0
0.926111 0.529206 34.588644 203 203 203 0
1.057706 0.528853 34.565555 203 203 203 0
1.189556 0.528691 34.554996 203 203 203 0
1.325134 0.530054 34.644024 203 203 203 0
1.459336 0.530668 34.684158 202 202 202 0
1.592472 0.530824 34.694380 203 203 203 0
1.720650 0.529431 34.603317 204 204 204 0
1.852952 0.529415 34.602279 202 202 202 0
1.990151 0.530707 34.686724 204 204 204 0
2.124648 0.531162 34.716472 203 203 203 0
2.253451 0.530224 34.655142 204 204 204 0
2.384532 0.529896 34.633726 203 203 203 0
2.532680 0.533196 34.849399 204 204 204 0
2.661396 0.532279 34.789486 203 203 203 0
2.784095 0.530304 34.660376 204 204 204 0
2.916940 0.530353 34.663580 203 203 203 0
3.069965 0.533907 34.895875 204 204 204 0
3.195414 0.532569 34.808437 204 204 204 0
3.316170 0.530587 34.678900 204 204 204 0
3.440245 0.529268 34.592705 204 204 204 0
3.592390 0.532206 34.784704 204 204 204 0
3.730673 0.532953 34.833547 204 204 204 0
3.852027 0.531314 34.726406 204 204 204 0
3.984999 0.531333 34.727658 203 203 203 0
4.135726 0.533642 34.878569 205 205 205 0
4.268360 0.533545 34.872225 204 204 204 0
4.394581 0.532677 34.815460 204 204 204 0
4.523691 0.532199 34.784241 204 204 204 0
4.671675 0.533906 34.895802 204 204 204 0
4.816151 0.535128 34.975677 205 205 205 0
4.937484 0.533782 34.887715 205 205 205 0
5.057973 0.532418 34.798577 204 204 204 0
5.205177 0.533864 34.893093 204 204 204 0
5.347074 0.534707 34.948198 205 205 205 0
5.465162 0.533187 34.848792 204 204 204 0
5.585682 0.531970 34.769264 205 205 205 0
5.721345 0.532218 34.785501 204 204 204 0
5.867692 0.533427 34.864477 204 204 204 0
5.997757 0.533134 34.845356 205 205 205 0
6.126931 0.532777 34.821998 205 205 205 0
6.263858 0.533094 34.842766 205 205 205 0
6.396299 0.533025 34.838232 204 204 204 0
6.527875 0.532888 34.829263 204 204 204 0
6.670598 0.533648 34.878946 204 204 204 0
6.798226 0.533194 34.849293 205 205 205 0
6.929881 0.533068 34.841031 205 205 205 0
7.081612 0.534461 34.932108 204 204 204 0
7.216917 0.534586 34.940288 205 205 205 0
7.337929 0.533668 34.880233 205 205 205 0
7.466145 0.533296 34.855952 205 205 205 0
7.626492 0.535192 34.979896 204 204 204 0
7.749083 0.534420 34.929382 205 205 205 0
7.861827 0.533005 34.836943 205 205 205 0
7.986355 0.532424 34.798931 204 204 204 0
8.148108 0.534302 34.921711 205 205 205 0
8.287354 0.534668 34.945621 206 206 206 0
8.404783 0.533637 34.878235 205 205 205 0
8.531731 0.533233 34.851843 205 205 205 0
8.678090 0.534036 34.904332 205 205 205 0
8.815662 0.534283 34.920429 205 205 205 0
8.930760 0.533180 34.848346 206 206 206 0
9.067250 0.533368 34.860631 206 206 206 0
9.237276 0.535494 34.999625 206 206 206 0
9.370863 0.535478 34.998554 205 205 205 0
9.477799 0.533961 34.899380 205 205 205 0
9.613861 0.534103 34.908719 205 205 205 0
9.772648 0.535488 34.999186 205 205 205 0
9.890642 0.534629 34.943091 206 206 206 0
9.999344 0.533298 34.856103 205 205 205 0
10.134373 0.533388 34.861965 205 205 205 0
10.306449 0.535400 34.993460 206 206 206 0
10.410805 0.533887 34.894602 205 205 205 0
10.553597 0.534359 34.925446 206 206 206 0
-9.761688 0.610105 31.900941 195 195 195 0
-9.517184 0.602353 31.495604 196 196 196 0
-9.408954 0.603138 31.536632 196 196 196 0
-9.278009 0.602468 31.501601 196 196 196 0
-9.313025 0.612699 32.036549 196 196 196 0
-9.287721 0.619181 32.375497 196 196 196 0
-9.090475 0.614221 32.116145 196 196 196 0
-8.924130 0.611242 31.960356 196 196 196 0
-8.990803 0.624361 32.646345 197 197 197 0
-8.939660 0.629554 32.917832 196 196 196 0
-8.726977 0.623356 32.593752 197 197 197 0
-8.522004 0.617537 32.289492 197 197 197 0
-8.415441 0.618782 32.354637 197 197 197 0
-8.510415 0.635106 33.208135 196 196 196 0
-8.323012 0.630531 32.968952 197 197 197 0
-8.096797 0.622831 32.566303 197 197 197 0
-7.929921 0.619525 32.393466 197 197 197 0
-7.913146 0.628027 32.838035 198 198 198 0
-7.887345 0.636076 33.258888 198 198 198 0
-7.692765 0.630554 32.970169 198 198 198 0
-7.523354 0.626946 32.781497 198 198 198 0
-7.443436 0.630800 32.982987 197 197 197 0
-7.392707 0.637302 33.322998 198 198 198 0
-7.286149 0.639136 33.418868 198 198 198 0
-7.122506 0.635938 33.251664 198 198 198 0
-6.967032 0.633367 33.117206 198 198 198 0
-6.917920 0.640548 33.492716 198 198 198 0
-6.836063 0.644912 33.720870 199 199 199 0
-6.677921 0.642108 33.574264 198 198 198 0
-6.516217 0.638845 33.403650 199 199 199 0
-6.373743 0.637374 33.326762 199 199 199 0
-6.160300 0.628602 32.868078 198 198 198 0
-6.202511 0.646095 33.782737 198 198 198 0
-6.036725 0.642205 33.579336 198 198 198 0
-5.885629 0.639742 33.450577 199 199 199 0
-5.774773 0.641641 33.549878 199 199 199 0
-5.676237 0.645027 33.726895 199 199 199 0
-5.544861 0.644751 33.712485 199 199 199 0
-5.416004 0.644762 33.713067 200 200 200 0
-5.300715 0.646429 33.800189 200 200 200 0
-5.179580 0.647448 33.853467 199 199 199 0
-5.041423 0.646336 33.795363 199 199 199 0
-4.922823 0.647740 33.868755 200 200 200 0
-4.794288 0.647877 33.875908 200 200 200 0
-4.667938 0.648325 33.899334 200 200 200 0
-4.542028 0.648861 33.927384 199 199 199 0
-4.439649 0.652890 34.138019 200 200 200 0
-4.313223 0.653519 34.170909 200 200 200 0
-4.164903 0.650766 34.026988 200 200 200 0
-4.032551 0.650411 34.008442 200 200 200 0
-3.927420 0.654570 34.225878 200 200 200 0
-3.800634 0.655282 34.263100 200 200 200 0
-3.660016 0.653574 34.173819 201 201 201 0
-3.514367 0.650809 34.029210 200 200 200 0
-3.395853 0.653049 34.146330 201 201 201 0
-3.284927 0.656985 34.352174 201 201 201 0
-3.147709 0.655773 34.288772 201 201 201 0
-3.004718 0.653199 34.154222 201 201 201 0
-2.870789 0.652452 34.115142 201 201 201 0
-2.753692 0.655641 34.281876 200 200 200 0
-2.630254 0.657564 34.382408 201 201 201 0
-2.487473 0.654598 34.227361 201 201 201 0
-2.353417 0.653727 34.181800 201 201 201 0
-2.236314 0.657739 34.391602 201 201 201 0
-2.116708 0.661471 34.586725 201 201 201 0
-1.975533 0.658511 34.431954 201 201 201 0
-1.834461 0.655165 34.256973 201 201 201 0
-1.711407 0.658233 34.417434 202 202 202 0
-1.590271 0.662613 34.646438 202 202 202 0
-1.450526 0.659330 34.474763 202 202 202 0
-1.312530 0.656265 34.314519 202 202 202 0
-1.180675 0.655931 34.297036 202 202 202 0
-1.057014 0.660633 34.542928 201 201 201 0
-0.924727 0.660519 34.536946 202 202 202 0
-0.789919 0.658266 34.419116 202 202 202 0
-0.658519 0.658519 34.432372 201 201 201 0
-0.529268 0.661585 34.592681 202 202 202 0
-0.396667 0.661111 34.567904 202 202 202 0
-0.264061 0.660154 34.517840 203 203 203 0
-0.131702 0.658509 34.431843 203 203 203 0
0.000000 0.659889 34.503987 203 203 203 0
0.132327 0.661634 34.595265 203 203 203 0
0.264567 0.661419 34.583986 203 203 203 0
0.397045 0.661742 34.600873 203 203 203 0
0.529567 0.661959 34.612231 203 203 203 0
0.661892 0.661892 34.608730 203 203 203 0
0.795693 0.663078 34.670722 203 203 203 0
0.926820 0.662014 34.615129 203 203 203 0
1.057263 0.660790 34.551091 203 203 203 0
1.189647 0.660915 34.557653 203 203 203 0
1.323879 0.661939 34.611210 202 202 202 0
1.458692 0.663042 34.668864 203 203 203 0
1.592938 0.663724 34.704527 203 203 203 0
1.721750 0.662211 34.625432 203 203 203 0
1.852790 0.661711 34.599245 203 203 203 0
1.989734 0.663245 34.679463 203 203 203 0
2.125115 0.664098 34.724096 203 203 203 0
2.253759 0.662870 34.659886 203 203 203 0
2.383176 0.661993 34.614024 204 204 204 0
2.531187 0.666102 34.828859 204 204 204 0
2.661378 0.665344 34.789252 203 203 203 0
2.785081 0.663114 34.672650 204 204 204 0
2.917192 0.662998 34.666570 204 204 204 0
3.071122 0.667635 34.909033 204 204 204 0
3.194283 0.665476 34.796115 203 203 203 0
3.316273 0.663255 34.679980 203 203 203 0
3.440375 0.661611 34.594015 204 204 204 0
3.593441 0.665452 34.794878 204 204 204 0
3.730112 0.666092 34.828314 204 204 204 0
3.851834 0.664109 34.724667 203 203 203 0
3.982424 0.663737 34.705217 204 204 204 0
4.132080 0.666465 34.847817 204 204 204 0
4.270133 0.667208 34.886706 204 204 204 0
4.393734 0.665717 34.808744 204 204 204 0
4.524527 0.665372 34.790674 204 204 204 0
4.669251 0.667036 34.877694 204 204 204 0
4.816916 0.669016 34.981232 204 204 204 0
4.935953 0.667021 34.876898 204 204 204 0
5.057819 0.665503 34.797516 204 204 204 0
5.203674 0.667138 34.883018 205 205 205 0
5.346999 0.668375 34.947704 205 205 205 0
5.464059 0.666349 34.841759 205 205 205 0
5.588504 0.665298 34.786831 205 205 205 0
5.722624 0.665421 34.793273 204 204 204 0
5.866464 0.666644 34.857184 204 204 204 0
5.998712 0.666524 34.850902 204 204 204 0
6.127033 0.665982 34.822583 204 204 204 0
6.265086 0.666499 34.849598 204 204 204 0
6.398014 0.666460 34.847572 205 205 205 0
6.528373 0.666160 34.831921 205 205 205 0
6.671254 0.667125 34.882373 205 205 205 0
6.800925 0.666757 34.863131 205 205 205 0
6.931288 0.666470 34.848104 205 205 205 0
7.081946 0.668108 34.933757 205 205 205 0
7.216276 0.668174 34.937188 205 205 205 0
7.335058 0.666823 34.866585 205 205 205 0
7.465842 0.666593 34.854538 204 204 204 0
7.627804 0.669106 34.985916 205 205 205 0
7.745108 0.667682 34.911463 205 205 205 0
7.857058 0.665852 34.815808 204 204 204 0
7.985051 0.665421 34.793249 205 205 205 0
8.148901 0.667943 34.925109 205 205 205 0
8.285824 0.668212 34.939171 205 205 205 0
8.402480 0.666863 34.868678 205 205 205 0
8.528636 0.666300 34.839198 205 205 205 0
8.681241 0.667788 34.917009 205 205 205 0
8.818425 0.668062 34.931371 205 205 205 0
8.929868 0.666408 34.844867 205 205 205 0
9.066150 0.666629 34.856401 205 205 205 0
9.237314 0.669371 34.999771 205 205 205 0
9.368431 0.669174 34.989471 205 205 205 0
9.472805 0.667099 34.880990 206 206 206 0
9.611299 0.667451 34.899414 206 206 206 0
9.772648 0.669359 34.999186 205 205 205 0
9.894463 0.668545 34.956590 205 205 205 0
10.003295 0.666886 34.869875 206 206 206 0
10.138757 0.667023 34.877044 205 205 205 0
10.301970 0.668959 34.978252 205 205 205 0
10.411120 0.667379 34.895660 205 205 205 0
10.557290 0.668183 34.937670 205 205 205 0
-9.750058 0.731254 31.862934 196 196 196 0
-9.527130 0.723579 31.528518 196 196 196 0
-9.426279 0.725098 31.594702 196 196 196 0
-9.289235 0.723836 31.539715 197 197 197 0
-9.351708 0.738293 32.169620 197 197 197 0
-9.286471 0.742918 32.371139 196 196 196 0
-9.089380 0.736977 32.112278 196 196 196 0
-8.923424 0.733432 31.957828 197 197 197 0
-8.994583 0.749549 32.660068 197 197 197 0
-8.945653 0.755971 32.939900 197 197 197 0
-8.728860 0.748188 32.600786 196 196 196 0
-8.525951 0.741387 32.304447 197 197 197 0
-8.416527 0.742635 32.358812 197 197 197 0
-8.506946 0.761816 33.194599 197 197 197 0
-8.331751 0.757432 33.003567 197 197 197 0
-8.097346 0.747447 32.568512 197 197 197 0
-7.923771 0.742853 32.368344 197 197 197 0
-7.910587 0.753389 32.827418 198 198 198 0
-7.887612 0.763317 33.260014 198 198 198 0
-7.702036 0.757577 33.009906 198 198 198 0
-7.527586 0.752759 32.799940 198 198 198 0
-7.445920 0.757212 32.993998 198 198 198 0
-7.397690 0.765278 33.345459 199 199 199 0
-7.272572 0.765534 33.356597 198 198 198 0
-7.114274 0.762244 33.213230 198 198 198 0
-6.969672 0.760328 33.129753 198 198 198 0
-6.920750 0.768972 33.506415 198 198 198 0
-6.836253 0.773915 33.721806 199 199 199 0
-6.671079 0.769740 33.539862 199 199 199 0
-6.500309 0.764742 33.322101 198 198 198 0
-6.375587 0.765070 33.336402 198 198 198 0
-6.115022 0.748778 32.626503 199 199 199 0
-6.213844 0.776730 33.844464 199 199 199 0
-6.029154 0.769679 33.537219 199 199 199 0
-5.880877 0.767071 33.423570 199 199 199 0
-5.775073 0.770010 33.551620 199 199 199 0
-5.676820 0.774112 33.730365 200 200 200 0
-5.544630 0.773669 33.711080 199 199 199 0
-5.416449 0.773778 33.715836 200 200 200 0
-5.298250 0.775354 33.784475 200 200 200 0
-5.177328 0.776599 33.838744 199 199 199 0
-5.045347 0.776207 33.821663 200 200 200 0
-4.923656 0.777419 33.874484 199 199 199 0
-4.799169 0.778244 33.910400 200 200 200 0
-4.668937 0.778156 33.906586 200 200 200 0
-4.541237 0.778498 33.921468 200 200 200 0
-4.442366 0.783947 34.158905 201 201 201 0
-4.315695 0.784672 34.190493 200 200 200 0
-4.166435 0.781207 34.039505 200 200 200 0
-4.033151 0.780610 34.013506 200 200 200 0
-3.927301 0.785460 34.224841 201 201 201 0
-3.801759 0.786571 34.273239 200 200 200 0
-3.656227 0.783477 34.138437 200 200 200 0
-3.512990 0.780665 34.015883 200 200 200 0
-3.395065 0.783477 34.138412 201 201 201 0
-3.282566 0.787816 34.327487 201 201 201 0
-3.147637 0.786909 34.287982 200 200 200 0
-3.005263 0.783982 34.160422 201 201 201 0
-2.870748 0.782931 34.114655 201 201 201 0
-2.753652 0.786758 34.281381 201 201 201 0
-2.629645 0.788893 34.374444 201 201 201 0
-2.487544 0.785540 34.228335 201 201 201 0
-2.354346 0.784782 34.195301 201 201 201 0
-2.234934 0.788800 34.370383 201 201 201 0
-2.116864 0.793824 34.589276 201 201 201 0
-1.974908 0.789963 34.421058 201 201 201 0
-1.834714 0.786306 34.261705 201 201 201 0
-1.711819 0.790070 34.425717 202 202 202 0
-1.589786 0.794893 34.635856 202 202 202 0
-1.450677 0.791278 34.478356 202 202 202 0
-1.311991 0.787194 34.300408 202 202 202 0
-1.181509 0.787673 34.321259 202 202 202 0
-1.057429 0.793072 34.556495 202 202 202 0
-0.924642 0.792550 34.533790 202 202 202 0
-0.789879 0.789879 34.417368 202 202 202 0
-0.658209 0.789851 34.416167 202 202 202 0
-0.529390 0.794085 34.600659 202 202 202 0
-0.396573 0.793146 34.559752 203 203 203 0
-0.264008 0.792023 34.510827 203 203 203 0
-0.131700 0.790197 34.431254 203 203 203 0
0.000000 0.791773 34.499892 202 202 202 0
0.132324 0.793943 34.594453 202 202 202 0
0.264419 0.793258 34.564630 202 202 202 0
0.397033 0.794067 34.599856 202 202 202 0
0.529461 0.794191 34.605275 203 203 203 0
0.661638 0.793966 34.595468 203 203 203 0
0.795619 0.795619 34.667498 203 203 203 0
0.926956 0.794533 34.620189 203 203 203 0
1.057585 0.793189 34.561614 203 203 203 0
1.189874 0.793249 34.564229 203 203 203 0
1.325205 0.795123 34.645880 203 203 203 0
1.458543 0.795569 34.665318 203 203 203 0
1.593581 0.796790 34.718534 203 203 203 0
1.721241 0.794419 34.615209 203 203 203 0
1.852382 0.793878 34.591631 203 203 203 0
1.989802 0.795921 34.680645 204 204 204 0
2.126213 0.797330 34.742048 203 203 203 0
2.252363 0.794952 34.638411 203 203 203 0
2.385366 0.795122 34.645840 204 204 204 0
2.531016 0.799268 34.826503 204 204 204 0
2.660674 0.798202 34.780048 204 204 204 0
2.785451 0.795843 34.677267 203 203 203 0
2.917287 0.795624 34.667701 204 204 204 0
3.071886 0.801362 34.917720 204 204 204 0
3.194554 0.798639 34.799067 203 203 203 0
3.316028 0.795847 34.677416 204 204 204 0
3.439891 0.793821 34.589155 203 203 203 0
3.592545 0.798343 34.786206 204 204 204 0
3.728973 0.799066 34.817671 204 204 204 0
3.851303 0.796821 34.719881 204 204 204 0
3.982708 0.796542 34.707698 205 205 205 0
4.132433 0.799826 34.850791 204 204 204 0
4.269006 0.800439 34.877503 204 204 204 0
4.395222 0.799131 34.820535 204 204 204 0
4.522911 0.798161 34.778244 204 204 204 0
4.668879 0.800379 34.874910 204 204 204 0
4.815325 0.802554 34.969679 204 204 204 0
4.937811 0.800726 34.890029 204 204 204 0
5.059303 0.798837 34.807723 204 204 204 0
5.205753 0.800885 34.896956 204 204 204 0
5.348715 0.802307 34.958922 204 204 204 0
5.461972 0.799313 34.828451 205 205 205 0
5.588090 0.798299 34.784252 205 205 205 0
5.723300 0.798600 34.797388 204 204 204 0
5.866961 0.800040 34.860134 204 204 204 0
5.999858 0.799981 34.857565 205 205 205 0
6.128078 0.799315 34.828519 205 205 205 0
6.263935 0.799651 34.843190 204 204 204 0
6.398913 0.799864 34.852469 205 205 205 0
6.528208 0.799372 34.831043 205 205 205 0
6.671350 0.800562 34.882875 204 204 204 0
6.798887 0.799869 34.852680 205 205 205 0
6.931893 0.799834 34.851145 205 205 205 0
7.081228 0.801648 34.930215 205 205 205 0
7.214993 0.801666 34.930977 205 205 205 0
7.333631 0.800032 34.859802 205 205 205 0
7.464186 0.799734 34.846805 205 205 205 0
7.623249 0.802447 34.965020 205 205 205 0
7.747906 0.801508 34.924076 205 205 205 0
7.860129 0.799335 34.829417 205 205 205 0
7.985829 0.798583 34.796641 204 204 204 0
8.146889 0.801333 34.916485 206 206 206 0
8.288461 0.802109 34.950287 206 206 206 0
8.402312 0.800220 34.867981 205 205 205 0
8.530938 0.799775 34.848603 204 204 204 0
8.679858 0.801218 34.911444 205 205 205 0
8.816870 0.801534 34.925213 205 205 205 0
8.929766 0.799680 34.844466 205 205 205 0
9.067024 0.800032 34.859761 205 205 205 0
9.237330 0.803246 34.999829 205 205 205 0
9.371124 0.803239 34.999530 205 205 205 0
9.476348 0.800818 34.894036 206 206 206 0
9.612528 0.801044 34.903878 205 205 205 0
9.772609 0.803228 34.999049 206 206 206 0
9.894184 0.802231 34.955606 205 205 205 0
10.003159 0.800253 34.869399 205 205 205 0
10.136130 0.800221 34.868009 205 205 205 0
10.306586 0.803111 34.993926 205 205 205 0
10.412750 0.800981 34.901123 205 205 205 0
10.554809 0.801631 34.929458 206 206 206 0
-9.765618 0.854492 31.913785 196 196 196 0
-9.533424 0.844734 31.549346 196 196 196 0
-9.412536 0.844715 31.548637 196 196 196 0
-9.282643 0.843877 31.517336 196 196 196 0
-9.347164 0.860923 32.153987 197 197 197 0
-9.290257 0.867091 32.384338 196 196 196 0
-9.099323 0.860747 32.147406 196 196 196 0
-8.914240 0.854790 31.924934 197 197 197 0
-8.985245 0.873565 32.626161 197 197 197 0
-8.950953 0.882488 32.959413 197 197 197 0
-8.721431 0.872143 32.573037 197 197 197 0
-8.531619 0.865527 32.325923 197 197 197 0
-8.402310 0.864944 32.304152 197 197 197 0
-8.509638 0.889067 33.205104 197 197 197 0
-8.322828 0.882724 32.968224 197 197 197 0
-8.105174 0.872865 32.599998 197 197 197 0
-7.922182 0.866489 32.361855 197 197 197 0
-7.913309 0.879257 32.838712 198 198 198 0
-7.886106 0.890367 33.253662 198 198 198 0
-7.704241 0.884093 33.019356 198 198 198 0
-7.537857 0.879417 32.844693 197 197 197 0
-7.441836 0.882930 32.975901 198 198 198 0
-7.393240 0.892288 33.325402 198 198 198 0
-7.276907 0.893655 33.376481 198 198 198 0
-7.116388 0.889548 33.223100 198 198 198 0
-6.977306 0.888021 33.166041 198 198 198 0
-6.917281 0.896685 33.489621 199 199 199 0
-6.837861 0.903114 33.729736 198 198 198 0
-6.676239 0.898724 33.565806 198 198 198 0
-6.505635 0.892930 33.349403 198 198 198 0
-6.381860 0.893460 33.369200 198 198 198 0
-6.123630 0.874804 32.672428 198 198 198 0
-6.206881 0.905170 33.806540 199 199 199 0
-6.034157 0.898704 33.565053 199 199 199 0
-5.886712 0.895804 33.456729 200 200 200 0
-5.774406 0.898241 33.547747 199 199 199 0
-5.679113 0.903495 33.743985 199 199 199 0
-5.548337 0.903218 33.733622 200 200 200 0
-5.415835 0.902639 33.712011 200 200 200 0
-5.293351 0.903743 33.753236 199 199 199 0
-5.173921 0.905436 33.816478 200 200 200 0
-5.044456 0.905415 33.815691 200 200 200 0
-4.925990 0.907419 33.890539 199 199 199 0
-4.794577 0.907082 33.877950 199 199 199 0
-4.664784 0.907041 33.876425 200 200 200 0
-4.540390 0.908078 33.915147 199 199 199 0
-4.436489 0.913395 34.113715 200 200 200 0
-4.317374 0.915807 34.203797 201 201 201 0
-4.167390 0.911616 34.047300 201 201 201 0
-4.032708 0.910611 34.009765 200 200 200 0
-3.927852 0.916499 34.229644 200 200 200 0
-3.799573 0.917138 34.253534 201 201 201 0
-3.656380 0.914095 34.139872 200 200 200 0
-3.513934 0.911020 34.025025 201 201 201 0
-3.394915 0.914016 34.136906 201 201 201 0
-3.283558 0.919396 34.337859 201 201 201 0
-3.148464 0.918302 34.296990 201 201 201 0
-3.005536 0.914728 34.163518 201 201 201 0
-2.870706 0.913406 34.114151 201 201 201 0
-2.753042 0.917681 34.273783 201 201 201 0
-2.628279 0.919898 34.356585 201 201 201 0
-2.488974 0.916990 34.248002 201 201 201 0
-2.354393 0.915597 34.195972 201 201 201 0
-2.237428 0.921294 34.408739 201 201 201 0
-2.117049 0.926209 34.592306 201 201 201 0
-1.974985 0.921660 34.422401 201 201 201 0
-1.833874 0.916937 34.246019 202 202 202 0
-1.712028 0.921861 34.429915 202 202 202 0
-1.591293 0.928254 34.668689 202 202 202 0
-1.450234 0.922876 34.467825 202 202 202 0
-1.312662 0.918864 34.317966 201 201 201 0
-1.180920 0.918493 34.304127 202 202 202 0
-1.056755 0.924660 34.534468 202 202 202 0
-0.924180 0.924180 34.516540 201 201 201 0
-0.789774 0.921403 34.412816 202 202 202 0
-0.657487 0.920482 34.378399 202 202 202 0
-0.528645 0.925128 34.551949 202 202 202 0
-0.396436 0.925017 34.547781 202 202 202 0
-0.263634 0.922720 34.461994 202 202 202 0
-0.131643 0.921503 34.416527 202 202 202 0
0.000000 0.923565 34.493568 202 202 202 0
0.132364 0.926549 34.604991 202 202 202 0
0.264626 0.926191 34.591642 203 203 203 0
0.396885 0.926066 34.586949 202 202 202 0
0.529234 0.926159 34.590427 203 203 203 0
0.662099 0.926939 34.619566 203 203 203 0
0.795816 0.928451 34.676060 203 203 203 0
0.926571 0.926571 34.605823 203 203 203 0
1.057903 0.925665 34.572003 203 203 203 0
1.189683 0.925309 34.558701 203 203 203 0
1.324113 0.926879 34.617326 203 203 203 0
1.459265 0.928623 34.682467 203 203 203 0
1.592484 0.928949 34.694636 202 202 202 0
1.721466 0.926943 34.619736 203 203 203 0
1.854450 0.927225 34.630257 203 203 203 0
1.989371 0.928373 34.673140 203 203 203 0
2.125786 0.930031 34.735068 203 203 203 0
2.252904 0.927667 34.646742 204 204 204 0
2.385470 0.927683 34.647355 204 204 204 0
2.530701 0.932364 34.822172 203 203 203 0
2.661709 0.931598 34.793575 203 203 203 0
2.785430 0.928477 34.676995 204 204 204 0
2.917549 0.928311 34.670818 204 204 204 0
3.070931 0.934631 34.906858 204 204 204 0
3.194754 0.931803 34.801238 204 204 204 0
3.315671 0.928388 34.673684 204 204 204 0
3.442471 0.926819 34.615092 204 204 204 0
3.592055 0.931274 34.781457 203 203 203 0
3.728485 0.932121 34.813122 204 204 204 0
3.851194 0.929598 34.718897 203 203 203 0
3.982725 0.929303 34.707843 204 204 204 0
4.134346 0.933562 34.866927 205 205 205 0
4.270795 0.934236 34.892113 205 205 205 0
4.395944 0.932473 34.826257 204 204 204 0
4.523097 0.931226 34.779681 204 204 204 0
4.671191 0.934238 34.892182 204 204 204 0
4.816478 0.936537 34.978053 204 204 204 0
4.937972 0.934211 34.891163 205 205 205 0
5.057393 0.931625 34.794585 205 205 205 0
5.205530 0.934326 34.895461 204 204 204 0
5.348585 0.936002 34.958070 204 204 204 0
5.464054 0.932887 34.841729 204 204 204 0
5.586365 0.931061 34.773513 204 204 204 0
5.722040 0.931495 34.789726 205 205 205 0
5.866280 0.933272 34.856093 205 205 205 0
6.001121 0.933508 34.864902 204 204 204 0
6.125253 0.932104 34.812462 205 205 205 0
6.263370 0.932842 34.840048 204 204 204 0
6.397028 0.932900 34.842203 204 204 204 0
6.530124 0.932875 34.841267 205 205 205 0
6.671187 0.933966 34.882024 205 205 205 0
6.800287 0.933373 34.859857 205 205 205 0
6.930854 0.933000 34.845923 205 205 205 0
7.082482 0.935422 34.936400 205 205 205 0
7.216118 0.935423 34.936420 204 204 204 0
7.333809 0.933394 34.860648 205 205 205 0
7.465663 0.933208 34.853703 205 205 205 0
7.625649 0.936483 34.976028 204 204 204 0
7.743724 0.934587 34.905224 205 205 205 0
7.861955 0.932774 34.837508 205 205 205 0
7.983533 0.931412 34.786636 205 205 205 0
8.148511 0.935075 34.923437 205 205 205 0
8.284989 0.935402 34.935649 205 205 205 0
8.403868 0.933763 34.874440 205 205 205 0
8.526552 0.932592 34.830686 205 205 205 0
8.675255 0.934258 34.892932 205 205 205 0
8.817329 0.935171 34.927029 205 205 205 0
8.926172 0.932585 34.830445 205 205 205 0
9.063616 0.933019 34.846658 205 205 205 0
9.237330 0.937120 34.999829 206 206 206 0
9.371173 0.937117 34.999714 205 205 205 0
9.473965 0.934053 34.885262 205 205 205 0
9.613927 0.934687 34.908959 205 205 205 0
9.772651 0.937104 34.999198 205 205 205 0
9.892431 0.935770 34.949411 205 205 205 0
10.001077 0.933434 34.862142 205 205 205 0
10.135204 0.933506 34.864824 205 205 205 0
10.306371 0.936943 34.993195 205 205 205 0
10.412380 0.934444 34.899883 205 205 205 0
10.553451 0.935116 34.924964 205 205 205 0
-9.765472 0.976547 31.913307 196 196 196 0
-9.529257 0.964988 31.535558 196 196 196 0
-9.432000 0.967385 31.613878 196 196 196 0
-9.300842 0.966321 31.579127 196 196 196 0
-9.333295 0.982452 32.106279 196 196 196 0
-9.273748 0.989200 32.326792 196 196 196 0
-9.092217 0.982942 32.122300 197 197 197 0
-8.909817 0.976418 31.909094 196 196 196 0
-8.999721 0.999969 32.678727 197 197 197 0
-8.946917 1.008103 32.944554 197 197 197 0
-8.722193 0.996822 32.575884 197 197 197 0
-8.523785 0.988265 32.296240 197 197 197 0
-8.419311 0.990507 32.369516 198 198 198 0
-8.513216 1.016503 33.219067 197 197 197 0
-8.334942 1.010296 33.016208 197 197 197 0
-8.095886 0.996417 32.562637 197 197 197 0
-7.930876 0.991359 32.397369 198 198 198 0
-7.913725 1.004917 32.840439 197 197 197 0
-7.889089 1.017947 33.266241 197 197 197 0
-7.703395 1.010281 33.015729 197 197 197 0
-7.534150 1.004553 32.828542 197 197 197 0
-7.440994 1.008948 32.972170 198 198 198 0
-7.394098 1.019876 33.329269 198 198 198 0
-7.285258 1.022492 33.414782 198 198 198 0
-7.123318 1.017617 33.255454 198 198 198 0
-6.976030 1.014695 33.159976 198 198 198 0
-6.921015 1.025335 33.507696 199 199 199 0
-6.839168 1.032327 33.736186 199 199 199 0
-6.678513 1.027464 33.577240 198 198 198 0
-6.504716 1.020348 33.344695 199 199 199 0
-6.387345 1.021975 33.397883 199 199 199 0
-6.137565 1.002051 32.746778 199 199 199 0
-6.204787 1.034131 33.795137 199 199 199 0
-6.032946 1.026884 33.558315 199 199 199 0
-5.879314 1.022489 33.414686 199 199 199 0
-5.772229 1.026174 33.535100 200 200 200 0
-5.674262 1.031684 33.715166 199 199 199 0
-5.548417 1.032264 33.734107 200 200 200 0
-5.417643 1.031932 33.723267 200 200 200 0
-5.306717 1.035457 33.838461 200 200 200 0
-5.180263 1.036053 33.857931 199 199 199 0
-5.047208 1.035325 33.834142 200 200 200 0
-4.927721 1.037415 33.902451 199 199 199 0
-4.803819 1.038664 33.943255 200 200 200 0
-4.667859 1.037302 33.898757 200 200 200 0
-4.540264 1.037775 33.914206 200 200 200 0
-4.440925 1.044924 34.147829 200 200 200 0
-4.315908 1.046281 34.192179 200 200 200 0
-4.164336 1.041084 34.022356 200 200 200 0
-4.034709 1.041215 34.026645 200 200 200 0
-3.933553 1.048948 34.279333 201 201 201 0
-3.798990 1.047997 34.248273 200 200 200 0
-3.657065 1.044876 34.146262 201 201 201 0
-3.512918 1.040865 34.015182 201 201 201 0
-3.396928 1.045209 34.157144 200 200 200 0
-3.281004 1.049921 34.311149 201 201 201 0
-3.149240 1.049747 34.305444 201 201 201 0
-3.004888 1.045179 34.156162 201 201 201 0
-2.871288 1.044105 34.121066 201 201 201 0
-2.753101 1.048800 34.274524 201 201 201 0
-2.628671 1.051468 34.361715 201 201 201 0
-2.487229 1.047254 34.223991 201 201 201 0
-2.352651 1.045623 34.170680 201 201 201 0
-2.238784 1.053545 34.429583 201 201 201 0
-2.117001 1.058500 34.591514 202 202 202 0
-1.975576 1.053641 34.432699 202 202 202 0
-1.833518 1.047724 34.239363 202 202 202 0
-1.710497 1.052614 34.399136 201 201 201 0
-1.590604 1.060403 34.653690 202 202 202 0
-1.450770 1.055106 34.480572 201 201 201 0
-1.312446 1.049957 34.312318 202 202 202 0
-1.181358 1.050096 34.316865 201 201 201 0
-1.057172 1.057172 34.548108 202 202 202 0
-0.924526 1.056601 34.529438 202 202 202 0
-0.789321 1.052428 34.393061 202 202 202 0
-0.658029 1.052847 34.406759 203 203 203 0
-0.528178 1.056355 34.521418 203 203 203 0
-0.396167 1.056446 34.524364 202 202 202 0
-0.263556 1.054225 34.451786 202 202 202 0
-0.131629 1.053032 34.412814 203 203 203 0
0.000000 1.056286 34.519160 202 202 202 0
0.132294 1.058353 34.586691 202 202 202 0
0.264642 1.058570 34.593785 202 202 202 0
0.396899 1.058398 34.588166 203 203 203 0
0.529491 1.058981 34.607226 203 203 203 0
0.662174 1.059479 34.623483 203 203 203 0
0.796319 1.061758 34.697984 202 202 202 0
0.926740 1.059131 34.612123 203 203 203 0
1.057483 1.057483 34.558283 203 203 203 0
1.189645 1.057462 34.557595 203 203 203 0
1.323981 1.059185 34.613894 203 203 203 0
1.459662 1.061573 34.691918 203 203 203 0
1.592079 1.061386 34.685807 203 203 203 0
1.721494 1.059381 34.620282 203 203 203 0
1.852979 1.058845 34.602787 203 203 203 0
1.989907 1.061284 34.682481 203 203 203 0
2.126091 1.063046 34.740049 204 204 204 0
2.255115 1.061230 34.680733 204 204 204 0
2.385484 1.060215 34.647551 203 203 203 0
2.533262 1.066637 34.857408 204 204 204 0
2.662834 1.065134 34.808293 203 203 203 0
2.785692 1.061216 34.680264 204 204 204 0
2.918424 1.061245 34.681211 204 204 204 0
3.069402 1.067618 34.889484 204 204 204 0
3.194907 1.064969 34.802907 204 204 204 0
3.315633 1.061002 34.673282 204 204 204 0
3.439280 1.058240 34.583004 204 204 204 0
3.592183 1.064351 34.782697 204 204 204 0
3.730576 1.065879 34.832645 204 204 204 0
3.850396 1.062178 34.711710 204 204 204 0
3.982918 1.062112 34.709527 204 204 204 0
4.131861 1.066287 34.845968 204 204 204 0
4.270248 1.067562 34.887651 204 204 204 0
4.393235 1.065027 34.804794 204 204 204 0
4.524405 1.064566 34.789737 204 204 204 0
4.671410 1.067751 34.893815 204 204 204 0
4.816558 1.070346 34.978631 204 204 204 0
4.938021 1.067680 34.891512 205 205 205 0
5.058180 1.064880 34.800001 204 204 204 0
5.205194 1.067732 34.893209 204 204 204 0
5.348898 1.069780 34.960115 204 204 204 0
5.465850 1.066507 34.853178 205 205 205 0
5.589001 1.064572 34.789920 204 204 204 0
5.723527 1.064842 34.798768 204 204 204 0
5.868753 1.067046 34.870783 205 205 205 0
5.999037 1.066496 34.852795 204 204 204 0
6.128675 1.065857 34.831914 205 205 205 0
6.262131 1.065895 34.833160 205 205 205 0
6.397384 1.066231 34.844137 205 205 205 0
6.530563 1.066214 34.843609 205 205 205 0
6.671766 1.067483 34.885051 205 205 205 0
6.798428 1.066420 34.850331 204 204 204 0
6.933051 1.066623 34.856970 205 205 205 0
7.080467 1.068750 34.926462 205 205 205 0
7.216662 1.069135 34.939058 205 205 205 0
7.336009 1.067056 34.871107 204 204 204 0
7.467632 1.066805 34.862897 205 205 205 0
7.625795 1.070287 34.976702 204 204 204 0
7.744284 1.068177 34.907748 205 205 205 0
7.857615 1.065439 34.818277 205 205 205 0
7.982441 1.064326 34.781880 205 205 205 0
8.148006 1.068591 34.921272 205 205 205 0
8.289651 1.069632 34.955307 205 205 205 0
8.403696 1.067136 34.873725 205 205 205 0
8.528078 1.066010 34.836918 205 205 205 0
8.678786 1.068158 34.907133 205 205 205 0
8.812936 1.068235 34.909631 205 205 205 0
8.930449 1.066322 34.847133 205 205 205 0
9.064200 1.066376 34.848903 205 205 205 0
9.237369 1.070999 34.999977 206 206 206 0
9.370857 1.070955 34.998532 205 205 205 0
9.475171 1.067625 34.889704 205 205 205 0
9.613548 1.068172 34.907582 205 205 205 0
9.772659 1.070976 34.999225 205 205 205 0
9.892153 1.069422 34.948430 205 205 205 0
10.002269 1.066909 34.866297 206 206 206 0
10.135503 1.066895 34.865851 205 205 205 0
10.303397 1.070483 34.983098 206 206 206 0
10.410529 1.067747 34.893680 205 205 205 0
10.556228 1.068985 34.934153 205 205 205 0
-9.768991 1.099011 31.924807 196 196 196 0
-9.521393 1.084716 31.509533 196 196 196 0
-9.408731 1.085623 31.535883 196 196 196 0
-9.316038 1.088888 31.630720 197 197 197 0
-9.348389 1.107046 32.158201 196 196 196 0
-9.273573 1.112829 32.326179 197 197 197 0
-9.081822 1.104546 32.085574 196 196 196 0
-8.925314 1.100381 31.964595 196 196 196 0
-8.990454 1.123807 32.645077 197 197 197 0
-8.953240 1.134918 32.967834 197 197 197 0
-8.721591 1.121347 32.573635 197 197 197 0
-8.524529 1.111895 32.299059 196 196 196 0
-8.420819 1.114520 32.375315 197 197 197 0
-8.508426 1.142923 33.200376 197 197 197 0
-8.322262 1.134854 32.965982 197 197 197 0
-8.084349 1.119371 32.516236 198 198 198 0
-7.928739 1.114979 32.388641 197 197 197 0
-7.920714 1.131531 32.869443 197 197 197 0
-7.892617 1.145703 33.281119 197 197 197 0
-7.695589 1.135415 32.982275 198 198 198 0
-7.529720 1.129458 32.809236 198 198 198 0
-7.437521 1.134537 32.956777 197 197 197 0
-7.413757 1.150411 33.417881 198 198 198 0
-7.284252 1.150145 33.410168 198 198 198 0
-7.121757 1.144568 33.248166 198 198 198 0
-6.988505 1.143574 33.219275 199 199 199 0
-6.917102 1.152850 33.488754 198 198 198 0
-6.841117 1.161699 33.745801 198 198 198 0
-6.679673 1.156097 33.583073 198 198 198 0
-6.509596 1.148752 33.369707 198 198 198 0
-6.382463 1.148843 33.372354 199 199 199 0
-6.145396 1.128746 32.788559 198 198 198 0
-6.201331 1.162750 33.776314 199 199 199 0
-6.028983 1.154486 33.536270 199 199 199 0
-5.880465 1.150526 33.421226 199 199 199 0
-5.780527 1.156105 33.583306 199 199 199 0
-5.677926 1.161394 33.736933 200 200 200 0
-5.544795 1.160538 33.712081 199 199 199 0
-5.414607 1.160273 33.704367 200 200 200 0
-5.297560 1.162879 33.780072 200 200 200 0
-5.186081 1.166868 33.895955 199 199 199 0
-5.050520 1.165505 33.856342 200 200 200 0
-4.930934 1.167853 33.924556 200 200 200 0
-4.802563 1.168191 33.934381 200 200 200 0
-4.666195 1.166549 33.886673 200 200 200 0
-4.542274 1.168013 33.929220 200 200 200 0
-4.441489 1.175688 34.152166 200 200 200 0
