ply
    format ascii 1.0
    element vertex 25597
    property float x
    property float y
    property float z
    property uchar red
    property uchar green
    property uchar blue
    property uchar alpha
    end_header
-3.328018 1.024006 33.464233 201 201 201 0
-3.224709 1.031907 33.722447 201 201 201 0
-3.111203 1.037068 33.891105 201 201 201 0
-2.967546 1.032190 33.731702 202 202 202 0
-2.828331 1.028484 33.610594 201 201 201 0
-2.709270 1.032103 33.728848 201 201 201 0
-2.594966 1.037986 33.921124 202 202 202 0
-2.463190 1.037133 33.893223 201 201 201 0
-2.322594 1.032264 33.734116 202 202 202 0
-2.190911 1.031017 33.693363 202 202 202 0
-2.082306 1.041153 34.024607 202 202 202 0
-1.954589 1.042447 34.066909 202 202 202 0
-1.813201 1.036115 33.859963 202 202 202 0
-1.678768 1.033088 33.761037 201 201 201 0
-1.556972 1.037981 33.920951 202 202 202 0
-1.436531 1.044750 34.142158 202 202 202 0
-1.298349 1.038679 33.943767 202 202 202 0
-1.161770 1.032685 33.747870 202 202 202 0
-1.034542 1.034542 33.808577 202 202 202 0
-0.912401 1.042744 34.076594 202 202 202 0
-0.780457 1.040609 34.006823 203 203 203 0
-0.648085 1.036935 33.886779 203 203 203 0
-0.518776 1.037552 33.906926 203 203 203 0
-0.390896 1.042390 34.065038 202 202 202 0
-0.260366 1.041464 34.034767 202 202 202 0
-0.130054 1.040434 34.001098 203 203 203 0
0.000000 1.040266 33.995630 202 202 202 0
0.130219 1.041749 34.044093 203 203 203 0
0.261274 1.045096 34.153469 203 203 203 0
0.391829 1.044878 34.146345 203 203 203 0
0.523355 1.046709 34.206185 203 203 203 0
0.654347 1.046955 34.214209 204 204 204 0
0.655308 0.873745 28.553743 203 203 203 0
0.914408 1.045038 34.151567 203 203 203 0
1.047692 1.047692 34.238298 203 203 203 0
1.174292 1.043815 34.111594 203 203 203 0
1.301909 1.041527 34.036845 203 203 203 0
1.436317 1.044594 34.137071 204 204 204 0
1.569933 1.046622 34.203326 203 203 203 0
1.701611 1.047145 34.220437 204 204 204 0
1.828862 1.045064 34.152411 203 203 203 0
1.958370 1.044464 34.132818 204 204 204 0
2.095657 1.047829 34.242762 204 204 204 0
2.229368 1.049114 34.284785 204 204 204 0
2.356240 1.047218 34.222810 204 204 204 0
2.488842 1.047933 34.246187 204 204 204 0
2.633889 1.053555 34.429916 204 204 204 0
2.758827 1.050982 34.345813 204 204 204 0
2.878722 1.046808 34.209406 205 205 205 0
3.008609 1.046473 34.198453 204 204 204 0
3.159700 1.053233 34.419393 204 204 204 0
3.282984 1.050555 34.331862 204 204 204 0
3.400938 1.046442 34.197465 204 204 204 0
3.525397 1.044562 34.136017 204 204 204 0
3.676440 1.050411 34.327168 205 205 205 0
3.812033 1.051595 34.365858 204 204 204 0
3.931601 1.048427 34.262321 204 204 204 0
4.052974 1.045929 34.180677 204 204 204 0
4.202016 1.050504 34.330195 204 204 204 0
4.334776 1.050855 34.341658 205 205 205 0
4.459484 1.049290 34.290535 205 205 205 0
4.581799 1.047268 34.224454 205 205 205 0
4.725140 1.050031 34.314739 205 205 205 0
4.875380 1.054136 34.448898 205 205 205 0
4.997707 1.052149 34.383948 204 204 204 0
5.120282 1.050314 34.323995 205 205 205 0
5.259146 1.051829 34.373500 205 205 205 0
5.405105 1.054655 34.465839 205 205 205 0
5.518473 1.051138 34.350907 205 205 205 0
5.633478 1.048089 34.251269 205 205 205 0
5.768371 1.048795 34.274338 205 205 205 0
5.912850 1.051173 34.352071 204 204 204 0
6.042009 1.050784 34.339354 205 205 205 0
6.164830 1.049333 34.291920 205 205 205 0
6.306975 1.051163 34.351717 205 205 205 0
6.444758 1.052205 34.385798 205 205 205 0
6.572051 1.051528 34.363664 205 205 205 0
6.709893 1.052532 34.396477 204 204 204 0
6.842103 1.052631 34.399712 206 206 206 0
6.969753 1.052038 34.380331 205 205 205 0
7.121446 1.055029 34.478072 206 206 206 0
7.254760 1.055238 34.484898 205 205 205 0
7.367785 1.052541 34.396753 205 205 205 0
7.496941 1.052202 34.385695 205 205 205 0
7.648444 1.054958 34.475745 206 206 206 0
7.771988 1.053829 34.438853 206 206 206 0
7.885337 1.051378 34.358769 206 206 206 0
8.004475 1.049767 34.306117 205 205 205 0
8.159805 1.052878 34.407781 205 205 205 0
8.295253 1.053365 34.423708 206 206 206 0
8.419238 1.052405 34.392311 205 205 205 0
8.537946 1.050824 34.340658 206 206 206 0
8.681265 1.052275 34.388057 205 205 205 0
8.826908 1.053959 34.443111 206 206 206 0
8.947014 1.052590 34.398363 206 206 206 0
9.065777 1.051105 34.349824 206 206 206 0
9.214520 1.053088 34.414641 205 205 205 0
9.365715 1.055292 34.486662 206 206 206 0
9.484995 1.053888 34.440795 205 205 205 0
9.598499 1.051890 34.375499 206 206 206 0
9.427207 1.019158 33.305803 205 205 205 0
9.890366 1.054972 34.476221 206 206 206 0
10.002478 1.052892 34.408248 205 205 205 0
10.128229 1.052283 34.388349 206 206 206 0
10.288494 1.055230 34.484646 206 206 206 0
10.421383 1.055330 34.487906 206 206 206 0
-9.582485 1.078030 31.315311 196 196 196 0
-9.411195 1.072161 31.144849 196 196 196 0
-9.267698 1.069350 31.063173 196 196 196 0
-9.134099 1.067622 31.012983 197 197 197 0
-9.168863 1.085786 31.540635 197 197 197 0
-9.147288 1.097675 31.885972 197 197 197 0
-8.984638 1.092726 31.742228 197 197 197 0
-8.804598 1.085498 31.532270 197 197 197 0
-8.814212 1.101776 32.005126 198 198 198 0
-8.852665 1.122169 32.597495 198 198 198 0
-8.633143 1.109976 32.243300 197 197 197 0
-8.435266 1.100252 31.960846 197 197 197 0
-8.306047 1.099330 31.934053 197 197 197 0
-8.363072 1.123398 32.633195 198 198 198 0
-8.238783 1.123470 32.635307 197 197 197 0
-8.005667 1.108477 32.199768 198 198 198 0
-7.832796 1.101487 31.996715 198 198 198 0
-7.750761 1.107252 32.164171 197 197 197 0
-7.763946 1.127024 32.738543 198 198 198 0
-7.627568 1.125379 32.690743 198 198 198 0
-7.448166 1.117225 32.453883 199 199 199 0
-7.268955 1.108824 32.209836 198 198 198 0
-7.259539 1.126480 32.722737 198 198 198 0
-7.178023 1.133372 32.922935 199 199 199 0
-7.034128 1.130485 32.839065 198 198 198 0
-6.872490 1.124589 32.667808 199 199 199 0
-6.751412 1.125235 32.686574 199 199 199 0
-6.736267 1.143894 33.228594 199 199 199 0
-6.608542 1.143786 33.225450 199 199 199 0
-6.428146 1.134379 32.952176 198 198 198 0
-6.284427 1.131197 32.859747 199 199 199 0
-6.220851 1.142605 33.191148 199 199 199 0
-6.129832 1.149343 33.386884 199 199 199 0
-5.960216 1.141318 33.153753 200 200 200 0
-5.807685 1.136286 33.007585 200 200 200 0
-5.692606 1.138521 33.072509 199 199 199 0
-5.598163 1.145079 33.262999 200 200 200 0
-5.473039 1.145520 33.275811 200 200 200 0
-5.337667 1.143786 33.225439 200 200 200 0
-5.227522 1.147505 33.333474 200 200 200 0
-5.102738 1.148116 33.351228 200 200 200 0
-4.975676 1.148233 33.354623 200 200 200 0
-4.854715 1.149801 33.400172 200 200 200 0
-4.741431 1.153321 33.502425 200 200 200 0
-4.616202 1.154051 33.523618 200 200 200 0
-4.483689 1.152949 33.491606 200 200 200 0
-4.379411 1.159256 33.674829 201 201 201 0
-4.267137 1.163765 33.805799 200 200 200 0
-4.124688 1.160068 33.698430 201 201 201 0
-3.972604 1.153337 33.502884 201 201 201 0
-3.768460 1.130538 32.840613 201 201 201 0
-3.759090 1.166614 33.888573 201 201 201 0
-3.618770 1.163176 33.788702 201 201 201 0
-3.467206 1.155735 33.572555 201 201 201 0
-3.330125 1.152735 33.485415 201 201 201 0
-3.224392 1.160781 33.719131 201 201 201 0
-3.110147 1.166305 33.879598 201 201 201 0
-2.968108 1.161434 33.738088 201 201 201 0
-2.828226 1.157001 33.609336 201 201 201 0
-2.707236 1.160244 33.703527 202 202 202 0
-2.596903 1.168606 33.946438 202 202 202 0
-2.463779 1.167053 33.901324 201 201 201 0
-2.323755 1.161877 33.750975 202 202 202 0
-2.190085 1.159457 33.680661 202 202 202 0
-2.082252 1.171267 34.023723 202 202 202 0
-1.954514 1.172708 34.065598 202 202 202 0
-1.813177 1.165614 33.859516 202 202 202 0
-1.678661 1.162150 33.758886 202 202 202 0
-1.556551 1.167413 33.911788 202 202 202 0
-1.435652 1.174624 34.121252 202 202 202 0
-1.297919 1.168127 33.932524 203 203 203 0
-1.161365 1.161365 33.736079 202 202 202 0
-1.034886 1.164246 33.819788 202 202 202 0
-0.912162 1.172779 34.067658 203 203 203 0
-0.780904 1.171355 34.026302 202 202 202 0
-0.648048 1.166486 33.884861 202 202 202 0
-0.519186 1.168169 33.933748 202 202 202 0
-0.390831 1.172493 34.059356 203 203 203 0
-0.260246 1.171105 34.019041 202 202 202 0
-0.130069 1.170621 34.004973 203 203 203 0
0.000000 1.169423 33.970164 203 203 203 0
0.130185 1.171669 34.035414 203 203 203 0
0.261301 1.175856 34.157036 203 203 203 0
0.392020 1.176061 34.162999 204 204 204 0
0.523340 1.177515 34.205234 203 203 203 0
0.652654 1.174777 34.125688 203 203 203 0
0.667098 1.000647 29.067462 203 203 203 0
0.913834 1.174930 34.130132 203 203 203 0
1.045548 1.176241 34.168235 203 203 203 0
1.173405 1.173405 34.085851 203 203 203 0
1.302039 1.171835 34.040227 203 203 203 0
1.437018 1.175742 34.153730 203 203 203 0
1.570565 1.177923 34.217093 203 203 203 0
1.701878 1.178223 34.225805 204 204 204 0
1.827759 1.174988 34.131813 203 203 203 0
1.959359 1.175616 34.150055 203 203 203 0
2.096869 1.179489 34.262557 204 204 204 0
2.228555 1.179823 34.272286 204 204 204 0
2.355204 1.177602 34.207756 204 204 204 0
2.487910 1.178484 34.233370 204 204 204 0
2.633704 1.185167 34.427506 204 204 204 0
2.760149 1.182921 34.362260 204 204 204 0
2.878638 1.177625 34.208413 205 205 205 0
3.011407 1.178377 34.230260 204 204 204 0
3.159383 1.184769 34.415937 204 204 204 0
3.283079 1.181909 34.332857 204 204 204 0
3.400818 1.177206 34.196257 204 204 204 0
3.523745 1.174582 34.120020 205 205 205 0
3.672717 1.180516 34.292407 204 204 204 0
3.811645 1.182924 34.362361 204 204 204 0
3.932615 1.179785 34.271158 205 205 205 0
4.056278 1.177629 34.208547 204 204 204 0
4.200984 1.181527 34.321762 205 205 205 0
4.336426 1.182662 34.354735 205 205 205 0
4.460395 1.180693 34.297538 205 205 205 0
4.582451 1.178344 34.229325 205 205 205 0
4.725289 1.181322 34.315825 205 205 205 0
4.875788 1.186002 34.451776 204 204 204 0
4.995603 1.183169 34.369475 205 205 205 0
5.118825 1.181267 34.314230 204 204 204 0
5.259494 1.183386 34.375778 205 205 205 0
5.405843 1.186648 34.470541 205 205 205 0
5.516858 1.182184 34.340855 205 205 205 0
5.634565 1.179328 34.257880 205 205 205 0
5.766974 1.179608 34.266036 206 206 206 0
5.913977 1.182795 34.358616 205 205 205 0
6.042396 1.182208 34.341553 205 205 205 0
6.163300 1.180206 34.283408 206 206 206 0
6.306262 1.182424 34.347834 205 205 205 0
6.445196 1.183811 34.388131 205 205 205 0
6.572688 1.183084 34.366996 205 205 205 0
6.710254 1.184162 34.398327 205 205 205 0
6.838992 1.183672 34.384074 205 205 205 0
6.969904 1.183569 34.381078 205 205 205 0
7.117172 1.186195 34.457383 206 206 206 0
7.251678 1.186638 34.470246 205 205 205 0
7.367616 1.184081 34.395968 205 205 205 0
7.496792 1.183704 34.385009 206 206 206 0
7.647537 1.186687 34.471657 205 205 205 0
7.771425 1.185472 34.436358 205 205 205 0
7.885684 1.182853 34.360280 205 205 205 0
8.007831 1.181483 34.320500 205 205 205 0
8.156365 1.183988 34.393274 205 205 205 0
8.294469 1.184924 34.420452 206 206 206 0
8.419200 1.183950 34.392157 206 206 206 0
8.538583 1.182265 34.343222 205 205 205 0
8.681772 1.183878 34.390064 206 206 206 0
8.825936 1.185574 34.439318 206 206 206 0
8.947960 1.184289 34.402001 206 206 206 0
9.068060 1.182790 34.358472 206 206 206 0
9.218860 1.185282 34.430851 205 205 205 0
9.370739 1.187840 34.505160 205 205 205 0
9.483125 1.185391 34.434004 206 206 206 0
9.601670 1.183768 34.386856 205 205 205 0
9.448134 1.149097 33.379735 205 205 205 0
9.892070 1.187048 34.482163 205 205 205 0
10.005302 1.184838 34.417965 205 205 205 0
10.127586 1.183744 34.386167 206 206 206 0
10.289841 1.187289 34.489160 205 205 205 0
10.420532 1.187149 34.485088 205 205 205 0
-9.600283 1.200035 31.373474 197 197 197 0
-9.408230 1.190915 31.135038 196 196 196 0
-9.265318 1.187861 31.055196 197 197 197 0
-9.132456 1.186033 31.007405 197 197 197 0
-9.160056 1.205271 31.510342 197 197 197 0
-9.148443 1.219792 31.889999 197 197 197 0
-8.980010 1.213515 31.725880 197 197 197 0
-8.795718 1.204893 31.500469 197 197 197 0
-8.815944 1.224437 32.011417 197 197 197 0
-8.835158 1.244388 32.533030 198 198 198 0
-8.635479 1.233640 32.252021 197 197 197 0
-8.432438 1.222093 31.950131 197 197 197 0
-8.308598 1.221853 31.943860 197 197 197 0
-8.362170 1.248085 32.629676 197 197 197 0
-8.245492 1.249317 32.661883 197 197 197 0
-8.030364 1.235441 32.299100 198 198 198 0
-7.826718 1.222925 31.971888 198 198 198 0
-7.741008 1.228731 32.123699 198 198 198 0
-7.766216 1.252615 32.748117 198 198 198 0
-7.621623 1.249446 32.665266 198 198 198 0
-7.454743 1.242457 32.482542 198 198 198 0
-7.272143 1.232567 32.223966 198 198 198 0
-7.246738 1.249438 32.665034 198 198 198 0
-7.179173 1.259504 32.928210 198 198 198 0
-7.027472 1.254906 32.807990 198 198 198 0
-6.854679 1.246305 32.583143 199 199 199 0
-6.759391 1.251739 32.725203 199 199 199 0
-6.743710 1.272398 33.265311 199 199 199 0
-6.605163 1.270224 33.208459 199 199 199 0
-6.439645 1.262676 33.011124 199 199 199 0
-6.292870 1.258574 32.903893 199 199 199 0
-6.215610 1.268492 33.163184 200 200 200 0
-6.124979 1.276037 33.360454 199 199 199 0
-5.966427 1.269452 33.188300 200 200 200 0
-5.805173 1.261994 32.993312 199 199 199 0
-5.695128 1.265584 33.087162 199 199 199 0
-5.595588 1.271725 33.247700 200 200 200 0
-5.476214 1.273538 33.295114 200 200 200 0
-5.340153 1.271465 33.240916 199 199 199 0
-5.225721 1.274566 33.321987 200 200 200 0
-5.102786 1.275696 33.351540 200 200 200 0
-4.977559 1.276297 33.367247 200 200 200 0
-4.850051 1.276329 33.368082 200 200 200 0
-4.737342 1.280363 33.473537 201 201 201 0
-4.616425 1.282340 33.525236 200 200 200 0
-4.479482 1.279852 33.460180 200 200 200 0
-4.375047 1.286778 33.641267 200 200 200 0
-4.264343 1.292225 33.783667 201 201 201 0
-4.117704 1.286782 33.641370 201 201 201 0
-3.967327 1.279783 33.458379 201 201 201 0
-3.756327 1.252109 32.734874 201 201 201 0
-3.759395 1.296343 33.891323 201 201 201 0
-3.616089 1.291461 33.763673 201 201 201 0
-3.467694 1.284331 33.577282 201 201 201 0
-3.328554 1.280213 33.469621 201 201 201 0
-3.225622 1.290249 33.731992 201 201 201 0
-3.110626 1.296094 33.884813 201 201 201 0
-2.968202 1.290522 33.739149 201 201 201 0
-2.829463 1.286119 33.624037 201 201 201 0
-2.706662 1.288887 33.696385 201 201 201 0
-2.595508 1.297754 33.928214 201 201 201 0
-2.464864 1.297297 33.916260 201 201 201 0
-2.323042 1.290579 33.740625 202 202 202 0
-2.188723 1.287484 33.659716 202 202 202 0
-2.081405 1.300878 34.009880 202 202 202 0
-1.954266 1.302844 34.061286 202 202 202 0
-1.812978 1.294984 33.855793 202 202 202 0
-1.679015 1.291550 33.766021 202 202 202 0
-1.557045 1.297537 33.922546 202 202 202 0
-1.436467 1.305879 34.140639 202 202 202 0
-1.297995 1.297995 33.934512 203 203 203 0
-1.162184 1.291316 33.759896 202 202 202 0
-1.034704 1.293380 33.813866 202 202 202 0
-0.911898 1.302712 34.057823 202 202 202 0
-0.780652 1.301086 34.015318 202 202 202 0
-0.647919 1.295838 33.878129 202 202 202 0
-0.519001 1.297504 33.921663 203 203 203 0
-0.390739 1.302465 34.051365 202 202 202 0
-0.260280 1.301400 34.023537 202 202 202 0
-0.129887 1.298867 33.957307 202 202 202 0
0.000000 1.298841 33.956622 202 202 202 0
0.130250 1.302497 34.052207 203 203 203 0
0.261171 1.305853 34.139956 202 202 202 0
0.392106 1.307019 34.170426 203 203 203 0
0.523339 1.308347 34.205157 203 203 203 0
0.652034 1.304068 34.093268 203 203 203 0
0.672478 1.120796 29.301860 203 203 203 0
0.914062 1.305803 34.138646 204 204 204 0
1.045364 1.306706 34.162237 203 203 203 0
1.173971 1.304412 34.102277 204 204 204 0
1.302369 1.302369 34.048851 203 203 203 0
1.435407 1.304916 34.115443 204 204 204 0
1.569854 1.308212 34.201620 204 204 204 0
1.700688 1.308222 34.201877 203 203 203 0
1.828354 1.305967 34.142940 204 204 204 0
1.959463 1.306309 34.151864 204 204 204 0
2.097345 1.310840 34.270338 204 204 204 0
2.227860 1.310506 34.261593 204 204 204 0
2.355820 1.308789 34.216698 204 204 204 0
2.486356 1.308608 34.211986 204 204 204 0
2.631745 1.315873 34.401900 204 204 204 0
2.758656 1.313646 34.343682 204 204 204 0
2.877251 1.307841 34.191928 204 204 204 0
3.011581 1.309383 34.232238 204 204 204 0
3.160673 1.316947 34.429994 204 204 204 0
3.284115 1.313646 34.343687 204 204 204 0
3.400872 1.308028 34.196800 204 204 204 0
3.525904 1.305890 34.140923 205 205 205 0
3.676413 1.313004 34.326915 204 204 204 0
3.813525 1.315008 34.379307 204 204 204 0
3.931527 1.310509 34.261675 204 204 204 0
4.055024 1.308072 34.197965 204 204 204 0
4.202084 1.313151 34.330748 205 205 205 0
4.337192 1.314301 34.360804 205 205 205 0
4.459805 1.311707 34.292999 205 205 205 0
4.580206 1.308630 34.212556 205 205 205 0
4.725384 1.312607 34.316516 204 204 204 0
4.876829 1.318062 34.459133 205 205 205 0
4.997587 1.315154 34.383122 205 205 205 0
5.118654 1.312475 34.313081 204 204 204 0
5.256197 1.314049 34.354226 205 205 205 0
5.403951 1.318037 34.458476 205 205 205 0
5.517625 1.313720 34.345629 205 205 205 0
5.634186 1.310276 34.255577 205 205 205 0
5.767822 1.310869 34.271078 205 205 205 0
5.914222 1.314272 34.360042 204 204 204 0
6.044214 1.313960 34.351885 205 205 205 0
6.163737 1.311434 34.285843 205 205 205 0
6.307975 1.314162 34.357165 205 205 205 0
6.442680 1.314833 34.374711 205 205 205 0
6.573492 1.314698 34.371202 206 206 206 0
6.710822 1.315848 34.401242 205 205 205 0
6.838697 1.315134 34.382591 205 205 205 0
6.968976 1.314901 34.376500 205 205 205 0
7.118787 1.318294 34.465200 206 206 206 0
7.252334 1.318606 34.473364 205 205 205 0
7.366150 1.315384 34.389124 205 205 205 0
7.495801 1.315053 34.380468 205 205 205 0
7.650165 1.318994 34.483502 205 205 205 0
7.772540 1.317380 34.441297 205 205 205 0
7.888498 1.314750 34.372542 206 206 206 0
8.008693 1.312900 34.324195 205 205 205 0
8.157504 1.315726 34.398077 205 205 205 0
8.292018 1.316193 34.410282 205 205 205 0
8.419377 1.315528 34.392878 205 205 205 0
8.539147 1.313715 34.345486 205 205 205 0
8.679399 1.315060 34.380665 205 205 205 0
8.823608 1.316956 34.430235 206 206 206 0
8.946705 1.315692 34.397176 206 206 206 0
9.065891 1.313897 34.350254 206 206 206 0
9.221980 1.317426 34.442501 206 206 206 0
9.366879 1.319279 34.490948 206 206 206 0
9.475235 1.316005 34.405354 205 205 205 0
9.589877 1.313682 34.344623 206 206 206 0
9.483272 1.281523 33.503875 206 206 206 0
9.891258 1.318834 34.479331 206 206 206 0
10.005276 1.316484 34.417875 206 206 206 0
10.122851 1.314656 34.370091 205 205 205 0
10.283587 1.318409 34.468199 206 206 206 0
10.417058 1.318615 34.473593 206 206 206 0
-9.626356 1.323624 31.458680 196 196 196 0
-9.411311 1.310436 31.145234 196 196 196 0
-9.268230 1.307058 31.064956 196 196 196 0
-9.124398 1.303485 30.980045 197 197 197 0
-9.153119 1.324794 31.486478 196 196 196 0
-9.139263 1.340425 31.857997 197 197 197 0
-8.986640 1.335852 31.749301 197 197 197 0
-8.804328 1.326680 31.531304 197 197 197 0
-8.817031 1.347046 32.015362 197 197 197 0
-8.845439 1.370420 32.570889 197 197 197 0
-8.635322 1.356979 32.251435 197 197 197 0
-8.447593 1.346718 32.007551 197 197 197 0
-8.318592 1.345655 31.982285 198 198 198 0
-8.363529 1.373117 32.634978 198 198 198 0
-8.238084 1.373014 32.632539 197 197 197 0
-8.022006 1.357570 32.265483 197 197 197 0
-7.822684 1.344524 31.955409 198 198 198 0
-7.747483 1.352735 32.150569 197 197 197 0
-7.773375 1.379147 32.778305 198 198 198 0
-7.612688 1.372780 32.626972 199 199 199 0
-7.453938 1.366555 32.479031 198 198 198 0
-7.277211 1.356768 32.246422 198 198 198 0
-7.245722 1.374189 32.660457 198 198 198 0
-7.181057 1.385818 32.936851 198 198 198 0
-7.027641 1.380429 32.808781 199 199 199 0
-6.857308 1.371462 32.595640 198 198 198 0
-6.746217 1.374229 32.661423 198 198 198 0
-6.738541 1.398565 33.239813 198 198 198 0
-6.608200 1.397888 33.223729 199 199 199 0
-6.440809 1.389194 33.017090 200 200 200 0
-6.283368 1.382341 32.854214 199 199 199 0
-6.224222 1.397274 33.209136 198 198 198 0
-6.129261 1.404622 33.383773 199 199 199 0
-5.960231 1.394948 33.153834 199 199 199 0
-5.804466 1.388025 32.989294 199 199 199 0
-5.690771 1.391077 33.061849 199 199 199 0
-5.593076 1.398269 33.232774 199 199 199 0
-5.473929 1.400308 33.281225 199 199 199 0
-5.340969 1.398825 33.245993 199 199 199 0
-5.229503 1.403037 33.346106 200 200 200 0
-5.105613 1.404043 33.370017 199 199 199 0
-4.979553 1.404489 33.380610 200 200 200 0
-4.851250 1.404309 33.376335 200 200 200 0
-4.741646 1.409679 33.503946 200 200 200 0
-4.617758 1.410982 33.534916 200 200 200 0
-4.480555 1.408174 33.468199 201 201 201 0
-4.382757 1.417951 33.700557 201 201 201 0
-4.267507 1.422502 33.808729 200 200 200 0
-4.123449 1.417436 33.688310 200 200 200 0
-3.971803 1.409349 33.496125 201 201 201 0
-3.707267 1.359331 32.307339 201 201 201 0
-3.758597 1.425675 33.884132 201 201 201 0
-3.616505 1.420770 33.767557 201 201 201 0
-3.469749 1.413601 33.597181 201 201 201 0
-3.328441 1.408187 33.468485 202 202 202 0
-3.223380 1.418287 33.708551 201 201 201 0
-3.110528 1.425659 33.883752 201 201 201 0
-2.968822 1.419871 33.746201 202 202 202 0
-2.830353 1.415176 33.634615 201 201 201 0
-2.707412 1.418168 33.705715 202 202 202 0
-2.593286 1.426308 33.899169 202 202 202 0
-2.463416 1.426188 33.896333 201 201 201 0
-2.323453 1.419888 33.746587 202 202 202 0
-2.189408 1.416676 33.670244 201 201 201 0
-2.081178 1.430810 34.006183 201 201 201 0
-1.952751 1.432017 34.034872 202 202 202 0
-1.813898 1.425206 33.872986 201 201 201 0
-1.677147 1.419124 33.728448 201 201 201 0
-1.556258 1.426570 33.905408 203 203 203 0
-1.436494 1.436494 34.141279 202 202 202 0
-1.297709 1.427480 33.927045 202 202 202 0
-1.161436 1.419533 33.738156 203 203 203 0
-1.033662 1.421285 33.779788 202 202 202 0
-0.911510 1.432372 34.043306 202 202 202 0
-0.780398 1.430729 34.004255 202 202 202 0
-0.648167 1.425967 33.891086 202 202 202 0
-0.518934 1.427068 33.917240 203 203 203 0
-0.390833 1.433054 34.059517 202 202 202 0
-0.260440 1.432420 34.044440 203 203 203 0
-0.130075 1.430820 34.006426 203 203 203 0
0.000000 1.430493 33.998652 202 202 202 0
0.130146 1.431602 34.025011 203 203 203 0
0.261412 1.437768 34.171554 203 203 203 0
0.391965 1.437205 34.158160 203 203 203 0
0.523179 1.438742 34.194711 203 203 203 0
0.652071 1.434556 34.095219 203 203 203 0
0.673951 1.235577 29.366064 204 204 204 0
0.913499 1.435498 34.117610 203 203 203 0
1.044819 1.436626 34.144397 204 204 204 0
1.172983 1.433645 34.073569 203 203 203 0
1.301828 1.432011 34.034713 204 204 204 0
1.435681 1.435681 34.121940 204 204 204 0
1.569604 1.438804 34.196173 203 203 203 0
1.700298 1.438714 34.194027 204 204 204 0
1.827434 1.435841 34.125752 203 203 203 0
1.958956 1.436568 34.143024 203 203 203 0
2.095692 1.440788 34.243327 204 204 204 0
2.227945 1.441611 34.262895 204 204 204 0
2.354795 1.439041 34.201815 204 204 204 0
2.485947 1.439232 34.206354 204 204 204 0
2.631171 1.447144 34.394388 204 204 204 0
2.758845 1.445110 34.346037 204 204 204 0
2.875985 1.437992 34.176882 204 204 204 0
3.008123 1.438668 34.192933 204 204 204 0
3.159148 1.447943 34.413378 203 203 203 0
3.283748 1.444849 34.339844 204 204 204 0
3.400864 1.438827 34.196719 204 204 204 0
3.525460 1.436299 34.136626 204 204 204 0
3.673409 1.443125 34.298873 204 204 204 0
3.812206 1.446009 34.367416 205 205 205 0
3.930426 1.441156 34.252076 205 205 205 0
4.056144 1.439277 34.207415 204 204 204 0
4.202696 1.444677 34.335754 204 204 204 0
4.335491 1.445164 34.347323 205 205 205 0
4.459706 1.442846 34.292243 205 205 205 0
4.580569 1.439607 34.215269 205 205 205 0
4.725778 1.443988 34.319372 205 205 205 0
4.874195 1.449085 34.440522 205 205 205 0
4.998202 1.446848 34.387354 205 205 205 0
5.120117 1.444136 34.322891 205 205 205 0
5.259084 1.446248 34.373095 205 205 205 0
5.405031 1.450130 34.465368 206 206 206 0
5.516560 1.444813 34.339000 205 205 205 0
5.632208 1.440798 34.243554 205 205 205 0
5.769591 1.442398 34.281586 205 205 205 0
5.913741 1.445581 34.357244 205 205 205 0
6.040847 1.444550 34.332750 205 205 205 0
6.165985 1.443103 34.298348 204 204 204 0
6.306995 1.445353 34.351826 204 204 204 0
6.445404 1.446927 34.389243 205 205 205 0
6.574679 1.446429 34.377408 205 205 205 0
6.707434 1.446701 34.383871 205 205 205 0
6.835208 1.445909 34.365046 206 206 206 0
6.967022 1.445986 34.366864 205 205 205 0
7.119084 1.450184 34.466640 206 206 206 0
7.251433 1.450287 34.469083 206 206 206 0
7.364587 1.446615 34.381826 205 205 205 0
7.497814 1.446947 34.389699 205 205 205 0
7.647853 1.450455 34.473079 205 205 205 0
7.774139 1.449416 34.448386 205 205 205 0
7.886684 1.445892 34.364636 205 205 205 0
8.004283 1.443395 34.305296 205 205 205 0
8.160784 1.447881 34.411908 206 206 206 0
8.299378 1.449098 34.440825 205 205 205 0
8.420752 1.447317 34.398495 205 205 205 0
8.540296 1.445281 34.350111 205 205 205 0
8.680662 1.446777 34.385669 205 205 205 0
8.824277 1.448762 34.432842 205 205 205 0
8.946982 1.447306 34.398241 206 206 206 0
9.064613 1.445083 34.345411 205 205 205 0
9.222719 1.449284 34.445264 206 206 206 0
9.367506 1.451304 34.493255 205 205 205 0
9.474581 1.447505 34.402980 206 206 206 0
9.591132 1.445239 34.349115 206 206 206 0
9.510797 1.413767 33.601121 206 206 206 0
9.897547 1.451640 34.501252 206 206 206 0
10.003889 1.447931 34.413101 206 206 206 0
10.125310 1.446473 34.378438 206 206 206 0
10.286273 1.450628 34.477202 205 205 205 0
10.418390 1.450662 34.478002 205 205 205 0
-9.635266 1.445290 31.487797 196 196 196 0
-9.418345 1.430635 31.168510 196 196 196 0
-9.272086 1.426475 31.077883 196 196 196 0
-9.143411 1.424947 31.044601 196 196 196 0
-9.165396 1.447168 31.528711 196 196 196 0
-9.141026 1.462564 31.864142 196 196 196 0
-8.995161 1.458675 31.779407 198 198 198 0
-8.795483 1.445833 31.499626 197 197 197 0
-8.812978 1.468830 32.000647 197 197 197 0
-8.841781 1.494386 32.557419 197 197 197 0
-8.632864 1.479920 32.242256 197 197 197 0
-8.441732 1.468127 31.985345 197 197 197 0
-8.309285 1.466344 31.946501 197 197 197 0
-8.366302 1.498442 32.645798 198 198 198 0
-8.242319 1.498603 32.649314 197 197 197 0
-8.022920 1.481154 32.269160 198 198 198 0
-7.831933 1.468487 31.993191 197 197 197 0
-7.748457 1.475897 32.154611 198 198 198 0
-7.767623 1.503411 32.754051 199 199 199 0
-7.619774 1.498972 32.657342 199 199 199 0
-7.446807 1.489361 32.447962 199 199 199 0
-7.284147 1.481521 32.277157 198 198 198 0
-7.252925 1.500605 32.692925 198 198 198 0
-7.191977 1.514100 32.986936 199 199 199 0
-7.034598 1.507414 32.841261 199 199 199 0
-6.851595 1.494894 32.568487 199 199 199 0
-6.760075 1.502239 32.728518 198 198 198 0
-6.736501 1.525246 33.229752 199 199 199 0
-6.615058 1.526552 33.258211 200 200 200 0
-6.441197 1.515576 33.019079 199 199 199 0
-6.287778 1.509067 32.877272 199 199 199 0
-6.220398 1.523363 33.188733 200 200 200 0
-6.123662 1.530916 33.353280 199 199 199 0
-5.960880 1.521927 33.157448 199 199 199 0
-5.792948 1.511204 32.923828 199 199 199 0
-5.689012 1.517070 33.051632 199 199 199 0
-5.594404 1.525747 33.240667 200 200 200 0
-5.475672 1.528095 33.291820 199 199 199 0
-5.338944 1.525413 33.233392 200 200 200 0
-5.231093 1.531052 33.356243 199 199 199 0
-5.105817 1.531745 33.371354 200 200 200 0
-4.977294 1.531475 33.365467 200 200 200 0
-4.856979 1.533783 33.415749 200 200 200 0
-4.741708 1.537851 33.504386 200 200 200 0
-4.612870 1.537623 33.499419 201 201 201 0
-4.479894 1.535964 33.463264 201 201 201 0
-4.378467 1.545341 33.667566 201 201 201 0
-4.267912 1.551968 33.811941 201 201 201 0
-4.128336 1.548126 33.728234 201 201 201 0
-3.977074 1.539513 33.540579 201 201 201 0
-3.631025 1.452410 31.642920 201 201 201 0
-3.750031 1.551737 33.806906 201 201 201 0
-3.615109 1.549333 33.754523 201 201 201 0
-3.469783 1.542126 33.597510 201 201 201 0
-3.328573 1.536264 33.469812 201 201 201 0
-3.227863 1.549374 33.755426 201 201 201 0
-3.111442 1.555721 33.893707 201 201 201 0
-2.968173 1.548612 33.738828 201 201 201 0
-2.830479 1.543898 33.636120 201 201 201 0
-2.708856 1.547918 33.723694 202 202 202 0
-2.592482 1.555489 33.888658 201 201 201 0
-2.463208 1.555710 33.893466 201 201 201 0
-2.322343 1.548229 33.730474 201 201 201 0
-2.189707 1.545675 33.674844 202 202 202 0
-2.082970 1.562228 34.035464 202 202 202 0
-1.952935 1.562348 34.038091 201 201 201 0
-1.812698 1.553741 33.850577 202 202 202 0
-1.680592 1.551316 33.797725 202 202 202 0
-1.557364 1.557364 33.929506 202 202 202 0
-1.437047 1.567688 34.154418 203 203 203 0
-1.297115 1.556538 33.911513 203 203 203 0
-1.161902 1.549203 33.751700 203 203 203 0
-1.034044 1.551066 33.792291 203 203 203 0
-0.912451 1.564202 34.078474 203 203 203 0
-0.780155 1.560311 33.993694 203 203 203 0
-0.647827 1.554785 33.873318 202 202 202 0
-0.518852 1.556557 33.911924 203 203 203 0
-0.390697 1.562789 34.047680 202 202 202 0
-0.260487 1.562921 34.050570 203 203 203 0
-0.130047 1.560560 33.999120 203 203 203 0
0.000000 1.560107 33.989269 203 203 203 0
0.130305 1.563663 34.066736 203 203 203 0
0.261345 1.568068 34.162694 203 203 203 0
0.391893 1.567573 34.151915 203 203 203 0
0.523762 1.571286 34.232810 203 203 203 0
0.652688 1.566452 34.127490 202 202 202 0
0.669887 1.339774 29.188973 204 204 204 0
0.914089 1.567011 34.139662 203 203 203 0
1.044894 1.567342 34.146877 202 202 202 0
1.173630 1.564839 34.092361 204 204 204 0
1.301925 1.562309 34.037242 203 203 203 0
1.435227 1.565703 34.111167 203 203 203 0
1.569254 1.569254 34.188537 203 203 203 0
1.700014 1.569243 34.188308 203 203 203 0
1.828060 1.566909 34.137445 203 203 203 0
1.958830 1.567064 34.140828 204 204 204 0
2.097301 1.572975 34.269618 204 204 204 0
2.228364 1.572963 34.269344 204 204 204 0
2.353730 1.569154 34.186352 203 203 203 0
2.485990 1.570099 34.206950 204 204 204 0
2.632536 1.579522 34.412242 204 204 204 0
2.758624 1.576357 34.343281 203 203 203 0
2.877187 1.569375 34.191172 204 204 204 0
3.010324 1.570604 34.217952 203 203 203 0
3.160569 1.580284 34.428856 204 204 204 0
3.282376 1.575541 34.325504 204 204 204 0
3.400633 1.569523 34.194402 204 204 204 0
3.526276 1.567234 34.144529 204 204 204 0
3.675187 1.575080 34.315474 205 205 205 0
3.812018 1.577387 34.365723 205 205 205 0
3.931693 1.572677 34.263116 205 205 205 0
4.056561 1.570282 34.210927 204 204 204 0
4.201832 1.575687 34.328694 205 205 205 0
4.335071 1.576389 34.343996 205 205 205 0
4.458033 1.573423 34.279374 205 205 205 0
4.580156 1.570339 34.212181 205 205 205 0
4.723685 1.574562 34.304174 204 204 204 0
4.874874 1.581040 34.445322 205 205 205 0
4.997129 1.578041 34.379970 205 205 205 0
5.120151 1.575431 34.323120 205 205 205 0
5.261619 1.578486 34.389668 205 205 205 0
5.406436 1.582371 34.474322 204 204 204 0
5.517790 1.576511 34.346656 205 205 205 0
5.634535 1.572428 34.257698 205 205 205 0
5.767244 1.572885 34.267639 205 205 205 0
5.913216 1.576858 34.354197 205 205 205 0
6.041689 1.576093 34.337533 205 205 205 0
6.162376 1.573373 34.278270 205 205 205 0
6.307891 1.576973 34.356704 205 205 205 0
6.444683 1.578290 34.385394 205 205 205 0
6.574435 1.577865 34.376133 205 205 205 0
6.710093 1.578845 34.397504 205 205 205 0
6.838900 1.578208 34.383610 205 205 205 0
6.968877 1.577859 34.376014 206 206 206 0
7.119537 1.582119 34.468831 206 206 206 0
7.252863 1.582443 34.475879 206 206 206 0
7.366072 1.578444 34.388760 206 206 206 0
7.496499 1.578210 34.383668 206 206 206 0
7.650292 1.582819 34.484074 206 206 206 0
7.773667 1.581085 34.446291 205 205 205 0
7.889351 1.577870 34.376258 205 205 205 0
8.007820 1.575309 34.320455 205 205 205 0
8.160372 1.579427 34.410172 206 206 206 0
8.298912 1.580745 34.438891 206 206 206 0
8.420276 1.578802 34.396552 205 205 205 0
8.540791 1.576761 34.352099 206 206 206 0
8.680914 1.578348 34.386666 206 206 206 0
8.824216 1.580457 34.432604 205 205 205 0
8.946326 1.578763 34.395717 206 206 206 0
9.067285 1.576919 34.355536 205 205 205 0
9.221538 1.580835 34.440852 206 206 206 0
9.367028 1.583160 34.491497 206 206 206 0
9.475359 1.579227 34.405807 205 205 205 0
9.589083 1.576288 34.341779 206 206 206 0
9.529719 1.545360 33.667971 206 206 206 0
9.897649 1.583624 34.501609 206 206 206 0
10.003766 1.579542 34.412679 205 205 205 0
10.124978 1.577919 34.377312 206 206 206 0
10.282022 1.581850 34.462952 205 205 205 0
10.418631 1.582577 34.478799 206 206 206 0
-9.644211 1.567184 31.517030 196 196 196 0
-9.422457 1.550531 31.182120 196 196 196 0
-9.275308 1.545885 31.088682 196 196 196 0
-9.137150 1.542636 31.023343 196 196 196 0
-9.183412 1.570847 31.590683 197 197 197 0
-9.144214 1.584997 31.875256 197 197 197 0
-8.988137 1.578997 31.754590 197 197 197 0
-8.808692 1.568671 31.546930 197 197 197 0
-8.819939 1.592489 32.025921 196 196 196 0
-8.843163 1.619171 32.562508 197 197 197 0
-8.630250 1.602761 32.232494 197 197 197 0
-8.430737 1.588400 31.943683 198 198 198 0
-8.308492 1.588388 31.943452 198 198 198 0
-8.353530 1.620834 32.595961 197 197 197 0
-8.227477 1.620564 32.590519 198 198 198 0
-8.022165 1.604433 32.266125 197 197 197 0
-7.823463 1.589141 31.958592 198 198 198 0
-7.753621 1.599954 32.176040 198 198 198 0
-7.769311 1.629049 32.761166 198 198 198 0
-7.622608 1.624490 32.669488 198 198 198 0
-7.446879 1.613490 32.448272 199 199 199 0
-7.290120 1.606298 32.303624 198 198 198 0
-7.254223 1.625946 32.698772 199 199 199 0
-7.184249 1.638513 32.951492 199 199 199 0
-7.029064 1.631747 32.815424 198 198 198 0
-6.853364 1.619886 32.576894 198 198 198 0
-6.754752 1.626144 32.702745 199 199 199 0
-6.740788 1.653401 33.250898 199 199 199 0
-6.607160 1.651790 33.218504 199 199 199 0
-6.441031 1.641831 33.018227 199 199 199 0
-6.293804 1.636389 32.908777 199 199 199 0
-6.218015 1.649677 33.176016 199 199 199 0
-6.127887 1.659636 33.376290 200 200 200 0
-5.963044 1.649352 33.169482 199 199 199 0
-5.804859 1.640504 32.991524 199 199 199 0
-5.690570 1.643943 33.060685 200 200 200 0
-5.589367 1.651404 33.210736 200 200 200 0
-5.474266 1.655011 33.283270 199 199 199 0
-5.337645 1.652128 33.225302 199 199 199 0
-5.232731 1.659159 33.366688 200 200 200 0
-5.107135 1.659819 33.379968 200 200 200 0
-4.981928 1.660643 33.396537 200 200 200 0
-4.855505 1.661094 33.405606 200 200 200 0
-4.739519 1.665236 33.488916 200 200 200 0
-4.618063 1.667634 33.537135 200 200 200 0
-4.482626 1.664976 33.483671 200 200 200 0
-4.378014 1.673947 33.664084 200 200 200 0
-4.267324 1.681067 33.807284 201 201 201 0
-4.125796 1.676105 33.707483 200 200 200 0
-3.978630 1.668458 33.553698 200 200 200 0
-3.610871 1.564711 31.467286 201 201 201 0
-3.745372 1.678960 33.764902 201 201 201 0
-3.612589 1.677273 33.730989 201 201 201 0
-3.469704 1.670598 33.596749 201 201 201 0
-3.327782 1.663891 33.461857 201 201 201 0
-3.222601 1.675753 33.700403 202 202 202 0
-3.109150 1.684123 33.868734 201 201 201 0
-2.966958 1.676976 33.725011 202 202 202 0
-2.829477 1.671964 33.624207 202 202 202 0
-2.706487 1.675444 33.694204 201 201 201 0
-2.595063 1.686791 33.922397 202 202 202 0
-2.464980 1.686565 33.917853 202 202 202 0
-2.322730 1.677527 33.736088 202 202 202 0
-2.189843 1.674586 33.676936 201 201 201 0
-2.081757 1.691427 34.015633 202 202 202 0
-1.952882 1.692497 34.037154 202 202 202 0
-1.811742 1.682332 33.832718 201 201 201 0
-1.676853 1.676853 33.722532 202 202 202 0
-1.555739 1.685384 33.894096 202 202 202 0
-1.436395 1.697557 34.138911 202 202 202 0
-1.297298 1.686488 33.916290 202 202 202 0
-1.161434 1.677627 33.738110 202 202 202 0
-1.033737 1.679822 33.782248 202 202 202 0
-0.911177 1.692187 34.030902 203 203 203 0
-0.780349 1.690756 34.002140 203 203 203 0
-0.648013 1.684833 33.883017 202 202 202 0
-0.519035 1.686865 33.923872 202 202 202 0
-0.390853 1.693695 34.061238 203 203 203 0
-0.260381 1.692479 34.036775 202 202 202 0
-0.130056 1.690722 34.001448 203 203 203 0
0.000000 1.689715 33.981202 203 203 203 0
0.130255 1.693321 34.053714 203 203 203 0
0.261354 1.698798 34.163870 204 204 204 0
0.391928 1.698355 34.154950 203 203 203 0
0.523423 1.701126 34.210674 203 203 203 0
0.654439 1.701542 34.219040 203 203 203 0
0.656438 1.422283 28.602978 203 203 203 0
0.914252 1.697896 34.145718 203 203 203 0
1.046035 1.699807 34.184151 203 203 203 0
1.173355 1.694846 34.084385 203 203 203 0
1.301852 1.692407 34.035337 203 203 203 0
1.435790 1.696842 34.124533 204 204 204 0
1.569623 1.700425 34.196580 204 204 204 0
1.700988 1.700988 34.207905 203 203 203 0
1.827143 1.696633 34.120319 204 204 204 0
1.958435 1.697310 34.133941 204 204 204 0
2.096009 1.703007 34.248516 204 204 204 0
2.227910 1.703696 34.262357 204 204 204 0
2.354895 1.700758 34.203275 203 203 203 0
2.487417 1.701917 34.226578 204 204 204 0
2.632811 1.711327 34.415826 204 204 204 0
2.757859 1.707246 34.333751 204 204 204 0
2.878394 1.700869 34.205520 204 204 204 0
3.008966 1.700720 34.202512 204 204 204 0
3.160032 1.711684 34.423003 204 204 204 0
3.283922 1.707639 34.341665 205 205 205 0
3.400531 1.700266 34.193376 204 204 204 0
3.524686 1.697071 34.129128 204 204 204 0
3.674357 1.705951 34.307718 204 204 204 0
3.811110 1.708429 34.357539 204 204 204 0
3.928786 1.702474 34.237790 204 204 204 0
4.052858 1.699586 34.179704 205 205 205 0
4.202758 1.707370 34.336255 204 204 204 0
4.333648 1.707195 34.332725 204 204 204 0
4.459912 1.705260 34.293822 205 205 205 0
4.580277 1.701246 34.213083 204 204 204 0
4.724606 1.706108 34.310861 205 205 205 0
4.872833 1.712076 34.430898 204 204 204 0
4.998229 1.709920 34.387539 205 205 205 0
5.120384 1.706795 34.324676 205 205 205 0
5.260503 1.709664 34.382375 205 205 205 0
5.406893 1.714381 34.477236 205 205 205 0
5.516110 1.707367 34.336196 205 205 205 0
5.633043 1.703013 34.248626 205 205 205 0
5.768915 1.704452 34.277570 205 205 205 0
5.913408 1.708318 34.355309 205 205 205 0
6.042433 1.707644 34.341765 205 205 205 0
6.165826 1.705441 34.297459 205 205 205 0
6.306667 1.708056 34.350040 205 205 205 0
6.447998 1.710693 34.403086 205 205 205 0
6.574044 1.709251 34.374085 204 204 204 0
6.711047 1.710659 34.402395 205 205 205 0
6.839256 1.709814 34.385397 205 205 205 0
6.969365 1.709467 34.378421 205 205 205 0
7.116204 1.713160 34.452696 205 205 205 0
7.251762 1.714053 34.470644 205 205 205 0
7.365964 1.709956 34.388254 205 205 205 0
7.497986 1.710067 34.390486 206 206 206 0
7.646926 1.713966 34.468903 206 206 206 0
7.777285 1.713639 34.462322 205 205 205 0
7.887504 1.708959 34.368209 205 205 205 0
8.005201 1.706026 34.309228 206 206 206 0
8.156007 1.710130 34.391764 205 205 205 0
8.296936 1.712066 34.430693 206 206 206 0
8.418634 1.710035 34.389843 205 205 205 0
8.538346 1.707669 34.342267 205 205 205 0
8.676842 1.709075 34.370537 206 206 206 0
8.824331 1.712184 34.433056 205 205 205 0
8.946763 1.710410 34.397395 205 205 205 0
9.067512 1.708372 34.356398 206 206 206 0
9.219225 1.712142 34.432212 206 206 206 0
9.367772 1.715226 34.494234 206 206 206 0
9.474977 1.710760 34.404419 205 205 205 0
9.587155 1.707301 34.334872 206 206 206 0
9.567401 1.680760 33.801099 205 205 205 0
9.896794 1.715444 34.498629 206 206 206 0
10.005686 1.711499 34.419284 206 206 206 0
10.126599 1.709685 34.382815 206 206 206 0
10.281608 1.713601 34.461566 206 206 206 0
10.414281 1.713742 34.464403 206 206 206 0
-9.598641 1.679762 31.368109 197 197 197 0
-9.425317 1.670309 31.191585 196 196 196 0
-9.269462 1.663750 31.069085 196 196 196 0
-9.135927 1.661078 31.019192 197 197 197 0
-9.178940 1.690857 31.575302 197 197 197 0
-9.140200 1.706171 31.861263 197 197 197 0
-8.995775 1.701903 31.781576 197 197 197 0
-8.799670 1.687608 31.514623 198 198 198 0
-8.815102 1.714048 32.008359 198 198 198 0
-8.822801 1.739707 32.487529 197 197 197 0
-8.629845 1.725969 32.230981 197 197 197 0
-8.439787 1.712421 31.977976 197 197 197 0
-8.310730 1.711033 31.952057 198 198 198 0
-8.367854 1.748507 32.651856 197 197 197 0
-8.238765 1.747617 32.635233 198 198 198 0
-8.022728 1.727972 32.268387 198 198 198 0
-7.826023 1.711943 31.969048 198 198 198 0
-7.738457 1.719657 32.113111 198 198 198 0
-7.775476 1.755753 32.787163 197 197 197 0
-7.629145 1.750951 32.697506 198 198 198 0
-7.455836 1.739695 32.487303 198 198 198 0
-7.289033 1.729601 32.298806 198 198 198 0
-7.263389 1.753232 32.740090 198 198 198 0
-7.182874 1.764215 32.945187 198 198 198 0
-7.030934 1.757733 32.824155 199 199 199 0
-6.862503 1.746819 32.620337 199 199 199 0
-6.745516 1.748837 32.658028 199 199 199 0
-6.742711 1.781094 33.260383 199 199 199 0
-6.603998 1.777999 33.202603 199 199 199 0
-6.439758 1.767777 33.011704 199 199 199 0
-6.283664 1.759426 32.855762 199 199 199 0
-6.222580 1.777880 33.200373 199 199 199 0
-6.124728 1.786379 33.359086 199 199 199 0
-5.969072 1.778021 33.203014 200 200 200 0
-5.801992 1.765824 32.975231 200 200 200 0
-5.689424 1.770043 33.054024 200 200 200 0
-5.590245 1.778714 33.215954 200 200 200 0
-5.472279 1.781672 33.271192 199 199 199 0
-5.341075 1.780358 33.246655 200 200 200 0
-5.229377 1.785641 33.345302 200 200 200 0
-5.113547 1.789742 33.421877 200 200 200 0
-4.985499 1.789666 33.420470 201 201 201 0
-4.852427 1.787736 33.384433 200 200 200 0
-4.736394 1.792149 33.466838 200 200 200 0
-4.612490 1.793746 33.496659 200 200 200 0
-4.481290 1.792516 33.473685 200 200 200 0
-4.381840 1.804287 33.693505 201 201 201 0
-4.264672 1.809255 33.786268 201 201 201 0
-4.123518 1.804039 33.688869 201 201 201 0
-3.968715 1.792323 33.470085 201 201 201 0
-3.645239 1.701112 31.766792 201 201 201 0
-3.746587 1.808697 33.775853 201 201 201 0
-3.611523 1.805761 33.721033 201 201 201 0
-3.468149 1.798299 33.581686 200 200 200 0
-3.327292 1.791619 33.456931 201 201 201 0
-3.220772 1.803632 33.681277 201 201 201 0
-3.110591 1.814512 33.884437 201 201 201 0
-2.966272 1.805557 33.717220 201 201 201 0
-2.827348 1.799222 33.598910 201 201 201 0
-2.706752 1.804501 33.697499 201 201 201 0
-2.593582 1.815507 33.903032 201 201 201 0
-2.461880 1.814017 33.875195 202 202 202 0
-2.322759 1.806590 33.736511 201 201 201 0
-2.189897 1.803444 33.677764 202 202 202 0
-2.083209 1.822808 34.039371 202 202 202 0
-1.954220 1.823938 34.060475 202 202 202 0
-1.812814 1.812814 33.852730 202 202 202 0
-1.678713 1.807845 33.759940 203 203 203 0
-1.555149 1.814341 33.881243 202 202 202 0
-1.436548 1.828333 34.142544 201 201 201 0
-1.297793 1.816910 33.929233 202 202 202 0
-1.161584 1.806909 33.742459 202 202 202 0
-1.034215 1.809876 33.797862 202 202 202 0
-0.911769 1.823538 34.053006 202 202 202 0
-0.780680 1.821587 34.016555 202 202 202 0
-0.647904 1.814131 33.877336 202 202 202 0
-0.519636 1.818727 33.963155 202 202 202 0
-0.390700 1.823266 34.047924 202 202 202 0
-0.260571 1.823998 34.061582 203 203 203 0
-0.130084 1.821181 34.008982 202 202 202 0
0.000000 1.819915 33.985343 203 203 203 0
0.130291 1.824073 34.062982 203 203 203 0
0.261401 1.829810 34.170115 202 202 202 0
0.391990 1.829286 34.160342 203 203 203 0
0.523421 1.831973 34.210515 203 203 203 0
0.655951 1.836662 34.298073 203 203 203 0
0.645026 1.505062 28.105727 203 203 203 0
0.914727 1.829453 34.163457 203 203 203 0
1.046782 1.831869 34.208565 203 203 203 0
1.173706 1.825764 34.094568 204 204 204 0
1.302360 1.823304 34.048621 204 204 204 0
1.436078 1.827736 34.131388 204 204 204 0
1.570475 1.832221 34.215149 204 204 204 0
1.700914 1.831753 34.206409 203 203 203 0
1.828572 1.828572 34.147004 204 204 204 0
1.958275 1.827724 34.131158 203 203 203 0
2.097325 1.835160 34.270024 203 203 203 0
2.227870 1.834717 34.261749 204 204 204 0
2.353940 1.830843 34.189403 204 204 204 0
2.487678 1.833026 34.230171 204 204 204 0
2.632820 1.842974 34.415943 204 204 204 0
2.759491 1.839660 34.354069 203 203 203 0
2.877473 1.831119 34.194570 204 204 204 0
3.008180 1.831066 34.193580 204 204 204 0
3.159618 1.843111 34.418501 204 204 204 0
3.282899 1.838424 34.330971 205 205 205 0
3.401044 1.831331 34.198533 204 204 204 0
3.525570 1.828073 34.137692 204 204 204 0
3.676767 1.838384 34.330226 204 204 204 0
3.812343 1.840442 34.368655 204 204 204 0
3.930039 1.834018 34.248705 205 205 205 0
4.053686 1.830697 34.186685 205 205 205 0
4.200236 1.837603 34.315654 205 205 205 0
4.335804 1.839432 34.349801 205 205 205 0
4.456212 1.834911 34.265376 204 204 204 0
4.582071 1.832829 34.226490 204 204 204 0
4.723296 1.836837 34.301349 205 205 205 0
4.874071 1.844243 34.439646 204 204 204 0
4.997635 1.841234 34.383456 204 204 204 0
5.119515 1.837775 34.318852 205 205 205 0
5.260609 1.841213 34.383068 205 205 205 0
5.405132 1.845655 34.466012 205 205 205 0
5.518281 1.839427 34.349714 205 205 205 0
5.635342 1.834762 34.262605 205 205 205 0
5.767896 1.835240 34.271515 204 204 204 0
5.913162 1.839650 34.353884 205 205 205 0
6.043974 1.839470 34.350520 204 204 204 0
6.164701 1.836294 34.291202 205 205 205 0
6.307359 1.839646 34.353807 205 205 205 0
6.445153 1.841472 34.387903 205 205 205 0
6.573429 1.840560 34.370869 205 205 205 0
6.710181 1.842011 34.397955 206 206 206 0
6.838629 1.841169 34.382246 205 205 205 0
6.969115 1.840898 34.377186 205 205 205 0
7.121291 1.846261 34.477324 205 205 205 0
7.251408 1.845813 34.468963 205 205 205 0
7.364714 1.841178 34.382418 205 205 205 0
7.496993 1.841367 34.385931 205 205 205 0
7.648873 1.846280 34.477680 205 205 205 0
7.772261 1.844265 34.440062 205 205 205 0
7.888736 1.840705 34.373578 205 205 205 0
8.006753 1.837615 34.315882 205 205 205 0
8.157735 1.842069 34.399050 206 206 206 0
8.296239 1.843609 34.427800 205 205 205 0
8.417326 1.841290 34.384502 205 205 205 0
8.538395 1.839039 34.342462 206 206 206 0
8.679520 1.841110 34.381147 205 205 205 0
8.822294 1.843464 34.425107 205 205 205 0
8.948102 1.842256 34.402544 205 205 205 0
9.065937 1.839466 34.350430 206 206 206 0
9.218235 1.843647 34.428515 206 206 206 0
9.367154 1.847044 34.491958 205 205 205 0
9.472582 1.841891 34.395724 205 205 205 0
9.586103 1.838431 34.331107 206 206 206 0
9.603928 1.816959 33.930145 206 206 206 0
9.895950 1.847244 34.495687 206 206 206 0
10.007080 1.843409 34.424080 206 206 206 0
10.121163 1.840211 34.364360 206 206 206 0
10.277886 1.844749 34.449088 206 206 206 0
10.414201 1.845555 34.464138 205 205 205 0
-9.628179 1.805284 31.464637 196 196 196 0
-9.414949 1.787648 31.157272 196 196 196 0
-9.251206 1.779078 31.007897 196 196 196 0
-9.123143 1.777236 30.975783 196 196 196 0
-9.140197 1.803986 31.442027 196 196 196 0
-9.140635 1.828127 31.862779 196 196 196 0
-8.970902 1.818426 31.693700 196 196 196 0
-8.795825 1.807361 31.500850 196 196 196 0
-8.804793 1.834332 31.970926 197 197 197 0
-8.842560 1.868146 32.560286 197 197 197 0
-8.630782 1.849453 32.234480 198 198 198 0
-8.440089 1.834802 31.979117 198 198 198 0
-8.309086 1.832887 31.945737 197 197 197 0
-8.369456 1.873759 32.658106 197 197 197 0
-8.235419 1.871686 32.621981 198 198 198 0
-8.022249 1.851288 32.266460 197 197 197 0
-7.831977 1.835620 31.993372 198 198 198 0
-7.752869 1.845921 32.172918 198 198 198 0
-7.774615 1.880955 32.783535 198 198 198 0
-7.626246 1.875306 32.685081 198 198 198 0
-7.448468 1.862117 32.455196 198 198 198 0
-7.289952 1.853378 32.302876 198 198 198 0
-7.249662 1.874913 32.678217 198 198 198 0
-7.185037 1.890799 32.955106 198 198 198 0
-7.030539 1.883180 32.822313 199 199 199 0
-6.856610 1.869984 32.592321 198 198 198 0
-6.740621 1.872395 32.634330 198 198 198 0
-6.734725 1.906054 33.220989 199 199 199 0
-6.606960 1.905854 33.217495 198 198 198 0
-6.439216 1.893887 33.008926 199 199 199 0
-6.294084 1.888225 32.910245 199 199 199 0
-6.229016 1.906842 33.234711 199 199 199 0
-6.134155 1.916923 33.410428 199 199 199 0
-5.964529 1.903573 33.177744 199 199 199 0
-5.803114 1.892320 32.981607 199 199 199 0
-5.685446 1.895149 33.030912 199 199 199 0
-5.590182 1.905744 33.215581 200 200 200 0
-5.472905 1.909153 33.274995 199 199 199 0
-5.337780 1.906350 33.226144 199 199 199 0
-5.226496 1.912133 33.326934 200 200 200 0
-5.106184 1.914819 33.373753 200 200 200 0
-4.980165 1.915448 33.384719 200 200 200 0
-4.860338 1.918555 33.438861 200 200 200 0
-4.743803 1.923163 33.519188 200 200 200 0
-4.613694 1.922372 33.505400 201 201 201 0
-4.478443 1.919333 33.452422 200 200 200 0
-4.381099 1.932838 33.687805 201 201 201 0
-4.264167 1.938258 33.782268 200 200 200 0
-4.120666 1.931562 33.665572 200 200 200 0
-3.969402 1.920678 33.475875 200 200 200 0
-3.687053 1.843526 32.131178 201 201 201 0
-3.752982 1.941198 33.833509 201 201 201 0
-3.615034 1.936625 33.753821 200 200 200 0
-3.469206 1.927337 33.591922 201 201 201 0
-3.328733 1.920423 33.471421 202 202 202 0
-3.222629 1.933578 33.700698 202 202 202 0
-3.108849 1.943031 33.865461 201 201 201 0
