ply
    format ascii 1.0
    element vertex 25597
    property float x
    property float y
    property float z
    property uchar red
    property uchar green
    property uchar blue
    property uchar alpha
    end_header
9.589597 8.034527 33.879516 205 205 205 0
9.731884 8.045024 33.923779 204 204 204 0
9.894543 8.071864 34.036955 205 205 205 0
10.005735 8.056566 33.972447 206 206 206 0
10.114169 8.039468 33.900349 205 205 205 0
10.261100 8.053015 33.957475 205 205 205 0
-9.470385 7.457928 30.948970 196 196 196 0
-9.266956 7.390104 30.667515 195 195 195 0
-9.152124 7.392100 30.675797 196 196 196 0
-8.991953 7.357053 30.530356 196 196 196 0
-8.948187 7.417576 30.781517 196 196 196 0
-8.967605 7.532788 31.259626 196 196 196 0
-8.878749 7.558935 31.368130 196 196 196 0
-8.683311 7.493816 31.097900 196 196 196 0
-8.609523 7.533332 31.261884 197 197 197 0
-8.687525 7.708649 31.989415 197 197 197 0
-8.557637 7.701873 31.961295 197 197 197 0
-8.385487 7.656314 31.772234 197 197 197 0
-8.219532 7.615154 31.601429 197 197 197 0
-8.928960 8.395888 34.841322 197 197 197 0
-8.137481 7.767596 32.234031 197 197 197 0
-7.969326 7.724116 32.053600 197 197 197 0
-7.755960 7.634773 31.682843 197 197 197 0
-7.589054 7.589054 31.493117 197 197 197 0
-7.614353 7.737166 32.107752 197 197 197 0
-7.540880 7.788122 32.319212 198 198 198 0
-7.352060 7.719663 32.035121 198 198 198 0
-7.194682 7.682457 31.880722 197 197 197 0
-7.105109 7.717618 32.026633 197 197 197 0
-7.069998 7.814208 32.427463 198 198 198 0
-6.942212 7.809989 32.409954 198 198 198 0
-6.781975 7.768445 32.237554 199 199 199 0
-6.657072 7.766584 32.229834 198 198 198 0
-6.622266 7.871750 32.666250 197 197 197 0
-6.536337 7.919024 32.862429 198 198 198 0
-6.369299 7.867957 32.650512 199 199 199 0
-6.232505 7.852957 32.588263 198 198 198 0
-6.102551 7.846136 32.559960 198 198 198 0
-4.760341 6.247947 25.927782 198 198 198 0
-5.889708 7.894714 32.761549 199 199 199 0
-5.737242 7.857527 32.607231 199 199 199 0
-5.608963 7.852548 32.586568 199 199 199 0
-5.491853 7.863335 32.631332 199 199 199 0
-5.392310 7.900360 32.784979 199 199 199 0
-5.268426 7.902639 32.794435 199 199 199 0
-5.128135 7.879817 32.699730 199 199 199 0
-5.017299 7.902246 32.792805 199 199 199 0
-4.899964 7.915326 32.847086 199 199 199 0
-4.768118 7.905039 32.804393 199 199 199 0
-4.656789 7.929127 32.904354 199 199 199 0
-4.546397 7.956194 33.016679 199 199 199 0
-4.414205 7.945568 32.972583 199 199 199 0
-4.291506 7.951908 32.998892 200 200 200 0
-4.195017 8.008669 33.234438 200 200 200 0
-4.068576 8.010008 33.239997 200 200 200 0
-3.930795 7.988389 33.150282 200 200 200 0
-3.797661 7.975087 33.095081 200 200 200 0
-3.692188 8.020960 33.285443 200 200 200 0
-3.569255 8.030823 33.326374 200 200 200 0
-3.429612 8.002427 33.208536 201 201 201 0
-3.288545 7.968398 33.067322 201 201 201 0
-3.161885 7.967951 33.065468 200 200 200 0
-3.059578 8.031393 33.328740 201 201 201 0
-2.931478 8.029700 33.321715 201 201 201 0
-2.793962 8.000891 33.202164 201 201 201 0
-2.662650 7.987949 33.148455 201 201 201 0
-2.544498 8.015168 33.261411 201 201 201 0
-2.429499 8.055707 33.429636 201 201 201 0
-2.298430 8.044506 33.383156 200 200 200 0
-2.161297 8.009511 33.237933 201 201 201 0
-2.039157 8.029182 33.319563 201 201 201 0
-1.928352 8.099080 33.609627 201 201 201 0
-1.795688 8.080598 33.532930 201 201 201 0
-1.658990 8.039721 33.363299 201 201 201 0
-1.528954 8.027008 33.310541 201 201 201 0
-1.427361 8.174885 33.924205 201 201 201 0
-1.284933 8.095076 33.593013 202 202 202 0
-1.150735 8.055147 33.427312 202 202 202 0
-1.017219 8.010596 33.242438 201 201 201 0
-0.895212 8.056910 33.434629 202 202 202 0
-0.770965 8.095129 33.593234 201 201 201 0
-0.640209 8.066628 33.474957 201 201 201 0
-0.511605 8.057780 33.438239 202 202 202 0
-0.384395 8.072296 33.498479 201 201 201 0
-0.256752 8.087701 33.562406 201 201 201 0
-0.128409 8.089754 33.570926 202 202 202 0
0.000000 8.085675 33.554001 202 202 202 0
0.128259 8.080340 33.531859 202 202 202 0
0.257001 8.095536 33.594920 202 202 202 0
0.386392 8.114228 33.672490 203 203 203 0
0.515142 8.113488 33.669420 202 202 202 0
0.643749 8.111232 33.660057 202 202 202 0
0.773205 8.118656 33.690862 202 202 202 0
0.903584 8.132259 33.747316 202 202 202 0
1.030400 8.114402 33.673211 203 203 203 0
1.156930 8.098509 33.607259 203 203 203 0
1.284175 8.090302 33.573201 202 202 202 0
1.411857 8.086092 33.555729 203 203 203 0
1.544952 8.110998 33.659083 202 202 202 0
1.674069 8.112794 33.666540 203 203 203 0
1.803073 8.113826 33.670823 203 203 203 0
1.929172 8.102521 33.623908 202 202 202 0
2.058774 8.106422 33.640097 203 203 203 0
2.193512 8.128898 33.733368 203 203 203 0
2.324580 8.136028 33.762956 203 203 203 0
2.447946 8.116874 33.683470 203 203 203 0
2.578746 8.123051 33.709102 203 203 203 0
2.721484 8.164452 33.880909 203 203 203 0
2.849584 8.160172 33.863148 204 204 204 0
2.967742 8.129031 33.733920 203 203 203 0
3.095606 8.125967 33.721202 203 203 203 0
3.244790 8.176872 33.932448 203 203 203 0
3.366079 8.156268 33.846949 203 203 203 0
3.479478 8.118782 33.691388 203 203 203 0
3.602267 8.105102 33.634617 203 203 203 0
3.748559 8.143421 33.793635 203 203 203 0
3.885157 8.158829 33.857573 204 204 204 0
4.000318 8.129679 33.736607 204 204 204 0
4.124897 8.120892 33.700143 204 204 204 0
4.272952 8.157453 33.851864 204 204 204 0
4.403847 8.160070 33.862725 203 203 203 0
4.525753 8.146355 33.805811 204 204 204 0
4.648682 8.135193 33.759492 203 203 203 0
4.787007 8.150850 33.824464 204 204 204 0
4.935374 8.182330 33.955098 204 204 204 0
5.057858 8.170386 33.905535 204 204 204 0
5.175309 8.151112 33.825549 204 204 204 0
5.315728 8.168069 33.895921 204 204 204 0
5.460769 8.191154 33.991717 204 204 204 0
5.570615 8.161598 33.869066 205 205 205 0
5.686118 8.141487 33.785609 204 204 204 0
5.820026 8.148037 33.812790 204 204 204 0
5.961545 8.164724 33.882039 204 204 204 0
6.090670 8.164090 33.879406 204 204 204 0
6.211302 8.152333 33.830619 204 204 204 0
6.349876 8.164126 33.879555 204 204 204 0
6.480512 8.165445 33.885031 204 204 204 0
6.605486 8.159718 33.861264 204 204 204 0
6.737905 8.163232 33.875844 205 205 205 0
6.862256 8.157021 33.850073 204 204 204 0
6.991277 8.156490 33.847868 205 205 205 0
7.134304 8.172020 33.912317 205 205 205 0
7.271668 8.180626 33.948028 204 204 204 0
7.395465 8.173935 33.920260 205 205 205 0
7.518698 8.166862 33.890908 204 204 204 0
7.668507 8.188406 33.980312 204 204 204 0
7.789469 8.178943 33.941042 205 205 205 0
7.907235 8.166489 33.889361 204 204 204 0
8.020520 8.149883 33.820450 204 204 204 0
8.160085 8.160085 33.862786 205 205 205 0
8.311057 8.181197 33.950396 205 205 205 0
8.429318 8.169954 33.903742 204 204 204 0
8.552561 8.163808 33.878238 204 204 204 0
8.693121 8.174129 33.921066 205 205 205 0
8.838224 8.188354 33.980099 205 205 205 0
8.958770 8.179746 33.944376 205 205 205 0
9.075608 8.168047 33.895827 205 205 205 0
9.212364 8.174351 33.921988 204 204 204 0
9.378751 8.206407 34.055015 205 205 205 0
9.488405 8.188623 33.981216 205 205 205 0
9.589812 8.164300 33.880277 204 204 204 0
9.733476 8.176120 33.929328 205 205 205 0
9.888430 8.196988 34.015926 205 205 205 0
10.002569 8.183920 33.961696 205 205 205 0
10.115390 8.170123 33.904442 205 205 205 0
10.264073 8.185273 33.967314 205 205 205 0
-9.453825 7.563060 30.894855 195 195 195 0
-9.283350 7.520688 30.721766 195 195 195 0
-9.155458 7.512170 30.686970 196 196 196 0
-9.022473 7.499198 30.633979 196 196 196 0
-8.978565 7.560897 30.886016 196 196 196 0
-9.009981 7.688517 31.407340 197 197 197 0
-8.896709 7.694451 31.431579 196 196 196 0
-8.698989 7.626511 31.154049 197 197 197 0
-8.625380 7.667004 31.319461 196 196 196 0
-8.693409 7.836313 32.011081 197 197 197 0
-8.560463 7.826709 31.971852 197 197 197 0
-8.386951 7.779201 31.777782 197 197 197 0
-8.220050 7.736518 31.603423 197 197 197 0
-8.930915 8.531023 34.848951 197 197 197 0
-8.121820 7.875704 32.171995 197 197 197 0
-7.977140 7.854415 32.085029 198 198 198 0
-7.742932 7.742932 31.629623 197 197 197 0
-7.598185 7.718791 31.531011 197 197 197 0
-7.614859 7.860500 32.109885 197 197 197 0
-7.527848 7.898070 32.263358 197 197 197 0
-7.347126 7.836934 32.013619 197 197 197 0
-7.189568 7.798853 31.858060 198 198 198 0
-7.115948 7.852081 32.075494 197 197 197 0
-7.056737 7.923353 32.366639 197 197 197 0
-6.940943 7.932507 32.404030 198 198 198 0
-6.769797 7.877582 32.179667 198 198 198 0
-6.662273 7.896027 32.255014 198 198 198 0
-6.615997 7.989128 32.635327 198 198 198 0
-6.532295 8.039747 32.842106 199 199 199 0
-6.376331 8.001670 32.686561 198 198 198 0
-6.235645 7.981626 32.604679 199 199 199 0
-6.103403 7.971792 32.564510 199 199 199 0
-4.801866 6.402488 26.153953 198 198 198 0
-5.881643 8.009046 32.716692 199 199 199 0
-5.733050 7.976417 32.583403 198 198 198 0
-5.608143 7.976026 32.581806 198 198 198 0
-5.495440 7.993367 32.652643 199 199 199 0
-5.394123 8.028462 32.796007 199 199 199 0
-5.267825 8.027162 32.790695 199 199 199 0
-5.126438 8.002245 32.688908 199 199 199 0
-5.020528 8.032845 32.813910 199 199 199 0
-4.901250 8.043076 32.855704 200 200 200 0
-4.771922 8.036921 32.830562 200 200 200 0
-4.661300 8.062788 32.936227 200 200 200 0
-4.550252 8.089337 33.044676 199 199 199 0
-4.419705 8.081746 33.013666 199 199 199 0
-4.294070 8.082955 33.018609 200 200 200 0
-4.191796 8.129545 33.208924 200 200 200 0
-4.065933 8.131866 33.218407 200 200 200 0
-3.928165 8.109760 33.128106 199 199 199 0
-3.795865 8.097846 33.079437 200 200 200 0
-3.692487 8.148938 33.288144 200 200 200 0
-3.565109 8.148821 33.287666 200 200 200 0
-3.430232 8.130920 33.214543 200 200 200 0
-3.286481 8.089799 33.046563 200 200 200 0
-3.159280 8.087756 33.038218 200 200 200 0
-3.058135 8.155027 33.313020 200 200 200 0
-2.936209 8.170320 33.375491 201 201 201 0
-2.794209 8.128608 33.205100 200 200 200 0
-2.663676 8.117869 33.161232 201 201 201 0
-2.546251 8.148002 33.284324 200 200 200 0
-2.429681 8.184190 33.432149 200 200 200 0
-2.298986 8.174172 33.391226 201 201 201 0
-2.161491 8.137377 33.240918 202 202 202 0
-2.039234 8.156937 33.320820 200 200 200 0
-1.928553 8.228492 33.613121 201 201 201 0
-1.796093 8.210712 33.540492 201 201 201 0
-1.658932 8.167047 33.362122 201 201 201 0
-1.529424 8.156928 33.320784 201 201 201 0
-1.428811 8.313083 33.958672 201 201 201 0
-1.284792 8.222670 33.589339 201 201 201 0
-1.149988 8.177692 33.405604 201 201 201 0
-1.018120 8.144961 33.271898 201 201 201 0
-0.893713 8.171093 33.378649 201 201 201 0
-0.770884 8.222761 33.589712 202 202 202 0
-0.640052 8.192661 33.466754 202 202 202 0
-0.511262 8.180187 33.415796 201 201 201 0
-0.384329 8.199014 33.492703 201 201 201 0
-0.256753 8.216103 33.562513 202 202 202 0
-0.128410 8.218229 33.571196 202 202 202 0
0.000000 8.210294 33.538781 202 202 202 0
0.128363 8.215214 33.558881 202 202 202 0
0.257011 8.224367 33.596269 202 202 202 0
0.386386 8.242906 33.672003 202 202 202 0
0.515142 8.242268 33.669396 202 202 202 0
0.643792 8.240542 33.662344 202 202 202 0
0.773349 8.249055 33.697120 202 202 202 0
0.903563 8.261144 33.746505 202 202 202 0
1.030207 8.241656 33.666896 203 203 203 0
1.156822 8.226287 33.604114 203 203 203 0
1.283767 8.216111 33.562543 202 202 202 0
1.412530 8.218357 33.571721 203 203 203 0
1.544579 8.237757 33.650968 203 203 203 0
1.675290 8.247582 33.691102 203 203 203 0
1.804256 8.248029 33.692929 203 203 203 0
1.929765 8.233665 33.634253 203 203 203 0
2.057983 8.231933 33.627177 203 203 203 0
2.194754 8.262604 33.752467 203 203 203 0
2.326058 8.270430 33.784436 203 203 203 0
2.448730 8.248352 33.694249 203 203 203 0
2.580041 8.256131 33.726024 203 203 203 0
2.722054 8.295784 33.888006 203 203 203 0
2.849112 8.288326 33.857540 203 203 203 0
2.968228 8.259417 33.739448 203 203 203 0
3.096790 8.258106 33.734093 203 203 203 0
3.245187 8.307678 33.936593 204 204 204 0
3.366105 8.285796 33.847205 204 204 204 0
3.478177 8.244568 33.678793 204 204 204 0
3.601943 8.233013 33.631591 203 203 203 0
3.747913 8.271256 33.787810 203 203 203 0
3.885822 8.289754 33.863373 204 204 204 0
4.000274 8.258631 33.736236 204 204 204 0
4.125547 8.251095 33.705453 204 204 204 0
4.267661 8.276677 33.809953 203 203 203 0
4.407136 8.295785 33.888010 204 204 204 0
4.528001 8.279773 33.822601 204 204 204 0
4.648563 8.264112 33.758628 204 204 204 0
4.788217 8.282321 33.833012 204 204 204 0
4.936389 8.313919 33.962087 204 204 204 0
5.059096 8.302106 33.913833 204 204 204 0
5.174650 8.279440 33.821242 204 204 204 0
5.314543 8.295872 33.888368 204 204 204 0
5.459285 8.318911 33.982480 204 204 204 0
5.572202 8.293510 33.878717 204 204 204 0
5.688184 8.273723 33.797886 204 204 204 0
5.819422 8.276511 33.809276 204 204 204 0
5.961702 8.294542 33.882934 204 204 204 0
6.089855 8.292568 33.874870 205 205 205 0
6.211218 8.281625 33.830166 204 204 204 0
6.347166 8.290176 33.865099 204 204 204 0
6.479666 8.293973 33.880609 204 204 204 0
6.605065 8.288708 33.859103 204 204 204 0
6.737422 8.292211 33.873413 204 204 204 0
6.864849 8.289630 33.862866 204 204 204 0
6.991305 8.285991 33.848002 204 204 204 0
7.138390 8.306490 33.931741 204 204 204 0
7.276412 8.315900 33.970179 204 204 204 0
7.395033 8.303195 33.918281 204 204 204 0
7.519688 8.297586 33.895369 205 205 205 0
7.667408 8.317189 33.975444 205 205 205 0
7.794907 8.314567 33.964735 204 204 204 0
7.908726 8.297680 33.895751 204 204 204 0
8.022313 8.281097 33.828011 205 205 205 0
8.160178 8.289704 33.863171 204 204 204 0
8.309323 8.309323 33.943313 205 205 205 0
8.427338 8.297687 33.895781 205 205 205 0
8.550234 8.291136 33.869018 204 204 204 0
8.698396 8.308916 33.941649 205 205 205 0
8.838119 8.318229 33.979695 205 205 205 0
8.963647 8.314107 33.962855 204 204 204 0
9.071955 8.294359 33.882186 205 205 205 0
9.216076 8.307449 33.935658 204 204 204 0
9.375333 8.333629 34.042603 205 205 205 0
9.488032 8.318274 33.979878 205 205 205 0
9.593422 8.297014 33.893029 204 204 204 0
9.734867 8.307086 33.934175 205 205 205 0
9.892544 8.330563 34.030079 205 205 205 0
10.000858 8.312402 33.955889 205 205 205 0
10.118272 8.302172 33.914100 205 205 205 0
10.263449 8.314693 33.965249 206 206 206 0
-9.452643 7.680272 30.890989 195 195 195 0
-9.292130 7.645423 30.750823 196 196 196 0
-9.160584 7.633820 30.704154 196 196 196 0
-8.999200 7.596727 30.554961 196 196 196 0
-9.011980 7.707615 31.000965 196 196 196 0
-9.020610 7.817862 31.444394 196 196 196 0
-8.881807 7.801587 31.378933 196 196 196 0
-8.699779 7.746379 31.156877 197 197 197 0
-8.642721 7.802457 31.382429 196 196 196 0
-8.700021 7.964808 32.035428 196 196 196 0
-8.560034 7.948603 31.970250 197 197 197 0
-8.389452 7.903107 31.787257 197 197 197 0
-8.241709 7.878104 31.686692 197 197 197 0
-8.932701 8.666053 34.855921 197 197 197 0
-8.128193 8.005038 32.197237 197 197 197 0
-7.966795 7.966795 32.043417 197 197 197 0
-7.741427 7.862387 31.623476 197 197 197 0
-7.584601 7.825382 31.474639 197 197 197 0
-7.603151 7.971045 32.060513 197 197 197 0
-7.530328 8.024121 32.273989 197 197 197 0
-7.343712 7.955688 31.998746 198 198 198 0
-7.190495 7.921732 31.862169 197 197 197 0
-7.106631 7.964328 32.033496 197 197 197 0
-7.058481 8.049145 32.374639 198 198 198 0
-6.949345 8.066204 32.443254 197 197 197 0
-6.781931 8.015009 32.237342 198 198 198 0
-6.660615 8.017408 32.246988 198 198 198 0
-6.605345 8.100895 32.582785 198 198 198 0
-6.538745 8.173431 32.874534 198 198 198 0
-6.378521 8.129487 32.697787 198 198 198 0
-6.238211 8.109674 32.618095 199 199 199 0
-6.107249 8.101453 32.585031 199 199 199 0
-4.835016 6.547418 26.334510 199 199 199 0
-5.878705 8.130123 32.700345 198 198 198 0
-5.733747 8.102033 32.587364 199 199 199 0
-5.611298 8.105209 32.600136 199 199 199 0
-5.495616 8.118524 32.653692 199 199 199 0
-5.394671 8.154736 32.799339 199 199 199 0
-5.264721 8.147783 32.771373 199 199 199 0
-5.128129 8.129961 32.699693 199 199 199 0
-5.020983 8.159097 32.816881 199 199 199 0
-4.900741 8.167901 32.852292 200 200 200 0
-4.768283 8.156273 32.805521 200 200 200 0
-4.659543 8.185683 32.923814 200 200 200 0
-4.550735 8.216605 33.048184 200 200 200 0
-4.417209 8.203387 32.995022 200 200 200 0
-4.293456 8.208078 33.013890 200 200 200 0
-4.193540 8.260003 33.222736 200 200 200 0
-4.066647 8.260376 33.224236 200 200 200 0
-3.928079 8.236296 33.127383 199 199 199 0
-3.797279 8.227437 33.091752 200 200 200 0
-3.692889 8.277165 33.291764 200 200 200 0
-3.567704 8.282169 33.311893 200 200 200 0
-3.427799 8.252109 33.190987 200 200 200 0
-3.288323 8.220808 33.065089 200 200 200 0
-3.157010 8.208226 33.014483 201 201 201 0
-3.057814 8.281578 33.309516 201 201 201 0
-2.934996 8.294555 33.361710 201 201 201 0
-2.794964 8.257849 33.214073 200 200 200 0
-2.665739 8.251098 33.186920 201 201 201 0
-2.547711 8.280060 33.303411 200 200 200 0
-2.431508 8.318316 33.457281 201 201 201 0
-2.299093 8.302282 33.392787 201 201 201 0
-2.160859 8.262110 33.231211 201 201 201 0
-2.038363 8.280849 33.306584 201 201 201 0
-1.927886 8.354172 33.601496 201 201 201 0
-1.796150 8.339266 33.541541 202 202 202 0
-1.658033 8.290167 33.344058 201 201 201 0
-1.529242 8.283393 33.316816 202 202 202 0
-1.430525 8.453101 33.999399 201 201 201 0
-1.284879 8.351712 33.591600 201 201 201 0
-1.150109 8.306343 33.409121 201 201 201 0
-1.017599 8.267991 33.254866 201 201 201 0
-0.893610 8.297804 33.374777 202 202 202 0
-0.770649 8.348702 33.579495 202 202 202 0
-0.640002 8.320029 33.464168 201 201 201 0
-0.511270 8.308136 33.416332 202 202 202 0
-0.384221 8.324785 33.483297 202 202 202 0
-0.256780 8.345344 33.565991 202 202 202 0
-0.128355 8.343046 33.556745 202 202 202 0
0.000000 8.339906 33.544119 202 202 202 0
0.128311 8.340225 33.545401 202 202 202 0
0.257047 8.354031 33.600929 202 202 202 0
0.386546 8.375171 33.685959 202 202 202 0
0.515168 8.371483 33.671122 202 202 202 0
0.643735 8.368561 33.659370 202 202 202 0
0.773383 8.378318 33.698614 202 202 202 0
0.903631 8.390861 33.749063 202 202 202 0
1.030617 8.373764 33.680296 202 202 202 0
1.156333 8.351294 33.589922 202 202 202 0
1.284188 8.347220 33.573536 202 202 202 0
1.412488 8.346519 33.570715 202 202 202 0
1.544143 8.364108 33.641459 203 203 203 0
1.674752 8.373759 33.680277 203 203 203 0
1.804288 8.377049 33.693512 202 202 202 0
1.929471 8.361043 33.629131 203 203 203 0
2.058870 8.364158 33.641660 203 203 203 0
2.195114 8.393082 33.757998 203 203 203 0
2.325802 8.398729 33.780709 203 203 203 0
2.448915 8.377867 33.696801 203 203 203 0
2.579272 8.382634 33.715975 203 203 203 0
2.723010 8.428365 33.899908 204 204 204 0
2.847995 8.414532 33.844272 203 203 203 0
2.967290 8.385820 33.728787 203 203 203 0
3.097996 8.390407 33.747236 203 203 203 0
3.245239 8.437622 33.937141 204 204 204 0
3.364562 8.411405 33.831696 204 204 204 0
3.478973 8.375307 33.686502 204 204 204 0
3.600527 8.358367 33.618371 203 203 203 0
3.748683 8.402220 33.794752 204 204 204 0
3.884862 8.417200 33.855003 204 204 204 0
3.998775 8.384529 33.723597 204 204 204 0
4.125807 8.380545 33.707572 204 204 204 0
4.265666 8.402069 33.794143 203 203 203 0
4.405328 8.421950 33.874106 204 204 204 0
4.527719 8.408621 33.820495 204 204 204 0
4.645224 8.387210 33.734379 204 204 204 0
4.788472 8.412181 33.834817 204 204 204 0
4.935114 8.441642 33.953310 204 204 204 0
5.058086 8.430143 33.907061 204 204 204 0
5.174464 8.408504 33.820025 204 204 204 0
5.314835 8.425958 33.890226 205 205 205 0
5.459710 8.449551 33.985124 204 204 204 0
5.571513 8.422055 33.874529 204 204 204 0
5.686288 8.400198 33.786617 204 204 204 0
5.815263 8.399825 33.785117 204 204 204 0
5.961057 8.423232 33.879264 205 205 205 0
6.088360 8.420073 33.866556 204 204 204 0
6.213070 8.413532 33.840248 204 204 204 0
6.348721 8.421773 33.873396 204 204 204 0
6.481727 8.426246 33.891385 205 205 205 0
6.607740 8.421630 33.872819 204 204 204 0
6.737594 8.421992 33.874277 205 205 205 0
6.863207 8.417141 33.854766 204 204 204 0
6.990515 8.414508 33.844177 204 204 204 0
7.136593 8.434155 33.923198 204 204 204 0
7.279276 8.449159 33.983547 204 204 204 0
7.396488 8.434591 33.924952 205 205 205 0
7.519805 8.427368 33.895898 205 205 205 0
7.666606 8.446261 33.971891 204 204 204 0
7.790756 8.439985 33.946648 205 205 205 0
7.908559 8.427153 33.895037 204 204 204 0
8.019471 8.407510 33.816026 205 205 205 0
8.162692 8.421825 33.873606 205 205 205 0
8.313356 8.443252 33.959786 205 205 205 0
8.428915 8.428915 33.902122 204 204 204 0
8.549753 8.420211 33.867113 205 205 205 0
8.692959 8.433468 33.920433 205 205 205 0
8.839549 8.449569 33.985194 204 204 204 0
8.963573 8.443946 33.962576 205 205 205 0
9.072980 8.424910 33.886012 205 205 205 0
9.213396 8.434799 33.925790 204 204 204 0
9.378116 8.466355 34.052709 205 205 205 0
9.490568 8.450506 33.988964 205 205 205 0
9.593853 8.427033 33.894553 205 205 205 0
9.735888 8.437770 33.937738 205 205 205 0
9.893079 8.461186 34.031920 205 205 205 0
10.001878 8.443144 33.959351 205 205 205 0
10.115531 8.429609 33.904913 204 204 204 0
10.267829 8.448214 33.979744 205 205 205 0
-9.467170 7.810416 30.938465 195 195 195 0
-9.321470 7.787557 30.847920 195 195 195 0
-9.161781 7.752276 30.708165 196 196 196 0
-9.018329 7.729996 30.619910 196 196 196 0
-8.993878 7.810473 30.938691 197 197 197 0
-9.028154 7.944776 31.470690 196 196 196 0
-8.900501 7.938284 31.444976 196 196 196 0
-8.699960 7.865718 31.157526 196 196 196 0
-8.649330 7.928552 31.406427 196 196 196 0
-8.708697 8.095408 32.067373 196 196 196 0
-8.563651 8.074299 31.983757 197 197 197 0
-8.388548 8.023828 31.783832 197 197 197 0
-8.236634 7.994380 31.667183 197 197 197 0
-8.932481 8.799161 34.855063 196 196 196 0
-8.135321 8.135321 32.225475 197 197 197 0
-7.965082 8.087621 32.036528 197 197 197 0
-7.732729 7.974376 31.587944 197 197 197 0
-7.591840 7.953356 31.504679 197 197 197 0
-7.605122 8.095775 32.068827 197 197 197 0
-7.530825 8.148105 32.276115 197 197 197 0
-7.348160 8.082976 32.018127 198 198 198 0
-7.198976 8.053092 31.899751 197 197 197 0
-7.114552 8.095870 32.069202 197 197 197 0
-7.054929 8.168865 32.358347 198 198 198 0
-6.940077 8.179376 32.399985 198 198 198 0
-6.776743 8.132091 32.212682 198 198 198 0
-6.669548 8.151670 32.290236 198 198 198 0
-6.618342 8.241709 32.646897 198 198 198 0
-6.534910 8.294308 32.855252 198 198 198 0
-6.376284 8.251662 32.686321 198 198 198 0
-6.228626 8.221786 32.567979 199 199 199 0
-6.091741 8.205202 32.502286 198 198 198 0
-4.883809 6.715237 26.600265 199 199 199 0
-5.875250 8.250351 32.681129 198 198 198 0
-5.725352 8.214636 32.539654 198 198 198 0
-5.606495 8.222859 32.572229 198 198 198 0
-5.489993 8.234989 32.620278 198 198 198 0
-5.393225 8.277972 32.790543 199 199 199 0
-5.266708 8.276255 32.783741 200 200 200 0
-5.122330 8.245702 32.662715 199 199 199 0
-5.024858 8.291016 32.842209 199 199 199 0
-4.901370 8.294626 32.856512 200 200 200 0
-4.774401 8.292380 32.847614 200 200 200 0
-4.662763 8.317360 32.946565 199 199 199 0
-4.544159 8.330958 33.000428 199 199 199 0
-4.421137 8.337001 33.024363 199 199 199 0
-4.293145 8.333752 33.011497 199 199 199 0
-4.193201 8.386401 33.220049 199 199 199 0
-4.070425 8.395252 33.255107 200 200 200 0
-3.929276 8.365556 33.137478 200 200 200 0
-3.795278 8.349613 33.074322 200 200 200 0
-3.691631 8.401642 33.280421 200 200 200 0
-3.568622 8.411753 33.320470 200 200 200 0
-3.425446 8.373313 33.168202 200 200 200 0
-3.288060 8.346613 33.062441 200 200 200 0
-3.158393 8.338159 33.028951 200 200 200 0
-3.056672 8.405847 33.297077 200 200 200 0
-2.933826 8.418806 33.348409 200 200 200 0
-2.795957 8.387871 33.225871 200 200 200 0
-2.663385 8.370638 33.157606 200 200 200 0
-2.544691 8.397479 33.263929 200 200 200 0
-2.429238 8.438404 33.426042 200 200 200 0
-2.299146 8.430201 33.393548 201 201 201 0
-2.161176 8.390448 33.236078 201 201 201 0
-2.038711 8.409683 33.312272 201 201 201 0
-1.928153 8.483871 33.606144 201 201 201 0
-1.796643 8.469889 33.550758 202 202 202 0
-1.658027 8.417678 33.343940 201 201 201 0
-1.529563 8.412597 33.323815 201 201 201 0
-1.433512 8.601069 34.070387 201 201 201 0
-1.284277 8.476229 33.575873 201 201 201 0
-1.149971 8.433117 33.405098 201 201 201 0
-1.018120 8.399488 33.271886 201 201 201 0
-0.893978 8.428940 33.388551 202 202 202 0
-0.770692 8.477615 33.581361 202 202 202 0
-0.640579 8.455642 33.494322 201 201 201 0
-0.510837 8.428815 33.388055 202 202 202 0
-0.383990 8.447788 33.463213 201 201 201 0
-0.256796 8.474276 33.568135 202 202 202 0
-0.128322 8.469223 33.548121 202 202 202 0
0.000000 8.467320 33.540583 202 202 202 0
0.128358 8.471607 33.557562 202 202 202 0
0.257110 8.484623 33.609122 202 202 202 0
0.386203 8.496474 33.656068 202 202 202 0
0.514970 8.497006 33.658174 202 202 202 0
0.643807 8.498247 33.663088 202 202 202 0
0.773146 8.504607 33.688282 202 202 202 0
0.903765 8.521208 33.754044 202 202 202 0
1.030435 8.501092 33.674360 202 202 202 0
1.157142 8.485706 33.613414 202 202 202 0
1.284387 8.476955 33.578749 203 203 203 0
1.412927 8.477561 33.581150 203 203 203 0
1.544363 8.493998 33.646258 203 203 203 0
1.675480 8.506285 33.694930 203 203 203 0
1.803872 8.503969 33.685754 203 203 203 0
1.928383 8.484886 33.610165 202 202 202 0
2.058740 8.492302 33.639540 203 203 203 0
2.194484 8.519761 33.748311 203 203 203 0
2.325149 8.525546 33.771226 203 203 203 0
2.449651 8.509314 33.706926 202 202 202 0
2.580080 8.514263 33.726533 203 203 203 0
2.723693 8.560178 33.908411 203 203 203 0
2.847634 8.542903 33.839980 204 204 204 0
2.967056 8.514162 33.726131 203 203 203 0
3.097483 8.518077 33.741640 203 203 203 0
3.246248 8.570096 33.947696 204 204 204 0
3.365145 8.542292 33.837562 204 204 204 0
3.480376 8.507586 33.700083 203 203 203 0
3.601759 8.489860 33.629865 203 203 203 0
3.749140 8.532525 33.798872 203 203 203 0
3.883893 8.544565 33.846562 203 203 203 0
3.998986 8.513971 33.725376 203 203 203 0
4.123999 8.505747 33.692799 204 204 204 0
4.269819 8.539638 33.827046 203 203 203 0
4.405556 8.551962 33.875863 203 203 203 0
4.529296 8.540959 33.832278 204 204 204 0
4.648998 8.523163 33.761788 204 204 204 0
4.787970 8.540704 33.831270 204 204 204 0
4.935446 8.572090 33.955596 204 204 204 0
5.057842 8.559425 33.905427 204 204 204 0
5.171778 8.533433 33.802469 204 204 204 0
5.312405 8.551677 33.874736 204 204 204 0
5.458655 8.577887 33.978558 204 204 204 0
5.571102 8.550994 33.872031 203 203 203 0
5.683378 8.525068 33.769331 204 204 204 0
5.818234 8.533410 33.802376 204 204 204 0
5.961626 8.553637 33.882498 204 204 204 0
6.089980 8.551887 33.875567 204 204 204 0
6.211416 8.540697 33.831240 204 204 204 0
6.345381 8.546840 33.855576 204 204 204 0
6.482310 8.556649 33.894429 205 205 205 0
6.606174 8.549166 33.864790 204 204 204 0
6.740730 8.555542 33.890047 204 204 204 0
6.864743 8.548548 33.862340 204 204 204 0
6.989179 8.542330 33.837710 204 204 204 0
7.136144 8.563373 33.921065 204 204 204 0
7.275443 8.574630 33.965655 204 204 204 0
7.395348 8.563035 33.919725 205 205 205 0
7.521736 8.559217 33.904604 205 205 205 0
7.665527 8.574996 33.967106 204 204 204 0
7.788989 8.567888 33.938949 205 205 205 0
7.906859 8.554962 33.887747 204 204 204 0
8.021133 8.538626 33.823038 204 204 204 0
8.158601 8.547106 33.856628 205 205 205 0
8.311655 8.571394 33.952839 205 205 205 0
8.429976 8.559668 33.906388 205 205 205 0
8.551722 8.551722 33.874915 205 205 205 0
8.692273 8.562537 33.917755 205 205 205 0
8.840243 8.580236 33.987863 205 205 205 0
8.961488 8.571858 33.954678 204 204 204 0
9.078199 8.559445 33.905505 205 205 205 0
9.215918 8.566910 33.935075 204 204 204 0
9.381537 8.599742 34.065129 204 204 204 0
9.488158 8.578335 33.980332 205 205 205 0
9.591978 8.555007 33.887927 205 205 205 0
9.741223 8.572276 33.956333 205 205 205 0
9.893349 8.591592 34.032847 205 205 205 0
10.006825 8.577279 33.976150 205 205 205 0
10.116796 8.560366 33.909155 205 205 205 0
10.270849 8.580709 33.989738 204 204 204 0
-9.463697 7.925847 30.927115 196 196 196 0
-9.322292 7.906248 30.850641 195 195 195 0
-9.181479 7.886655 30.774189 196 196 196 0
-9.015761 7.844883 30.611189 196 196 196 0
-8.991785 7.926969 30.931494 196 196 196 0
-9.005910 8.045280 31.393150 196 196 196 0
-8.911640 8.068647 31.484331 196 196 196 0
-8.701248 7.986077 31.162139 196 196 196 0
-8.669160 8.067135 31.478431 197 197 197 0
-8.723421 8.231961 32.121592 196 196 196 0
-8.569169 8.201919 32.004365 197 197 197 0
-8.390527 8.147324 31.791332 196 196 196 0
-8.243001 8.121780 31.691660 196 196 196 0
-8.931280 8.931280 34.850374 197 197 197 0
-8.137550 8.260846 32.234303 197 197 197 0
-7.964063 8.209111 32.032432 197 197 197 0
-7.738018 8.100738 31.609551 197 197 197 0
-7.588262 8.070057 31.489832 197 197 197 0
-7.609517 8.223187 32.087357 197 197 197 0
-7.531576 8.272387 32.279336 197 197 197 0
-7.351537 8.209217 32.032842 198 198 198 0
-7.190863 8.165896 31.863801 197 197 197 0
-7.107267 8.210119 32.036364 198 198 198 0
-7.060171 8.298798 32.382394 197 197 197 0
-6.953764 8.319682 32.463883 198 198 198 0
-6.782298 8.262073 32.239089 198 198 198 0
-6.668396 8.273751 32.284659 198 198 198 0
-6.622778 8.372191 32.668778 199 199 199 0
-6.536125 8.421545 32.861361 199 199 199 0
-6.371517 8.370424 32.661882 198 198 198 0
-6.233704 8.353164 32.594532 198 198 198 0
-6.103465 8.345555 32.564842 198 198 198 0
-4.973116 6.941642 27.086690 198 198 198 0
-5.877529 8.378605 32.693805 199 199 199 0
-5.725868 8.339851 32.542587 199 199 199 0
-5.610085 8.352793 32.593087 198 198 198 0
-5.489676 8.359280 32.618398 199 199 199 0
-5.394687 8.405675 32.799434 199 199 199 0
-5.270015 8.406928 32.804324 199 199 199 0
-5.121719 8.369638 32.658816 199 199 199 0
-5.015592 8.401117 32.781649 199 199 199 0
-4.906824 8.429671 32.893070 199 199 199 0
-4.774336 8.417908 32.847166 200 200 200 0
-4.659817 8.438046 32.925749 199 199 199 0
-4.545754 8.460153 33.012009 200 200 200 0
-4.417792 8.456916 32.999379 200 200 200 0
-4.293711 8.461136 33.015844 200 200 200 0
-4.190595 8.508177 33.199403 200 200 200 0
-4.071092 8.523849 33.260555 200 200 200 0
-3.930409 8.494755 33.147029 200 200 200 0
-3.799798 8.486215 33.113707 200 200 200 0
-3.693199 8.532563 33.294558 200 200 200 0
-3.567138 8.535652 33.306613 200 200 200 0
-3.425778 8.501004 33.171412 200 200 200 0
-3.286198 8.468279 33.043718 200 200 200 0
-3.160063 8.468968 33.046406 200 200 200 0
-3.057998 8.536910 33.311522 200 200 200 0
-2.935032 8.549877 33.362118 200 200 200 0
-2.794307 8.509934 33.206260 200 200 200 0
-2.662777 8.495527 33.150043 201 201 201 0
-2.545934 8.528879 33.280185 200 200 200 0
-2.429808 8.568271 33.433894 201 201 201 0
-2.297360 8.551284 33.367611 201 201 201 0
-2.161319 8.518139 33.238275 201 201 201 0
-2.037509 8.532069 33.292629 201 201 201 0
-1.927734 8.610545 33.598850 200 200 200 0
-1.794507 8.587996 33.510861 200 200 200 0
-1.658279 8.546513 33.348991 201 201 201 0
-1.530288 8.544107 33.339602 202 202 202 0
-1.437530 8.755863 34.165889 201 201 201 0
-1.284282 8.604687 33.575990 201 201 201 0
-1.149984 8.560993 33.405492 201 201 201 0
-1.017403 8.520747 33.248453 202 202 202 0
-0.893890 8.555801 33.385234 202 202 202 0
-0.770684 8.605968 33.580990 202 202 202 0
-0.640106 8.577419 33.469589 201 201 201 0
-0.510912 8.557781 33.392963 202 202 202 0
-0.383973 8.575396 33.461696 202 202 202 0
-0.256854 8.604617 33.575716 201 201 201 0
-0.128292 8.595554 33.540354 201 201 201 0
0.000000 8.593705 33.533138 201 201 201 0
0.128323 8.597612 33.548382 203 203 203 0
0.256994 8.609286 33.593936 202 202 202 0
0.386563 8.633238 33.687398 203 203 203 0
0.515205 8.629676 33.673498 202 202 202 0
0.643824 8.627241 33.663999 202 202 202 0
0.773414 8.636461 33.699976 202 202 202 0
0.903654 8.649258 33.749908 203 203 203 0
1.030111 8.627183 33.663773 202 202 202 0
1.156735 8.611246 33.601585 203 203 203 0
1.284253 8.604497 33.575249 203 203 203 0
1.412260 8.601949 33.565305 203 203 203 0
1.544413 8.622971 33.647336 203 203 203 0
1.675833 8.636987 33.702026 202 202 202 0
1.804596 8.636281 33.699273 202 202 202 0
1.930243 8.621753 33.642583 203 203 203 0
2.058354 8.619357 33.633234 202 202 202 0
2.194606 8.649329 33.750188 203 203 203 0
2.326504 8.659766 33.790912 204 204 204 0
2.448792 8.635212 33.695103 202 202 202 0
2.580126 8.643420 33.727131 203 203 203 0
2.722778 8.686959 33.897020 203 203 203 0
2.849431 8.677811 33.861325 203 203 203 0
2.967059 8.643173 33.726164 203 203 203 0
3.096500 8.644396 33.730938 203 203 203 0
3.245546 8.698062 33.940347 203 203 203 0
3.365960 8.673820 33.845753 204 204 204 0
3.479316 8.633858 33.689819 203 203 203 0
3.601158 8.617057 33.624258 204 204 204 0
3.749814 8.663364 33.804951 204 204 204 0
3.884154 8.674610 33.848836 204 204 204 0
3.999356 8.643770 33.728495 204 204 204 0
4.124628 8.635939 33.697939 203 203 203 0
4.269414 8.668205 33.823840 204 204 204 0
4.405310 8.681052 33.873972 203 203 203 0
4.526089 8.664227 33.808319 204 204 204 0
4.647631 8.649758 33.751862 204 204 204 0
4.787612 8.669459 33.828734 204 204 204 0
4.935590 8.702225 33.956589 203 203 203 0
5.057775 8.688998 33.904976 203 203 203 0
5.172240 8.663502 33.805489 204 204 204 0
5.312519 8.681434 33.875460 203 203 203 0
5.458489 8.707589 33.977520 204 204 204 0
5.568622 8.676690 33.856951 204 204 204 0
5.684516 8.655967 33.776090 203 203 203 0
5.816507 8.660132 33.792341 204 204 204 0
5.958892 8.679255 33.866961 204 204 204 0
6.090890 8.682759 33.880631 204 204 204 0
6.214991 8.675091 33.850711 204 204 204 0
6.348739 8.680928 33.873489 204 204 204 0
6.480647 8.684067 33.885738 204 204 204 0
6.607311 8.680193 33.870620 204 204 204 0
6.740274 8.684584 33.887754 205 205 205 0
6.864948 8.678330 33.863351 204 204 204 0
6.989601 8.672283 33.839753 204 204 204 0
7.136250 8.693251 33.921571 204 204 204 0
7.281444 8.711727 33.993669 205 205 205 0
7.396599 8.694248 33.925462 205 205 205 0
7.521652 8.688805 33.904223 204 204 204 0
7.668290 8.708059 33.979353 204 204 204 0
7.789854 8.698671 33.942720 204 204 204 0
7.905602 8.683202 33.882360 204 204 204 0
8.022853 8.669858 33.830291 204 204 204 0
8.162148 8.680380 33.871348 204 204 204 0
8.312533 8.702183 33.956425 204 204 204 0
8.429409 8.688776 33.904110 205 205 205 0
8.548685 8.678210 33.862882 204 204 204 0
8.695950 8.695950 33.932105 205 205 205 0
8.839391 8.709400 33.984587 204 204 204 0
8.965501 8.705631 33.969881 205 205 205 0
9.075725 8.686766 33.896267 205 205 205 0
9.221991 8.702442 33.957438 205 205 205 0
9.375888 8.724785 34.044619 204 204 204 0
9.490781 8.710717 33.989725 205 205 205 0
9.591970 8.684621 33.887899 205 205 205 0
9.739225 8.700374 33.949368 205 205 205 0
9.895350 8.723532 34.039731 205 205 205 0
10.008613 8.708793 33.982219 205 205 205 0
10.116281 8.689626 33.907426 204 204 204 0
10.272027 8.711719 33.993636 205 205 205 0
-9.460001 8.041001 30.915037 195 195 195 0
-9.324641 8.026274 30.858415 196 196 196 0
-9.188791 8.010741 30.798695 196 196 196 0
-9.016023 7.962202 30.612079 196 196 196 0
-8.987427 8.041382 30.916502 196 196 196 0
-9.015441 8.174000 31.426376 196 196 196 0
-8.894559 8.173378 31.423984 196 196 196 0
-8.709042 8.112533 31.190053 196 196 196 0
-8.658037 8.177035 31.438044 196 196 196 0
-8.710693 8.342636 32.074725 196 196 196 0
-8.558400 8.313874 31.964144 197 197 197 0
-8.391441 8.269826 31.794795 197 197 197 0
-8.227689 8.227689 31.632790 196 196 196 0
-8.927790 9.061040 34.836756 197 197 197 0
-8.134576 8.381078 32.222523 197 197 197 0
-7.972547 8.340511 32.066555 197 197 197 0
-7.733022 8.216336 31.589143 197 197 197 0
-7.592566 8.195150 31.507691 197 197 197 0
-7.614755 8.351667 32.109445 197 197 197 0
-7.528236 8.392131 32.265019 197 197 197 0
-7.345575 8.324985 32.006863 198 198 198 0
-7.193430 8.290733 31.875174 198 198 198 0
-7.110983 8.337015 32.053114 197 197 197 0
-7.057614 8.419610 32.370665 198 198 198 0
-6.941475 8.428934 32.406514 198 198 198 0
-6.785592 8.389459 32.254746 197 197 197 0
-6.681293 8.413480 32.347097 198 198 198 0
-6.615914 8.488343 32.634921 198 198 198 0
-6.535213 8.546048 32.856780 198 198 198 0
-6.380883 8.507844 32.709895 198 198 198 0
-6.235891 8.480812 32.605967 198 198 198 0
-6.106722 8.474635 32.582219 198 198 198 0
-5.128361 7.265179 27.932252 199 199 199 0
-5.874497 8.499272 32.676940 198 198 198 0
-5.724078 8.461680 32.532410 199 199 199 0
-5.604568 8.469125 32.561035 199 199 199 0
-5.493195 8.489483 32.639306 199 199 199 0
-5.392731 8.528040 32.787545 199 199 199 0
-5.265330 8.524820 32.775163 199 199 199 0
-5.123776 8.497970 32.671932 199 199 199 0
-5.012898 8.521926 32.764036 200 200 200 0
-4.900080 8.543730 32.847865 200 200 200 0
-4.770125 8.536013 32.818195 199 199 199 0
-4.658886 8.562278 32.919177 199 199 199 0
-4.544642 8.584323 33.003933 199 199 199 0
-4.415495 8.578676 32.982220 199 199 199 0
-4.292729 8.585458 33.008297 200 200 200 0
-4.189733 8.633390 33.192581 199 199 199 0
-4.069077 8.646789 33.244096 200 200 200 0
-3.929615 8.619801 33.140334 200 200 200 0
-3.798032 8.608872 33.098317 200 200 200 0
-3.694295 8.662485 33.304440 200 200 200 0
-3.565290 8.658562 33.289357 200 200 200 0
-3.428945 8.635862 33.202083 200 200 200 0
-3.288431 8.600512 33.066175 200 200 200 0
-3.158374 8.590778 33.028752 200 200 200 0
-3.057837 8.663872 33.309772 201 201 201 0
-2.933388 8.672626 33.343430 200 200 200 0
-2.794237 8.636733 33.205432 200 200 200 0
-2.662266 8.620672 33.143685 201 201 201 0
-2.544968 8.652890 33.267553 201 201 201 0
-2.431304 8.701509 33.454474 201 201 201 0
-2.297344 8.678854 33.367376 200 200 200 0
-2.161555 8.646221 33.241912 201 201 201 0
-2.038777 8.664802 33.313348 201 201 201 0
-1.927838 8.739533 33.600667 201 201 201 0
-1.795744 8.722184 33.533964 201 201 201 0
-1.658719 8.676376 33.357848 201 201 201 0
-1.531472 8.678342 33.365405 201 201 201 0
-1.444140 8.927410 34.322993 201 201 201 0
-1.285019 8.738130 33.595273 201 201 201 0
-1.151245 8.698299 33.442133 202 202 202 0
-1.016941 8.643995 33.233352 201 201 201 0
-0.894236 8.686863 33.398167 202 202 202 0
-0.770876 8.736598 33.589381 201 201 201 0
-0.640336 8.708564 33.481601 202 202 202 0
-0.511441 8.694496 33.427514 201 201 201 0
-0.384520 8.715793 33.509393 201 201 201 0
-0.256899 8.734555 33.581528 202 202 202 0
-0.128436 8.733662 33.578092 202 202 202 0
0.000000 8.723153 33.537690 202 202 202 0
0.128220 8.718953 33.521543 202 202 202 0
0.257003 8.738098 33.595150 202 202 202 0
0.386517 8.761041 33.683355 202 202 202 0
0.515228 8.758873 33.675021 202 202 202 0
0.644016 8.758622 33.674055 202 202 202 0
0.773225 8.763216 33.691718 203 203 203 0
0.903559 8.777432 33.746376 203 203 203 0
1.030443 8.758765 33.674606 202 202 202 0
1.157357 8.744478 33.619677 203 203 203 0
1.284548 8.734924 33.582943 202 202 202 0
1.412375 8.731044 33.568028 202 202 202 0
1.544527 8.752318 33.649818 202 202 202 0
1.675412 8.763695 33.693561 202 202 202 0
1.804691 8.765641 33.701041 203 203 203 0
1.929787 8.748368 33.634633 203 203 203 0
2.059629 8.753422 33.654063 203 203 203 0
2.195153 8.780611 33.758595 202 202 202 0
2.325665 8.785844 33.778718 203 203 203 0
2.448765 8.764000 33.694731 203 203 203 0
2.579021 8.768670 33.712686 203 203 203 0
2.721687 8.813081 33.883433 203 203 203 0
2.848484 8.804404 33.850075 203 203 203 0
2.967633 8.773872 33.732688 203 203 203 0
3.096053 8.772149 33.726064 204 204 204 0
3.247086 8.832073 33.956450 204 204 204 0
3.365113 8.801066 33.837240 203 203 203 0
3.479265 8.762594 33.689326 203 203 203 0
3.602700 8.749414 33.638653 203 203 203 0
3.747351 8.786892 33.782746 203 203 203 0
3.884226 8.804245 33.849463 204 204 204 0
4.000677 8.775678 33.739631 203 203 203 0
4.124995 8.765614 33.700937 203 203 203 0
4.267714 8.794076 33.810367 204 204 204 0
4.406182 8.812365 33.880679 203 203 203 0
4.527189 8.795681 33.816538 203 203 203 0
4.647099 8.777854 33.747995 203 203 203 0
4.790490 8.804144 33.849074 204 204 204 0
4.937287 8.835146 33.968266 204 204 204 0
5.060095 8.822730 33.920532 204 204 204 0
5.173222 8.794478 33.811909 204 204 204 0
5.311034 8.808544 33.865988 204 204 204 0
5.457672 8.836231 33.972437 204 204 204 0
5.571304 8.810435 33.873260 204 204 204 0
5.685327 8.786414 33.780908 204 204 204 0
5.815985 8.788600 33.789312 204 204 204 0
5.960624 8.811358 33.876807 203 203 203 0
6.088651 8.809113 33.868177 204 204 204 0
6.213396 8.802311 33.842028 204 204 204 0
6.347698 8.809050 33.867934 204 204 204 0
6.479561 8.812203 33.880057 204 204 204 0
6.607101 8.809468 33.869542 204 204 204 0
6.741366 8.815633 33.893245 204 204 204 0
6.865421 8.808465 33.865685 204 204 204 0
6.990294 8.802592 33.843108 204 204 204 0
7.138054 8.825230 33.930143 205 205 205 0
7.277552 8.837027 33.975499 204 204 204 0
7.395530 8.822738 33.920561 205 205 205 0
7.519406 8.815856 33.894101 204 204 204 0
7.668164 8.837884 33.978794 205 205 205 0
7.789671 8.828293 33.941920 204 204 204 0
7.904870 8.811986 33.879225 204 204 204 0
8.020364 8.796529 33.819795 205 205 205 0
8.157813 8.805259 33.853358 205 205 205 0
8.310181 8.829567 33.946818 204 204 204 0
8.428785 8.817806 33.901599 205 205 205 0
8.551613 8.810753 33.874484 204 204 204 0
8.696333 8.826129 33.933599 204 204 204 0
8.839987 8.839987 33.986879 204 204 204 0
8.960815 8.830949 33.952128 205 205 205 0
9.078125 8.818750 33.905228 205 205 205 0
9.213410 8.824111 33.925839 205 205 205 0
9.379991 8.858880 34.059516 204 204 204 0
9.489056 8.839121 33.983548 205 205 205 0
9.591046 8.813394 33.884637 205 205 205 0
9.737697 8.828846 33.944043 204 204 204 0
9.897284 8.855465 34.046386 205 205 205 0
10.007601 8.837881 33.978782 204 204 204 0
10.121072 8.823499 33.923485 205 205 205 0
10.270302 8.840260 33.987927 205 205 205 0
-9.463905 8.162618 30.927794 196 196 196 0
-9.339354 8.157157 30.907103 195 195 195 0
-9.171969 8.113665 30.742313 195 195 195 0
-9.003232 8.067831 30.568652 196 196 196 0
-8.983724 8.156276 30.903764 195 195 195 0
-9.010567 8.289721 31.409382 196 196 196 0
-8.891214 8.290456 31.412168 195 195 195 0
-8.700109 8.223391 31.158059 196 196 196 0
-8.656471 8.295785 31.432357 196 196 196 0
-8.718362 8.472775 32.102963 197 197 197 0
-8.556214 8.433982 31.955980 196 196 196 0
-8.391262 8.391262 31.794116 197 197 197 0
-8.213629 8.334418 31.578736 196 196 196 0
-5.733208 5.904349 22.371313 196 196 196 0
-8.129758 8.499293 32.203439 196 196 196 0
-7.960844 8.450742 32.019484 197 197 197 0
-7.744161 8.349174 31.634646 197 197 197 0
-7.588622 8.311347 31.491323 197 197 197 0
-7.609696 8.468855 32.088112 198 198 198 0
-7.528519 8.515865 32.266232 197 197 197 0
-7.346954 8.448997 32.012870 197 197 197 0
-7.180964 8.398077 31.819937 198 198 198 0
-7.107564 8.455550 32.037700 198 198 198 0
-7.059971 8.546281 32.381476 197 197 197 0
-6.939653 8.550643 32.398005 198 198 198 0
-6.772200 8.496033 32.191089 198 198 198 0
-6.658628 8.508247 32.237367 197 197 197 0
-6.622379 8.621588 32.666811 198 198 198 0
-6.535256 8.671783 32.856995 198 198 198 0
-6.370807 8.619327 32.658245 198 198 198 0
-6.230052 8.597472 32.575435 198 198 198 0
-6.112026 8.606731 32.610517 198 198 198 0
-5.260105 7.561402 28.649812 198 198 198 0
-5.884567 8.639045 32.732953 199 199 199 0
-5.724761 8.587141 32.536294 198 198 198 0
-5.608561 8.599793 32.584230 198 198 198 0
-5.492771 8.613663 32.636785 199 199 199 0
-5.393699 8.655006 32.793430 198 198 198 0
-5.271674 8.660608 32.814655 199 199 199 0
-5.124411 8.624008 32.675980 199 199 199 0
-5.011676 8.645142 32.756054 199 199 199 0
-4.900305 8.669771 32.849374 199 199 199 0
-4.773844 8.668295 32.843783 199 199 199 0
-4.659229 8.688833 32.921597 199 199 199 0
-4.549263 8.719420 33.037492 200 200 200 0
-4.419023 8.711788 33.008574 199 199 199 0
-4.293093 8.712452 33.011092 199 199 199 0
-4.189003 8.758825 33.186796 199 199 199 0
-4.067941 8.771498 33.234812 200 200 200 0
-3.931169 8.750022 33.153440 200 200 200 0
-3.795744 8.730212 33.078381 200 200 200 0
-3.691397 8.782979 33.278315 200 200 200 0
-3.570920 8.799768 33.341925 200 200 200 0
-3.428415 8.761506 33.196954 200 200 200 0
-3.288114 8.726148 33.062983 200 200 200 0
-3.158492 8.717438 33.029981 200 200 200 0
-3.056071 8.786205 33.290538 201 201 201 0
-2.932782 8.798346 33.336537 200 200 200 0
-2.794284 8.763892 33.205994 200 200 200 0
-2.661479 8.744861 33.133886 200 200 200 0
-2.545330 8.781389 33.272291 200 200 200 0
-2.428983 8.821045 33.422545 200 200 200 0
-2.299524 8.814841 33.399037 201 201 201 0
-2.160934 8.770848 33.232349 201 201 201 0
-2.036908 8.784166 33.282811 201 201 201 0
-1.925901 8.859145 33.566904 201 201 201 0
-1.795635 8.849916 33.531936 201 201 201 0
-1.658069 8.800519 33.344770 201 201 201 0
-1.532756 8.813349 33.393385 201 201 201 0
-1.450666 9.099631 34.478094 202 202 202 0
-1.285435 8.869502 33.606145 201 201 201 0
-1.150042 8.816987 33.407170 201 201 201 0
-1.017421 8.775257 33.249057 202 202 202 0
-0.893536 8.807713 33.372030 201 201 201 0
-0.770642 8.862386 33.579183 202 202 202 0
-0.640138 8.833901 33.471254 202 202 202 0
-0.511450 8.822517 33.428123 201 201 201 0
-0.384291 8.838696 33.489423 202 202 202 0
-0.256836 8.860838 33.573319 201 201 201 0
-0.128340 8.855463 33.552952 201 201 201 0
0.000000 8.847870 33.524182 201 201 201 0
0.128238 8.848396 33.526176 202 202 202 0
0.257033 8.867621 33.599020 202 202 202 0
0.386363 8.886349 33.669979 202 202 202 0
0.515114 8.885715 33.667574 202 202 202 0
0.643538 8.880818 33.649021 202 202 202 0
0.773235 8.892198 33.692140 202 202 202 0
0.903528 8.906204 33.745207 202 202 202 0
1.030503 8.888091 33.676579 202 202 202 0
1.157012 8.870427 33.609649 202 202 202 0
1.284059 8.860005 33.570161 202 202 202 0
1.412397 8.859580 33.568551 202 202 202 0
1.544189 8.879089 33.642469 203 203 203 0
1.674296 8.886647 33.671109 203 203 203 0
1.804235 8.892303 33.692537 202 202 202 0
1.928942 8.873131 33.619896 202 202 202 0
2.058232 8.876123 33.631234 203 203 203 0
2.194329 8.906394 33.745927 203 203 203 0
2.326216 8.917160 33.786719 203 203 203 0
2.448832 8.893127 33.695659 203 203 203 0
2.579270 8.898480 33.715944 203 203 203 0
2.721091 8.940729 33.876021 203 203 203 0
2.848468 8.933830 33.849883 203 203 203 0
2.967519 8.902556 33.731387 203 203 203 0
3.095772 8.900345 33.723009 204 204 204 0
3.244625 8.955165 33.930718 203 203 203 0
3.366597 8.934431 33.852158 203 203 203 0
3.479195 8.891277 33.688650 203 203 203 0
3.601492 8.875106 33.627378 204 204 204 0
3.748508 8.918864 33.793178 203 203 203 0
3.883905 8.932982 33.846669 203 203 203 0
3.999024 8.901053 33.725690 203 203 203 0
4.125009 8.894551 33.701056 204 204 204 0
4.266748 8.921381 33.802713 203 203 203 0
4.405328 8.940225 33.874113 204 204 204 0
4.527943 8.926517 33.822172 204 204 204 0
4.647372 8.907463 33.749977 203 203 203 0
4.786576 8.926318 33.821420 203 203 203 0
4.936066 8.962857 33.959862 204 204 204 0
5.056097 8.945402 33.893726 204 204 204 0
5.170530 8.919165 33.794316 204 204 204 0
5.311418 8.938727 33.868436 203 203 203 0
5.455549 8.962688 33.959224 204 204 204 0
5.568058 8.934791 33.853524 203 203 203 0
5.682290 8.910863 33.762861 203 203 203 0
5.815015 8.916356 33.783672 203 203 203 0
5.958629 8.937944 33.865470 204 204 204 0
6.090065 8.940734 33.876039 204 204 204 0
6.211393 8.928877 33.831115 204 204 204 0
6.347465 8.938267 33.866694 204 204 204 0
6.480668 8.943322 33.885847 204 204 204 0
6.609624 8.942433 33.882478 204 204 204 0
6.741640 8.945638 33.894622 204 204 204 0
6.866295 8.939139 33.869996 205 205 205 0
6.993395 8.936005 33.858122 204 204 204 0
7.136259 8.952761 33.921611 204 204 204 0
7.278132 8.967699 33.978208 205 205 205 0
7.396410 8.953549 33.924595 204 204 204 0
7.519941 8.946137 33.896513 205 205 205 0
7.670602 8.970705 33.989598 205 205 205 0
7.787062 8.955121 33.930552 204 204 204 0
7.902468 8.938857 33.868930 205 205 205 0
8.022463 8.928225 33.828645 204 204 204 0
8.160524 8.937717 33.864610 204 204 204 0
8.311279 8.960598 33.951303 204 204 204 0
8.428259 8.946921 33.899483 204 204 204 0
8.551637 8.940348 33.874577 204 204 204 0
8.695862 8.955440 33.931762 205 205 205 0
8.843828 8.973884 34.001644 205 205 205 0
8.963393 8.963393 33.961896 204 204 204 0
9.076850 8.947181 33.900467 205 205 205 0
9.212885 8.953367 33.923906 205 205 205 0
9.375599 8.984949 34.043571 205 205 205 0
9.489233 8.969275 33.984181 204 204 204 0
9.592495 8.944354 33.889756 205 205 205 0
9.739717 8.960539 33.951082 205 205 205 0
9.899127 8.987365 34.052724 205 205 205 0
