ply
    format ascii 1.0
    element vertex 25597
    property float x
    property float y
    property float z
    property uchar red
    property uchar green
    property uchar blue
    property uchar alpha
    end_header
5.520544 -3.979927 33.564639 205 205 205 0
5.617303 -3.957645 33.376725 206 206 206 0
5.729826 -3.947213 33.288750 205 205 205 0
5.853308 -3.944621 33.266883 206 206 206 0
5.989657 -3.950625 33.317521 206 206 206 0
6.123744 -3.954918 33.353728 206 206 206 0
6.242841 -3.949552 33.308475 205 205 205 0
6.375003 -3.952502 33.333349 206 206 206 0
6.507230 -3.955375 33.357579 205 205 205 0
6.630595 -3.952855 33.336324 206 206 206 0
6.764222 -3.956431 33.366489 206 206 206 0
6.894401 -3.957897 33.378848 206 206 206 0
7.020310 -3.956902 33.370459 206 206 206 0
7.155162 -3.960893 33.404118 206 206 206 0
7.297611 -3.968876 33.471441 205 205 205 0
7.418731 -3.965184 33.440303 206 206 206 0
7.531041 -3.956988 33.371180 206 206 206 0
7.638251 -3.946430 33.282141 206 206 206 0
7.814286 -3.971194 33.490991 206 206 206 0
7.925951 -3.962975 33.421678 206 206 206 0
8.025907 -3.949256 33.305973 207 207 207 0
8.151227 -3.948251 33.297498 206 206 206 0
8.307886 -3.962222 33.415327 206 206 206 0
8.439672 -3.964088 33.431063 206 206 206 0
8.550987 -3.956427 33.366449 207 207 207 0
8.671732 -3.953289 33.339991 206 206 206 0
8.816209 -3.960906 33.404222 206 206 206 0
8.953670 -3.965197 33.440410 206 206 206 0
9.056342 -3.954177 33.347480 206 206 206 0
9.187732 -3.955829 33.361409 206 206 206 0
9.351685 -3.971263 33.491574 206 206 206 0
9.484090 -3.973065 33.506766 206 206 206 0
9.584394 -3.961550 33.409652 206 206 206 0
9.713802 -3.962209 33.415213 206 206 206 0
9.866679 -3.972299 33.500312 206 206 206 0
9.978848 -3.965952 33.446783 207 207 207 0
10.085720 -3.957688 33.377084 207 207 207 0
-9.331480 -3.499305 30.495034 196 196 196 0
-9.127879 -3.466283 30.207260 197 197 197 0
-9.035101 -3.475039 30.283564 197 197 197 0
-8.894794 -3.465504 30.200473 197 197 197 0
-8.801353 -3.474218 30.276412 197 197 197 0
-8.803294 -3.521318 30.686865 197 197 197 0
-8.763564 -3.552796 30.961187 197 197 197 0
-8.576298 -3.524506 30.714649 197 197 197 0
-8.431227 -3.513011 30.614478 198 198 198 0
-8.464678 -3.576624 31.168841 198 198 198 0
-8.436477 -3.615633 31.508785 198 198 198 0
-8.250178 -3.587034 31.259555 198 198 198 0
-8.036132 -3.545352 30.896318 199 199 199 0
-7.977630 -3.572073 31.129180 198 198 198 0
-8.037614 -3.653461 31.838439 199 199 199 0
-7.888188 -3.640702 31.727252 199 199 199 0
-7.676008 -3.598129 31.356243 198 198 198 0
-7.511621 -3.576962 31.171786 198 198 198 0
-7.459881 -3.609620 31.456380 199 199 199 0
-7.449527 -3.663702 31.927684 199 199 199 0
-7.283573 -3.641787 31.736702 200 200 200 0
-7.104240 -3.612325 31.479958 199 199 199 0
-6.989273 -3.615141 31.504498 199 199 199 0
-6.948318 -3.657010 31.869365 199 199 199 0
-6.865628 -3.678015 32.052419 199 199 199 0
-6.707003 -3.658366 31.881181 199 199 199 0
-6.553922 -3.641068 31.730440 199 199 199 0
-6.452913 -3.652592 31.830870 199 199 199 0
-6.432948 -3.711316 32.342622 199 199 199 0
-6.291007 -3.700592 32.249171 200 200 200 0
-6.128676 -3.677206 32.045366 199 199 199 0
-5.997954 -3.672217 32.001887 199 199 199 0
-5.921271 -3.700795 32.250933 200 200 200 0
-5.836535 -3.725448 32.465776 199 199 199 0
-5.665722 -3.695036 32.200750 200 200 200 0
-5.509517 -3.673011 32.008813 200 200 200 0
-5.400477 -3.682143 32.088394 201 201 201 0
-5.312094 -3.706112 32.297272 200 200 200 0
-5.195290 -3.710922 32.339187 201 201 201 0
-5.062088 -3.703967 32.278577 200 200 200 0
-4.950838 -3.713129 32.358420 201 201 201 0
-4.834095 -3.718534 32.405528 201 201 201 0
-4.714438 -3.721924 32.435071 201 201 201 0
-4.585631 -3.718079 32.401563 200 200 200 0
-4.476877 -3.730731 32.511813 201 201 201 0
-4.351683 -3.730014 32.505570 201 201 201 0
-4.226404 -3.729180 32.498300 201 201 201 0
-4.117123 -3.742839 32.617338 201 201 201 0
-4.012708 -3.761914 32.783560 202 202 202 0
-3.883649 -3.758370 32.752676 201 201 201 0
-3.737602 -3.737602 32.571692 201 201 201 0
-3.614541 -3.739180 32.585447 202 202 202 0
-3.514689 -3.765738 32.816889 202 202 202 0
-3.391227 -3.768030 32.836861 201 201 201 0
-3.250949 -3.751095 32.689278 201 201 201 0
-3.115376 -3.738451 32.579092 202 202 202 0
-3.000917 -3.751147 32.689731 202 202 202 0
-2.890272 -3.769920 32.853335 203 203 203 0
-2.757842 -3.760694 32.772928 202 202 202 0
-2.627590 -3.753701 32.711989 202 202 202 0
-2.499465 -3.749198 32.672750 202 202 202 0
-2.386505 -3.768166 32.838045 203 203 203 0
-2.266857 -3.778095 32.924573 202 202 202 0
-2.134830 -3.767347 32.830909 203 203 203 0
-2.005385 -3.760097 32.767734 203 203 203 0
-1.888760 -3.777519 32.919557 202 202 202 0
-1.774435 -3.802361 33.136040 203 203 203 0
-1.640963 -3.786837 33.000762 202 202 202 0
-1.508275 -3.770687 32.860015 203 203 203 0
-1.386658 -3.781794 32.956808 203 203 203 0
-1.269210 -3.807630 33.181958 203 203 203 0
-1.138910 -3.796367 33.083807 203 203 203 0
-1.006590 -3.774711 32.895087 203 203 203 0
-0.879047 -3.767343 32.830877 204 204 204 0
-0.757007 -3.785033 32.985035 203 203 203 0
-0.632973 -3.797839 33.096633 203 203 203 0
-0.504501 -3.783759 32.973933 203 203 203 0
-0.378515 -3.785152 32.986077 203 203 203 0
-0.252759 -3.791392 33.040451 203 203 203 0
-0.126623 -3.798680 33.103969 203 203 203 0
0.000000 -3.796021 33.080789 203 203 203 0
0.126424 -3.792733 33.052140 203 203 203 0
0.253348 -3.800217 33.117355 204 204 204 0
0.380857 -3.808568 33.190134 203 203 203 0
0.508596 -3.814467 33.241539 204 204 204 0
0.634836 -3.809018 33.194059 203 203 203 0
0.761093 -3.805467 33.163114 204 204 204 0
0.888832 -3.809281 33.196350 204 204 204 0
1.017477 -3.815537 33.250870 204 204 204 0
1.141924 -3.806413 33.171351 203 203 203 0
1.266737 -3.800212 33.117313 203 203 203 0
1.392628 -3.798078 33.098716 204 204 204 0
1.518450 -3.796125 33.081697 204 204 204 0
1.649071 -3.805548 33.163818 204 204 204 0
1.779318 -3.812825 33.227233 204 204 204 0
1.904763 -3.809525 33.198476 204 204 204 0
2.028246 -3.802961 33.141274 205 205 205 0
2.155119 -3.803152 33.142934 204 204 204 0
2.287900 -3.813167 33.230217 204 204 204 0
2.418106 -3.818062 33.272872 204 204 204 0
2.540341 -3.810512 33.207075 205 205 205 0
2.668429 -3.812042 33.220410 204 204 204 0
2.811539 -3.833916 33.411036 205 205 205 0
2.934975 -3.828228 33.361465 205 205 205 0
3.049711 -3.812139 33.221258 205 205 205 0
3.177098 -3.812517 33.224552 205 205 205 0
3.321601 -3.832617 33.399710 205 205 205 0
3.443655 -3.826284 33.344522 204 204 204 0
3.560123 -3.814417 33.241109 205 205 205 0
3.678924 -3.805783 33.165869 204 204 204 0
3.821328 -3.821328 33.301332 205 205 205 0
3.960033 -3.832290 33.396861 205 205 205 0
4.077093 -3.822275 33.309584 205 205 205 0
4.195110 -3.813736 33.235176 205 205 205 0
4.337555 -3.827255 33.352982 205 205 205 0
4.471837 -3.833003 33.403078 206 206 206 0
4.589794 -3.824828 33.331835 206 206 206 0
4.702849 -3.813121 33.229813 205 205 205 0
4.838126 -3.819573 33.286038 205 205 205 0
4.987261 -3.836354 33.432283 205 205 205 0
5.110792 -3.833094 33.403868 205 205 205 0
5.226299 -3.824121 33.325676 206 206 206 0
5.356380 -3.825985 33.341920 206 206 206 0
5.516959 -3.849041 33.542842 206 206 206 0
5.617633 -3.830204 33.378687 206 206 206 0
5.730768 -3.820512 33.294221 206 206 206 0
5.850795 -3.815736 33.252598 205 205 205 0
5.987229 -3.821635 33.304011 206 206 206 0
6.122663 -3.826665 33.347839 206 206 206 0
6.242796 -3.822120 33.308236 206 206 206 0
6.379518 -3.827711 33.356958 206 206 206 0
6.503371 -3.825512 33.337799 205 205 205 0
6.629995 -3.824997 33.333310 206 206 206 0
6.765299 -3.829415 33.371804 206 206 206 0
6.895574 -3.830874 33.384526 207 207 207 0
7.019834 -3.829001 33.368196 206 206 206 0
7.155159 -3.833121 33.404103 206 206 206 0
7.297145 -3.840603 33.469304 207 207 207 0
7.418447 -3.837128 33.439023 206 206 206 0
7.531227 -3.829438 33.372005 206 206 206 0
7.635753 -3.817877 33.271255 206 206 206 0
7.810555 -3.841257 33.475002 206 206 206 0
7.928245 -3.836248 33.431352 205 205 205 0
8.030006 -3.823812 33.322984 206 206 206 0
8.150772 -3.820674 33.295635 206 206 206 0
8.304987 -3.833071 33.403667 206 206 206 0
8.445073 -3.838669 33.452457 206 206 206 0
8.551818 -3.829172 33.369691 206 206 206 0
8.672517 -3.826110 33.343011 206 206 206 0
8.814709 -3.832482 33.398536 206 206 206 0
8.947177 -3.834505 33.416161 206 206 206 0
9.056279 -3.826597 33.347249 206 206 206 0
9.191374 -3.829739 33.374632 207 207 207 0
9.352225 -3.843380 33.493510 206 206 206 0
9.482813 -3.844384 33.502253 206 206 206 0
9.587382 -3.834953 33.420070 206 206 206 0
9.716039 -3.835279 33.422908 206 206 206 0
9.868193 -3.844751 33.505452 206 206 206 0
9.977913 -3.837659 33.443650 207 207 207 0
10.081084 -3.828260 33.361742 206 206 206 0
-9.310390 -3.375016 30.426112 197 197 197 0
-9.125437 -3.349844 30.199180 197 197 197 0
-9.030648 -3.357549 30.268638 197 197 197 0
-8.900912 -3.352292 30.221245 197 197 197 0
-8.789024 -3.353707 30.234001 197 197 197 0
-8.811366 -3.407061 30.715000 198 198 198 0
-8.766069 -3.435352 30.970039 197 197 197 0
-8.575410 -3.406670 30.711470 198 198 198 0
-8.430364 -3.395563 30.611343 198 198 198 0
-8.464617 -3.457379 31.168618 198 198 198 0
-8.426393 -3.490934 31.471120 198 198 198 0
-8.245576 -3.465532 31.242118 198 198 198 0
-8.044599 -3.430785 30.928871 198 198 198 0
-7.977816 -3.453084 31.129902 198 198 198 0
-8.032767 -3.529549 31.819239 198 198 198 0
-7.888558 -3.519510 31.728740 198 198 198 0
-7.669842 -3.475397 31.331056 198 198 198 0
-7.504593 -3.454495 31.142622 199 199 199 0
-7.437966 -3.479049 31.363971 199 199 199 0
-7.446222 -3.540007 31.913518 199 199 199 0
-7.275098 -3.516297 31.699774 199 199 199 0
-7.111110 -3.495291 31.510403 198 198 198 0
-6.990358 -3.495179 31.509391 199 199 199 0
-6.951529 -3.536743 31.884089 199 199 199 0
-6.872449 -3.558947 32.084262 199 199 199 0
-6.712655 -3.539400 31.908046 199 199 199 0
-6.549430 -3.517286 31.708688 199 199 199 0
-6.439943 -3.523742 31.766891 199 199 199 0
-6.426626 -3.584080 32.310842 200 200 200 0
-6.290664 -3.577044 32.247415 200 200 200 0
-6.132847 -3.557051 32.067172 200 200 200 0
-6.002613 -3.552567 32.026747 200 200 200 0
-5.920962 -3.577248 32.249251 200 200 200 0
-5.842059 -3.604675 32.496505 200 200 200 0
-5.665682 -3.571843 32.200523 200 200 200 0
-5.516595 -3.555139 32.049935 200 200 200 0
-5.409027 -3.565041 32.139198 200 200 200 0
-5.314066 -3.583905 32.309265 200 200 200 0
-5.196716 -3.588209 32.348062 200 200 200 0
-5.059318 -3.578542 32.260912 201 201 201 0
-4.937962 -3.580023 32.274264 201 201 201 0
-4.831812 -3.592886 32.390225 200 200 200 0
-4.709509 -3.594099 32.401159 201 201 201 0
-4.590928 -3.598295 32.438991 201 201 201 0
-4.481648 -3.610216 32.546460 200 200 200 0
-4.355196 -3.608591 32.531809 201 201 201 0
-4.228160 -3.606371 32.511800 201 201 201 0
-4.112789 -3.614269 32.582998 201 201 201 0
-4.013284 -3.637039 32.788271 201 201 201 0
-3.884038 -3.633455 32.755962 201 201 201 0
-3.740900 -3.616203 32.600436 201 201 201 0
-3.613648 -3.613648 32.577401 201 201 201 0
-3.519549 -3.645247 32.862266 201 201 201 0
-3.389207 -3.640260 32.817306 201 201 201 0
-3.250794 -3.625885 32.687719 202 202 202 0
-3.115667 -3.614174 32.582140 202 202 202 0
-3.000011 -3.625013 32.679859 202 202 202 0
-2.893496 -3.648321 32.889980 202 202 202 0
-2.761068 -3.639590 32.811270 201 201 201 0
-2.626256 -3.626735 32.695381 202 202 202 0
-2.498664 -3.623063 32.662275 202 202 202 0
-2.386965 -3.643262 32.844370 202 202 202 0
-2.267060 -3.652486 32.927529 202 202 202 0
-2.134426 -3.641079 32.824692 202 202 202 0
-2.004833 -3.633759 32.758701 202 202 202 0
-1.890592 -3.655144 32.951493 202 202 202 0
-1.776143 -3.679153 33.167932 202 202 202 0
-1.642088 -3.663119 33.023385 203 203 203 0
-1.507954 -3.644222 32.853025 202 202 202 0
-1.385996 -3.653988 32.941072 203 203 203 0
-1.270556 -3.684612 33.217144 203 203 203 0
-1.138242 -3.667669 33.064402 203 203 203 0
-1.006955 -3.650212 32.907024 203 203 203 0
-0.879159 -3.642231 32.835082 204 204 204 0
-0.756530 -3.656561 32.964262 203 203 203 0
-0.632957 -3.671149 33.095775 203 203 203 0
-0.504248 -3.655800 32.957406 204 204 204 0
-0.378345 -3.657336 32.971252 203 203 203 0
-0.252983 -3.668252 33.069657 203 203 203 0
-0.126691 -3.674035 33.121793 204 204 204 0
0.000000 -3.670834 33.092939 204 204 204 0
0.126423 -3.666257 33.051674 204 204 204 0
0.253348 -3.673540 33.117329 203 203 203 0
0.380722 -3.680311 33.178371 204 204 204 0
0.508561 -3.687070 33.239310 203 203 203 0
0.635191 -3.684109 33.212608 204 204 204 0
0.761346 -3.679840 33.174128 204 204 204 0
0.888527 -3.681039 33.184932 203 203 203 0
1.017268 -3.687598 33.244065 204 204 204 0
1.142656 -3.681891 33.192618 204 204 204 0
1.266678 -3.673367 33.115768 205 205 205 0
1.392423 -3.670933 33.093832 204 204 204 0
1.518009 -3.668522 33.072097 204 204 204 0
1.649731 -3.680169 33.177094 204 204 204 0
1.779000 -3.685071 33.221286 204 204 204 0
1.904996 -3.682991 33.202537 204 204 204 0
2.028526 -3.676704 33.145851 204 204 204 0
2.154887 -3.675984 33.139366 204 204 204 0
2.288979 -3.687799 33.245879 205 205 205 0
2.416746 -3.688717 33.254156 204 204 204 0
2.539625 -3.682456 33.197708 205 205 205 0
2.668618 -3.685234 33.222758 204 204 204 0
2.812324 -3.707154 33.420368 205 205 205 0
2.936246 -3.702223 33.375910 205 205 205 0
3.049113 -3.684345 33.214741 205 205 205 0
3.176856 -3.685153 33.222027 204 204 204 0
3.321400 -3.704639 33.397689 205 205 205 0
3.444119 -3.699239 33.349007 205 205 205 0
3.558847 -3.685948 33.229194 204 204 204 0
3.679319 -3.679319 33.169433 205 205 205 0
3.820963 -3.693598 33.298153 205 205 205 0
3.961123 -3.705567 33.406059 205 205 205 0
4.076575 -3.694396 33.305353 205 205 205 0
4.195241 -3.686727 33.236213 205 205 205 0
4.336944 -3.699158 33.348281 205 205 205 0
4.469904 -3.703635 33.388641 205 205 205 0
4.588534 -3.696319 33.322685 205 205 205 0
4.703907 -3.686846 33.237286 205 205 205 0
4.836604 -3.691092 33.275568 205 205 205 0
4.987434 -3.708605 33.433445 205 205 205 0
5.111192 -3.705614 33.406484 206 206 206 0
5.225854 -3.696336 33.322838 205 205 205 0
5.356639 -3.698632 33.343538 205 205 205 0
5.517325 -3.720987 33.545070 206 206 206 0
5.617678 -3.702561 33.378956 205 205 205 0
5.730188 -3.692788 33.290853 205 205 205 0
5.852447 -3.689586 33.261991 205 205 205 0
5.988505 -3.695035 33.311110 206 206 206 0
6.123299 -3.699493 33.351301 205 205 205 0
6.244609 -3.695789 33.317909 205 205 205 0
6.373861 -3.696840 33.327380 206 206 206 0
6.504920 -3.698876 33.345738 206 206 206 0
6.630822 -3.697958 33.337466 205 205 205 0
6.762256 -3.700102 33.356793 206 206 206 0
6.892317 -3.701430 33.368760 206 206 206 0
7.018326 -3.700572 33.361026 206 206 206 0
7.153499 -3.704490 33.396352 206 206 206 0
7.300530 -3.714305 33.484832 207 207 207 0
7.419560 -3.709780 33.444039 206 206 206 0
7.529570 -3.700975 33.364661 205 205 205 0
7.634025 -3.689779 33.263727 206 206 206 0
7.812159 -3.713977 33.481878 206 206 206 0
7.927001 -3.707791 33.426107 206 206 206 0
8.030656 -3.696651 33.325680 206 206 206 0
8.155582 -3.695498 33.315285 206 206 206 0
8.309286 -3.707220 33.420961 206 206 206 0
8.443681 -3.710102 33.446946 206 206 206 0
8.554380 -3.702642 33.379688 206 206 206 0
8.675641 -3.699906 33.355022 206 206 206 0
8.814922 -3.704822 33.399344 206 206 206 0
8.951977 -3.708676 33.434087 206 206 206 0
9.055418 -3.698692 33.344076 206 206 206 0
9.189761 -3.701431 33.368776 206 206 206 0
9.356651 -3.717026 33.509360 207 207 207 0
9.485262 -3.717197 33.510905 207 207 207 0
9.585559 -3.706416 33.413712 206 206 206 0
9.718313 -3.708304 33.430729 206 206 206 0
9.866773 -3.716057 33.500630 206 206 206 0
9.975217 -3.708735 33.434614 207 207 207 0
10.080817 -3.700553 33.360858 207 207 207 0
-9.300395 -3.255138 30.393447 197 197 197 0
-9.110825 -3.229153 30.150822 197 197 197 0
-9.028993 -3.241177 30.263090 197 197 197 0
-8.887371 -3.231771 30.175270 198 198 198 0
-8.813485 -3.247073 30.318145 197 197 197 0
-8.817091 -3.291714 30.734956 197 197 197 0
-8.781419 -3.322699 31.024268 198 198 198 0
-8.571768 -3.287801 30.698426 197 197 197 0
-8.432031 -3.279123 30.617397 198 198 198 0
-8.466215 -3.338789 31.174502 198 198 198 0
-8.423712 -3.369485 31.461109 197 197 197 0
-8.233160 -3.340992 31.195074 197 197 197 0
-8.036353 -3.309087 30.897167 198 198 198 0
-7.970196 -3.330828 31.100168 198 198 198 0
-8.045554 -3.413266 31.869893 198 198 198 0
-7.894126 -3.400547 31.751135 198 198 198 0
-7.673607 -3.357203 31.346433 198 198 198 0
-7.504472 -3.335321 31.142119 199 199 199 0
-7.443231 -3.361459 31.386173 199 199 199 0
-7.452769 -3.420943 31.941579 198 198 198 0
-7.281148 -3.397869 31.726133 199 199 199 0
-7.107604 -3.373100 31.494866 199 199 199 0
-6.978290 -3.368830 31.454992 199 199 199 0
-6.959260 -3.418584 31.919548 199 199 199 0
-6.855929 -3.427965 32.007139 199 199 199 0
-6.708407 -3.415189 31.887852 200 200 200 0
-6.555400 -3.399096 31.737595 200 200 200 0
-6.450531 -3.407828 31.819121 199 199 199 0
-6.429788 -3.462194 32.326738 200 200 200 0
-6.289704 -3.453171 32.242489 200 200 200 0
-6.128678 -3.432060 32.045377 200 200 200 0
-5.994512 -3.425435 31.983522 200 200 200 0
-5.927364 -3.457629 32.284120 200 200 200 0
-5.844027 -3.481548 32.507451 200 200 200 0
-5.665485 -3.448556 32.199401 200 200 200 0
-5.519288 -3.434224 32.065581 200 200 200 0
-5.400738 -3.436834 32.089949 201 201 201 0
-5.314381 -3.460527 32.311178 200 200 200 0
-5.197600 -3.465067 32.353565 200 200 200 0
-5.058563 -3.454628 32.256100 201 201 201 0
-4.949269 -3.464488 32.348161 201 201 201 0
-4.833651 -3.470313 32.402552 201 201 201 0
-4.714217 -3.473633 32.433550 200 200 200 0
-4.591515 -3.474660 32.443135 201 201 201 0
-4.479843 -3.484322 32.533352 201 201 201 0
-4.357380 -3.485904 32.548122 201 201 201 0
-4.224662 -3.479134 32.484909 201 201 201 0
-4.113308 -3.490080 32.587112 201 201 201 0
-4.007660 -3.506702 32.742318 201 201 201 0
-3.884671 -3.508735 32.761297 202 202 202 0
-3.742766 -3.493248 32.616694 201 201 201 0
-3.616077 -3.491385 32.599299 202 202 202 0
-3.519417 -3.519417 32.861032 201 201 201 0
-3.389400 -3.514933 32.819168 201 201 201 0
-3.250476 -3.500513 32.684525 202 202 202 0
-3.115692 -3.489575 32.582395 201 201 201 0
-3.002131 -3.502486 32.702953 202 202 202 0
-2.890765 -3.519192 32.858932 202 202 202 0
-2.761632 -3.514805 32.817974 202 202 202 0
-2.626845 -3.502459 32.702702 202 202 202 0
-2.499987 -3.499982 32.679574 202 202 202 0
-2.385409 -3.515339 32.822963 202 202 202 0
-2.267976 -3.527963 32.940833 202 202 202 0
-2.135145 -3.516709 32.835755 202 202 202 0
-2.005388 -3.509429 32.767778 202 202 202 0
-1.889192 -3.526492 32.927095 202 202 202 0
-1.774998 -3.549996 33.146555 202 202 202 0
-1.641278 -3.535061 33.007104 203 203 203 0
-1.508544 -3.519936 32.865880 202 202 202 0
-1.385875 -3.527682 32.938209 203 203 203 0
-1.269702 -3.555165 33.194822 203 203 203 0
-1.138761 -3.542812 33.079473 202 202 202 0
-1.006692 -3.523424 32.898446 203 203 203 0
-0.878698 -3.514790 32.817834 203 203 203 0
-0.757192 -3.533564 32.993127 203 203 203 0
-0.632997 -3.544784 33.097894 203 203 203 0
-0.504872 -3.534102 32.998154 204 204 204 0
-0.378562 -3.533249 32.990183 203 203 203 0
-0.252862 -3.540066 33.053836 203 203 203 0
-0.126702 -3.547652 33.124665 203 203 203 0
0.000000 -3.545848 33.107829 204 204 204 0
0.126454 -3.540710 33.059852 203 203 203 0
0.253337 -3.546713 33.115902 204 204 204 0
0.380710 -3.553294 33.177351 204 204 204 0
0.508788 -3.561519 33.254141 204 204 204 0
0.634913 -3.555512 33.198056 204 204 204 0
0.760993 -3.551303 33.158754 204 204 204 0
0.888780 -3.555119 33.194385 203 203 203 0
1.017445 -3.561058 33.249846 204 204 204 0
1.142155 -3.553372 33.178075 204 204 204 0
1.266228 -3.545439 33.104006 204 204 204 0
1.391995 -3.543260 33.083661 204 204 204 0
1.518391 -3.542913 33.080419 205 205 205 0
1.649635 -3.553060 33.175159 204 204 204 0
1.779200 -3.558401 33.225031 204 204 204 0
1.905292 -3.556546 33.207712 204 204 204 0
2.028076 -3.549133 33.138496 205 205 205 0
2.154770 -3.549033 33.137559 204 204 204 0
2.289334 -3.561186 33.251040 205 205 205 0
2.416479 -3.561126 33.250479 205 205 205 0
2.540713 -3.556999 33.211940 205 205 205 0
2.669405 -3.559206 33.232550 204 204 204 0
2.812225 -3.579195 33.419192 204 204 204 0
2.933714 -3.571478 33.347135 205 205 205 0
3.048629 -3.556734 33.209470 205 205 205 0
3.176609 -3.557802 33.219444 205 205 205 0
3.323363 -3.579006 33.417427 204 204 204 0
3.442714 -3.570221 33.335401 205 205 205 0
3.559883 -3.559883 33.238875 205 205 205 0
3.678080 -3.551250 33.158264 205 205 205 0
3.821882 -3.567090 33.306162 205 205 205 0
3.958233 -3.575178 33.381682 204 204 204 0
4.075702 -3.566239 33.298218 205 205 205 0
4.194548 -3.559011 33.230726 206 206 206 0
4.334200 -3.569341 33.327180 205 205 205 0
4.468710 -3.574968 33.379720 205 205 205 0
4.589430 -3.569556 33.329192 205 205 205 0
4.703490 -3.559398 33.234342 205 205 205 0
4.837630 -3.564570 33.282629 206 206 206 0
4.987888 -3.581048 33.436490 205 205 205 0
5.109342 -3.576539 33.394391 205 205 205 0
5.225816 -3.568850 33.322597 205 205 205 0
5.357412 -3.571608 33.348349 206 206 206 0
5.523155 -3.596473 33.580513 205 205 205 0
5.617153 -3.574552 33.375832 206 206 206 0
5.732447 -3.566856 33.303977 206 206 206 0
5.855687 -3.564332 33.280406 206 206 206 0
5.987625 -3.567096 33.306217 206 206 206 0
6.121331 -3.570777 33.340585 206 206 206 0
6.244917 -3.568524 33.319549 205 205 205 0
6.374072 -3.569480 33.328482 205 205 205 0
6.502438 -3.569966 33.333014 206 206 206 0
6.626415 -3.568069 33.315308 205 205 205 0
6.761457 -3.572091 33.352855 206 206 206 0
6.898786 -3.577148 33.400075 206 206 206 0
7.016607 -3.572091 33.352858 205 205 205 0
7.152876 -3.576438 33.393444 206 206 206 0
7.296060 -3.584030 33.464328 206 206 206 0
7.420749 -3.582430 33.449397 206 206 206 0
7.531865 -3.574445 33.374833 206 206 206 0
7.629617 -3.560488 33.244518 207 207 207 0
7.812545 -3.586086 33.483531 206 206 206 0
7.927260 -3.580053 33.427198 206 206 206 0
8.028607 -3.568270 33.317180 206 206 206 0
8.153429 -3.567125 33.306491 206 206 206 0
8.309121 -3.579314 33.420297 206 206 206 0
8.443134 -3.581936 33.444778 207 207 207 0
8.554480 -3.575006 33.380079 207 207 207 0
8.674745 -3.571954 33.351576 206 206 206 0
8.819775 -3.579039 33.417733 207 207 207 0
8.949646 -3.579858 33.425382 206 206 206 0
9.057795 -3.572088 33.352831 206 206 206 0
9.188918 -3.573468 33.365714 207 207 207 0
9.351842 -3.587008 33.492137 206 206 206 0
9.482937 -3.588139 33.502694 206 206 206 0
9.588753 -3.579801 33.424846 207 207 207 0
9.719511 -3.580872 33.434849 207 207 207 0
9.866830 -3.587938 33.500822 206 206 206 0
9.973632 -3.580278 33.429300 206 206 206 0
10.079643 -3.572532 33.356972 206 206 206 0
-9.296236 -3.137479 30.379855 197 197 197 0
-9.115562 -3.115445 30.166498 197 197 197 0
-9.019203 -3.122032 30.230276 197 197 197 0
-8.891757 -3.117889 30.190160 197 197 197 0
-8.794770 -3.124458 30.253766 197 197 197 0
-8.825366 -3.177132 30.763802 198 198 198 0
-8.776574 -3.202263 31.007150 198 198 198 0
-8.566343 -3.168373 30.678997 197 197 197 0
-8.435686 -3.163382 30.630668 198 198 198 0
-8.472480 -3.221929 31.197568 198 198 198 0
-8.441366 -3.255955 31.527044 198 198 198 0
-8.242594 -3.225363 31.230821 197 197 197 0
-8.036666 -3.191029 30.898368 198 198 198 0
-7.977599 -3.214853 31.129056 198 198 198 0
-8.034313 -3.286764 31.825364 198 198 198 0
-7.884017 -3.274899 31.710476 199 199 199 0
-7.672150 -3.236688 31.340481 199 199 199 0
-7.499652 -3.214137 31.122116 199 199 199 0
-7.447589 -3.243305 31.404551 198 198 198 0
-7.438887 -3.292622 31.882084 199 199 199 0
-7.278199 -3.275190 31.713287 199 199 199 0
-7.109832 -3.253652 31.504737 200 200 200 0
-6.987573 -3.252836 31.496836 199 199 199 0
-6.945967 -3.290195 31.858581 199 199 199 0
-6.863053 -3.308972 32.040397 199 199 199 0
-6.717031 -3.297451 31.928845 200 200 200 0
-6.552899 -3.276450 31.725487 199 199 199 0
-6.441383 -3.281459 31.773996 200 200 200 0
-6.427903 -3.337565 32.317259 200 200 200 0
-6.294253 -3.332252 32.265813 200 200 200 0
-6.129895 -3.310143 32.051736 200 200 200 0
-5.997428 -3.304705 31.999083 200 200 200 0
-5.925324 -3.332995 32.273005 201 201 201 0
-5.836544 -3.352908 32.465829 200 200 200 0
-5.665602 -3.325462 32.200069 200 200 200 0
-5.513147 -3.307888 32.029905 200 200 200 0
-5.404148 -3.316182 32.110208 201 201 201 0
-5.315081 -3.337377 32.315436 200 200 200 0
-5.194393 -3.339253 32.333603 200 200 200 0
-5.061246 -3.333016 32.273208 201 201 201 0
-4.948099 -3.339967 32.340517 201 201 201 0
-4.830696 -3.344328 32.382744 201 201 201 0
-4.712912 -3.348648 32.424573 201 201 201 0
-4.587768 -3.347831 32.416662 201 201 201 0
-4.479130 -3.359347 32.528176 201 201 201 0
-4.352528 -3.357664 32.511878 201 201 201 0
-4.220931 -3.351916 32.456217 201 201 201 0
-4.113009 -3.365189 32.584740 200 200 200 0
-4.011565 -3.384758 32.774224 201 201 201 0
-3.886190 -3.384746 32.774109 201 201 201 0
-3.740840 -3.366756 32.599916 201 201 201 0
-3.616092 -3.366707 32.599436 202 202 202 0
-3.514655 -3.389132 32.816576 201 201 201 0
-3.387994 -3.387994 32.805562 202 202 202 0
-3.250774 -3.375803 32.687519 202 202 202 0
-3.113922 -3.363035 32.563886 201 201 201 0
-3.002221 -3.377499 32.703932 202 202 202 0
-2.890697 -3.393427 32.858169 202 202 202 0
-2.758406 -3.385317 32.779636 202 202 202 0
-2.626114 -3.376432 32.693602 202 202 202 0
-2.499531 -3.374367 32.673609 203 203 203 0
-2.385876 -3.390456 32.829393 202 202 202 0
-2.268026 -3.402040 32.941560 202 202 202 0
-2.133928 -3.389179 32.817034 203 203 203 0
-2.005377 -3.384073 32.767590 203 203 203 0
-1.891545 -3.404781 32.968100 203 203 203 0
-1.775962 -3.425069 33.164554 202 202 202 0
-1.640541 -3.407278 32.992280 203 203 203 0
-1.508466 -3.394048 32.864177 202 202 202 0
-1.385781 -3.401463 32.935973 202 202 202 0
-1.270237 -3.429641 33.208820 202 202 202 0
-1.139458 -3.418375 33.099730 203 203 203 0
-1.007251 -3.399471 32.916686 202 202 202 0
-0.878592 -3.388857 32.813911 203 203 203 0
-0.757040 -3.406680 32.986489 203 203 203 0
-0.633058 -3.418516 33.101097 204 204 204 0
-0.504795 -3.407364 32.993118 203 203 203 0
-0.378542 -3.406878 32.988409 203 203 203 0
-0.252925 -3.414487 33.062085 203 203 203 0
-0.126636 -3.419166 33.107397 203 203 203 0
0.000000 -3.414390 33.061152 203 203 203 0
0.126417 -3.413246 33.050066 204 204 204 0
0.253124 -3.417174 33.088104 203 203 203 0
0.380629 -3.425661 33.170280 204 204 204 0
0.508812 -3.434484 33.255716 204 204 204 0
0.635217 -3.430174 33.213985 204 204 204 0
0.761255 -3.425648 33.170158 204 204 204 0
0.888884 -3.428553 33.198282 204 204 204 0
1.017536 -3.434184 33.252809 204 204 204 0
1.142750 -3.428249 33.195344 204 204 204 0
1.266612 -3.419852 33.114038 204 204 204 0
1.392166 -3.417134 33.087717 204 204 204 0
1.518250 -3.416063 33.077345 204 204 204 0
1.649261 -3.425388 33.167644 204 204 204 0
1.778157 -3.429303 33.205552 204 204 204 0
1.904712 -3.428481 33.197590 205 205 205 0
2.027891 -3.422066 33.135475 205 205 205 0
2.154821 -3.422363 33.138347 204 204 204 0
2.289816 -3.434724 33.258036 205 205 205 0
2.416639 -3.434172 33.252691 205 205 205 0
2.540824 -3.430113 33.213390 205 205 205 0
2.668820 -3.431340 33.225275 204 204 204 0
2.811430 -3.450391 33.409745 204 204 204 0
2.933841 -3.444074 33.348576 205 205 205 0
3.048828 -3.429931 33.211631 205 205 205 0
3.175698 -3.429754 33.209916 205 205 205 0
3.322125 -3.449899 33.404979 205 205 205 0
3.442964 -3.442964 33.337825 205 205 205 0
3.558450 -3.431362 33.225490 205 205 205 0
3.677018 -3.423431 33.148690 205 205 205 0
3.824086 -3.441677 33.325365 205 205 205 0
3.958332 -3.447580 33.382519 204 204 204 0
4.075621 -3.438805 33.297555 205 205 205 0
4.195187 -3.432426 33.235789 205 205 205 0
4.333403 -3.441232 33.321057 205 205 205 0
4.469012 -3.447524 33.381977 206 206 206 0
4.589342 -3.442006 33.328555 205 205 205 0
4.704925 -3.433324 33.244481 206 206 206 0
4.837802 -3.437386 33.283814 206 206 206 0
4.987505 -3.452888 33.433923 205 205 205 0
5.108576 -3.448289 33.389383 205 205 205 0
5.225345 -3.441081 33.319590 206 206 206 0
5.355425 -3.442773 33.335977 206 206 206 0
5.526749 -3.470284 33.602362 206 206 206 0
5.617333 -3.447000 33.376906 206 206 206 0
5.730300 -3.438180 33.291502 206 206 206 0
5.850655 -3.434080 33.251804 206 206 206 0
5.988300 -3.440087 33.309970 206 206 206 0
6.123240 -3.444323 33.350981 206 206 206 0
6.243768 -3.440444 33.313423 206 206 206 0
6.375528 -3.442785 33.336096 205 205 205 0
6.504474 -3.443545 33.343452 206 206 206 0
6.625417 -3.440121 33.310293 206 206 206 0
6.758798 -3.443161 33.339735 206 206 206 0
6.892501 -3.446251 33.369651 206 206 206 0
7.019029 -3.445705 33.364370 206 206 206 0
7.152954 -3.448746 33.393812 205 205 205 0
7.295479 -3.455753 33.461661 206 206 206 0
7.421790 -3.454971 33.454093 206 206 206 0
7.532052 -3.446871 33.375661 207 207 207 0
7.626611 -3.431975 33.231420 206 206 206 0
7.815641 -3.459382 33.496800 206 206 206 0
7.927943 -3.452491 33.430077 206 206 206 0
8.026865 -3.440085 33.309951 206 206 206 0
8.150956 -3.438684 33.296388 206 206 206 0
8.307695 -3.450889 33.414560 206 206 206 0
8.442410 -3.453713 33.441909 206 206 206 0
8.553793 -3.447051 33.377400 207 207 207 0
8.675900 -3.444843 33.356018 206 206 206 0
8.819637 -3.451162 33.417210 206 206 206 0
8.955449 -3.454245 33.447054 206 206 206 0
9.060361 -3.445489 33.362278 206 206 206 0
9.190247 -3.446343 33.370541 206 206 206 0
9.353904 -3.459663 33.499522 206 206 206 0
9.482668 -3.459893 33.501743 207 207 207 0
9.588670 -3.451921 33.424559 206 206 206 0
9.721388 -3.453651 33.441307 206 206 206 0
9.865450 -3.459314 33.496138 207 207 207 0
9.978723 -3.454173 33.446365 207 207 207 0
10.080900 -3.445371 33.361130 207 207 207 0
-9.284055 -3.017318 30.340048 197 197 197 0
-9.119992 -3.001516 30.181159 198 198 198 0
-9.031103 -3.010368 30.270162 198 198 198 0
-8.886960 -3.000792 30.173875 198 198 198 0
-8.806782 -3.012846 30.295086 198 198 198 0
-8.819407 -3.057394 30.743029 197 197 197 0
-8.768307 -3.080757 30.977945 198 198 198 0
-8.567228 -3.051342 30.682168 198 198 198 0
-8.427948 -3.043426 30.602572 198 198 198 0
-8.476719 -3.104151 31.213179 198 198 198 0
-8.428188 -3.130470 31.477827 199 199 199 0
-8.239211 -3.104630 31.218001 198 198 198 0
-8.035076 -3.072235 30.892255 198 198 198 0
-7.978913 -3.096295 31.134186 198 198 198 0
-8.031582 -3.163957 31.814547 198 198 198 0
-7.876342 -3.150537 31.679606 199 199 199 0
-7.670841 -3.116279 31.335135 198 198 198 0
-7.496322 -3.093720 31.108297 199 199 199 0
-7.444444 -3.121864 31.391288 199 199 199 0
-7.445250 -3.173385 31.909355 199 199 199 0
-7.289328 -3.158709 31.761776 199 199 199 0
-7.108853 -3.132715 31.500402 199 199 199 0
-6.990380 -3.133619 31.509489 199 199 199 0
-6.945003 -3.167896 31.854158 200 200 200 0
-6.864585 -3.187129 32.047547 199 199 199 0
-6.711918 -3.172907 31.904542 199 199 199 0
-6.549906 -3.153659 31.710996 200 200 200 0
-6.448029 -3.163184 31.806775 200 200 200 0
-6.427159 -3.213580 32.313520 200 200 200 0
-6.289198 -3.206258 32.239897 200 200 200 0
-6.123607 -3.184275 32.018858 200 200 200 0
-5.994301 -3.180650 31.982401 200 200 200 0
-5.931224 -3.212746 32.305141 200 200 200 0
-5.836744 -3.228837 32.466940 200 200 200 0
-5.670295 -3.204949 32.226742 201 201 201 0
-5.517201 -3.187716 32.053458 201 201 201 0
-5.404686 -3.193678 32.113407 201 201 201 0
-5.311677 -3.211711 32.294735 201 201 201 0
-5.198374 -3.218041 32.358384 201 201 201 0
-5.060352 -3.209004 32.267511 201 201 201 0
-4.942810 -3.212826 32.305945 201 201 201 0
-4.836884 -3.224589 32.424224 201 201 201 0
-4.710909 -3.223253 32.410792 201 201 201 0
-4.586780 -3.223143 32.409683 201 201 201 0
-4.476386 -3.232945 32.508250 201 201 201 0
-4.351584 -3.232605 32.504826 201 201 201 0
-4.223054 -3.229394 32.472542 200 200 200 0
-4.113128 -3.240646 32.585682 201 201 201 0
-4.012077 -3.259812 32.778406 202 202 202 0
-3.884434 -3.257913 32.759304 201 201 201 0
-3.738720 -3.240224 32.581440 201 201 201 0
-3.614388 -3.240486 32.584070 201 201 201 0
-3.514833 -3.263773 32.818234 201 201 201 0
-3.386529 -3.261102 32.791371 202 202 202 0
-3.250807 -3.250807 32.687857 202 202 202 0
-3.115142 -3.239748 32.576652 201 201 201 0
-3.001836 -3.251990 32.699744 202 202 202 0
-2.889952 -3.266902 32.849694 202 202 202 0
-2.759447 -3.261164 32.792001 202 202 202 0
-2.628470 -3.254296 32.722933 202 202 202 0
-2.500031 -3.250040 32.680145 202 202 202 0
-2.385885 -3.264896 32.829518 202 202 202 0
-2.267384 -3.275110 32.932227 203 203 203 0
-2.134779 -3.264956 32.830121 203 203 203 0
-2.004953 -3.258049 32.760676 203 203 203 0
-1.889410 -3.274978 32.930899 202 202 202 0
-1.776279 -3.298804 33.170478 203 203 203 0
-1.642290 -3.284580 33.027456 203 203 203 0
-1.507553 -3.266366 32.844299 203 203 203 0
-1.385499 -3.274815 32.929261 203 203 203 0
-1.269944 -3.301854 33.201150 202 202 202 0
-1.138076 -3.287776 33.059583 203 203 203 0
-1.006925 -3.272506 32.906047 203 203 203 0
-0.878979 -3.264779 32.828347 203 203 203 0
-0.757105 -3.280789 32.989332 203 203 203 0
-0.633208 -3.292682 33.108921 203 203 203 0
-0.504290 -3.277887 32.960156 204 204 204 0
-0.378585 -3.281069 32.992148 203 203 203 0
-0.252912 -3.287860 33.060435 203 203 203 0
-0.126629 -3.292353 33.105606 204 204 204 0
0.000000 -3.291793 33.099982 204 204 204 0
0.126420 -3.286929 33.051072 203 203 203 0
0.253330 -3.293294 33.115073 204 204 204 0
0.380683 -3.299252 33.174982 204 204 204 0
0.508810 -3.307265 33.255553 204 204 204 0
0.635087 -3.302452 33.207158 204 204 204 0
0.761257 -3.298778 33.170220 203 203 203 0
0.888579 -3.300438 33.186903 204 204 204 0
1.017548 -3.307030 33.253192 205 205 205 0
1.142266 -3.299879 33.181283 204 204 204 0
1.266592 -3.293140 33.113521 204 204 204 0
1.392424 -3.291183 33.093849 204 204 204 0
1.519058 -3.291292 33.094944 204 204 204 0
1.648512 -3.297024 33.152583 205 205 205 0
1.779750 -3.305250 33.235297 204 204 204 0
1.905741 -3.303284 33.215524 205 205 205 0
2.028366 -3.296094 33.143231 205 205 205 0
2.155193 -3.296178 33.144069 205 205 205 0
2.289252 -3.306698 33.249854 205 205 205 0
2.416451 -3.306723 33.250106 205 205 205 0
2.540950 -3.303235 33.215034 205 205 205 0
2.668956 -3.304422 33.226968 205 205 205 0
2.812080 -3.323367 33.417469 205 205 205 0
2.933700 -3.316357 33.346979 205 205 205 0
3.048799 -3.302866 33.211322 205 205 205 0
3.176601 -3.303665 33.219361 205 205 205 0
3.321654 -3.321654 33.400241 205 205 205 0
3.443905 -3.316353 33.346934 205 205 205 0
3.560945 -3.306592 33.248786 205 205 205 0
3.678556 -3.298016 33.162552 205 205 205 0
3.820435 -3.311043 33.293549 204 204 204 0
3.957803 -3.319447 33.378054 205 205 205 0
4.076707 -3.312324 33.306429 206 206 206 0
4.195340 -3.305420 33.236999 205 205 205 0
4.335986 -3.315754 33.340912 205 205 205 0
4.468094 -3.319156 33.375120 205 205 205 0
4.588632 -3.314012 33.323402 205 205 205 0
4.703607 -3.305237 33.235166 206 206 206 0
4.838108 -3.310285 33.285918 206 206 206 0
4.984866 -3.323244 33.416227 205 205 205 0
5.108134 -3.320287 33.386500 205 205 205 0
5.226991 -3.314677 33.330086 205 205 205 0
5.355030 -3.315018 33.333518 205 205 205 0
5.531045 -3.344353 33.628484 206 206 206 0
5.615734 -3.318389 33.367406 205 205 205 0
5.730983 -3.311234 33.295470 206 206 206 0
5.853162 -3.308309 33.266055 206 206 206 0
5.989013 -3.313071 33.313935 206 206 206 0
6.122891 -3.316566 33.349082 206 206 206 0
6.244668 -3.313497 33.318223 206 206 206 0
6.373287 -3.314109 33.324376 206 206 206 0
6.503741 -3.315633 33.339693 206 206 206 0
6.628673 -3.314336 33.326660 206 206 206 0
6.758809 -3.315642 33.339790 206 206 206 0
6.894070 -3.319367 33.377243 205 205 205 0
7.021674 -3.319337 33.376942 206 206 206 0
7.154842 -3.321891 33.402624 206 206 206 0
7.296656 -3.328299 33.467062 206 206 206 0
7.419823 -3.326127 33.445223 206 206 206 0
7.534076 -3.320101 33.384629 206 206 206 0
7.615216 -3.299927 33.181769 206 206 206 0
7.815076 -3.331016 33.494379 206 206 206 0
7.925687 -3.323675 33.420564 206 206 206 0
8.028660 -3.313415 33.317400 207 207 207 0
8.154866 -3.312914 33.312361 207 207 207 0
8.309677 -3.323871 33.422533 206 206 206 0
8.440430 -3.325018 33.434066 207 207 207 0
8.551836 -3.318623 33.369763 206 206 206 0
8.674940 -3.316889 33.352325 206 206 206 0
8.818475 -3.322904 33.412806 207 207 207 0
8.951284 -3.324763 33.431500 206 206 206 0
9.061300 -3.318223 33.365737 207 207 207 0
9.190793 -3.318898 33.372525 207 207 207 0
9.353891 -3.331523 33.499476 206 206 206 0
9.485928 -3.332894 33.513258 206 206 206 0
9.585971 -3.323137 33.415150 207 207 207 0
9.719939 -3.325242 33.436323 206 206 206 0
9.865227 -3.331116 33.495380 207 207 207 0
9.977451 -3.325817 33.442102 206 206 206 0
10.080159 -3.317521 33.358679 207 207 207 0
-9.301229 -2.906634 30.396174 196 196 196 0
-9.100463 -2.879893 30.116533 197 197 197 0
-9.028985 -2.893906 30.263065 197 197 197 0
-8.878739 -2.882708 30.145961 197 197 197 0
-8.779577 -2.888019 30.201503 197 197 197 0
-8.797246 -2.932415 30.665782 197 197 197 0
-8.774686 -2.964421 31.000481 198 198 198 0
-8.568393 -2.934381 30.686338 197 197 197 0
-8.421526 -2.924141 30.579252 198 198 198 0
-8.471375 -2.982878 31.193499 198 198 198 0
-8.436543 -3.013051 31.509031 199 199 199 0
-8.256242 -2.991392 31.282531 198 198 198 0
-8.038148 -2.955201 30.904068 198 198 198 0
-7.969413 -2.973662 31.097114 199 199 199 0
-8.026229 -3.040238 31.793343 198 198 198 0
-7.876778 -3.029530 31.681360 198 198 198 0
-7.671134 -2.996537 31.336332 199 199 199 0
-7.491679 -2.972888 31.089030 198 198 198 0
-7.449776 -3.003942 31.413773 199 199 199 0
-7.441019 -3.049598 31.891219 199 199 199 0
-7.292226 -3.038428 31.774407 199 199 199 0
-7.109326 -3.012426 31.502497 199 199 199 0
-6.982527 -3.009710 31.474090 199 199 199 0
-6.955747 -3.050766 31.903440 199 199 199 0
-6.864387 -3.064459 32.046626 199 199 199 0
-6.709620 -3.049827 31.893617 200 200 200 0
-6.549027 -3.031957 31.706739 200 200 200 0
-6.443371 -3.039326 31.783802 200 200 200 0
-6.426174 -3.089507 32.308568 200 200 200 0
-6.295131 -3.085848 32.270309 200 200 200 0
-6.123903 -3.061951 32.020407 200 200 200 0
-5.993193 -3.057751 31.976484 199 199 199 0
-5.921686 -3.084212 32.253193 200 200 200 0
-5.838112 -3.105379 32.474549 199 199 199 0
-5.665543 -3.079099 32.199731 200 200 200 0
-5.519576 -3.066431 32.067253 200 200 200 0
-5.401879 -3.069250 32.096727 201 201 201 0
-5.314490 -3.089820 32.311840 201 201 201 0
-5.197404 -3.093693 32.352344 200 200 200 0
-5.059012 -3.084764 32.258965 201 201 201 0
-4.944877 -3.090548 32.319460 200 200 200 0
-4.828138 -3.094960 32.365599 200 200 200 0
-4.712244 -3.100160 32.419979 200 200 200 0
-4.587945 -3.099963 32.417910 201 201 201 0
-4.481194 -3.111940 32.543167 201 201 201 0
-4.355007 -3.110720 32.530401 201 201 201 0
-4.224485 -3.106239 32.483544 201 201 201 0
-4.116467 -3.118536 32.612136 201 201 201 0
-4.013048 -3.135194 32.786341 202 202 202 0
-3.884760 -3.132871 32.762052 202 202 202 0
-3.741469 -3.117891 32.605391 202 202 202 0
-3.617912 -3.118889 32.615837 202 202 202 0
-3.515203 -3.138575 32.821695 202 202 202 0
-3.385447 -3.134673 32.780896 202 202 202 0
-3.251608 -3.126546 32.695911 202 202 202 0
-3.113285 -3.113285 32.557224 202 202 202 0
-3.000837 -3.125872 32.688860 202 202 202 0
-2.891457 -3.142888 32.866806 202 202 202 0
-2.762408 -3.139100 32.827188 202 202 202 0
-2.627237 -3.127663 32.707585 203 203 203 0
-2.500594 -3.125743 32.687510 202 202 202 0
-2.385624 -3.138979 32.825920 202 202 202 0
-2.267391 -3.149154 32.932334 202 202 202 0
-2.132944 -3.136682 32.801899 202 202 202 0
-2.005447 -3.133511 32.768738 203 203 203 0
-1.889868 -3.149781 32.938881 203 203 203 0
-1.775821 -3.171109 33.161921 203 203 203 0
-1.642270 -3.158212 33.027057 202 202 202 0
-1.508149 -3.141978 32.857281 203 203 203 0
-1.385876 -3.149719 32.938236 203 203 203 0
-1.269657 -3.174142 33.193640 203 203 203 0
-1.138017 -3.161159 33.057872 203 203 203 0
-1.006291 -3.144661 32.885341 203 203 203 0
-0.879259 -3.140210 32.838799 203 203 203 0
-0.757517 -3.156321 33.007277 203 203 203 0
-0.633300 -3.166499 33.113713 203 203 203 0
-0.504475 -3.152969 32.972224 204 204 204 0
-0.378569 -3.154742 32.990767 203 203 203 0
-0.253010 -3.162620 33.073149 203 203 203 0
-0.126573 -3.164315 33.090879 203 203 203 0
0.000000 -3.164346 33.091196 204 204 204 0
0.126312 -3.157804 33.022791 203 203 203 0
0.253337 -3.166715 33.115976 204 204 204 0
0.380768 -3.173068 33.182413 204 204 204 0
0.508653 -3.179083 33.245309 204 204 204 0
0.635350 -3.176748 33.220890 204 204 204 0
0.761335 -3.172231 33.173654 204 204 204 0
0.888740 -3.174070 33.192892 204 204 204 0
1.017399 -3.179372 33.248330 204 204 204 0
1.141970 -3.172138 33.172684 204 204 204 0
1.266721 -3.166804 33.116900 204 204 204 0
1.392476 -3.164717 33.095082 204 204 204 0
1.518690 -3.163938 33.086928 204 204 204 0
1.649090 -3.171328 33.164211 204 204 204 0
1.779425 -3.177545 33.229225 205 205 205 0
1.905153 -3.175254 33.205275 204 204 204 0
2.028599 -3.169687 33.147049 205 205 205 0
2.153959 -3.167587 33.125094 204 204 204 0
2.288734 -3.178797 33.242323 205 205 205 0
2.415744 -3.178611 33.240374 204 204 204 0
2.540795 -3.175994 33.213005 205 205 205 0
2.669496 -3.177972 33.233694 205 205 205 0
2.811322 -3.194684 33.408465 204 204 204 0
2.934036 -3.189169 33.350789 205 205 205 0
3.048244 -3.175254 33.205272 204 204 204 0
3.175839 -3.175839 33.211385 204 204 204 0
3.321945 -3.194178 33.403168 204 204 204 0
3.442645 -3.187634 33.334736 205 205 205 0
3.558841 -3.177537 33.229142 205 205 205 0
3.677811 -3.170527 33.155836 205 205 205 0
3.823816 -3.186513 33.323013 205 205 205 0
3.961404 -3.194680 33.408422 205 205 205 0
4.074776 -3.183419 33.290657 206 206 206 0
4.197612 -3.180009 33.254994 206 206 206 0
4.332038 -3.185322 33.310556 205 205 205 0
4.470173 -3.192981 33.390650 206 206 206 0
4.589197 -3.186942 33.327500 206 206 206 0
4.703272 -3.177886 33.232799 206 206 206 0
4.836493 -3.181903 33.274803 205 205 205 0
4.985603 -3.195899 33.421171 205 205 205 0
5.108746 -3.192966 33.390496 205 205 205 0
5.228115 -3.187875 33.337252 205 205 205 0
5.356811 -3.188578 33.344609 206 206 206 0
5.530248 -3.215261 33.623640 206 206 206 0
5.618048 -3.192073 33.381150 205 205 205 0
5.729851 -3.183251 33.288894 206 206 206 0
5.854332 -3.181702 33.272700 206 206 206 0
5.987251 -3.184708 33.304137 205 205 205 0
6.122487 -3.188795 33.346881 206 206 206 0
6.245955 -3.186712 33.325090 206 206 206 0
6.376792 -3.188396 33.342705 206 206 206 0
6.501964 -3.187237 33.330585 206 206 206 0
6.626381 -3.185760 33.315140 206 206 206 0
6.762879 -3.190037 33.359865 206 206 206 0
6.896687 -3.192911 33.389916 206 206 206 0
7.018586 -3.190267 33.362265 206 206 206 0
7.154207 -3.193842 33.399658 206 206 206 0
7.295115 -3.199612 33.459991 206 206 206 0
7.420583 -3.198527 33.448648 206 206 206 0
7.531349 -3.191250 33.372545 206 206 206 0
7.606909 -3.169546 33.145575 206 206 206 0
7.815474 -3.203063 33.496085 206 206 206 0
7.928722 -3.197065 33.433361 206 206 206 0
8.028906 -3.186074 33.318418 206 206 206 0
8.150643 -3.183845 33.295112 207 207 207 0
8.308189 -3.195457 33.416547 206 206 206 0
8.442212 -3.197808 33.441126 206 206 206 0
8.551424 -3.190830 33.368155 207 207 207 0
8.674666 -3.189216 33.351274 206 206 206 0
8.821041 -3.196029 33.422529 207 207 207 0
8.953052 -3.197519 33.438102 206 206 206 0
9.056709 -3.188982 33.348833 207 207 207 0
9.190755 -3.191234 33.372384 206 206 206 0
9.353207 -3.203153 33.497027 206 206 206 0
9.484227 -3.204131 33.507249 207 207 207 0
9.588664 -3.196221 33.424538 207 207 207 0
9.721768 -3.197950 33.442614 206 206 206 0
9.864684 -3.202819 33.493536 206 206 206 0
9.978764 -3.198322 33.446501 207 207 207 0
10.079627 -3.189755 33.356918 206 206 206 0
-9.319604 -2.795881 30.456222 197 197 197 0
-9.150276 -2.779831 30.281380 197 197 197 0
-9.029128 -2.778193 30.263544 197 197 197 0
-8.889002 -2.770598 30.180807 197 197 197 0
-8.797947 -2.778299 30.264695 198 198 198 0
-8.826333 -2.824426 30.767173 197 197 197 0
-8.773199 -2.845362 30.995227 197 197 197 0
-8.575386 -2.819305 30.711382 198 198 198 0
-8.429147 -2.809716 30.606923 198 198 198 0
-8.455490 -2.858194 31.135010 198 198 198 0
-8.437840 -2.892974 31.513873 198 198 198 0
-8.240781 -2.866358 31.223949 198 198 198 0
-8.035115 -2.835923 30.892406 198 198 198 0
-7.962207 -2.852134 31.068997 198 198 198 0
-8.041604 -2.924220 31.854244 199 199 199 0
-7.877777 -2.908718 31.685379 199 199 199 0
-7.656850 -2.871319 31.277982 198 198 198 0
-7.497748 -2.856285 31.114215 198 198 198 0
-7.448919 -2.883452 31.410157 198 198 198 0
-7.443576 -2.928620 31.902180 199 199 199 0
-7.286684 -2.914674 31.750259 199 199 199 0
-7.121864 -2.897029 31.558054 198 198 198 0
-6.989718 -2.892297 31.506505 199 199 199 0
-6.954060 -2.928025 31.895701 199 199 199 0
-6.869241 -2.943960 32.069285 199 199 199 0
-6.711215 -2.928530 31.901202 199 199 199 0
-6.550108 -2.911159 31.711971 199 199 199 0
-6.448684 -2.920159 31.810008 199 199 199 0
-6.429297 -2.967368 32.324269 200 200 200 0
-6.293809 -2.961792 32.263534 199 199 199 0
-6.129892 -2.942348 32.051721 200 200 200 0
-6.005181 -2.941313 32.040449 200 200 200 0
-5.926385 -2.963192 32.278785 200 200 200 0
-5.839339 -2.981790 32.481373 200 200 200 0
-5.675864 -2.961320 32.258390 200 200 200 0
-5.518769 -2.943343 32.062565 200 200 200 0
-5.408548 -2.950117 32.136353 200 200 200 0
-5.314756 -2.966375 32.313456 200 200 200 0
-5.193885 -2.967934 32.330437 201 201 201 0
-5.063498 -2.963999 32.287568 201 201 201 0
-4.949179 -2.969507 32.347573 201 201 201 0
-4.829742 -2.972149 32.376352 201 201 201 0
-4.712019 -2.976012 32.418430 200 200 200 0
-4.585436 -2.974337 32.400185 200 200 200 0
-4.474819 -2.983212 32.496868 200 200 200 0
-4.352337 -2.984460 32.510454 201 201 201 0
-4.223472 -2.981274 32.475755 202 202 202 0
-4.115360 -2.992989 32.603366 201 201 201 0
-4.010463 -3.007847 32.765219 201 201 201 0
-3.885152 -3.007859 32.765353 202 202 202 0
-3.740859 -2.992687 32.600076 202 202 202 0
-3.614983 -2.991710 32.589434 202 202 202 0
-3.515126 -3.012965 32.820967 202 202 202 0
-3.387909 -3.011474 32.804730 202 202 202 0
-3.250140 -3.000129 32.681146 202 202 202 0
-3.112918 -2.988402 32.553396 202 202 202 0
-2.999125 -2.999125 32.670205 202 202 202 0
-2.891336 -3.017046 32.865422 202 202 202 0
-2.760887 -3.011877 32.809114 202 202 202 0
-2.627200 -3.002515 32.707133 202 202 202 0
-2.501786 -3.002143 32.703081 202 202 202 0
-2.386836 -3.014951 32.842607 202 202 202 0
-2.269188 -3.025584 32.958433 202 202 202 0
-2.135216 -3.014423 32.836854 202 202 202 0
-2.005055 -3.007582 32.762336 202 202 202 0
-1.890607 -3.024971 32.951755 202 202 202 0
-1.774605 -3.042181 33.139224 203 203 203 0
-1.641350 -3.030185 33.008548 202 202 202 0
-1.507974 -3.015948 32.853459 203 203 203 0
-1.385027 -3.021877 32.918047 202 202 202 0
-1.269553 -3.046928 33.190941 202 202 202 0
-1.139153 -3.037742 33.090870 203 203 203 0
-1.006755 -3.020264 32.900476 203 203 203 0
-0.879126 -3.014147 32.833848 203 203 203 0
-0.757250 -3.029001 32.995649 203 203 203 0
-0.632968 -3.038247 33.096369 203 203 203 0
-0.504606 -3.027638 32.980806 203 203 203 0
-0.378516 -3.028127 32.986133 203 203 203 0
-0.252905 -3.034860 33.059472 203 203 203 0
-0.126653 -3.039660 33.111767 204 204 204 0
0.000000 -3.036958 33.082327 203 203 203 0
0.126379 -3.033092 33.040223 204 204 204 0
0.253230 -3.038762 33.101985 204 204 204 0
0.380835 -3.046677 33.188199 203 203 203 0
0.508717 -3.052301 33.249466 204 204 204 0
0.634800 -3.047042 33.192182 203 203 203 0
0.761047 -3.044189 33.161101 204 204 204 0
0.888428 -3.046038 33.181245 204 204 204 0
1.016973 -3.050920 33.234425 204 204 204 0
1.142483 -3.046622 33.187601 204 204 204 0
1.267349 -3.041638 33.133314 204 204 204 0
1.392663 -3.038538 33.099542 204 204 204 0
1.518813 -3.037626 33.089613 204 204 204 0
1.648899 -3.044122 33.160371 205 205 205 0
1.778817 -3.049400 33.217869 205 205 205 0
1.905386 -3.048618 33.209342 205 205 205 0
2.029356 -3.044034 33.159411 204 204 204 0
2.155956 -3.043703 33.155805 204 204 204 0
2.288266 -3.051021 33.235527 204 204 204 0
2.415108 -3.050663 33.231626 204 204 204 0
