ply
    format ascii 1.0
    element vertex 25597
    property float x
    property float y
    property float z
    property uchar red
    property uchar green
    property uchar blue
    property uchar alpha
    end_header
9.686514 8.051128 32.888596 206 206 206 0
9.839020 8.073042 32.978114 206 206 206 0
9.965015 8.072924 32.977630 206 206 206 0
-9.097492 7.391713 29.730367 196 196 196 0
-8.992214 7.398657 29.758300 197 197 197 0
-8.867473 7.389561 29.721712 197 197 197 0
-8.763865 7.398068 29.755930 197 197 197 0
-8.656107 7.403249 29.776769 197 197 197 0
-8.665746 7.510314 30.207395 197 197 197 0
-8.638237 7.587640 30.518412 197 197 197 0
-8.469036 7.540923 30.330509 198 198 198 0
-8.285713 7.480158 30.086104 197 197 197 0
-8.302219 7.600623 30.570631 197 197 197 0
-8.339248 7.743587 31.145650 198 198 198 0
-8.169953 7.696332 30.955585 198 198 198 0
-7.974184 7.622382 30.658148 198 198 198 0
-7.858827 7.624235 30.665601 198 198 198 0
-7.912644 7.792755 31.343409 198 198 198 0
-7.798654 7.798654 31.367135 198 198 198 0
-7.592119 7.710746 31.013559 198 198 198 0
-7.404816 7.639889 30.728564 198 198 198 0
-7.284383 7.636853 30.716353 198 198 198 0
-7.325011 7.805339 31.394023 198 198 198 0
-7.203279 7.803552 31.386837 199 199 199 0
-7.012654 7.725805 31.074128 198 198 198 0
-6.859007 7.686818 30.917317 198 198 198 0
-6.792055 7.745326 31.152642 199 199 199 0
-6.736059 7.818640 31.447521 198 198 198 0
-6.624779 7.829284 31.490334 199 199 199 0
-6.471598 7.789886 31.331870 199 199 199 0
-6.349572 7.787211 31.321108 199 199 199 0
-6.314206 7.892757 31.745631 199 199 199 0
-6.213839 7.919599 31.853592 199 199 199 0
-6.064440 7.883772 31.709489 200 200 200 0
-5.907349 7.836280 31.518470 199 199 199 0
-5.793391 7.845217 31.554417 200 200 200 0
-5.525245 7.641296 30.734223 199 199 199 0
-5.632266 7.958637 32.010605 200 200 200 0
-5.461496 7.888827 31.729822 200 200 200 0
-5.313802 7.849935 31.573394 200 200 200 0
-5.212698 7.879660 31.692950 200 200 200 0
-5.115017 7.916097 31.839507 200 200 200 0
-4.990248 7.911368 31.820486 200 200 200 0
-4.861306 7.899623 31.773244 200 200 200 0
-4.762568 7.937614 31.926048 200 200 200 0
-4.639869 7.936618 31.922045 201 201 201 0
-4.522771 7.945408 31.957396 201 201 201 0
-4.405142 7.953729 31.990867 200 200 200 0
-4.297631 7.981314 32.101815 201 201 201 0
-4.178852 7.988981 32.132653 201 201 201 0
-4.051076 7.979392 32.094086 201 201 201 0
-3.949444 8.022308 32.266699 201 201 201 0
-3.837707 8.046805 32.365229 200 200 200 0
-3.702207 8.021448 32.263240 201 201 201 0
-3.573004 8.008457 32.210987 201 201 201 0
-3.504842 8.136241 32.724953 201 201 201 0
-3.343690 8.049624 32.376568 201 201 201 0
-3.213310 8.033276 32.310812 201 201 201 0
-3.069007 7.979417 32.094186 201 201 201 0
-2.940441 7.963694 32.030946 201 201 201 0
-2.835824 8.014285 32.234429 202 202 202 0
-2.726336 8.055083 32.398523 201 201 201 0
-2.592716 8.025074 32.277823 202 202 202 0
-2.460812 7.997638 32.167473 201 201 201 0
-2.340197 8.005938 32.200858 202 202 202 0
-2.228720 8.048156 32.370663 202 202 202 0
-2.108493 8.061884 32.425878 202 202 202 0
-1.976449 8.029324 32.294920 201 201 201 0
-1.848717 8.011108 32.221652 202 202 202 0
-1.737639 8.067611 32.448912 202 202 202 0
-1.622819 8.114094 32.635874 202 202 202 0
-1.490246 8.072167 32.467240 203 203 203 0
-1.361354 8.044363 32.355406 202 202 202 0
-1.241672 8.070871 32.462024 202 202 202 0
-1.125760 8.130485 32.701802 202 202 202 0
-0.995596 8.089215 32.535805 202 202 202 0
-0.867111 8.051746 32.385102 203 203 203 0
-0.741934 8.037618 32.328279 202 202 202 0
-0.622273 8.089551 32.537160 202 202 202 0
-0.498674 8.103454 32.593076 203 203 203 0
-0.372667 8.074442 32.476389 202 202 202 0
-0.248148 8.064823 32.437698 203 203 203 0
-0.124594 8.098617 32.573622 203 203 203 0
0.000000 8.104180 32.595997 203 203 203 0
0.124601 8.099055 32.575385 203 203 203 0
0.249263 8.101052 32.583415 203 203 203 0
0.374262 8.109013 32.615437 203 203 203 0
0.499992 8.124866 32.679201 203 203 203 0
0.625534 8.131936 32.707634 203 203 203 0
0.749476 8.119321 32.656897 203 203 203 0
0.874061 8.116279 32.644663 203 203 203 0
1.000157 8.126276 32.684872 203 203 203 0
1.127895 8.145905 32.763823 203 203 203 0
1.248777 8.117048 32.647755 203 203 203 0
1.373256 8.114695 32.638291 203 203 203 0
1.496599 8.106577 32.605639 204 204 204 0
1.621311 8.106554 32.605547 204 204 204 0
1.750755 8.128503 32.693829 203 203 203 0
1.876639 8.132101 32.708300 204 204 204 0
2.001746 8.132092 32.708265 204 204 204 0
2.123391 8.118847 32.654991 204 204 204 0
2.248282 8.118798 32.654793 204 204 204 0
2.381087 8.145823 32.763489 204 204 204 0
2.508687 8.153233 32.793296 204 204 204 0
2.629427 8.138703 32.734853 204 204 204 0
2.754072 8.137030 32.728123 204 204 204 0
2.894079 8.178919 32.896606 204 204 204 0
3.016756 8.170380 32.862264 204 204 204 0
3.131462 8.141801 32.747315 204 204 204 0
3.254610 8.136525 32.726093 205 205 205 0
3.400745 8.186978 32.929023 205 205 205 0
3.517393 8.165378 32.842142 204 204 204 0
3.630607 8.137568 32.730290 204 204 204 0
3.747585 8.119767 32.658690 204 204 204 0
3.886051 8.148172 32.772941 205 205 205 0
4.023167 8.172058 32.869012 204 204 204 0
4.135840 8.146352 32.765618 204 204 204 0
4.252938 8.130617 32.702330 205 205 205 0
4.387035 8.147351 32.769638 204 204 204 0
4.521832 8.164418 32.838284 205 205 205 0
4.645643 8.161265 32.825603 205 205 205 0
4.759739 8.141658 32.746739 205 205 205 0
4.890290 8.150483 32.782235 205 205 205 0
5.041754 8.192850 32.952641 205 205 205 0
5.164056 8.186917 32.928778 205 205 205 0
5.276884 8.166606 32.847082 205 205 205 0
5.402114 8.165986 32.844588 205 205 205 0
5.531885 8.172102 32.869190 205 205 205 0
5.665456 8.183436 32.914777 205 205 205 0
5.773215 8.157804 32.811679 206 206 206 0
5.886844 8.141380 32.745620 205 205 205 0
6.021424 8.154011 32.796424 205 205 205 0
6.160929 8.172661 32.871436 205 205 205 0
6.283946 8.169129 32.857232 206 206 206 0
6.406119 8.164661 32.839262 205 205 205 0
6.533998 8.167498 32.850669 206 206 206 0
6.661981 8.170354 32.862157 205 205 205 0
6.790954 8.174297 32.878016 205 205 205 0
6.919107 8.177127 32.889399 205 205 205 0
7.045592 8.177919 32.892586 205 205 205 0
7.173793 8.180641 32.903534 206 206 206 0
7.316427 8.199444 32.979162 205 205 205 0
7.444502 8.201570 32.987711 205 205 205 0
7.552102 8.181444 32.906765 205 205 205 0
7.677508 8.180951 32.904782 205 205 205 0
7.823989 8.202569 32.991730 205 205 205 0
7.942638 8.194785 32.960424 206 206 206 0
8.050025 8.175806 32.884088 205 205 205 0
8.164469 8.164469 32.838489 205 205 205 0
8.307622 8.181749 32.907988 206 206 206 0
8.444664 8.192585 32.951573 206 206 206 0
8.564072 8.186245 32.926075 205 205 205 0
8.675877 8.172927 32.872508 206 206 206 0
8.811518 8.182123 32.909496 205 205 205 0
8.954279 8.197579 32.971662 205 205 205 0
9.070237 8.188408 32.934774 206 206 206 0
9.182672 8.176352 32.886282 206 206 206 0
9.322118 8.188347 32.934526 206 206 206 0
9.476376 8.212859 33.033117 206 206 206 0
9.580423 8.193783 32.956391 206 206 206 0
9.686539 8.176949 32.888683 206 206 206 0
9.838889 8.199074 32.977675 205 205 205 0
9.979989 8.211383 33.027182 206 206 206 0
-9.110360 7.516047 29.772418 196 196 196 0
-8.978242 7.500810 29.712062 196 196 196 0
-8.873855 7.508646 29.743103 197 197 197 0
-8.770488 7.517561 29.778415 196 196 196 0
-8.664689 7.524598 29.806291 198 198 198 0
-8.686802 7.644386 30.280791 197 197 197 0
-8.652508 7.717101 30.568831 197 197 197 0
-8.469751 7.657583 30.333070 197 197 197 0
-8.287439 7.596819 30.092373 197 197 197 0
-8.323884 7.737695 30.650408 197 197 197 0
-8.357473 7.879903 31.213718 198 198 198 0
-8.164065 7.809105 30.933276 198 198 198 0
-7.964797 7.730539 30.622058 198 198 198 0
-7.858814 7.741519 30.665552 197 197 197 0
-7.898431 7.898431 31.287109 197 197 197 0
-7.801454 7.921476 31.378397 198 198 198 0
-7.592334 7.829594 31.014435 198 198 198 0
-7.413390 7.766409 30.764148 198 198 198 0
-7.288079 7.758277 30.731936 198 198 198 0
-7.318088 7.917932 31.364356 198 198 198 0
-7.195170 7.914687 31.351505 199 199 199 0
-7.013072 7.845132 31.075982 198 198 198 0
-6.863379 7.810052 30.937027 198 198 198 0
-6.794624 7.867459 31.164426 199 199 199 0
-6.737496 7.940620 31.454230 199 199 199 0
-6.620475 7.944570 31.469877 199 199 199 0
-6.469453 7.907109 31.321484 199 199 199 0
-6.356500 7.915641 31.355284 198 198 198 0
-6.313311 8.013048 31.741130 199 199 199 0
-6.210855 8.037577 31.838291 199 199 199 0
-6.063265 8.003509 31.703344 200 200 200 0
-5.903469 7.951612 31.497769 199 199 199 0
-5.795962 7.969447 31.568418 200 200 200 0
-5.469593 7.680706 30.424660 199 199 199 0
-5.627168 8.073763 31.981632 199 199 199 0
-5.462920 8.012283 31.738099 199 199 199 0
-5.314320 7.971480 31.576472 199 199 199 0
-5.211141 7.998495 31.683482 200 200 200 0
-5.118100 8.042729 31.858700 200 200 200 0
-4.987524 8.028697 31.803116 200 200 200 0
-4.866221 8.029265 31.805366 200 200 200 0
-4.759230 8.054082 31.903673 201 201 201 0
-4.643701 8.065375 31.948407 201 201 201 0
-4.516398 8.056278 31.912370 200 200 200 0
-4.399771 8.066247 31.951861 200 200 200 0
-4.295333 8.099771 32.084656 200 200 200 0
-4.173822 8.102125 32.093979 200 200 200 0
-4.050902 8.101804 32.092707 200 200 200 0
-3.952150 8.151309 32.288807 201 201 201 0
-3.840123 8.175746 32.385606 201 201 201 0
-3.700538 8.141183 32.248696 201 201 201 0
-3.572817 8.131240 32.209308 201 201 201 0
-3.487288 8.220036 32.561044 201 201 201 0
-3.343144 8.172129 32.371277 201 201 201 0
-3.213218 8.156630 32.309882 201 201 201 0
-3.074290 8.116124 32.149433 201 201 201 0
-2.939624 8.083967 32.022052 201 201 201 0
-2.835026 8.135293 32.225363 201 201 201 0
-2.727151 8.181452 32.408207 201 201 201 0
-2.593033 8.149533 32.281769 201 201 201 0
-2.461094 8.121612 32.171169 201 201 201 0
-2.339213 8.125688 32.187317 201 201 201 0
-2.229295 8.174082 32.379013 202 202 202 0
-2.109722 8.190684 32.444777 202 202 202 0
-1.977486 8.157131 32.311868 201 201 201 0
-1.848305 8.132543 32.214470 202 202 202 0
-1.738134 8.194060 32.458152 202 202 202 0
-1.622232 8.235949 32.624082 202 202 202 0
-1.490410 8.197257 32.470813 201 201 201 0
-1.360687 8.164125 32.339571 202 202 202 0
-1.240580 8.187826 32.433455 202 202 202 0
-1.125932 8.256833 32.706804 202 202 202 0
-0.996427 8.220525 32.562982 202 202 202 0
-0.866848 8.173143 32.375293 203 203 203 0
-0.741896 8.160859 32.326635 203 203 203 0
-0.622688 8.219486 32.558867 202 202 202 0
-0.498658 8.227853 32.592011 203 203 203 0
-0.372688 8.199130 32.478234 202 202 202 0
-0.248111 8.187668 32.432829 202 202 202 0
-0.124520 8.218326 32.554271 203 203 203 0
0.000000 8.227343 32.589988 203 203 203 0
0.124639 8.226157 32.585293 203 203 203 0
0.249149 8.221914 32.568487 203 203 203 0
0.374168 8.231690 32.607210 203 203 203 0
0.500042 8.250699 32.682507 203 203 203 0
0.625833 8.260996 32.723294 203 203 203 0
0.749479 8.244274 32.657056 203 203 203 0
0.873956 8.240157 32.640748 203 203 203 0
1.000098 8.250806 32.682933 203 203 203 0
1.127997 8.271977 32.766792 203 203 203 0
1.250014 8.250090 32.680096 204 204 204 0
1.373359 8.240153 32.640735 203 203 203 0
1.496121 8.228663 32.595221 204 204 204 0
1.621929 8.234409 32.617980 204 204 204 0
1.750151 8.250710 32.682552 204 204 204 0
1.876550 8.256819 32.706750 203 203 203 0
2.001630 8.256723 32.706371 204 204 204 0
2.123495 8.244158 32.656596 203 203 203 0
2.249160 8.246919 32.667533 204 204 204 0
2.380863 8.270366 32.760411 203 203 203 0
2.508238 8.277186 32.787427 203 203 203 0
2.628417 8.260739 32.722277 204 204 204 0
2.755443 8.266329 32.744420 205 205 205 0
2.894832 8.306910 32.905169 204 204 204 0
3.015997 8.293993 32.854002 204 204 204 0
3.131169 8.266286 32.744250 205 205 205 0
3.255587 8.264182 32.735916 205 205 205 0
3.400646 8.312690 32.928064 204 204 204 0
3.517914 8.292227 32.847006 204 204 204 0
3.630891 8.263406 32.732844 204 204 204 0
3.748043 8.245695 32.662684 204 204 204 0
3.885552 8.272466 32.768730 204 204 204 0
4.021999 8.295372 32.859465 205 205 205 0
4.137150 8.274300 32.775994 204 204 204 0
4.252567 8.254983 32.699478 204 204 204 0
4.387506 8.273583 32.773156 204 204 204 0
4.524345 8.294633 32.856536 205 205 205 0
4.644818 8.285350 32.819768 205 205 205 0
4.759554 8.266593 32.745468 205 205 205 0
4.888504 8.272853 32.770262 205 205 205 0
5.038594 8.313680 32.931987 204 204 204 0
5.161154 8.308199 32.910275 205 205 205 0
5.277930 8.293890 32.853595 205 205 205 0
5.401632 8.290877 32.841661 204 204 204 0
5.531800 8.297701 32.868689 205 205 205 0
5.667630 8.312523 32.927405 205 205 205 0
5.773382 8.283548 32.812628 205 205 205 0
5.885382 8.264578 32.737486 205 205 205 0
6.020162 8.277723 32.789555 205 205 205 0
6.158614 8.295276 32.859083 205 205 205 0
6.284867 8.296024 32.862048 206 206 206 0
6.406038 8.290167 32.838847 205 205 205 0
6.538327 8.298646 32.872435 205 205 205 0
6.663466 8.297901 32.869485 205 205 205 0
6.789762 8.298598 32.872244 205 205 205 0
6.918879 8.302655 32.888316 205 205 205 0
7.046071 8.304298 32.894822 205 205 205 0
7.172653 8.305177 32.898305 206 206 206 0
7.316640 8.325832 32.980123 206 206 206 0
7.443514 8.326643 32.983335 205 205 205 0
7.554071 8.309478 32.915343 206 206 206 0
7.676175 8.305370 32.899068 205 205 205 0
7.822275 8.326938 32.984505 205 205 205 0
7.938538 8.316563 32.943407 205 205 205 0
8.048240 8.299747 32.876796 206 206 206 0
8.165445 8.291067 32.842412 206 206 206 0
8.310413 8.310413 32.919047 206 206 206 0
8.444286 8.318252 32.950096 206 206 206 0
8.564344 8.312451 32.927119 206 206 206 0
8.674871 8.297702 32.868697 205 205 205 0
8.813273 8.309657 32.916051 206 206 206 0
8.949673 8.319414 32.954702 205 205 205 0
9.071432 8.315479 32.939113 205 205 205 0
9.182445 8.301937 32.885470 205 205 205 0
9.321938 8.314161 32.933890 206 206 206 0
9.476575 8.339386 33.033813 206 206 206 0
9.580480 8.319891 32.956589 206 206 206 0
9.687473 8.303548 32.891852 206 206 206 0
9.834605 8.321589 32.963314 206 206 206 0
9.990988 8.346901 33.063583 205 205 205 0
-9.106288 7.626516 29.759110 197 197 197 0
-8.958224 7.597481 29.645814 196 196 196 0
-8.894385 7.640049 29.811916 197 197 197 0
-8.760538 7.622806 29.744634 197 197 197 0
-8.669440 7.642796 29.822634 197 197 197 0
-8.672891 7.747783 30.232301 197 197 197 0
-8.656554 7.837691 30.583128 197 197 197 0
-8.462969 7.767382 30.308779 197 197 197 0
-8.286518 7.711066 30.089029 197 197 197 0
-8.328433 7.859226 30.667157 197 197 197 0
-8.350712 7.992824 31.188467 198 198 198 0
-8.175299 7.938334 30.975843 197 197 197 0
-7.974288 7.857019 30.658546 197 197 197 0
-7.850779 7.850779 30.634196 198 198 198 0
-7.916031 8.035971 31.356829 198 198 198 0
-7.793745 8.033553 31.347393 198 198 198 0
-7.599618 7.955850 31.044190 197 197 197 0
-7.410508 7.881017 30.752188 197 197 197 0
-7.286978 7.874638 30.727296 198 198 198 0
-7.317403 8.037148 31.361420 198 198 198 0
-7.201180 8.041318 31.377692 199 199 199 0
-7.007345 7.957493 31.050603 198 198 198 0
-6.866921 7.932477 30.952989 198 198 198 0
-6.798607 7.991345 31.182695 198 198 198 0
-6.738924 8.062641 31.460894 199 199 199 0
-6.623533 8.068668 31.484412 199 199 199 0
-6.467005 8.023877 31.309635 199 199 199 0
-6.355727 8.034598 31.351469 200 200 200 0
-6.310619 8.130990 31.727599 200 200 200 0
-6.211140 8.159733 31.839753 199 199 199 0
-6.066060 8.128521 31.717962 199 199 199 0
-5.900512 8.068047 31.481991 199 199 199 0
-5.791388 8.083812 31.543507 199 199 199 0
-5.453683 7.774399 30.336159 200 200 200 0
-5.632649 8.204076 32.012785 200 200 200 0
-5.462069 8.132414 31.733154 199 199 199 0
-5.313596 8.091157 31.572167 200 200 200 0
-5.211868 8.120818 31.687905 200 200 200 0
-5.117943 8.164338 31.857723 199 199 199 0
-4.991766 8.157276 31.830167 200 200 200 0
-4.859593 8.139818 31.762047 200 200 200 0
-4.766424 8.188473 31.951898 200 200 200 0
-4.641282 8.183312 31.931762 200 200 200 0
-4.514693 8.175255 31.900323 200 200 200 0
-4.406284 8.200584 31.999155 200 200 200 0
-4.296479 8.224689 32.093217 201 201 201 0
-4.174241 8.225711 32.097203 201 201 201 0
-4.050233 8.223200 32.087406 201 201 201 0
-3.951688 8.273846 32.285029 200 200 200 0
-3.837290 8.293498 32.361714 201 201 201 0
-3.703931 8.272112 32.278264 201 201 201 0
-3.573560 8.256156 32.216002 201 201 201 0
-3.475625 8.316673 32.452144 201 201 201 0
-3.342620 8.294651 32.366210 201 201 201 0
-3.213609 8.281224 32.313818 201 201 201 0
-3.074284 8.239081 32.149373 200 200 200 0
-2.940060 8.207667 32.026797 201 201 201 0
-2.834495 8.257008 32.219326 201 201 201 0
-2.726719 8.304099 32.403079 201 201 201 0
-2.592116 8.270086 32.270357 202 202 202 0
-2.460962 8.244221 32.169431 201 201 201 0
-2.340276 8.252551 32.201935 202 202 202 0
-2.228271 8.294121 32.364143 202 202 202 0
-2.109774 8.314991 32.445579 202 202 202 0
-1.978028 8.282993 32.320723 202 202 202 0
-1.847988 8.254349 32.208950 201 201 201 0
-1.737108 8.313303 32.438993 201 201 201 0
-1.621548 8.357207 32.610308 201 201 201 0
-1.489383 8.315724 32.448441 202 202 202 0
-1.361898 8.295195 32.368333 202 202 202 0
-1.241728 8.319577 32.463475 202 202 202 0
-1.125697 8.380190 32.699990 202 202 202 0
-0.995748 8.339385 32.540768 202 202 202 0
-0.866957 8.298021 32.379363 203 203 203 0
-0.742268 8.288654 32.342811 202 202 202 0
-0.622340 8.339358 32.540661 202 202 202 0
-0.498685 8.352978 32.593809 202 202 202 0
-0.372620 8.321855 32.472365 203 203 203 0
-0.248187 8.314256 32.442713 202 202 202 0
-0.124568 8.346059 32.566808 202 202 202 0
0.000000 8.352470 32.591825 202 202 202 0
0.124597 8.347981 32.574308 203 203 203 0
0.249192 8.347929 32.574107 203 203 203 0
0.374459 8.362911 32.632568 204 204 204 0
0.500103 8.376729 32.686483 203 203 203 0
0.625833 8.386165 32.723306 203 203 203 0
0.749822 8.373008 32.671966 203 203 203 0
0.874034 8.365759 32.643678 204 204 204 0
0.999857 8.373801 32.675062 203 203 203 0
1.127831 8.396073 32.761965 204 204 204 0
1.249026 8.368477 32.654287 203 203 203 0
1.373251 8.364346 32.638168 204 204 204 0
1.496997 8.358233 32.614313 204 204 204 0
1.621740 8.358198 32.614178 203 203 203 0
1.750604 8.377891 32.691019 203 203 203 0
1.877930 8.388087 32.730806 203 203 203 0
2.001841 8.382709 32.709821 203 203 203 0
2.123976 8.370965 32.663995 204 204 204 0
2.250011 8.375040 32.679896 205 205 205 0
2.381481 8.397855 32.768922 203 203 203 0
2.508788 8.404439 32.794610 204 204 204 0
2.628099 8.384888 32.718322 204 204 204 0
2.755775 8.392588 32.748369 204 204 204 0
2.894326 8.431297 32.899413 204 204 204 0
3.014957 8.416754 32.842664 204 204 204 0
3.130036 8.388496 32.732402 204 204 204 0
3.255263 8.388562 32.732659 204 204 204 0
3.400578 8.438471 32.927407 204 204 204 0
3.518317 8.418829 32.850763 204 204 204 0
3.632269 8.391793 32.745265 205 205 205 0
3.749102 8.372993 32.671909 205 205 205 0
3.885836 8.398420 32.771124 204 204 204 0
4.022028 8.421120 32.859703 204 204 204 0
4.134963 8.395227 32.758667 205 205 205 0
4.252382 8.379693 32.698052 204 204 204 0
4.384112 8.392443 32.747803 204 204 204 0
4.521244 8.414537 32.834014 205 205 205 0
4.645797 8.412660 32.826689 205 205 205 0
4.760511 8.393532 32.752050 204 204 204 0
4.888374 8.397975 32.769389 204 204 204 0
5.037540 8.437880 32.925100 205 205 205 0
5.162820 8.436804 32.920902 204 204 204 0
5.277619 8.419059 32.851659 204 204 204 0
5.400709 8.415058 32.836045 205 205 205 0
5.532734 8.424844 32.874234 204 204 204 0
5.668028 8.439064 32.929720 205 205 205 0
5.773174 8.408753 32.811446 205 205 205 0
5.888495 8.394237 32.754803 205 205 205 0
6.021259 8.404674 32.795529 205 205 205 0
6.159796 8.422578 32.865390 204 204 204 0
6.282549 8.418616 32.849929 205 205 205 0
6.405135 8.414590 32.834219 205 205 205 0
6.537780 8.423678 32.869684 206 206 206 0
6.661232 8.420802 32.858462 205 205 205 0
6.790488 8.425236 32.875760 205 205 205 0
6.919621 8.429357 32.891843 205 205 205 0
7.050206 8.435068 32.914129 205 205 205 0
7.174152 8.432776 32.905183 206 206 206 0
7.320040 8.455909 32.995449 205 205 205 0
7.448131 8.458047 33.003794 205 205 205 0
7.554233 8.435560 32.916049 205 205 205 0
7.675076 8.430001 32.894356 205 205 205 0
7.824314 8.455307 32.993101 205 205 205 0
7.942295 8.446568 32.959002 205 205 205 0
8.049127 8.426430 32.880422 205 205 205 0
8.163791 8.414984 32.835760 206 206 206 0
8.310378 8.436293 32.918907 205 205 205 0
8.442403 8.442403 32.942750 206 206 206 0
8.563515 8.437581 32.923934 205 205 205 0
8.674489 8.423054 32.867249 206 206 206 0
8.810028 8.432456 32.903934 206 206 206 0
8.958274 8.453582 32.986371 206 206 206 0
9.069302 8.439490 32.931381 205 205 205 0
9.183307 8.428515 32.888558 206 206 206 0
9.320040 8.438414 32.927184 206 206 206 0
9.474903 8.464247 33.027985 206 206 206 0
9.581348 8.446714 32.959573 206 206 206 0
9.688913 8.430612 32.896741 205 205 205 0
9.833459 8.446689 32.959473 205 205 205 0
9.994570 8.476407 33.075435 206 206 206 0
-9.084169 7.721544 29.686827 196 196 196 0
-8.989221 7.737557 29.748393 197 197 197 0
-8.898554 7.757714 29.825890 197 197 197 0
-8.786901 7.759861 29.834143 197 197 197 0
-8.687591 7.773108 29.885075 197 197 197 0
-8.693612 7.882208 30.304530 197 197 197 0
-8.639051 7.938588 30.521291 197 197 197 0
-8.458160 7.878834 30.291557 197 197 197 0
-8.286706 7.826333 30.089708 197 197 197 0
-8.322125 7.970486 30.643929 197 197 197 0
-8.354748 8.116041 31.203542 198 198 198 0
-8.174329 8.055860 30.972165 198 198 198 0
-7.965726 7.965726 30.625630 197 197 197 0
-7.860696 7.978020 30.672895 198 198 198 0
-7.906691 8.146288 31.319829 198 198 198 0
-7.806559 8.166862 31.398930 198 198 198 0
-7.590791 8.065215 31.008133 198 198 198 0
-7.403819 7.991424 30.724428 198 198 198 0
-7.284254 7.989182 30.715808 198 198 198 0
-7.308792 8.147506 31.324512 198 198 198 0
-7.206300 8.167140 31.399999 199 199 199 0
-7.012533 8.082241 31.073591 199 199 199 0
-6.866098 8.049908 30.949279 198 198 198 0
-6.793010 8.103942 31.157023 199 199 199 0
-6.729649 8.171717 31.417597 199 199 199 0
-6.624935 8.190829 31.491076 198 198 198 0
-6.478686 8.158345 31.366188 199 199 199 0
-6.351615 8.149242 31.331189 199 199 199 0
-6.314412 8.257308 31.746668 199 199 199 0
-6.221489 8.295318 31.892803 199 199 199 0
-6.060370 8.242103 31.688208 199 199 199 0
-5.906062 8.196167 31.511600 199 199 199 0
-5.787265 8.198625 31.521050 199 199 199 0
-5.431843 7.858837 30.214675 199 199 199 0
-5.629492 8.321857 31.994838 199 199 199 0
-5.459275 8.249570 31.716918 200 200 200 0
-5.313730 8.212129 31.572967 200 200 200 0
-5.209557 8.238369 31.673852 200 200 200 0
-5.118132 8.286500 31.858899 200 200 200 0
-4.989365 8.275044 31.814856 200 200 200 0
-4.858871 8.260080 31.757326 201 201 201 0
-4.755678 8.291951 31.879856 200 200 200 0
-4.643294 8.309053 31.945608 200 200 200 0
-4.517506 8.302443 31.920195 200 200 200 0
-4.406165 8.322756 31.998292 200 200 200 0
-4.291609 8.337984 32.056840 200 200 200 0
-4.176590 8.353179 32.115261 201 201 201 0
-4.053081 8.351803 32.109971 200 200 200 0
-3.954202 8.402680 32.305575 200 200 200 0
-3.836792 8.416188 32.357508 201 201 201 0
-3.702974 8.393408 32.269928 200 200 200 0
-3.571317 8.374122 32.195780 201 201 201 0
-3.466737 8.419218 32.369157 201 201 201 0
-3.347527 8.430809 32.413722 201 201 201 0
-3.215782 8.410508 32.335670 201 201 201 0
-3.074486 8.362603 32.151492 201 201 201 0
-2.940851 8.332411 32.035412 201 201 201 0
-2.834678 8.380788 32.221406 201 201 201 0
-2.726459 8.427238 32.399992 201 201 201 0
-2.593488 8.397961 32.287431 202 202 202 0
-2.462145 8.371291 32.184896 202 202 202 0
-2.339613 8.373351 32.192814 201 201 201 0
-2.228592 8.419126 32.368806 201 201 201 0
-2.109783 8.439132 32.445722 202 202 202 0
-1.977939 8.406239 32.319258 202 202 202 0
-1.848077 8.377949 32.210490 202 202 202 0
-1.737995 8.441688 32.455548 202 202 202 0
-1.623025 8.489670 32.640023 202 202 202 0
-1.490151 8.444191 32.465172 202 202 202 0
-1.361233 8.414897 32.352547 202 202 202 0
-1.242494 8.448960 32.483505 202 202 202 0
-1.126269 8.509585 32.716589 202 202 202 0
-0.995327 8.460283 32.527038 202 202 202 0
-0.866797 8.420317 32.373382 203 203 203 0
-0.742287 8.412586 32.343659 202 202 202 0
-0.622740 8.469259 32.561551 203 203 203 0
-0.498724 8.478313 32.596359 202 202 202 0
-0.372704 8.447966 32.479685 202 202 202 0
-0.248127 8.436315 32.434892 203 203 203 0
-0.124562 8.470226 32.565266 203 203 203 0
0.000000 8.476273 32.588517 203 203 203 0
0.124564 8.470345 32.565723 203 203 203 0
0.249118 8.469999 32.564393 203 203 203 0
0.374228 8.482502 32.612466 202 202 202 0
0.500054 8.500912 32.683244 203 203 203 0
0.625843 8.511470 32.723838 203 203 203 0
0.749524 8.494600 32.658979 204 204 204 0
0.874501 8.495155 32.661112 203 203 203 0
1.000304 8.502585 32.689678 203 203 203 0
1.128150 8.523801 32.771245 203 203 203 0
1.249712 8.498043 32.672216 203 203 203 0
1.373183 8.488765 32.636543 203 203 203 0
1.496958 8.482760 32.613458 203 203 203 0
1.621840 8.483470 32.616187 203 203 203 0
1.750535 8.502600 32.689736 204 204 204 0
1.877050 8.509294 32.715471 204 204 204 0
2.001271 8.505404 32.700514 204 204 204 0
2.124180 8.496721 32.667133 203 203 203 0
2.251049 8.503962 32.694972 204 204 204 0
2.382021 8.525129 32.776353 204 204 204 0
2.508895 8.530243 32.796012 204 204 204 0
2.629052 8.513122 32.730187 204 204 204 0
2.756595 8.520385 32.758110 204 204 204 0
2.895724 8.561270 32.915300 204 204 204 0
3.016233 8.545993 32.856567 205 205 205 0
3.131921 8.518825 32.752114 204 204 204 0
3.253927 8.510270 32.719222 204 204 204 0
3.400492 8.564202 32.926574 204 204 204 0
3.519694 8.547829 32.863624 204 204 204 0
3.630792 8.513582 32.731956 204 204 204 0
3.748183 8.495882 32.663905 205 205 205 0
3.886183 8.524531 32.774054 204 204 204 0
4.022650 8.548130 32.864784 204 204 204 0
4.136253 8.523188 32.768889 204 204 204 0
4.253599 8.507198 32.707413 204 204 204 0
4.387296 8.523889 32.771584 204 204 204 0
4.520967 8.539604 32.832004 204 204 204 0
4.647717 8.541751 32.840257 205 205 205 0
4.760453 8.518706 32.751657 205 205 205 0
4.888712 8.523908 32.771657 205 205 205 0
5.035190 8.559823 32.909738 205 205 205 0
5.159368 8.557001 32.898889 204 204 204 0
5.276350 8.542662 32.843761 204 204 204 0
5.401250 8.541512 32.839338 205 205 205 0
5.534337 8.553066 32.883762 205 205 205 0
5.668336 8.565485 32.931509 205 205 205 0
5.773355 8.534525 32.812478 204 204 204 0
5.886082 8.516034 32.741384 205 205 205 0
6.020712 8.529342 32.792551 205 205 205 0
6.159831 8.548337 32.865578 205 205 205 0
6.282869 8.544701 32.851601 205 205 205 0
6.405976 8.541302 32.838530 205 205 205 0
6.537611 8.549184 32.868833 205 205 205 0
6.662241 8.547781 32.863441 205 205 205 0
6.789368 8.549575 32.870338 205 205 205 0
6.921008 8.556883 32.898434 205 205 205 0
7.045100 8.554765 32.890292 205 205 205 0
7.176725 8.561707 32.916983 205 205 205 0
7.315950 8.577321 32.977011 205 205 205 0
7.447300 8.583329 33.000111 205 205 205 0
7.554221 8.561451 32.915997 205 205 205 0
7.676775 8.557717 32.901640 205 205 205 0
7.822831 8.579879 32.986847 205 205 205 0
7.942914 8.573304 32.961569 206 206 206 0
8.047800 8.550788 32.875002 205 205 205 0
8.165722 8.542602 32.843528 206 206 206 0
8.310022 8.561841 32.917496 205 205 205 0
8.442590 8.568599 32.943478 205 205 205 0
8.561038 8.561038 32.914411 205 205 205 0
8.673507 8.547804 32.863530 205 205 205 0
8.812002 8.560230 32.911305 206 206 206 0
8.951579 8.573343 32.961719 206 206 206 0
9.070101 8.566206 32.934279 205 205 205 0
9.184596 8.555514 32.893172 206 206 206 0
9.317874 8.562370 32.919533 206 206 206 0
9.473161 8.588999 33.021912 205 205 205 0
9.579742 8.571348 32.954048 205 205 205 0
9.688062 8.555691 32.893853 205 205 205 0
9.839761 8.578253 32.980597 206 206 206 0
9.994195 8.602598 33.074194 206 206 206 0
-9.098755 7.847676 29.734492 197 197 197 0
-8.966369 7.831385 29.672768 196 196 196 0
-8.883778 7.858726 29.776362 196 196 196 0
-8.775155 7.863451 29.794263 197 197 197 0
-8.673315 7.874457 29.835966 196 196 196 0
-8.691683 7.996348 30.297805 197 197 197 0
-8.672703 8.086709 30.640180 196 196 196 0
-8.460135 7.996566 30.298629 196 196 196 0
-8.299229 7.953428 30.135181 197 197 197 0
-8.334703 8.099923 30.690244 198 198 198 0
-8.357790 8.238393 31.214903 197 197 197 0
-8.165749 8.165749 30.939658 197 197 197 0
-7.974429 8.091700 30.659090 197 197 197 0
-7.849662 8.083980 30.629838 197 197 197 0
-7.908748 8.268237 31.327979 197 197 197 0
-7.784567 8.263617 31.310475 198 198 198 0
-7.599016 8.192690 31.041734 198 198 198 0
-7.415321 8.121543 30.772161 198 198 198 0
-7.274943 8.096307 30.676545 199 199 199 0
-7.307050 8.265351 31.317045 198 198 198 0
-7.204022 8.284625 31.390074 198 198 198 0
-7.002881 8.189810 31.030822 199 199 199 0
-6.860837 8.162030 30.925567 199 199 199 0
-6.799125 8.230520 31.185073 198 198 198 0
-6.729606 8.291836 31.417394 199 199 199 0
-6.620365 8.305549 31.469351 199 199 199 0
-6.472776 8.270769 31.337574 198 198 198 0
-6.350896 8.268148 31.327641 199 199 199 0
-6.309939 8.372803 31.724177 199 199 199 0
-6.209895 8.401623 31.833371 199 199 199 0
-6.053304 8.353559 31.651262 199 199 199 0
-5.909123 8.321010 31.527933 199 199 199 0
-5.792539 8.326775 31.549777 199 199 199 0
-5.454636 8.007870 30.341460 200 200 200 0
-5.631097 8.446645 32.003961 199 199 199 0
-5.462439 8.375740 31.735303 199 199 199 0
-5.310925 8.328496 31.556299 200 200 200 0
-5.210031 8.360283 31.676736 199 199 199 0
-5.121347 8.413642 31.878913 199 199 199 0
-4.984275 8.388170 31.782401 200 200 200 0
-4.859224 8.382161 31.759633 200 200 200 0
-4.755257 8.413147 31.877038 199 199 199 0
-4.640415 8.426016 31.925798 200 200 200 0
-4.516418 8.422509 31.912508 200 200 200 0
-4.404563 8.442079 31.986660 201 201 201 0
-4.294951 8.467189 32.081800 200 200 200 0
-4.178268 8.479425 32.128163 200 200 200 0
-4.052009 8.472382 32.101475 200 200 200 0
-3.951465 8.520347 32.283214 201 201 201 0
-3.838398 8.543532 32.371060 201 201 201 0
-3.700766 8.511762 32.250686 201 201 201 0
-3.569695 8.493413 32.181161 201 201 201 0
-3.475064 8.563551 32.446913 201 201 201 0
-3.346022 8.550945 32.399146 200 200 200 0
-3.215513 8.533477 32.332963 201 201 201 0
-3.074904 8.486734 32.155854 201 201 201 0
-2.938960 8.449509 32.014813 202 202 202 0
-2.835941 8.507823 32.235761 201 201 201 0
-2.726836 8.552349 32.404468 201 201 201 0
-2.591550 8.515094 32.263310 201 201 201 0
-2.461359 8.491687 32.174621 201 201 201 0
-2.341593 8.503680 32.220064 201 201 201 0
-2.229566 8.546671 32.382955 201 201 201 0
-2.110069 8.564396 32.450112 202 202 202 0
-1.977135 8.526393 32.306120 202 202 202 0
-1.847309 8.497623 32.197112 202 202 202 0
-1.737900 8.565365 32.453785 201 201 201 0
-1.621943 8.608777 32.618270 202 202 202 0
-1.490226 8.568801 32.466804 202 202 202 0
-1.360474 8.533882 32.334497 203 203 203 0
-1.241902 8.569126 32.468034 202 202 202 0
-1.126264 8.634689 32.716449 202 202 202 0
-0.995823 8.588977 32.543249 203 203 203 0
-0.867084 8.546973 32.384099 202 202 202 0
-0.741933 8.532228 32.328230 203 203 203 0
-0.622605 8.591953 32.554525 203 203 203 0
-0.499007 8.607875 32.614853 202 202 202 0
-0.372530 8.568198 32.464516 203 203 203 0
-0.248113 8.559897 32.433067 202 202 202 0
-0.124533 8.592805 32.557753 202 202 202 0
0.000000 8.600063 32.585254 202 202 202 0
0.124581 8.596064 32.570100 203 203 203 0
0.249183 8.596830 32.573003 202 202 202 0
0.374014 8.602318 32.593796 203 203 203 0
0.499856 8.622509 32.670298 203 203 203 0
0.625484 8.631681 32.705054 203 203 203 0
0.749541 8.619725 32.659750 203 203 203 0
0.874522 8.620287 32.661882 203 203 203 0
1.000153 8.626322 32.684749 203 203 203 0
1.127982 8.647865 32.766374 203 203 203 0
1.249941 8.624595 32.678205 203 203 203 0
1.372377 8.608549 32.617405 203 203 203 0
1.496708 8.606071 32.608018 203 203 203 0
1.621759 8.607800 32.614569 204 204 204 0
1.750734 8.628616 32.693440 203 203 203 0
1.876810 8.633328 32.711291 203 203 203 0
2.001235 8.630325 32.699917 204 204 204 0
2.124176 8.621655 32.667065 204 204 204 0
2.249900 8.624617 32.678287 204 204 204 0
2.382429 8.651978 32.781958 203 203 203 0
2.508696 8.655000 32.793407 204 204 204 0
2.629146 8.638623 32.731354 203 203 203 0
2.754796 8.640042 32.736733 204 204 204 0
2.893690 8.681071 32.892189 204 204 204 0
3.016036 8.671104 32.854426 204 204 204 0
3.130163 8.639251 32.733735 203 203 203 0
3.254202 8.636152 32.721992 204 204 204 0
3.399409 8.687378 32.916087 204 204 204 0
3.518024 8.669416 32.848030 205 205 205 0
3.631108 8.639532 32.734801 203 203 203 0
3.748673 8.621948 32.668174 204 204 204 0
3.885744 8.648915 32.770351 204 204 204 0
4.023868 8.676466 32.874740 204 204 204 0
4.136504 8.649055 32.770880 204 204 204 0
4.253888 8.632891 32.709638 205 205 205 0
4.386537 8.647745 32.765917 205 205 205 0
4.522094 8.667347 32.840189 204 204 204 0
4.646115 8.664376 32.828934 204 204 204 0
4.760226 8.643567 32.750090 205 205 205 0
4.888531 8.648939 32.770441 205 205 205 0
5.034509 8.684529 32.905290 205 205 205 0
5.160894 8.685407 32.908618 204 204 204 0
5.275640 8.667123 32.839340 205 205 205 0
5.398712 8.663049 32.823904 204 204 204 0
5.532180 8.675464 32.870944 204 204 204 0
5.667890 8.690764 32.928915 204 204 204 0
5.774387 8.661580 32.818340 205 205 205 0
5.886592 8.642018 32.744221 205 205 205 0
6.021211 8.655490 32.795266 205 205 205 0
6.160963 8.675641 32.871617 205 205 205 0
6.284065 8.672009 32.857855 205 205 205 0
6.409169 8.671229 32.854898 205 205 205 0
6.539439 8.677332 32.878023 205 205 205 0
6.663821 8.675540 32.871233 206 206 206 0
6.790360 8.676571 32.875138 205 205 205 0
6.918970 8.680162 32.888746 204 204 204 0
7.048337 8.684559 32.905404 206 206 206 0
7.175217 8.685789 32.910067 205 205 205 0
7.317918 8.705799 32.985884 205 205 205 0
7.450106 8.712836 33.012544 206 206 206 0
7.551145 8.683816 32.902590 205 205 205 0
7.673822 8.680224 32.888981 206 206 206 0
7.823219 8.706485 32.988483 205 205 205 0
7.942502 8.698931 32.959859 205 205 205 0
8.048512 8.677302 32.877909 205 205 205 0
8.163504 8.665874 32.834607 205 205 205 0
8.312154 8.689979 32.925943 205 205 205 0
8.446069 8.698190 32.957054 206 206 206 0
8.560812 8.686706 32.913540 206 206 206 0
8.673899 8.673899 32.865014 205 205 205 0
8.814283 8.688365 32.919824 205 205 205 0
8.952939 8.700743 32.966727 206 206 206 0
9.067943 8.690112 32.926446 205 205 205 0
9.180644 8.677595 32.879017 205 205 205 0
9.317911 8.688323 32.919665 205 205 205 0
9.474197 8.716261 33.025522 206 206 206 0
9.577169 8.695061 32.945198 206 206 206 0
9.684170 8.678023 32.880640 206 206 206 0
9.835213 8.700381 32.965354 205 205 205 0
9.983668 8.719912 33.039357 205 205 205 0
-9.094023 7.957270 29.719030 197 197 197 0
-8.969866 7.947982 29.684341 197 197 197 0
-8.872322 7.962340 29.737965 197 197 197 0
-8.770026 7.972751 29.776848 196 196 196 0
-8.662489 7.978608 29.798723 197 197 197 0
-8.672715 8.094534 30.231688 196 196 196 0
-8.647411 8.179983 30.550824 197 197 197 0
-8.475971 8.127644 30.355345 197 197 197 0
-8.293070 8.062707 30.112816 197 197 197 0
-8.325899 8.208633 30.657827 197 197 197 0
-8.344262 8.344262 31.164379 198 198 198 0
-8.183090 8.301685 31.005361 197 197 197 0
-7.964819 8.199078 30.622141 198 198 198 0
-7.857783 8.209624 30.661529 197 197 197 0
-7.890331 8.368533 31.255024 198 198 198 0
-7.803830 8.404125 31.387954 198 198 198 0
-7.598535 8.310898 31.039768 198 198 198 0
-7.407829 8.230921 30.741069 197 197 197 0
-7.280102 8.219470 30.698300 198 198 198 0
-7.321167 8.401339 31.377551 198 198 198 0
-7.195941 8.395264 31.354862 199 199 199 0
-7.002776 8.308378 31.030358 199 199 199 0
-6.857926 8.276807 30.912444 199 199 199 0
-6.798482 8.349012 31.182119 199 199 199 0
-6.736004 8.420005 31.447262 199 199 199 0
-6.623199 8.429526 31.482825 199 199 199 0
-6.481794 8.402326 31.381236 199 199 199 0
-6.354386 8.392585 31.344856 199 199 199 0
-6.306832 8.489966 31.708557 199 199 199 0
-6.213862 8.528830 31.853708 199 199 199 0
-6.061596 8.486234 31.694618 200 200 200 0
-5.906087 8.437268 31.511737 199 199 199 0
-5.786289 8.438339 31.515738 199 199 199 0
-5.522160 8.224494 30.717065 200 200 200 0
-5.628514 8.565131 31.989284 199 199 199 0
-5.460062 8.493430 31.721493 200 200 200 0
-5.310540 8.448586 31.554010 200 200 200 0
-5.212716 8.485817 31.693061 200 200 200 0
-5.116555 8.527592 31.849082 200 200 200 0
-4.983578 8.508547 31.777955 199 199 199 0
-4.860388 8.505678 31.767240 200 200 200 0
-4.754812 8.534278 31.874054 200 200 200 0
-4.639893 8.547171 31.922208 200 200 200 0
-4.513813 8.539646 31.894103 200 200 200 0
-4.400607 8.556735 31.957927 200 200 200 0
-4.296364 8.592728 32.092355 201 201 201 0
-4.176200 8.598060 32.112268 200 200 200 0
-4.050933 8.592888 32.092951 200 200 200 0
-3.951372 8.643626 32.282451 201 201 201 0
-3.834725 8.659056 32.340077 201 201 201 0
-3.704071 8.642832 32.279483 201 201 201 0
-3.572375 8.622973 32.205316 200 200 200 0
-3.473697 8.684242 32.434142 201 201 201 0
-3.347057 8.677555 32.409168 201 201 201 0
-3.216207 8.659018 32.339936 201 201 201 0
-3.078311 8.619270 32.191484 201 201 201 0
-2.940653 8.576906 32.033262 201 201 201 0
-2.836269 8.632123 32.239489 201 201 201 0
-2.726928 8.676590 32.405564 201 201 201 0
-2.592975 8.643249 32.281044 201 201 201 0
-2.460764 8.612675 32.166852 201 201 201 0
-2.341497 8.626569 32.218746 202 202 202 0
-2.228869 8.667823 32.372823 201 201 201 0
-2.110869 8.691813 32.462419 202 202 202 0
-1.977283 8.650614 32.308549 202 202 202 0
-1.847870 8.623391 32.206877 202 202 202 0
-1.738178 8.690888 32.458965 202 202 202 0
-1.622070 8.734224 32.620817 201 201 201 0
-1.489950 8.691376 32.460788 202 202 202 0
-1.360926 8.660439 32.345245 202 202 202 0
-1.242168 8.695177 32.474985 201 201 201 0
-1.125749 8.755822 32.701482 202 202 202 0
-0.995459 8.710263 32.531328 202 202 202 0
-0.867542 8.675417 32.401183 203 203 203 0
-0.741956 8.656148 32.329219 202 202 202 0
-0.622122 8.709712 32.529270 203 203 203 0
-0.499242 8.736734 32.630194 202 202 202 0
-0.372879 8.700510 32.494903 203 203 203 0
-0.248155 8.685422 32.438551 202 202 202 0
-0.124565 8.719545 32.565996 203 203 203 0
0.000000 8.726829 32.593201 203 203 203 0
0.124528 8.716972 32.556385 203 203 203 0
0.249152 8.720325 32.568906 202 202 202 0
0.374181 8.730898 32.608398 203 203 203 0
0.499927 8.748715 32.674939 203 203 203 0
0.625531 8.757437 32.707516 203 203 203 0
0.750093 8.751086 32.683794 203 203 203 0
0.874856 8.748565 32.674378 203 203 203 0
1.000170 8.751486 32.685290 203 203 203 0
1.127934 8.772818 32.764961 203 203 203 0
1.249881 8.749170 32.676638 203 203 203 0
1.373573 8.740919 32.645821 203 203 203 0
1.496889 8.731853 32.611963 203 203 203 0
1.621748 8.732489 32.614337 204 204 204 0
1.749413 8.747064 32.668773 203 203 203 0
1.877378 8.761097 32.721184 204 204 204 0
2.001310 8.755730 32.701137 204 204 204 0
2.123833 8.745196 32.661797 204 204 204 0
2.250207 8.750805 32.682745 204 204 204 0
2.382271 8.776790 32.779793 204 204 204 0
2.509076 8.781767 32.798383 204 204 204 0
2.629741 8.765803 32.738760 204 204 204 0
2.755554 8.767673 32.745744 204 204 204 0
2.893443 8.806131 32.889378 204 204 204 0
3.016425 8.797905 32.858656 204 204 204 0
3.131217 8.767408 32.744754 204 204 204 0
3.254337 8.761676 32.723345 204 204 204 0
3.401181 8.817877 32.933248 204 204 204 0
3.517724 8.794309 32.845227 204 204 204 0
3.630841 8.764099 32.732394 205 205 205 0
3.748331 8.746106 32.665194 204 204 204 0
3.886732 8.776491 32.778679 204 204 204 0
4.022837 8.799955 32.866312 205 205 205 0
4.137595 8.776718 32.779525 204 204 204 0
4.251911 8.753934 32.694431 204 204 204 0
4.386910 8.773820 32.768701 204 204 204 0
4.520356 8.789581 32.827567 204 204 204 0
4.644963 8.787768 32.820794 205 205 205 0
4.759004 8.766587 32.741688 205 205 205 0
4.886861 8.771289 32.759250 204 204 204 0
5.034875 8.811032 32.907683 205 205 205 0
5.160760 8.811053 32.907762 205 205 205 0
5.274657 8.791094 32.833219 204 204 204 0
5.397354 8.786390 32.815648 204 204 204 0
5.532276 8.801349 32.871518 205 205 205 0
5.667873 8.816691 32.928819 205 205 205 0
5.777585 8.791978 32.836518 204 204 204 0
5.887230 8.768214 32.747767 205 205 205 0
6.018025 8.776286 32.777912 205 205 205 0
6.159223 8.798890 32.862335 205 205 205 0
6.284001 8.797602 32.857523 205 205 205 0
6.408515 8.796001 32.851543 204 204 204 0
6.540107 8.803990 32.881382 205 205 205 0
6.663162 8.800403 32.867983 205 205 205 0
6.788392 8.799767 32.865611 204 204 204 0
6.921739 8.809486 32.901907 205 205 205 0
7.046005 8.807507 32.894516 205 205 205 0
7.172730 8.808616 32.898657 206 206 206 0
7.319546 8.833935 32.993221 205 205 205 0
7.445396 8.833521 32.991674 206 206 206 0
7.553087 8.811935 32.911054 205 205 205 0
7.675451 8.807894 32.895963 206 206 206 0
7.823705 8.833215 32.990533 205 205 205 0
7.941350 8.823722 32.955079 205 205 205 0
8.048141 8.802655 32.876395 206 206 206 0
8.163351 8.791302 32.833993 205 205 205 0
8.312522 8.816311 32.927398 205 205 205 0
8.444515 8.822628 32.950990 206 206 206 0
8.564304 8.816195 32.926967 206 206 206 0
8.674596 8.800315 32.867657 206 206 206 0
8.812729 8.812729 32.914020 205 205 205 0
8.955349 8.829217 32.975602 205 205 205 0
9.065166 8.813355 32.916360 205 205 205 0
9.184376 8.806936 32.892383 205 205 205 0
9.320652 8.816833 32.929347 206 206 206 0
9.472489 8.840989 33.019568 206 206 206 0
9.579057 8.822816 32.951693 206 206 206 0
9.685939 8.805399 32.886644 206 206 206 0
9.836269 8.827421 32.968891 205 205 205 0
10.506039 9.309149 34.768063 206 206 206 0
-9.071404 8.050871 29.645111 196 196 196 0
-8.984050 8.074272 29.731280 196 196 196 0
-8.861259 8.066018 29.700884 196 196 196 0
-8.764045 8.081132 29.756539 197 197 197 0
-8.662749 8.092832 29.799620 197 197 197 0
-8.679918 8.216989 30.256794 197 197 197 0
-8.652094 8.301334 30.567371 196 196 196 0
-8.478314 8.246031 30.363734 197 197 197 0
-8.297058 8.181821 30.127297 197 197 197 0
-8.329617 8.329617 30.671516 198 198 198 0
-8.340620 8.459772 31.150775 197 197 197 0
-8.164059 8.400699 30.933256 198 198 198 0
-7.971657 8.323347 30.648430 197 197 197 0
-7.867097 8.336774 30.697871 198 198 198 0
-7.898050 8.496387 31.285600 198 198 198 0
-7.799453 8.519403 31.370349 197 197 197 0
-7.596521 8.427390 31.031540 197 197 197 0
-7.404593 8.344859 30.727639 198 198 198 0
-7.276540 8.332812 30.683281 198 198 198 0
-7.319736 8.519693 31.371417 198 198 198 0
-7.197916 8.517534 31.363469 198 198 198 0
-7.010784 8.436706 31.065843 198 198 198 0
-6.858396 8.395623 30.914564 198 198 198 0
-6.794844 8.463753 31.165435 198 198 198 0
-6.739464 8.544677 31.463416 199 199 199 0
-6.614711 8.538990 31.442476 199 199 199 0
-6.470704 8.507777 31.327543 199 199 199 0
-6.354786 8.513015 31.346830 199 199 199 0
-6.317053 8.625207 31.759945 198 198 198 0
-6.217913 8.656310 31.874475 198 198 198 0
-6.057067 8.601036 31.670940 199 199 199 0
-5.908801 8.561732 31.526217 200 200 200 0
-5.792720 8.568399 31.550764 199 199 199 0
-5.571210 8.416083 30.989903 199 199 199 0
-5.625721 8.683178 31.973409 199 199 199 0
-5.459124 8.613285 31.716044 199 199 199 0
-5.315569 8.577395 31.583891 200 200 200 0
-5.212304 8.606363 31.690555 199 199 199 0
-5.116410 8.649169 31.848180 200 200 200 0
-4.985686 8.633749 31.791397 200 200 200 0
-4.856267 8.619875 31.740310 200 200 200 0
-4.754739 8.656063 31.873564 200 200 200 0
-4.639131 8.667850 31.916966 200 200 200 0
-4.511873 8.657919 31.880396 200 200 200 0
-4.400371 8.678510 31.956217 200 200 200 0
-4.294369 8.711435 32.077456 200 200 200 0
-4.177657 8.723931 32.123469 200 200 200 0
-4.054305 8.722899 32.119667 200 200 200 0
-3.954216 8.773416 32.305682 200 200 200 0
-3.838033 8.790333 32.367975 200 200 200 0
-3.701920 8.761210 32.260738 201 201 201 0
-3.574880 8.752292 32.227900 201 201 201 0
-3.478085 8.819430 32.475116 200 200 200 0
-3.343473 8.792095 32.374462 201 201 201 0
-3.214492 8.778035 32.322691 200 200 200 0
-3.073203 8.727898 32.138074 201 201 201 0
-2.939802 8.696914 32.023987 200 200 200 0
-2.838292 8.761684 32.262483 201 201 201 0
-2.726219 8.798253 32.397137 201 201 201 0
-2.593939 8.769985 32.293049 202 202 202 0
-2.463579 8.745706 32.203650 201 201 201 0
-2.340214 8.745012 32.201094 201 201 201 0
-2.230875 8.799563 32.401961 202 202 202 0
-2.111119 8.817025 32.466262 201 201 201 0
-1.976293 8.769798 32.292361 202 202 202 0
-1.847161 8.743228 32.194523 201 201 201 0
-1.739809 8.823318 32.489434 202 202 202 0
-1.622318 8.860352 32.625802 202 202 202 0
-1.490844 8.820830 32.480271 202 202 202 0
-1.360911 8.784063 32.344889 202 202 202 0
-1.242239 8.819899 32.476843 202 202 202 0
-1.125780 8.881151 32.702388 202 202 202 0
-0.995838 8.838064 32.543733 202 202 202 0
-0.866883 8.792675 32.376599 202 202 202 0
-0.741268 8.771666 32.299240 202 202 202 0
-0.622750 8.843048 32.562084 202 202 202 0
-0.498481 8.848038 32.580457 202 202 202 0
-0.372799 8.822899 32.487891 203 203 203 0
-0.248155 8.809513 32.438601 202 202 202 0
-0.124515 8.840550 32.552888 202 202 202 0
0.000000 8.853077 32.599014 203 203 203 0
0.124557 8.843580 32.564044 203 203 203 0
0.249317 8.850757 32.590469 203 203 203 0
0.374297 8.858362 32.618475 203 203 203 0
0.500150 8.877671 32.689573 203 203 203 0
0.625795 8.886284 32.721288 203 203 203 0
0.749981 8.874780 32.678928 203 203 203 0
0.874445 8.869367 32.658997 203 203 203 0
1.000307 8.877726 32.689778 203 203 203 0
1.128027 8.898880 32.767670 202 202 202 0
1.249243 8.869625 32.659947 203 203 203 0
1.373142 8.863010 32.635587 203 203 203 0
1.496957 8.856996 32.613443 204 204 204 0
1.621792 8.857479 32.615222 203 203 203 0
1.750761 8.878859 32.693949 204 204 204 0
1.876887 8.883933 32.712632 204 204 204 0
2.002016 8.883946 32.712678 203 203 203 0
2.124173 8.871545 32.667017 203 203 203 0
2.249474 8.872926 32.672102 203 203 203 0
2.381988 8.901112 32.775890 204 204 204 0
2.508244 8.904266 32.787501 204 204 204 0
2.628901 8.888189 32.728303 203 203 203 0
2.755094 8.891438 32.740268 204 204 204 0
2.894765 8.936013 32.904402 204 204 204 0
3.015297 8.920254 32.846375 204 204 204 0
3.131009 8.892064 32.742574 204 204 204 0
3.254883 8.888335 32.728842 204 204 204 0
3.401154 8.943776 32.932989 204 204 204 0
3.518177 8.921092 32.849461 204 204 204 0
3.630855 8.889334 32.732518 204 204 204 0
3.749360 8.873486 32.674164 204 204 204 0
3.886261 8.900792 32.774712 204 204 204 0
4.021861 8.923504 32.858341 204 204 204 0
4.136937 8.900683 32.774309 204 204 204 0
4.251266 8.877643 32.689469 205 205 205 0
4.385154 8.895598 32.755585 205 205 205 0
4.519331 8.913124 32.820120 204 204 204 0
4.641373 8.906419 32.795431 204 204 204 0
4.759697 8.893119 32.746457 204 204 204 0
4.887230 8.897264 32.761721 205 205 205 0
5.032295 8.932324 32.890818 204 204 204 0
5.160101 8.935784 32.903561 204 204 204 0
5.276326 8.919503 32.843608 205 205 205 0
5.397623 8.912355 32.817286 205 205 205 0
5.532259 8.927054 32.871412 205 205 205 0
5.669726 8.945567 32.939582 205 205 205 0
5.774270 8.912460 32.817676 205 205 205 0
5.886205 8.891927 32.742067 205 205 205 0
6.021617 8.906974 32.797476 205 205 205 0
6.161857 8.928406 32.876390 204 204 204 0
6.283772 8.922956 32.856325 205 205 205 0
6.404649 8.916277 32.831728 205 205 205 0
6.536903 8.925386 32.865272 205 205 205 0
6.662336 8.925016 32.863909 205 205 205 0
6.789264 8.926625 32.869833 206 206 206 0
6.918347 8.930957 32.885784 205 205 205 0
7.046982 8.934566 32.899074 205 205 205 0
7.178122 8.941169 32.923389 205 205 205 0
7.317795 8.957990 32.985326 205 205 205 0
7.443851 8.957855 32.984828 205 205 205 0
7.555066 8.940162 32.919679 205 205 205 0
7.676504 8.934947 32.900479 205 205 205 0
7.821631 8.957029 32.981786 205 205 205 0
7.942394 8.950952 32.959413 205 205 205 0
8.046075 8.926114 32.867953 205 205 205 0
8.165554 8.919297 32.842851 206 206 206 0
8.309731 8.939256 32.916343 206 206 206 0
8.445922 8.950156 32.956480 205 205 205 0
8.559937 8.937581 32.910176 205 205 205 0
8.675810 8.927282 32.872254 205 205 205 0
8.812408 8.938300 32.912823 205 205 205 0
8.954981 8.954981 32.974247 205 205 205 0
9.069710 8.943742 32.932862 205 205 205 0
9.178414 8.926950 32.871032 205 205 205 0
9.318777 8.940988 32.922723 206 206 206 0
9.471612 8.966459 33.016512 205 205 205 0
9.578872 8.948683 32.951056 206 206 206 0
9.688042 8.933130 32.893785 205 205 205 0
10.422432 9.487086 34.933575 206 206 206 0
10.418139 9.363138 34.477170 206 206 206 0
-9.091803 8.182623 29.711775 196 196 196 0
