ply
    format ascii 1.0
    element vertex 25597
    property float x
    property float y
    property float z
    property uchar red
    property uchar green
    property uchar blue
    property uchar alpha
    end_header
2.713723 2.467021 32.248636 206 206 206 0
2.836551 2.466567 32.242699 206 206 206 0
2.976192 2.480160 32.420390 206 206 206 0
3.096717 2.477374 32.383968 206 206 206 0
3.209510 2.468854 32.272603 205 205 205 0
3.331392 2.467698 32.257487 206 206 206 0
3.473179 2.480842 32.429311 206 206 206 0
3.590618 2.476288 32.369782 206 206 206 0
3.703137 2.468758 32.271346 206 206 206 0
3.814432 2.460924 32.168943 205 205 205 0
3.945482 2.465926 32.234327 206 206 206 0
4.083379 2.474775 32.350000 206 206 206 0
4.201107 2.471240 32.303786 206 206 206 0
4.316350 2.466486 32.241643 206 206 206 0
4.441522 2.467512 32.255059 206 206 206 0
4.575490 2.473238 32.329908 206 206 206 0
4.699504 2.473423 32.332328 206 206 206 0
4.813625 2.468525 32.268306 206 206 206 0
4.941096 2.470548 32.294748 206 206 206 0
5.082790 2.479410 32.410584 206 206 206 0
5.216337 2.483970 32.470198 207 207 207 0
5.327963 2.478122 32.393757 206 206 206 0
5.444988 2.474994 32.352868 206 206 206 0
5.580189 2.480084 32.419399 207 207 207 0
5.713421 2.484096 32.471847 206 206 206 0
5.818998 2.476169 32.368229 207 207 207 0
5.931953 2.471647 32.309114 207 207 207 0
6.059834 2.473402 32.332046 207 207 207 0
6.194240 2.477696 32.388182 206 206 206 0
6.320655 2.478688 32.401153 207 207 207 0
6.439684 2.476801 32.376489 206 206 206 0
6.561609 2.476079 32.367045 207 207 207 0
6.689567 2.477618 32.387158 207 207 207 0
6.814814 2.478114 32.393650 206 206 206 0
6.943575 2.479848 32.416318 207 207 207 0
7.058438 2.476645 32.374445 207 207 207 0
7.181741 2.476462 32.372058 207 207 207 0
7.327231 2.483807 32.468066 207 207 207 0
7.453239 2.484413 32.475987 207 207 207 0
7.568295 2.481408 32.436709 207 207 207 0
7.687189 2.479738 32.414880 207 207 207 0
7.832476 2.486500 32.503273 207 207 207 0
7.950421 2.484506 32.477208 207 207 207 0
8.056649 2.478969 32.404821 207 207 207 0
8.170106 2.475790 32.363264 207 207 207 0
8.305165 2.479154 32.407237 207 207 207 0
8.441030 2.482656 32.453019 207 207 207 0
8.555633 2.479894 32.416911 207 207 207 0
8.673056 2.478016 32.392365 207 207 207 0
8.800611 2.479045 32.405822 207 207 207 0
8.940717 2.483533 32.464478 207 207 207 0
9.060802 2.482412 32.449825 207 207 207 0
9.170414 2.478490 32.398564 208 208 208 0
9.285494 2.476132 32.367735 207 207 207 0
9.433870 2.482597 32.452252 207 207 207 0
9.564093 2.484180 32.472941 208 208 208 0
9.690050 2.484628 32.478801 208 208 208 0
9.779049 2.475708 32.362203 207 207 207 0
-8.905525 2.337700 29.103023 197 197 197 0
-8.785128 2.335287 29.072982 198 198 198 0
-8.781268 2.364188 29.432773 199 199 199 0
-8.636911 2.355521 29.324884 198 198 198 0
-8.510166 2.351493 29.274738 198 198 198 0
-8.448743 2.365648 29.450956 199 199 199 0
-8.485836 2.408143 29.979991 198 198 198 0
-8.352872 2.402881 29.914484 199 199 199 0
-8.202717 2.392459 29.784740 199 199 199 0
-8.121116 2.402020 29.903770 198 198 198 0
-8.147168 2.444150 30.428265 199 199 199 0
-8.067609 2.455359 30.567809 199 199 199 0
-7.885697 2.435289 30.317944 199 199 199 0
-7.702626 2.414256 30.056098 199 199 199 0
-7.631212 2.428113 30.228607 200 200 200 0
-7.688374 2.483936 30.923575 200 200 200 0
-7.520812 2.467766 30.722272 200 200 200 0
-7.307039 2.435680 30.322811 200 200 200 0
-7.150628 2.421987 30.152342 200 200 200 0
-7.144800 2.459685 30.621664 199 199 199 0
-7.102938 2.486028 30.949622 200 200 200 0
-6.950027 2.473738 30.796617 200 200 200 0
-6.789376 2.458222 30.603452 200 200 200 0
-6.688040 2.464015 30.675564 200 200 200 0
-6.632952 2.487357 30.966164 200 200 200 0
-6.540411 2.497248 31.089296 200 200 200 0
-6.394790 2.486863 30.960010 200 200 200 0
-6.237140 2.471320 30.766507 201 201 201 0
-6.131388 2.476138 30.826488 200 200 200 0
-6.109546 2.515695 31.318957 201 201 201 0
-5.982437 2.512623 31.280714 200 200 200 0
-5.830954 2.498980 31.110864 201 201 201 0
-5.693704 2.490995 31.011457 201 201 201 0
-5.629276 2.515208 31.312896 200 200 200 0
-5.541009 2.529591 31.491951 201 201 201 0
-5.392951 2.516710 31.331596 202 202 202 0
-5.248448 2.504941 31.185074 201 201 201 0
-5.133022 2.506825 31.208525 202 202 202 0
-5.029767 2.514884 31.308853 202 202 202 0
-4.924308 2.522206 31.400018 202 202 202 0
-4.801453 2.520763 31.382043 202 202 202 0
-4.675197 2.517414 31.340353 201 201 201 0
-4.569010 2.524979 31.434538 201 201 201 0
-4.455593 2.528850 31.482725 202 202 202 0
-4.328167 2.524764 31.431857 202 202 202 0
-4.219868 2.531921 31.520956 202 202 202 0
-4.102156 2.533685 31.542914 202 202 202 0
-3.980067 2.532770 31.531526 202 202 202 0
-3.868585 2.538759 31.606083 202 202 202 0
-3.769946 2.553835 31.793771 203 203 203 0
-3.649646 2.554752 31.805198 202 202 202 0
-3.515805 2.545928 31.695335 202 202 202 0
-3.392205 2.544154 31.673252 203 203 203 0
-3.286860 2.556447 31.826293 203 203 203 0
-3.168773 2.559394 31.862981 203 203 203 0
-3.037202 2.551250 31.761591 203 203 203 0
-2.904269 2.541236 31.636922 202 202 202 0
-2.782547 2.540587 31.628841 203 203 203 0
-2.677177 2.555487 31.814348 203 203 203 0
-2.561876 2.561876 31.893878 203 203 203 0
-2.432495 2.554120 31.797326 203 203 203 0
-2.303529 2.546005 31.696302 203 203 203 0
-2.189640 2.554580 31.803052 204 204 204 0
-2.079041 2.568227 31.972950 203 203 203 0
-1.956065 2.567335 31.961842 204 204 204 0
-1.825743 2.556040 31.821226 204 204 204 0
-1.701460 2.552190 31.773302 204 204 204 0
-1.596707 2.579295 32.110740 204 204 204 0
-1.474853 2.580992 32.131870 204 204 204 0
-1.346721 2.571014 32.007639 204 204 204 0
-1.218295 2.558420 31.850862 204 204 204 0
-1.102105 2.571579 32.014672 203 203 203 0
-0.985814 2.587761 32.216129 203 203 203 0
-0.857887 2.573661 32.040603 204 204 204 0
-0.731592 2.560573 31.877666 204 204 204 0
-0.609671 2.560618 31.878223 204 204 204 0
-0.490794 2.576671 32.078066 204 204 204 0
-0.368152 2.577065 32.082977 204 204 204 0
-0.244563 2.567908 31.968973 204 204 204 0
-0.122315 2.568610 31.977710 204 204 204 0
0.000000 2.578292 32.098251 204 204 204 0
0.122864 2.580138 32.121227 204 204 204 0
0.245450 2.577226 32.084979 204 204 204 0
0.367815 2.574706 32.053601 205 205 205 0
0.491831 2.582112 32.145813 205 205 205 0
0.616011 2.587244 32.209703 205 205 205 0
0.739509 2.588280 32.222601 204 204 204 0
0.862439 2.587318 32.210616 205 205 205 0
0.984627 2.584646 32.177360 205 205 205 0
1.108772 2.587135 32.208345 205 205 205 0
1.233560 2.590476 32.249935 205 205 205 0
1.354363 2.585601 32.189247 205 205 205 0
1.476510 2.583892 32.167966 205 205 205 0
1.598071 2.581499 32.138176 205 205 205 0
1.721346 2.582018 32.144642 205 205 205 0
1.846954 2.585736 32.190926 206 206 206 0
1.972464 2.588859 32.229805 205 205 205 0
2.097310 2.590794 32.253895 205 205 205 0
2.216562 2.585989 32.194073 205 205 205 0
2.342102 2.588639 32.227068 206 206 206 0
2.469259 2.592722 32.277895 205 205 205 0
2.594981 2.594981 32.306024 206 206 206 0
2.714410 2.591028 32.256801 206 206 206 0
2.838451 2.591629 32.264286 206 206 206 0
2.978968 2.606597 32.450634 206 206 206 0
3.097148 2.601604 32.388473 205 205 205 0
3.209161 2.592015 32.269090 205 205 205 0
3.331354 2.591053 32.257118 206 206 206 0
3.473543 2.605157 32.432709 205 205 205 0
3.590571 2.600069 32.369356 206 206 206 0
3.703275 2.592292 32.272548 206 206 206 0
3.814412 2.583956 32.168767 206 206 206 0
3.943184 2.587714 32.215552 206 206 206 0
4.084114 2.598982 32.355829 206 206 206 0
4.199668 2.593913 32.292720 206 206 206 0
4.314997 2.588998 32.231537 206 206 206 0
4.443079 2.591796 32.266371 207 207 207 0
4.573779 2.595929 32.317819 206 206 206 0
4.699328 2.596997 32.331115 207 207 207 0
4.813902 2.592101 32.270163 206 206 206 0
4.942858 2.595001 32.306264 206 206 206 0
5.083140 2.603559 32.412814 206 206 206 0
5.215521 2.607761 32.465118 206 206 206 0
5.328376 2.602230 32.396267 207 207 207 0
5.443832 2.598192 32.346000 207 207 207 0
5.578722 2.603404 32.410876 207 207 207 0
5.713884 2.608512 32.474478 207 207 207 0
5.816637 2.598923 32.355095 207 207 207 0
5.930722 2.594691 32.302410 207 207 207 0
6.059312 2.596848 32.329262 207 207 207 0
6.194656 2.601756 32.390359 207 207 207 0
6.318093 2.601568 32.388017 207 207 207 0
6.439438 2.600542 32.375255 207 207 207 0
6.562668 2.600302 32.372267 207 207 207 0
6.689459 2.601456 32.386634 207 207 207 0
6.813076 2.601356 32.385389 206 206 206 0
6.941099 2.602912 32.404757 206 206 206 0
7.063306 2.602271 32.396771 207 207 207 0
7.182203 2.600453 32.374140 207 207 207 0
7.323390 2.606630 32.451045 207 207 207 0
7.454993 2.609247 32.483629 206 206 206 0
7.566939 2.605012 32.430898 207 207 207 0
7.685930 2.603299 32.409573 207 207 207 0
7.828470 2.609490 32.486648 207 207 207 0
7.946738 2.607523 32.462166 207 207 207 0
8.058133 2.603397 32.410791 207 207 207 0
8.172666 2.600394 32.373405 207 207 207 0
8.302422 2.602252 32.396535 207 207 207 0
8.443507 2.607554 32.462541 207 207 207 0
8.555970 2.603991 32.418185 207 207 207 0
8.673751 2.602125 32.394961 207 207 207 0
8.801948 2.603393 32.410744 207 207 207 0
8.944019 2.608672 32.476468 207 207 207 0
9.065190 2.607794 32.465540 207 207 207 0
9.170405 2.602412 32.398534 207 207 207 0
9.284587 2.599684 32.364575 207 207 207 0
9.434078 2.606785 32.452970 207 207 207 0
9.562534 2.607964 32.467649 207 207 207 0
9.687198 2.608092 32.469242 207 207 207 0
9.779187 2.599531 32.362660 208 208 208 0
-8.890064 2.444768 29.052496 198 198 198 0
-8.779226 2.444848 29.053449 198 198 198 0
-8.775074 2.475021 29.412013 198 198 198 0
-8.635542 2.467298 29.320235 198 198 198 0
-8.511502 2.463856 29.279334 199 199 199 0
-8.464282 2.482856 29.505124 198 198 198 0
-8.494913 2.525515 30.012059 198 198 198 0
-8.352893 2.517310 29.914561 199 199 199 0
-8.184004 2.500668 29.716788 198 198 198 0
-8.097474 2.509076 29.816713 199 199 199 0
-8.166060 2.566476 30.498822 199 199 199 0
-8.066149 2.571816 30.562279 199 199 199 0
-7.885724 2.551264 30.318048 199 199 199 0
-7.705606 2.530199 30.067725 199 199 199 0
-7.630995 2.543665 30.227748 199 199 199 0
-7.691633 2.603322 30.936683 199 199 199 0
-7.517066 2.583992 30.706970 199 199 199 0
-7.308767 2.552268 30.329981 200 200 200 0
-7.156323 2.539341 30.176359 199 199 199 0
-7.143941 2.576503 30.617982 200 200 200 0
-7.101734 2.603969 30.944373 200 200 200 0
-6.938739 2.587327 30.746602 200 200 200 0
-6.785835 2.573937 30.587492 200 200 200 0
-6.684562 2.580006 30.659610 200 200 200 0
-6.636715 2.607281 30.983729 200 200 200 0
-6.543849 2.617540 31.105641 200 200 200 0
-6.388105 2.602561 30.927644 200 200 200 0
-6.242194 2.591099 30.791438 200 200 200 0
-6.136722 2.596305 30.853303 200 200 200 0
-6.109174 2.635330 31.317050 200 200 200 0
-5.977598 2.630143 31.255416 201 201 201 0
-5.832392 2.618625 31.118537 200 200 200 0
-5.698640 2.611877 31.038346 201 201 201 0
-5.621971 2.631561 31.272260 201 201 201 0
-5.545089 2.651999 31.515142 200 200 200 0
-5.387292 2.633787 31.298721 201 201 201 0
-5.244957 2.622478 31.164331 201 201 201 0
-5.137244 2.628357 31.234191 201 201 201 0
-5.029391 2.634443 31.306510 202 202 202 0
-4.928074 2.644332 31.424032 201 201 201 0
-4.797020 2.638361 31.353070 202 202 202 0
-4.675418 2.637415 31.341833 202 202 202 0
-4.561509 2.640873 31.382929 202 202 202 0
-4.452223 2.647268 31.458914 201 201 201 0
-4.327147 2.644368 31.424452 202 202 202 0
-4.221149 2.653294 31.530528 202 202 202 0
-4.103854 2.655435 31.555973 202 202 202 0
-3.979795 2.653197 31.529375 202 202 202 0
-3.868537 2.659619 31.605692 202 202 202 0
-3.767595 2.673777 31.773942 202 202 202 0
-3.652994 2.678862 31.834369 202 202 202 0
-3.516455 2.667656 31.701197 202 202 202 0
-3.390601 2.664043 31.658269 203 203 203 0
-3.289057 2.679973 31.847567 203 203 203 0
-3.164511 2.677663 31.820120 203 203 203 0
-3.034560 2.670413 31.733962 203 203 203 0
-2.903750 2.661771 31.631268 203 203 203 0
-2.782440 2.661465 31.627626 203 203 203 0
-2.677949 2.677949 31.823515 203 203 203 0
-2.560020 2.681925 31.870769 203 203 203 0
-2.433318 2.676650 31.808078 203 203 203 0
-2.303208 2.666873 31.691892 203 203 203 0
-2.188433 2.674751 31.785519 203 203 203 0
-2.077644 2.688716 31.951466 203 203 203 0
-1.955219 2.688426 31.948018 204 204 204 0
-1.825381 2.677226 31.814925 203 203 203 0
-1.700144 2.671655 31.748725 203 203 203 0
-1.595778 2.700548 32.092069 204 204 204 0
-1.475115 2.704378 32.137587 203 203 203 0
-1.346493 2.692987 32.002219 203 203 203 0
-1.218999 2.681797 31.869246 204 204 204 0
-1.102626 2.695308 32.029802 204 204 204 0
-0.985294 2.709559 32.199151 204 204 204 0
-0.857875 2.696180 32.040161 204 204 204 0
-0.732093 2.684343 31.899497 204 204 204 0
-0.610000 2.683999 31.895408 204 204 204 0
-0.491135 2.701243 32.100337 204 204 204 0
-0.368090 2.699326 32.077548 204 204 204 0
-0.244549 2.690034 31.967129 204 204 204 0
-0.122322 2.691093 31.979717 204 204 204 0
0.000000 2.699726 32.082304 204 204 204 0
0.122818 2.701999 32.109321 204 204 204 0
0.245491 2.700398 32.090294 205 205 205 0
0.367637 2.696008 32.038121 204 204 204 0
0.491755 2.704652 32.140838 204 204 204 0
0.615988 2.710347 32.208515 204 204 204 0
0.739806 2.712623 32.235564 205 205 205 0
0.862478 2.710646 32.212073 204 204 204 0
0.985103 2.709033 32.192903 205 205 205 0
1.108834 2.710483 32.210141 205 205 205 0
1.233642 2.714013 32.252089 205 205 205 0
1.354910 2.709821 32.202268 205 205 205 0
1.477653 2.709031 32.192884 205 205 205 0
1.597967 2.704251 32.136084 205 205 205 0
1.720221 2.703205 32.123651 205 205 205 0
1.848450 2.711059 32.216986 205 205 205 0
1.972569 2.712282 32.231512 205 205 205 0
2.097559 2.714488 32.257735 205 205 205 0
2.215660 2.708029 32.180970 205 205 205 0
2.340486 2.710036 32.204826 205 205 205 0
2.469401 2.716341 32.279754 205 205 205 0
2.594065 2.717592 32.294613 205 205 205 0
2.713699 2.713699 32.248349 206 206 206 0
2.839321 2.715872 32.274182 205 205 205 0
2.978721 2.730494 32.447938 206 206 206 0
3.098551 2.726724 32.403143 206 206 206 0
3.209835 2.716014 32.275868 206 206 206 0
3.331776 2.714780 32.261201 205 205 205 0
3.471819 2.727858 32.416608 206 206 206 0
3.591101 2.724283 32.374132 206 206 206 0
3.702778 2.715370 32.268217 206 206 206 0
3.815856 2.708027 32.180953 206 206 206 0
3.944419 2.711788 32.225647 205 205 205 0
4.084064 2.722709 32.355430 205 205 205 0
4.201864 2.718853 32.309607 206 206 206 0
4.315566 2.712642 32.235788 206 206 206 0
4.441543 2.714276 32.255212 206 206 206 0
4.575303 2.720451 32.328588 206 206 206 0
4.698593 2.720238 32.326061 206 206 206 0
4.813068 2.715064 32.264574 207 207 207 0
4.942099 2.718155 32.301302 206 206 206 0
5.083006 2.727467 32.411963 206 206 206 0
5.215387 2.731869 32.464280 207 207 207 0
5.328247 2.726080 32.395484 207 207 207 0
5.443004 2.721502 32.341082 207 207 207 0
5.577136 2.726600 32.401664 206 206 206 0
5.715506 2.733503 32.483695 206 206 206 0
5.820849 2.724653 32.378522 206 206 206 0
5.931581 2.718641 32.307087 207 207 207 0
6.058340 2.720071 32.324075 206 206 206 0
6.196685 2.726541 32.400966 206 206 206 0
6.320756 2.726601 32.401671 207 207 207 0
6.441141 2.725098 32.383816 206 206 206 0
6.565758 2.725409 32.387512 206 206 206 0
6.690964 2.725948 32.393917 207 207 207 0
6.810843 2.724337 32.374776 207 207 207 0
6.943515 2.727809 32.416034 207 207 207 0
7.060062 2.724936 32.381892 207 207 207 0
7.184405 2.725119 32.384066 207 207 207 0
7.325425 2.731514 32.460063 207 207 207 0
7.453318 2.732883 32.476332 207 207 207 0
7.567027 2.729092 32.431276 207 207 207 0
7.687454 2.727806 32.415999 207 207 207 0
7.828741 2.733846 32.487772 207 207 207 0
7.949050 2.732486 32.471610 207 207 207 0
8.058389 2.727455 32.411821 207 207 207 0
8.171199 2.723733 32.367595 207 207 207 0
8.307370 2.727793 32.415841 207 207 207 0
8.443769 2.731808 32.463547 207 207 207 0
8.554240 2.727439 32.411634 207 207 207 0
8.674847 2.726381 32.399057 207 207 207 0
8.800945 2.727053 32.407051 207 207 207 0
8.943608 2.732769 32.474975 207 207 207 0
9.065660 2.732117 32.467221 207 207 207 0
9.171774 2.726744 32.403372 207 207 207 0
9.285875 2.723857 32.369064 207 207 207 0
9.436182 2.731526 32.460208 207 207 207 0
9.562974 2.732278 32.469141 207 207 207 0
9.692096 2.733668 32.485657 207 207 207 0
9.779714 2.723465 32.364405 207 207 207 0
-8.889700 2.555789 29.051306 198 198 198 0
-8.789530 2.558977 29.087548 198 198 198 0
-8.760471 2.583216 29.363066 198 198 198 0
-8.631686 2.578296 29.307143 198 198 198 0
-8.509103 2.575123 29.271080 199 199 199 0
-8.466601 2.596424 29.513206 198 198 198 0
-8.485268 2.637313 29.977983 199 199 199 0
-8.353278 2.631855 29.915938 199 199 199 0
-8.202780 2.620333 29.784969 199 199 199 0
-8.104545 2.625416 29.842751 199 199 199 0
-8.162393 2.681929 30.485129 199 199 199 0
-8.068626 2.689542 30.571664 199 199 199 0
-7.890807 2.668949 30.337588 199 199 199 0
-7.697454 2.642410 30.035914 200 200 200 0
-7.625023 2.657205 30.204090 199 199 199 0
-7.687019 2.720022 30.918125 199 199 199 0
-7.509626 2.698772 30.676576 199 199 199 0
-7.313395 2.669969 30.349184 200 200 200 0
-7.148442 2.651841 30.143126 199 199 199 0
-7.143023 2.693271 30.614048 200 200 200 0
-7.100042 2.721683 30.937003 200 200 200 0
-6.941620 2.706055 30.759368 201 201 201 0
-6.778747 2.688124 30.555542 200 200 200 0
-6.674702 2.693301 30.614389 200 200 200 0
-6.640061 2.727168 30.999349 200 200 200 0
-6.542537 2.735970 31.099401 200 200 200 0
-6.393676 2.723233 30.954618 201 201 201 0
-6.232671 2.704744 30.744460 201 201 201 0
-6.131342 2.711940 30.826255 200 200 200 0
-6.111652 2.756235 31.329757 201 201 201 0
-5.987699 2.754342 31.308230 200 200 200 0
-5.829831 2.736451 31.104876 201 201 201 0
-5.697169 2.729893 31.030331 201 201 201 0
-5.621518 2.750956 31.269745 201 201 201 0
-5.545509 2.772754 31.517526 201 201 201 0
-5.392660 2.756248 31.329905 201 201 201 0
-5.243926 2.741143 31.158204 201 201 201 0
-5.134677 2.746455 31.218587 201 201 201 0
-5.028989 2.753970 31.304009 201 201 201 0
-4.925244 2.762942 31.405986 201 201 201 0
-4.798475 2.759123 31.362580 202 202 202 0
-4.673219 2.756001 31.327094 202 202 202 0
-4.568921 2.765400 31.433926 202 202 202 0
-4.446710 2.764171 31.419958 201 201 201 0
-4.331111 2.767099 31.453239 202 202 202 0
-4.222004 2.774460 31.536912 202 202 202 0
-4.102049 2.774916 31.542094 202 202 202 0
-3.978780 2.773089 31.521335 202 202 202 0
-3.865376 2.778239 31.579867 202 202 202 0
-3.766955 2.794838 31.768544 202 202 202 0
-3.649538 2.797979 31.804256 202 202 202 0
-3.515930 2.788496 31.696462 202 202 202 0
-3.392976 2.787088 31.680452 202 202 202 0
-3.287962 2.800856 31.836959 202 202 202 0
-3.166471 2.801109 31.839824 202 202 202 0
-3.034363 2.791614 31.731898 203 203 203 0
-2.903874 2.782879 31.632611 203 203 203 0
-2.780995 2.780995 31.611193 203 203 203 0
-2.676733 2.798403 31.809072 203 203 203 0
-2.559884 2.803682 31.869076 203 203 203 0
-2.431883 2.796665 31.789317 204 204 204 0
-2.302201 2.786875 31.678036 203 203 203 0
-2.187683 2.795372 31.774622 203 203 203 0
-2.078176 2.811649 31.959639 203 203 203 0
-1.955310 2.810759 31.949517 203 203 203 0
-1.826243 2.800239 31.829937 203 203 203 0
-1.701160 2.794763 31.767690 203 203 203 0
-1.595346 2.822535 32.083371 204 204 204 0
-1.475803 2.828622 32.152567 204 204 204 0
-1.346258 2.814902 31.996615 203 203 203 0
-1.220414 2.806952 31.906242 203 203 203 0
-1.103130 2.819111 32.044452 204 204 204 0
-0.985764 2.834072 32.214521 204 204 204 0
-0.858012 2.819183 32.045278 204 204 204 0
-0.732130 2.806499 31.901103 204 204 204 0
-0.609829 2.805215 31.886496 205 205 205 0
-0.491040 2.823478 32.094094 204 204 204 0
-0.368105 2.822141 32.078901 204 204 204 0
-0.244615 2.813069 31.975779 204 204 204 0
-0.122368 2.814462 31.991606 205 205 205 0
0.000000 2.822613 32.084260 204 204 204 0
0.122808 2.824587 32.106697 205 205 205 0
0.245395 2.822039 32.077734 204 204 204 0
0.367771 2.819576 32.049738 204 204 204 0
0.491903 2.828440 32.150494 205 205 205 0
0.616122 2.834163 32.215548 205 205 205 0
0.739584 2.835073 32.225894 204 204 204 0
0.861941 2.832092 32.192005 205 205 205 0
0.984760 2.831186 32.181708 205 205 205 0
1.108824 2.833662 32.209853 204 204 204 0
1.233724 2.837566 32.254232 205 205 205 0
1.354357 2.831837 32.189111 205 205 205 0
1.477079 2.831068 32.180370 205 205 205 0
1.598191 2.827569 32.140601 205 205 205 0
1.720897 2.827188 32.136264 205 205 205 0
1.847449 2.832755 32.199546 205 205 205 0
1.973176 2.836440 32.241433 206 206 206 0
2.098065 2.838558 32.265511 205 205 205 0
2.215748 2.831234 32.182256 205 205 205 0
2.339768 2.832351 32.194952 205 205 205 0
2.469866 2.840346 32.285835 205 205 205 0
2.595211 2.842374 32.308886 205 205 205 0
2.714697 2.838092 32.260213 205 205 205 0
2.838719 2.838719 32.267339 206 206 206 0
2.978309 2.854213 32.443451 206 206 206 0
3.097937 2.850102 32.396731 206 206 206 0
3.211291 2.840757 32.290507 206 206 206 0
3.332412 2.838722 32.267366 205 205 205 0
3.472587 2.852482 32.423782 206 206 206 0
3.590223 2.847418 32.366219 206 206 206 0
3.701638 2.837923 32.258285 206 206 206 0
3.815722 2.831020 32.179822 206 206 206 0
3.944416 2.835049 32.225623 206 206 206 0
4.084254 2.846601 32.356936 206 206 206 0
4.201057 2.841892 32.303400 206 206 206 0
4.317714 2.837355 32.251833 206 206 206 0
4.440100 2.836730 32.244732 206 206 206 0
4.575585 2.844283 32.330581 206 206 206 0
4.699785 2.844607 32.334263 206 206 206 0
4.813692 2.838844 32.268759 206 206 206 0
4.940873 2.841002 32.293287 206 206 206 0
5.084880 2.852494 32.423914 206 206 206 0
5.217394 2.857145 32.476778 206 206 206 0
5.328005 2.849863 32.394009 207 207 207 0
5.443969 2.845711 32.346814 207 207 207 0
5.576762 2.850345 32.399489 206 206 206 0
5.711744 2.855872 32.462313 206 206 206 0
5.819925 2.848048 32.373382 206 206 206 0
5.932444 2.842629 32.311785 207 207 207 0
6.058686 2.843873 32.325921 206 206 206 0
6.193572 2.849043 32.384689 206 206 206 0
6.319254 2.849860 32.393974 207 207 207 0
6.439626 2.848296 32.376200 207 207 207 0
6.561230 2.847326 32.365172 206 206 206 0
6.690044 2.849463 32.389465 207 207 207 0
6.814158 2.849557 32.390530 207 207 207 0
6.941727 2.851066 32.407688 207 207 207 0
7.062304 2.849702 32.392176 207 207 207 0
7.182868 2.848379 32.377138 206 206 206 0
7.323177 2.854798 32.450102 208 208 208 0
7.451977 2.856591 32.470488 207 207 207 0
7.568639 2.853749 32.438183 207 207 207 0
7.685679 2.851139 32.408515 207 207 207 0
7.831165 2.858997 32.497831 207 207 207 0
7.947995 2.856311 32.467299 207 207 207 0
8.055825 2.850523 32.401507 207 207 207 0
8.170526 2.847305 32.364928 207 207 207 0
8.304598 2.850832 32.405028 207 207 207 0
8.443940 2.856038 32.464205 208 208 208 0
8.554986 2.851662 32.414458 207 207 207 0
8.672686 2.849597 32.390985 207 207 207 0
8.801580 2.851216 32.409390 207 207 207 0
8.942211 2.856540 32.469903 207 207 207 0
9.066469 2.856559 32.470117 207 207 207 0
9.170795 2.850382 32.399912 207 207 207 0
9.283240 2.846860 32.359879 207 207 207 0
9.434423 2.855154 32.454157 207 207 207 0
9.563886 2.856745 32.472238 207 207 207 0
9.687856 2.856675 32.471446 207 207 207 0
9.781480 2.847773 32.370250 207 207 207 0
-8.873223 2.661967 28.997460 198 198 198 0
-8.772702 2.665125 29.031860 198 198 198 0
-8.750500 2.692462 29.329648 198 198 198 0
-8.614520 2.685045 29.248857 198 198 198 0
-8.503009 2.685161 29.250118 198 198 198 0
-8.468446 2.709903 29.519639 198 198 198 0
-8.504615 2.758254 30.046335 199 199 199 0
-8.354107 2.746556 29.918908 198 198 198 0
-8.195041 2.731680 29.756867 199 199 199 0
-8.108710 2.740972 29.858087 198 198 198 0
-8.157966 2.797017 30.468594 199 199 199 0
-8.068387 2.806396 30.570759 199 199 199 0
-7.882895 2.782198 30.307171 199 199 199 0
-7.699456 2.758014 30.043728 199 199 199 0
-7.610074 2.767300 30.144878 200 200 200 0
-7.687985 2.838641 30.922011 199 199 199 0
-7.522494 2.820935 30.729143 200 200 200 0
-7.320457 2.788746 30.378493 200 200 200 0
-7.152276 2.768623 30.159291 199 199 199 0
-7.150182 2.813186 30.644730 199 199 199 0
-7.094261 2.837704 30.911814 200 200 200 0
-6.934971 2.821005 30.729906 200 200 200 0
-6.785911 2.807963 30.587834 199 199 199 0
-6.680952 2.813032 30.643053 200 200 200 0
-6.632468 2.842486 30.963901 200 200 200 0
-6.534392 2.851371 31.060687 201 201 201 0
-6.391727 2.840767 30.945180 200 200 200 0
-6.233388 2.822666 30.748000 200 200 200 0
-6.139377 2.833559 30.866651 200 200 200 0
-6.118378 2.879237 31.364233 201 201 201 0
-5.978329 2.869598 31.259239 201 201 201 0
-5.824685 2.852907 31.077415 201 201 201 0
-5.695303 2.847651 31.020169 200 200 200 0
-5.629160 2.874465 31.312252 201 201 201 0
-5.536963 2.888850 31.468956 201 201 201 0
-5.387903 2.873548 31.302266 201 201 201 0
-5.247276 2.862151 31.178110 201 201 201 0
-5.132121 2.864440 31.203045 201 201 201 0
-5.029361 2.873920 31.306323 201 201 201 0
-4.925802 2.883396 31.409545 202 202 202 0
-4.801873 2.881124 31.384790 202 202 202 0
-4.672804 2.875572 31.324312 201 201 201 0
-4.569352 2.885906 31.436888 201 201 201 0
-4.453231 2.888583 31.466041 202 202 202 0
-4.331787 2.887858 31.458146 201 201 201 0
-4.227286 2.898710 31.576364 202 202 202 0
-4.103383 2.896506 31.552349 202 202 202 0
-3.979845 2.894433 31.529766 202 202 202 0
-3.866413 2.899809 31.588338 202 202 202 0
-3.768896 2.917855 31.784916 202 202 202 0
-3.648016 2.918413 31.790989 202 202 202 0
-3.516161 2.909926 31.698544 202 202 202 0
-3.392281 2.907670 31.673961 203 203 203 0
-3.288383 2.923007 31.841037 203 203 203 0
-3.166367 2.922800 31.838779 203 203 203 0
-3.035391 2.913975 31.742648 203 203 203 0
-2.902377 2.902377 31.616308 203 203 203 0
-2.783430 2.904449 31.638873 203 203 203 0
-2.678117 2.921582 31.825516 203 203 203 0
-2.557422 2.922768 31.838433 203 203 203 0
-2.431693 2.918032 31.786839 203 203 203 0
-2.302629 2.908584 31.683917 203 203 203 0
-2.186740 2.915653 31.760925 203 203 203 0
-2.078020 2.933675 31.957248 203 203 203 0
-1.955974 2.933961 31.960357 203 203 203 0
-1.824840 2.919745 31.805499 204 204 204 0
-1.701039 2.916066 31.765429 203 203 203 0
-1.595758 2.946015 32.091666 204 204 204 0
-1.475571 2.951141 32.147509 203 203 203 0
-1.346934 2.938765 32.012690 203 203 203 0
-1.219172 2.926013 31.873776 204 204 204 0
-1.102157 2.939085 32.016178 203 203 203 0
-0.985693 2.957080 32.212198 204 204 204 0
-0.858093 2.942033 32.048290 204 204 204 0
-0.731781 2.927123 31.885867 204 204 204 0
-0.609692 2.926523 31.879341 204 204 204 0
-0.491157 2.946940 32.101746 204 204 204 0
-0.368317 2.946535 32.097331 204 204 204 0
-0.244617 2.935409 31.976134 204 204 204 0
-0.122375 2.937005 31.993514 204 204 204 0
0.000000 2.945320 32.084095 204 204 204 0
0.122776 2.946617 32.098221 204 204 204 0
0.245343 2.944112 32.070934 204 204 204 0
0.368046 2.944368 32.073731 205 205 205 0
0.491679 2.950074 32.135885 204 204 204 0
0.615847 2.956065 32.201147 204 204 204 0
0.739801 2.959204 32.235340 204 204 204 0
0.862000 2.955430 32.194225 205 205 205 0
0.984458 2.953374 32.171834 205 205 205 0
1.108265 2.955373 32.193606 205 205 205 0
1.234201 2.962083 32.266700 205 205 205 0
1.354224 2.954670 32.185950 205 205 205 0
1.476609 2.953218 32.170126 205 205 205 0
1.598081 2.950303 32.138380 205 205 205 0
1.721670 2.951434 32.150695 205 205 205 0
1.848359 2.957375 32.215416 205 205 205 0
1.972589 2.958884 32.231852 205 205 205 0
2.098140 2.962080 32.266665 206 206 206 0
2.216390 2.955187 32.191577 205 205 205 0
2.340067 2.955874 32.199060 206 206 206 0
2.468764 2.962516 32.271421 205 205 205 0
2.593938 2.964500 32.293030 205 205 205 0
2.714459 2.961228 32.257381 206 206 206 0
2.838888 2.962318 32.269255 206 206 206 0
2.976545 2.976545 32.424242 206 206 206 0
3.096376 2.972521 32.380404 205 205 205 0
3.210492 2.963531 32.282475 205 205 205 0
3.332708 2.962407 32.270230 206 206 206 0
3.474048 2.977756 32.437425 205 205 205 0
3.589643 2.970739 32.360993 206 206 206 0
3.702284 2.961827 32.263912 206 206 206 0
3.814117 2.952864 32.166280 206 206 206 0
3.943518 2.957639 32.218285 205 205 205 0
4.084592 2.970613 32.359614 206 206 206 0
4.200321 2.964932 32.297736 206 206 206 0
4.316566 2.959931 32.243259 206 206 206 0
4.440919 2.960612 32.250680 206 206 206 0
4.575723 2.968037 32.331553 206 206 206 0
4.696929 2.966481 32.314613 206 206 206 0
4.814561 2.962807 32.274586 206 206 206 0
4.942204 2.965322 32.301984 206 206 206 0
5.082395 2.975060 32.408064 206 206 206 0
5.215830 2.980474 32.467040 207 207 207 0
5.327077 2.973252 32.388370 206 206 206 0
5.445502 2.970274 32.355922 206 206 206 0
5.579694 2.975837 32.416524 207 207 207 0
5.713193 2.980796 32.470546 206 206 206 0
5.820756 2.972301 32.378005 207 207 207 0
5.932428 2.966214 32.311702 206 206 206 0
6.061521 2.968908 32.341050 207 207 207 0
6.194095 2.973166 32.387424 207 207 207 0
6.317647 2.973011 32.385736 207 207 207 0
6.439706 2.972172 32.376602 206 206 206 0
6.563769 2.972273 32.377698 206 206 206 0
6.690149 2.973399 32.389972 207 207 207 0
6.814052 2.973405 32.390029 206 206 206 0
6.942893 2.975525 32.413130 207 207 207 0
7.062994 2.973892 32.395340 207 207 207 0
7.182062 2.971888 32.373507 207 207 207 0
7.323970 2.979242 32.453617 207 207 207 0
7.455971 2.982388 32.487890 206 206 206 0
7.566028 2.976798 32.426991 206 206 206 0
7.689840 2.976712 32.426059 207 207 207 0
7.827582 2.981936 32.482962 207 207 207 0
7.947250 2.980219 32.464255 207 207 207 0
8.055514 2.974344 32.400257 207 207 207 0
8.170437 2.971068 32.364574 207 207 207 0
8.304535 2.974759 32.404778 207 207 207 0
8.443259 2.979974 32.461588 207 207 207 0
8.556155 2.976054 32.418887 207 207 207 0
8.674980 2.974279 32.399551 206 206 206 0
8.797685 2.973865 32.395047 207 207 207 0
8.943199 2.981066 32.473491 207 207 207 0
9.065521 2.980445 32.466725 207 207 207 0
9.172966 2.975016 32.407582 207 207 207 0
9.285680 2.971418 32.368384 208 208 208 0
9.433866 2.979116 32.452239 207 207 207 0
9.561398 2.980176 32.463789 207 207 207 0
9.688988 2.981227 32.475241 207 207 207 0
9.781881 2.971711 32.371575 208 208 208 0
-8.882210 2.775691 29.026830 198 198 198 0
-8.783729 2.779661 29.068350 198 198 198 0
-8.765174 2.809351 29.378830 199 199 199 0
-8.618586 2.798242 29.262665 198 198 198 0
-8.509311 2.799116 29.271797 198 198 198 0
-8.467060 2.822353 29.514805 198 198 198 0
-8.503993 2.872971 30.044138 199 199 199 0
-8.364182 2.864446 29.954988 199 199 199 0
-8.198530 2.846712 29.769536 198 198 198 0
-8.111177 2.856048 29.867171 198 198 198 0
-8.166958 2.916771 30.502179 199 199 199 0
-8.067646 2.923060 30.567951 199 199 199 0
-7.884221 2.898611 30.312269 199 199 199 0
-7.692980 2.870515 30.018455 199 199 199 0
-7.614801 2.884394 30.163601 199 199 199 0
-7.685024 2.955778 30.910101 200 200 200 0
-7.514807 2.935471 30.697740 199 199 199 0
-7.312360 2.901730 30.344889 199 199 199 0
-7.154619 2.884927 30.169171 200 200 200 0
-7.149360 2.930065 30.641207 200 200 200 0
-7.100687 2.958620 30.939812 200 200 200 0
-6.933385 2.937875 30.722876 200 200 200 0
-6.785913 2.924962 30.587843 200 200 200 0
-6.682877 2.931086 30.651884 200 200 200 0
-6.635943 2.962475 30.980128 200 200 200 0
-6.535663 2.970756 31.066727 200 200 200 0
-6.391020 2.958806 30.941757 200 200 200 0
-6.233877 2.940508 30.750410 200 200 200 0
-6.134140 2.949106 30.840322 201 201 201 0
-6.110307 2.995248 31.322860 201 201 201 0
-5.981456 2.990728 31.275588 201 201 201 0
-5.827023 2.972971 31.089894 200 200 200 0
-5.697609 2.967505 31.032731 201 201 201 0
-5.624746 2.991886 31.287699 201 201 201 0
-5.541619 3.011749 31.495419 202 202 202 0
-5.390296 2.994609 31.316169 201 201 201 0
-5.248966 2.982367 31.188153 201 201 201 0
-5.134163 2.984978 31.215459 202 202 202 0
-5.033318 2.996023 31.330956 201 201 201 0
-4.925799 3.003536 31.409527 201 201 201 0
-4.799705 2.999816 31.370623 202 202 202 0
-4.676575 2.997804 31.349586 202 202 202 0
-4.566932 3.004560 31.420240 201 201 201 0
-4.454614 3.009874 31.475809 202 202 202 0
-4.333309 3.009242 31.469199 201 201 201 0
-4.224915 3.017796 31.558654 202 202 202 0
-4.103066 3.016960 31.549913 202 202 202 0
-3.979940 3.015106 31.530523 202 202 202 0
-3.866259 3.020515 31.587086 202 202 202 0
-3.763877 3.035384 31.742581 202 202 202 0
-3.649751 3.041459 31.806105 202 202 202 0
-3.515921 3.030966 31.696378 202 202 202 0
-3.390746 3.027451 31.659622 203 203 203 0
-3.287136 3.043645 31.828965 202 202 202 0
-3.165570 3.043817 31.830768 202 202 202 0
-3.035548 3.035548 31.744292 203 203 203 0
-2.904182 3.025190 31.635970 202 202 202 0
-2.782463 3.024416 31.627883 203 203 203 0
-2.678490 3.043739 31.829950 203 203 203 0
-2.559122 3.046574 31.859597 203 203 203 0
-2.432211 3.040264 31.793611 202 202 202 0
-2.302701 3.029870 31.684913 203 203 203 0
-2.186965 3.037451 31.764195 203 203 203 0
-2.077497 3.055142 31.949198 204 204 204 0
-1.955748 3.055857 31.956669 203 203 203 0
-1.826098 3.043497 31.827415 203 203 203 0
-1.699924 3.035578 31.744609 203 203 203 0
-1.595432 3.068139 32.085113 203 203 203 0
-1.474563 3.072007 32.125565 203 203 203 0
-1.345871 3.058798 31.987430 204 204 204 0
-1.219701 3.049253 31.887612 203 203 203 0
-1.102532 3.062589 32.027072 204 204 204 0
-0.985174 3.078668 32.195222 204 204 204 0
-0.857997 3.064275 32.044704 204 204 204 0
-0.731888 3.049535 31.890560 204 204 204 0
-0.609632 3.048159 31.876177 204 204 204 0
-0.490478 3.065490 32.057416 204 204 204 0
-0.368107 3.067557 32.079025 204 204 204 0
-0.244682 3.058527 31.984592 204 204 204 0
-0.122389 3.059733 31.997213 205 205 205 0
0.000000 3.067251 32.075829 204 204 204 0
0.122750 3.068744 32.091436 204 204 204 0
0.245302 3.066272 32.065590 204 204 204 0
0.367823 3.065189 32.054262 204 204 204 0
0.491296 3.070597 32.110822 204 204 204 0
0.616042 3.080212 32.211372 204 204 204 0
0.739643 3.081844 32.228434 204 204 204 0
0.862003 3.078581 32.194316 204 204 204 0
0.984594 3.076857 32.176287 205 205 205 0
1.108535 3.079264 32.201448 205 205 205 0
1.233809 3.084523 32.256451 205 205 205 0
1.354665 3.078785 32.196447 205 205 205 0
1.476264 3.075550 32.162617 205 205 205 0
1.598156 3.073378 32.139896 205 205 205 0
1.721650 3.074375 32.150323 205 205 205 0
1.847264 3.078774 32.196327 205 205 205 0
1.973385 3.083414 32.244849 206 206 206 0
2.097843 3.085063 32.262097 205 205 205 0
2.216396 3.078328 32.191665 206 206 206 0
2.339106 3.077771 32.185836 206 206 206 0
2.469643 3.087053 32.282910 205 205 205 0
2.593476 3.087471 32.287279 206 206 206 0
2.714114 3.084220 32.253285 205 205 205 0
2.836264 3.082896 32.239431 206 206 206 0
2.976891 3.100928 32.428003 206 206 206 0
3.098449 3.098449 32.402081 206 206 206 0
3.210341 3.086866 32.280952 205 205 205 0
3.330360 3.083667 32.247497 206 206 206 0
3.471217 3.099301 32.410993 205 205 205 0
3.590587 3.095334 32.369503 206 206 206 0
3.700917 3.084097 32.251999 206 206 206 0
3.814849 3.076491 32.172459 206 206 206 0
3.942435 3.080028 32.209439 206 206 206 0
4.082645 3.092913 32.344186 206 206 206 0
4.202090 3.089772 32.311342 206 206 206 0
4.317114 3.083653 32.247352 205 205 205 0
4.438379 3.082208 32.232238 206 206 206 0
4.572582 3.089583 32.309360 206 206 206 0
4.698319 3.090999 32.324176 206 206 206 0
4.814711 3.086353 32.275590 206 206 206 0
4.942547 3.089092 32.304229 206 206 206 0
5.083013 3.099398 32.412008 207 207 207 0
5.213998 3.103570 32.455636 206 206 206 0
5.327724 3.097514 32.392302 206 206 206 0
5.445057 3.093783 32.353283 206 206 206 0
5.576710 3.098172 32.399187 206 206 206 0
5.713436 3.105129 32.471932 206 206 206 0
5.819406 3.095429 32.370494 207 207 207 0
5.932849 3.090026 32.313993 206 206 206 0
6.058832 3.091241 32.326703 206 206 206 0
6.197037 3.098519 32.402808 207 207 207 0
6.317827 3.096974 32.386658 206 206 206 0
6.440161 3.096231 32.378889 206 206 206 0
6.562962 3.095737 32.373717 207 207 207 0
6.689876 3.097165 32.388651 206 206 206 0
6.810409 3.095641 32.372712 207 207 207 0
6.941021 3.098670 32.404391 207 207 207 0
7.061182 3.097010 32.387030 207 207 207 0
7.183873 3.096497 32.381669 207 207 207 0
7.325364 3.103968 32.459793 207 207 207 0
7.453195 3.105498 32.475795 207 207 207 0
7.569934 3.102432 32.443735 207 207 207 0
7.684726 3.098680 32.404496 207 207 207 0
7.827728 3.106241 32.483568 207 207 207 0
7.946871 3.104246 32.462707 207 207 207 0
8.056784 3.098763 32.405365 207 207 207 0
8.167232 3.093648 32.351878 207 207 207 0
8.302990 3.098131 32.398752 207 207 207 0
8.443598 3.104264 32.462890 207 207 207 0
8.558805 3.101016 32.428929 207 207 207 0
8.672169 3.097203 32.389052 207 207 207 0
8.796010 3.097187 32.388881 207 207 207 0
8.946104 3.106286 32.484038 207 207 207 0
9.065221 3.104528 32.465649 207 207 207 0
9.174649 3.099544 32.413527 208 208 208 0
9.287141 3.095714 32.373478 208 208 208 0
9.437645 3.104488 32.465239 207 207 207 0
9.561310 3.104321 32.463492 207 207 207 0
9.688810 3.105388 32.474643 207 207 207 0
9.778585 3.094489 32.360668 207 207 207 0
-8.869721 2.882659 28.986015 198 198 198 0
-8.759815 2.882977 28.989210 198 198 198 0
-8.756755 2.918918 29.350611 198 198 198 0
-8.616359 2.909420 29.255103 198 198 198 0
-8.503212 2.908994 29.250817 198 198 198 0
-8.476980 2.938686 29.549384 199 199 199 0
-8.509063 2.989671 30.062049 199 199 199 0
-8.365393 2.979455 29.959328 199 199 199 0
-8.199010 2.960754 29.771280 198 198 198 0
-8.114725 2.971590 29.880236 199 199 199 0
-8.172532 3.035512 30.522995 199 199 199 0
-8.077361 3.043643 30.604759 199 199 199 0
-7.879916 3.012909 30.295716 199 199 199 0
-7.698151 2.987342 30.038634 200 200 200 0
-7.633935 3.007308 30.239394 199 199 199 0
-7.685772 3.074309 30.913110 199 199 199 0
-7.504621 3.048752 30.656132 200 200 200 0
-7.310207 3.016911 30.335955 200 200 200 0
-7.158303 3.001869 30.184707 200 200 200 0
-7.139948 3.043257 30.600871 200 200 200 0
-7.099205 3.076322 30.933357 199 199 199 0
-6.943240 3.059733 30.766546 200 200 200 0
-6.787627 3.042730 30.595571 200 200 200 0
-6.690147 3.051646 30.685229 200 200 200 0
-6.631957 3.079123 30.961518 200 200 200 0
-6.544072 3.093562 31.106702 200 200 200 0
-6.393773 3.078483 30.955086 200 200 200 0
-6.241236 3.061738 30.786711 200 200 200 0
-6.137027 3.068513 30.854836 200 200 200 0
-6.112980 3.116421 31.336562 201 201 201 0
-5.982587 3.110945 31.281500 200 200 200 0
-5.828768 3.092815 31.099200 200 200 200 0
-5.687417 3.080684 30.977219 201 201 201 0
-5.630257 3.114610 31.318353 201 201 201 0
-5.543614 3.133347 31.506756 201 201 201 0
-5.394831 3.117013 31.342516 201 201 201 0
-5.247161 3.100595 31.177429 201 201 201 0
-5.136046 3.105516 31.226909 201 201 201 0
-5.034432 3.116553 31.337889 202 202 202 0
-4.926806 3.124316 31.415945 201 201 201 0
-4.801799 3.121169 31.384308 201 201 201 0
-4.672192 3.114795 31.320208 202 202 202 0
-4.566666 3.124561 31.418408 202 202 202 0
-4.453931 3.129790 31.470986 202 202 202 0
-4.332108 3.128745 31.460478 202 202 202 0
-4.220960 3.135570 31.529112 202 202 202 0
-4.106850 3.140532 31.579004 203 203 203 0
-3.981903 3.137257 31.546076 202 202 202 0
-3.866787 3.141764 31.591395 203 203 203 0
-3.768151 3.160385 31.778633 202 202 202 0
-3.651285 3.164447 31.819477 202 202 202 0
-3.513395 3.149940 31.673606 203 203 203 0
-3.392786 3.150444 31.678677 203 203 203 0
-3.287369 3.165615 31.831220 202 202 202 0
-3.167035 3.167035 31.845503 202 202 202 0
-3.037810 3.159323 31.767951 203 203 203 0
-2.904098 3.146106 31.635056 202 202 202 0
-2.782750 3.145717 31.631141 203 203 203 0
-2.676752 3.163434 31.809289 203 203 203 0
-2.560835 3.170558 31.880923 203 203 203 0
-2.433426 3.163454 31.809495 203 203 203 0
-2.303193 3.151738 31.691684 203 203 203 0
-2.187112 3.159162 31.766331 203 203 203 0
-2.076672 3.176086 31.936512 203 203 203 0
-1.955263 3.177303 31.948746 204 204 204 0
-1.826091 3.165224 31.827293 204 204 204 0
-1.701642 3.160193 31.776701 204 204 204 0
-1.595553 3.191106 32.087546 204 204 204 0
-1.474308 3.194334 32.120001 203 203 203 0
-1.346588 3.182843 32.004457 204 204 204 0
-1.219080 3.169607 31.871360 204 204 204 0
-1.102340 3.184538 32.021500 204 204 204 0
-0.985626 3.203284 32.209991 203 203 203 0
-0.858180 3.187525 32.051529 203 203 203 0
-0.732039 3.172170 31.897134 203 203 203 0
-0.610091 3.172475 31.900196 204 204 204 0
-0.490800 3.190201 32.078443 204 204 204 0
-0.368239 3.191405 32.090545 204 204 204 0
-0.244689 3.180953 31.985452 204 204 204 0
-0.122321 3.180353 31.979414 204 204 204 0
0.000000 3.188807 32.064423 204 204 204 0
0.122757 3.191682 32.093330 204 204 204 0
0.245330 3.189284 32.069222 204 204 204 0
0.367649 3.186289 32.039109 205 205 205 0
0.491581 3.195277 32.129482 204 204 204 0
0.616043 3.203423 32.211392 204 204 204 0
0.739421 3.204156 32.218762 204 204 204 0
0.862342 3.202983 32.206973 205 205 205 0
0.985274 3.202139 32.198484 205 205 205 0
1.108949 3.203630 32.213475 204 204 204 0
1.233867 3.208054 32.257956 205 205 205 0
1.354241 3.200933 32.186357 205 205 205 0
1.477264 3.200739 32.184401 205 205 205 0
1.597502 3.195005 32.126745 205 205 205 0
1.721193 3.196501 32.141793 205 205 205 0
1.849151 3.205195 32.229209 205 205 205 0
1.972395 3.205141 32.228669 205 205 205 0
2.098255 3.209096 32.268432 205 205 205 0
2.216573 3.201716 32.194228 205 205 205 0
2.340600 3.202926 32.206399 205 205 205 0
2.468954 3.209640 32.273905 205 205 205 0
2.593836 3.211416 32.291764 206 206 206 0
2.713292 3.206617 32.243513 206 206 206 0
2.836496 3.206474 32.242073 205 205 205 0
2.977884 3.226041 32.438824 205 205 205 0
3.098403 3.222339 32.401601 206 206 206 0
3.210291 3.210291 32.280449 206 206 206 0
3.330888 3.207522 32.252605 206 206 206 0
3.471650 3.223675 32.415028 206 206 206 0
3.589355 3.218042 32.358391 206 206 206 0
3.703104 3.209357 32.271061 207 207 207 0
3.814944 3.199631 32.173260 206 206 206 0
3.942087 3.202946 32.206595 206 206 206 0
4.083455 3.217267 32.350601 206 206 206 0
4.201676 3.213047 32.308162 205 205 205 0
4.314157 3.204802 32.225261 207 207 207 0
4.439103 3.206019 32.237494 206 206 206 0
4.574909 3.214801 32.325802 206 206 206 0
4.697994 3.214417 32.321937 206 206 206 0
4.812472 3.208315 32.260581 206 206 206 0
4.943145 3.213045 32.308140 206 206 206 0
5.082288 3.222914 32.407382 206 206 206 0
5.215209 3.228463 32.463173 207 207 207 0
5.328368 3.221804 32.396221 207 207 207 0
5.444115 3.216977 32.347684 206 206 206 0
5.580430 3.224249 32.420801 206 206 206 0
5.712828 3.228990 32.468475 206 206 206 0
5.820013 3.219582 32.373874 206 206 206 0
5.932160 3.213253 32.310239 207 207 207 0
6.057907 3.214399 32.321764 207 207 207 0
6.194843 3.221318 32.391334 207 207 207 0
6.317658 3.220767 32.385790 207 207 207 0
6.439641 3.219821 32.376276 206 206 206 0
6.559686 3.217959 32.357557 207 207 207 0
6.687922 3.220111 32.379191 207 207 207 0
6.811366 3.219918 32.377260 207 207 207 0
6.940977 3.222596 32.404187 206 206 206 0
7.061128 3.220865 32.386782 206 206 206 0
7.181303 3.219205 32.370083 206 206 206 0
7.324515 3.227753 32.456034 207 207 207 0
7.455644 3.230779 32.486465 207 207 207 0
7.567035 3.225294 32.431309 207 207 207 0
7.686511 3.223376 32.412024 207 207 207 0
7.830654 3.231699 32.495713 207 207 207 0
7.946944 3.228446 32.463008 207 207 207 0
8.057757 3.223103 32.409278 207 207 207 0
8.171901 3.219234 32.370375 207 207 207 0
8.303835 3.222384 32.402048 207 207 207 0
8.443249 3.228301 32.461550 206 206 206 0
8.554541 3.223450 32.412773 206 206 206 0
8.675665 3.222390 32.402110 207 207 207 0
8.797624 3.221665 32.394822 207 207 207 0
8.946451 3.230663 32.485299 208 208 208 0
9.063373 3.228051 32.459031 207 207 207 0
9.171900 3.222559 32.403814 207 207 207 0
9.287798 3.219770 32.375766 207 207 207 0
9.436195 3.228172 32.460250 207 207 207 0
9.560960 3.228376 32.462302 207 207 207 0
9.689798 3.229933 32.477954 207 207 207 0
9.779348 3.218519 32.363192 207 207 207 0
-8.895516 3.002237 29.070313 198 198 198 0
-8.761400 2.994402 28.994456 198 198 198 0
-8.736999 3.024346 29.284393 198 198 198 0
-8.614870 3.020799 29.250047 198 198 198 0
-8.506936 3.022201 29.263625 198 198 198 0
-8.469385 3.048978 29.522910 198 198 198 0
-8.504824 3.103112 30.047074 198 198 198 0
-8.366486 3.094454 29.963241 199 199 199 0
-8.209544 3.078579 29.809527 199 199 199 0
-8.122090 3.088682 29.907354 199 199 199 0
-8.169213 3.150982 30.510598 199 199 199 0
-8.059955 3.153895 30.538809 199 199 199 0
-7.870620 3.125099 30.259976 199 199 199 0
-7.698682 3.102454 30.040705 199 199 199 0
-7.625129 3.119371 30.204514 199 199 199 0
-7.682035 3.190999 30.898078 200 200 200 0
-7.518771 3.171981 30.713933 199 199 199 0
-7.315595 3.135255 30.358316 200 200 200 0
-7.158152 3.117260 30.184071 200 200 200 0
-7.155602 3.167234 30.667961 200 200 200 0
-7.103055 3.196375 30.950129 200 200 200 0
-6.942857 3.177240 30.764848 199 199 199 0
-6.777770 3.155169 30.551139 200 200 200 0
-6.677764 3.163151 30.628430 200 200 200 0
-6.627980 3.195633 30.942950 200 200 200 0
-6.544332 3.212672 31.107934 200 200 200 0
-6.391966 3.195983 30.946340 201 201 201 0
-6.239202 3.178461 30.776676 201 201 201 0
-6.145106 3.190728 30.895457 201 201 201 0
-6.118592 3.239255 31.365332 201 201 201 0
-5.987483 3.233241 31.307103 200 200 200 0
-5.828365 3.211548 31.097052 200 200 200 0
-5.691715 3.201590 31.000628 200 200 200 0
-5.626680 3.232348 31.298458 201 201 201 0
-5.547327 3.256040 31.527862 201 201 201 0
-5.395275 3.237165 31.345096 201 201 201 0
-5.244537 3.218238 31.161835 201 201 201 0
-5.136773 3.225415 31.231327 201 201 201 0
-5.026789 3.231507 31.290311 202 202 202 0
-4.923196 3.242105 31.392927 201 201 201 0
-4.799496 3.239660 31.369257 201 201 201 0
-4.672359 3.234710 31.321327 201 201 201 0
-4.569143 3.246497 31.435455 202 202 202 0
-4.455385 3.251227 31.481261 202 202 202 0
-4.333028 3.249771 31.467163 201 201 201 0
-4.222909 3.257673 31.543670 201 201 201 0
-4.107650 3.261957 31.585159 203 203 203 0
-3.984386 3.259952 31.565740 202 202 202 0
-3.866985 3.262769 31.593019 202 202 202 0
-3.770340 3.283845 31.797094 203 203 203 0
-3.649661 3.284695 31.805327 203 203 203 0
-3.515338 3.272901 31.691122 202 202 202 0
-3.392073 3.270927 31.672013 202 202 202 0
-3.286425 3.286425 31.822080 202 202 202 0
-3.167390 3.289212 31.849066 202 202 202 0
-3.034789 3.277573 31.736361 203 203 203 0
-2.906221 3.269498 31.658176 203 203 203 0
-2.780897 3.264531 31.610078 203 203 203 0
-2.680222 3.289364 31.850531 203 203 203 0
-2.560887 3.292569 31.881567 203 203 203 0
-2.434446 3.286502 31.822824 203 203 203 0
-2.304822 3.275273 31.714097 203 203 203 0
-2.188437 3.282656 31.785580 203 203 203 0
-2.076096 3.297329 31.927663 204 204 204 0
-1.954390 3.298032 31.934469 203 203 203 0
-1.826571 3.287828 31.835659 203 203 203 0
-1.700534 3.279600 31.755995 203 203 203 0
-1.595555 3.313844 32.087572 204 204 204 0
-1.474119 3.316767 32.115873 204 204 204 0
-1.346218 3.304353 31.995668 204 204 204 0
-1.220432 3.295166 31.906715 204 204 204 0
-1.103277 3.309830 32.048706 204 204 204 0
-0.985602 3.326407 32.209221 204 204 204 0
-0.858296 3.310572 32.055886 204 204 204 0
-0.732167 3.294751 31.902693 203 203 203 0
-0.610094 3.294508 31.900347 204 204 204 0
-0.491173 3.315417 32.102806 204 204 204 0
-0.368130 3.313169 32.081032 204 204 204 0
-0.244620 3.302370 31.976471 204 204 204 0
-0.122337 3.303092 31.983466 204 204 204 0
0.000000 3.313472 32.083975 204 204 204 0
0.122786 3.315220 32.100896 204 204 204 0
0.245383 3.312672 32.076220 205 205 205 0
0.367601 3.308406 32.034915 205 205 205 0
0.491519 3.317756 32.125450 205 205 205 0
0.616043 3.326634 32.211413 205 205 205 0
0.739711 3.328699 32.231414 204 204 204 0
0.862291 3.325980 32.205086 205 205 205 0
0.984664 3.323242 32.178575 204 204 204 0
1.108741 3.326222 32.207429 205 205 205 0
1.233987 3.331764 32.261086 205 205 205 0
1.354541 3.324783 32.193495 205 205 205 0
1.477410 3.324172 32.187573 205 205 205 0
1.598536 3.320036 32.147533 205 205 205 0
1.721438 3.319916 32.146366 205 205 205 0
1.848046 3.326484 32.209960 205 205 205 0
1.972853 3.329190 32.236163 205 205 205 0
2.098231 3.332485 32.268066 205 205 205 0
2.216564 3.324846 32.194103 205 205 205 0
2.340974 3.326648 32.211548 205 205 205 0
2.470424 3.335072 32.293122 206 206 206 0
2.594500 3.335786 32.300036 205 205 205 0
2.714703 3.331681 32.260286 206 206 206 0
2.838591 3.332259 32.265885 205 205 205 0
2.977981 3.350229 32.439886 205 205 205 0
3.097889 3.345720 32.396223 205 205 205 0
