ply
    format ascii 1.0
    element vertex 25597
    property float x
    property float y
    property float z
    property uchar red
    property uchar green
    property uchar blue
    property uchar alpha
    end_header
-6.973855 7.555010 30.387168 200 200 200 0
-6.867434 7.565817 30.430635 199 199 199 0
-6.697283 7.505575 30.188337 199 199 199 0
-6.554339 7.474246 30.062325 200 200 200 0
-6.496395 7.540459 30.328643 199 199 199 0
-6.422770 7.590546 30.530101 200 200 200 0
-6.312342 7.598190 30.560845 200 200 200 0
-6.147920 7.539902 30.326405 200 200 200 0
-6.055317 7.569146 30.444027 200 200 200 0
-6.001923 7.649510 30.767258 200 200 200 0
-5.914815 7.689260 30.927139 201 201 201 0
-5.773215 7.658346 30.802799 200 200 200 0
-5.629755 7.623626 30.663153 201 201 201 0
-5.518980 7.632632 30.699373 200 200 200 0
-5.432421 7.676247 30.874801 201 201 201 0
-5.340695 7.714337 31.028002 201 201 201 0
-5.179989 7.652256 30.778306 201 201 201 0
-5.050018 7.633749 30.703866 201 201 201 0
-4.943077 7.650000 30.769230 201 201 201 0
-4.850866 7.690398 30.931715 201 201 201 0
-4.728763 7.684240 30.906950 201 201 201 0
-4.601229 7.668715 30.844503 201 201 201 0
-4.495140 7.689055 30.926313 201 201 201 0
-4.395243 7.721372 31.056298 202 202 202 0
-4.270955 7.711446 31.016375 201 201 201 0
-4.152710 7.712175 31.019306 201 201 201 0
-4.051714 7.745923 31.155046 201 201 201 0
-3.931859 7.744571 31.149607 202 202 202 0
-3.806865 7.732695 31.101841 202 202 202 0
-3.700017 7.758099 31.204020 201 201 201 0
-3.595018 7.789205 31.329132 202 202 202 0
-3.473834 7.786180 31.316964 202 202 202 0
-3.339618 7.752686 31.182245 202 202 202 0
-3.221807 7.756202 31.196388 202 202 202 0
-3.121015 7.802537 31.382754 202 202 202 0
-2.997866 7.794451 31.350231 202 202 202 0
-2.871593 7.777232 31.280974 202 202 202 0
-2.741999 7.749128 31.167937 203 203 203 0
-2.629307 7.768407 31.245479 202 202 202 0
-2.524119 7.812750 31.423831 203 203 203 0
-2.402588 7.808411 31.406381 202 202 202 0
-2.276097 7.786648 31.318847 203 203 203 0
-2.151669 7.769917 31.251551 203 203 203 0
-2.038432 7.794004 31.348431 203 203 203 0
-1.926824 7.827724 31.484058 202 202 202 0
-1.804933 7.821375 31.458522 203 203 203 0
-1.679238 7.796462 31.358319 203 203 203 0
-1.561072 7.805358 31.394098 203 203 203 0
-1.455006 7.881280 31.699468 204 204 204 0
-1.332245 7.872357 31.663578 203 203 203 0
-1.204157 7.827020 31.481227 203 203 203 0
-1.080176 7.801273 31.377667 203 203 203 0
-0.964308 7.835000 31.513321 203 203 203 0
-0.849267 7.886047 31.718640 204 204 204 0
-0.723974 7.843047 31.545688 203 203 203 0
-0.600084 7.801094 31.376950 203 203 203 0
-0.480247 7.804016 31.388700 203 203 203 0
-0.363026 7.865554 31.636217 203 203 203 0
-0.241789 7.858156 31.606461 204 204 204 0
-0.120429 7.827870 31.484647 204 204 204 0
0.000000 7.823020 31.465139 204 204 204 0
0.120734 7.847729 31.564522 203 203 203 0
0.241555 7.850542 31.575836 204 204 204 0
0.362240 7.848536 31.567768 204 204 204 0
0.483223 7.852376 31.583211 204 204 204 0
0.604980 7.864735 31.632923 204 204 204 0
0.727652 7.882902 31.705991 204 204 204 0
0.849350 7.886820 31.721748 204 204 204 0
0.969546 7.877562 31.684513 204 204 204 0
1.090211 7.873749 31.669177 204 204 204 0
1.212011 7.878069 31.686553 204 204 204 0
1.336131 7.895322 31.755944 204 204 204 0
1.453579 7.873554 31.668393 204 204 204 0
1.573524 7.867622 31.644533 205 205 205 0
1.694313 7.866455 31.639838 204 204 204 0
1.814282 7.861887 31.621466 205 205 205 0
1.940557 7.883512 31.708445 205 205 205 0
2.063799 7.890997 31.738549 205 205 205 0
2.185350 7.891541 31.740739 205 205 205 0
2.303483 7.880335 31.695666 205 205 205 0
2.424541 7.879758 31.693346 205 205 205 0
2.553896 7.904916 31.794534 205 205 205 0
2.677395 7.910486 31.816937 205 205 205 0
2.793352 7.894256 31.751658 205 205 205 0
2.915468 7.896059 31.758910 205 205 205 0
3.053316 7.938621 31.930098 205 205 205 0
3.174146 7.935365 31.917004 205 205 205 0
3.286847 7.912780 31.826162 205 205 205 0
3.402552 7.898782 31.769861 205 205 205 0
3.539595 7.933574 31.909801 205 205 205 0
3.659011 7.927857 31.886804 205 205 205 0
3.767547 7.899694 31.773532 206 206 206 0
3.878640 7.878487 31.688234 205 205 205 0
4.002319 7.883355 31.707812 205 205 205 0
4.144495 7.923300 31.868475 206 206 206 0
4.263727 7.918349 31.848565 205 205 205 0
4.372946 7.895597 31.757051 206 206 206 0
4.499738 7.904945 31.794649 206 206 206 0
4.630284 7.920223 31.856099 205 205 205 0
4.753241 7.922068 31.863523 206 206 206 0
4.870548 7.914641 31.833650 206 206 206 0
4.986337 7.905168 31.795549 206 206 206 0
5.122612 7.927851 31.886783 205 205 205 0
5.255710 7.944678 31.954463 206 206 206 0
5.366709 7.928093 31.887754 206 206 206 0
5.473521 7.906197 31.799686 206 206 206 0
5.612953 7.931346 31.900840 206 206 206 0
5.749317 7.951183 31.980624 206 206 206 0
5.856590 7.930799 31.898639 205 205 205 0
5.963720 7.911057 31.819233 206 206 206 0
6.090732 7.917952 31.846965 206 206 206 0
6.222786 7.931001 31.899452 206 206 206 0
6.345048 7.931311 31.900696 207 207 207 0
6.452949 7.913994 31.831046 206 206 206 0
6.583574 7.924673 31.873998 206 206 206 0
6.709547 7.929465 31.893272 206 206 206 0
6.826889 7.924067 31.871562 206 206 206 0
6.954231 7.930264 31.896485 207 207 207 0
7.075840 7.929820 31.894701 206 206 206 0
7.194870 7.926551 31.881554 206 206 206 0
7.327275 7.937881 31.927123 206 206 206 0
7.460734 7.949962 31.975716 206 206 206 0
7.580060 7.946837 31.963145 206 206 206 0
7.691366 7.935537 31.917694 207 207 207 0
7.813026 7.935105 31.915957 206 206 206 0
7.960619 7.960619 32.018580 206 206 206 0
8.063149 7.940980 31.939587 207 207 207 0
8.167024 7.923232 31.868205 207 207 207 0
8.280515 7.915198 31.835891 206 206 206 0
8.428610 7.939995 31.935627 206 206 206 0
8.557231 7.946001 31.959781 206 206 206 0
8.663831 7.931677 31.902169 206 206 206 0
8.774902 7.921786 31.862387 207 207 207 0
8.905864 7.929879 31.894939 206 206 206 0
9.046282 7.946059 31.960016 207 207 207 0
9.160711 7.939282 31.932760 206 206 206 0
9.273001 7.930856 31.898867 207 207 207 0
9.403718 7.938204 31.928420 207 207 207 0
9.551176 7.959313 32.013326 206 206 206 0
9.655608 7.944488 31.953697 207 207 207 0
-8.686387 7.166269 28.386886 197 197 197 0
-8.598887 7.183880 28.456646 197 197 197 0
-8.567979 7.249828 28.717879 198 198 198 0
-8.481460 7.269823 28.797081 197 197 197 0
-8.372922 7.271222 28.802623 198 198 198 0
-8.302742 7.306413 28.942021 198 198 198 0
-8.333862 7.432904 29.443075 197 197 197 0
-8.249116 7.458105 29.542898 198 198 198 0
-8.102122 7.426946 29.419472 198 198 198 0
-7.970745 7.409425 29.350069 198 198 198 0
-8.026011 7.567381 29.975763 199 199 199 0
-7.982033 7.634988 30.243565 198 198 198 0
-7.782309 7.553418 29.920450 198 198 198 0
-7.602985 7.489507 29.667290 198 198 198 0
-7.500865 7.500865 29.712280 198 198 198 0
-7.540052 7.656053 30.327007 199 199 199 0
-7.414219 7.645913 30.286843 199 199 199 0
-7.236922 7.581537 30.031836 199 199 199 0
-7.056876 7.512158 29.757013 199 199 199 0
-6.960484 7.531016 29.831712 199 199 199 0
-6.971441 7.668585 30.376648 200 200 200 0
-6.872144 7.687484 30.451510 199 199 199 0
-6.708803 7.634155 30.240267 199 199 199 0
-6.542950 7.576047 30.010089 200 200 200 0
-6.494249 7.653937 30.318625 200 200 200 0
-6.420952 7.705143 30.521461 200 200 200 0
-6.307647 7.709346 30.538111 199 199 199 0
-6.147060 7.654830 30.322162 199 199 199 0
-6.044152 7.671424 30.387894 200 200 200 0
-5.999272 7.763763 30.753667 200 200 200 0
-5.911376 7.803016 30.909153 201 201 201 0
-5.769685 7.771412 30.783966 200 200 200 0
-5.628903 7.739742 30.658514 201 201 201 0
-5.510445 7.738071 30.651896 200 200 200 0
-5.430291 7.791287 30.862694 200 200 200 0
-5.344812 7.839058 31.051924 200 200 200 0
-5.180433 7.770650 30.780947 200 200 200 0
-5.041446 7.738034 30.651749 201 201 201 0
-4.944582 7.770058 30.778600 201 201 201 0
-4.847928 7.803981 30.912978 201 201 201 0
-4.733334 7.810002 30.936826 201 201 201 0
-4.601131 7.786529 30.843847 202 202 202 0
-4.492335 7.802477 30.907018 202 202 202 0
-4.390604 7.831889 31.023525 201 201 201 0
-4.265927 7.820867 30.979865 201 201 201 0
-4.155870 7.836783 31.042912 201 201 201 0
-4.049025 7.859871 31.134368 201 201 201 0
-3.929311 7.858623 31.129424 201 201 201 0
-3.807834 7.853657 31.109752 202 202 202 0
-3.700433 7.878342 31.207533 201 201 201 0
-3.593800 7.906360 31.318520 201 201 201 0
-3.473503 7.905213 31.313974 202 202 202 0
-3.339534 7.871760 31.181461 202 202 202 0
-3.218936 7.868510 31.168587 202 202 202 0
-3.124090 7.930382 31.413674 202 202 202 0
-3.001930 7.925096 31.392734 202 202 202 0
-2.869949 7.892360 31.263061 202 202 202 0
-2.741322 7.866403 31.160241 202 202 202 0
-2.627678 7.883035 31.226122 202 202 202 0
-2.523255 7.930229 31.413067 202 202 202 0
-2.402663 7.928788 31.407358 202 202 202 0
-2.275037 7.902761 31.304263 202 202 202 0
-2.151355 7.888302 31.246987 202 202 202 0
-2.038204 7.913029 31.344935 203 203 203 0
-1.928129 7.953531 31.505370 202 202 202 0
-1.805264 7.943163 31.464301 203 203 203 0
-1.679806 7.919086 31.368928 203 203 203 0
-1.560235 7.921193 31.377273 203 203 203 0
-1.454388 7.999133 31.686011 202 202 202 0
-1.331333 7.987997 31.641896 203 203 203 0
-1.202834 7.938701 31.446628 203 203 203 0
-1.080376 7.922755 31.383463 203 203 203 0
-0.964943 7.960784 31.534101 203 203 203 0
-0.849144 8.006212 31.714052 204 204 204 0
-0.723901 7.962915 31.542543 204 204 204 0
-0.600365 7.924823 31.391653 203 203 203 0
-0.480447 7.927380 31.401782 204 204 204 0
-0.362868 7.983102 31.622507 203 203 203 0
-0.241692 7.975848 31.593775 203 203 203 0
-0.120381 7.945122 31.472061 204 204 204 0
0.000000 7.940312 31.453008 204 204 204 0
0.120823 7.974305 31.587663 204 204 204 0
0.241643 7.974215 31.587306 204 204 204 0
0.362181 7.967973 31.562579 204 204 204 0
0.483358 7.975401 31.592003 204 204 204 0
0.605092 7.987210 31.638781 204 204 204 0
0.727439 8.001834 31.696708 204 204 204 0
0.849138 8.006163 31.713856 204 204 204 0
0.969309 7.996801 31.676771 203 203 203 0
1.090363 7.995997 31.673587 204 204 204 0
1.212192 8.000464 31.691283 205 205 205 0
1.336323 8.017941 31.760509 204 204 204 0
1.453942 7.996683 31.676304 205 205 205 0
1.574492 7.993576 31.663996 205 205 205 0
1.694221 7.987043 31.638120 204 204 204 0
1.814353 7.983152 31.622705 204 204 204 0
1.940335 8.003881 31.704816 205 205 205 0
2.063231 8.010193 31.729819 204 204 204 0
2.185282 8.012700 31.739751 204 204 204 0
2.303401 8.001286 31.694539 204 204 204 0
2.425340 8.003621 31.703785 204 204 204 0
2.552688 8.022734 31.779496 205 205 205 0
2.678422 8.035265 31.829134 205 205 205 0
2.793086 8.014942 31.748630 205 205 205 0
2.914158 8.013934 31.744640 205 205 205 0
3.053304 8.060723 31.929977 206 206 206 0
3.173265 8.055211 31.908144 205 205 205 0
3.285403 8.030985 31.812179 205 205 205 0
3.402534 8.020258 31.769690 204 204 204 0
3.539622 8.055692 31.910051 205 205 205 0
3.659300 8.050459 31.889321 205 205 205 0
3.766256 8.018480 31.762644 205 205 205 0
3.878174 7.998735 31.684431 206 206 206 0
4.002417 8.004834 31.708590 205 205 205 0
4.143644 8.043543 31.861926 205 205 205 0
4.264242 8.041143 31.852418 205 205 205 0
4.374364 8.019667 31.767348 206 206 206 0
4.497400 8.022388 31.778128 206 206 206 0
4.631392 8.043997 31.863723 206 206 206 0
4.753119 8.043741 31.862707 206 206 206 0
4.869401 8.034512 31.826153 205 205 205 0
4.985628 8.025645 31.791030 206 206 206 0
5.123238 8.050802 31.890679 206 206 206 0
5.256183 8.067629 31.957335 205 205 205 0
5.366334 8.049501 31.885524 206 206 206 0
5.479102 8.036016 31.832111 205 205 205 0
5.611434 8.051188 31.892207 206 206 206 0
5.749680 8.074018 31.982642 206 206 206 0
5.852388 8.047033 31.875749 206 206 206 0
5.962262 8.030802 31.811457 206 206 206 0
6.090344 8.039255 31.844938 207 207 207 0
6.223473 8.053907 31.902978 206 206 206 0
6.346077 8.054637 31.905870 205 205 205 0
6.454358 8.037502 31.837995 206 206 206 0
6.583866 8.046947 31.875410 206 206 206 0
6.708539 8.050247 31.888479 206 206 206 0
6.825818 8.044714 31.866562 206 206 206 0
6.953341 8.051236 31.892400 206 206 206 0
7.075765 8.051733 31.894367 207 207 207 0
7.194621 8.048220 31.880453 206 206 206 0
7.328479 8.061327 31.932372 207 207 207 0
7.463176 8.074912 31.986183 206 206 206 0
7.581431 8.070556 31.968928 206 206 206 0
7.689991 8.056181 31.911986 206 206 206 0
7.812512 8.056653 31.913857 206 206 206 0
7.964200 8.086726 32.032982 206 206 206 0
8.064415 8.064415 31.944603 207 207 207 0
8.164337 8.042481 31.857720 207 207 207 0
8.282216 8.038622 31.842430 207 207 207 0
8.427594 8.061177 31.931776 206 206 206 0
8.559062 8.069973 31.966618 207 207 207 0
8.664751 8.054557 31.905554 206 206 206 0
8.777995 8.046495 31.873619 206 206 206 0
8.908636 8.054384 31.904867 206 206 206 0
9.046743 8.068717 31.961643 207 207 207 0
9.163043 8.063478 31.940890 207 207 207 0
9.271674 8.051717 31.894304 207 207 207 0
9.405738 8.062061 31.935278 207 207 207 0
9.549394 8.080256 32.007354 207 207 207 0
9.654559 8.065834 31.950224 206 206 206 0
-8.697365 7.284043 28.422760 198 198 198 0
-8.588090 7.283570 28.420914 197 197 197 0
-8.584769 7.374096 28.774154 198 198 198 0
-8.487842 7.385525 28.818749 198 198 198 0
-8.373889 7.382244 28.805947 198 198 198 0
-8.300640 7.415238 28.934692 198 198 198 0
-8.331076 7.543001 29.433230 198 198 198 0
-8.249395 7.571363 29.543900 198 198 198 0
-8.106200 7.543270 29.434279 198 198 198 0
-7.974155 7.524907 29.362625 198 198 198 0
-8.031674 7.687459 29.996914 199 199 199 0
-7.988065 7.756526 30.266419 198 198 198 0
-7.788891 7.674349 29.945757 198 198 198 0
-7.601338 7.601338 29.660865 199 199 199 0
-7.502317 7.615989 29.718033 199 199 199 0
-7.550872 7.783207 30.370527 199 199 199 0
-7.419631 7.767426 30.308951 198 198 198 0
-7.232830 7.692058 30.014858 198 198 198 0
-7.055776 7.624790 29.752374 199 199 199 0
-6.972649 7.658483 29.883848 199 199 199 0
-6.977495 7.791536 30.403029 200 200 200 0
-6.864042 7.794759 30.415605 199 199 199 0
-6.702840 7.742935 30.213385 199 199 199 0
-6.555453 7.705533 30.067438 199 199 199 0
-6.493835 7.769409 30.316688 200 200 200 0
-6.423684 7.825215 30.534444 200 200 200 0
-6.309710 7.828714 30.548099 200 200 200 0
-6.153216 7.778594 30.352529 200 200 200 0
-6.046618 7.790835 30.400292 200 200 200 0
-6.000184 7.882595 30.758346 200 200 200 0
-5.918829 7.931230 30.948124 200 200 200 0
-5.768758 7.887893 30.779019 200 200 200 0
-5.628141 7.855947 30.654363 199 199 199 0
-5.515767 7.862901 30.681500 201 201 201 0
-5.433052 7.913359 30.878389 201 201 201 0
-5.341373 7.952710 31.031939 200 200 200 0
-5.179451 7.886891 30.775109 201 201 201 0
-5.045159 7.861061 30.674320 201 201 201 0
-4.947794 7.892910 30.798594 200 200 200 0
-4.848108 7.922518 30.914127 201 201 201 0
-4.728722 7.920609 30.906676 201 201 201 0
-4.603246 7.908140 30.858024 201 201 201 0
-4.493438 7.922640 30.914603 201 201 201 0
-4.390950 7.951180 31.025968 201 201 201 0
-4.268255 7.943697 30.996770 201 201 201 0
-4.155177 7.954197 31.037740 202 202 202 0
-4.049706 7.980302 31.139605 202 202 202 0
-3.931142 7.981409 31.143923 201 201 201 0
-3.810087 7.977369 31.128161 201 201 201 0
-3.700582 7.998031 31.208784 202 202 202 0
-3.595499 8.029947 31.333321 201 201 201 0
-3.475217 8.028949 31.329428 202 202 202 0
-3.340358 7.992998 31.189146 202 202 202 0
-3.218668 7.987064 31.165990 202 202 202 0
-3.121169 8.043012 31.384302 202 202 202 0
-3.004936 8.053227 31.424163 201 201 201 0
-2.870308 8.012943 31.266971 202 202 202 0
-2.742900 7.990186 31.178173 202 202 202 0
-2.627497 8.001924 31.223974 202 202 202 0
-2.524179 8.053333 31.424574 203 203 203 0
-2.402717 8.049103 31.408068 202 202 202 0
-2.275751 8.025017 31.314084 203 203 203 0
-2.150844 8.005920 31.239568 203 203 203 0
-2.039099 8.036448 31.358688 203 203 203 0
-1.928073 8.073806 31.504463 203 203 203 0
-1.805338 8.063842 31.465583 202 202 202 0
-1.677769 8.029323 31.330886 202 202 202 0
-1.560753 8.043879 31.387686 202 202 202 0
-1.453592 8.115889 31.668674 203 203 203 0
-1.332293 8.114874 31.664713 203 203 203 0
-1.203476 8.063291 31.463433 203 203 203 0
-1.079808 8.038568 31.366960 203 203 203 0
-0.964575 8.078318 31.522069 203 203 203 0
-0.849259 8.128622 31.718356 203 203 203 0
-0.723860 8.083099 31.540722 203 203 203 0
-0.599830 8.037717 31.363642 203 203 203 0
-0.480489 8.048188 31.404499 203 203 203 0
-0.362748 8.101366 31.612004 203 203 203 0
-0.241860 8.102315 31.615705 203 203 203 0
-0.120450 8.070159 31.490231 203 203 203 0
0.000000 8.068217 31.482652 203 203 203 0
0.120758 8.090803 31.570787 204 204 204 0
0.241643 8.095037 31.587306 204 204 204 0
0.362489 8.095587 31.589452 204 204 204 0
0.483535 8.099215 31.603610 204 204 204 0
0.605088 8.108182 31.638599 204 204 204 0
0.727833 8.127472 31.713872 204 204 204 0
0.849122 8.127308 31.713231 205 205 205 0
0.969584 8.120270 31.685767 204 204 204 0
1.089881 8.113559 31.659580 205 205 205 0
1.212405 8.123114 31.696866 204 204 204 0
1.336441 8.140139 31.763299 205 205 205 0
1.454985 8.123664 31.699009 205 205 205 0
1.573906 8.111667 31.652197 204 204 204 0
1.693678 8.105457 31.627968 204 204 204 0
1.815388 8.108735 31.640757 204 204 204 0
1.940458 8.125666 31.706823 204 204 204 0
2.064596 8.136937 31.750804 205 205 205 0
2.184819 8.132384 31.733035 205 205 205 0
2.303585 8.123168 31.697076 204 204 204 0
2.424526 8.122163 31.693153 205 205 205 0
2.552108 8.142441 31.772278 205 205 205 0
2.677798 8.155112 31.821722 204 204 204 0
2.792245 8.133931 31.739074 205 205 205 0
2.912892 8.131825 31.730855 205 205 205 0
3.050995 8.176666 31.905828 205 205 205 0
3.174158 8.179560 31.917120 205 205 205 0
3.285053 8.151799 31.808795 205 205 205 0
3.402285 8.141182 31.767369 205 205 205 0
3.541165 8.181312 31.923957 205 205 205 0
3.659956 8.173902 31.895041 206 206 206 0
3.767828 8.143369 31.775902 205 205 205 0
3.877300 8.118098 31.677290 205 205 205 0
4.003810 8.128947 31.719625 206 206 206 0
4.143509 8.165151 31.860894 205 205 205 0
4.263376 8.161320 31.845947 205 205 205 0
4.373887 8.140289 31.763883 205 205 205 0
4.497629 8.144356 31.779751 206 206 206 0
4.632417 8.167683 31.870774 205 205 205 0
4.753279 8.165890 31.863781 205 205 205 0
4.868488 8.154717 31.820180 206 206 206 0
4.984524 8.145441 31.783987 205 205 205 0
5.122825 8.172126 31.888113 205 205 205 0
5.255546 8.188874 31.953464 206 206 206 0
5.366506 8.171725 31.886549 205 205 205 0
5.477832 8.155883 31.824730 206 206 206 0
5.610560 8.171902 31.887240 206 206 206 0
5.750318 8.197262 31.986193 206 206 206 0
5.855223 8.172916 31.891193 206 206 206 0
5.961598 8.151573 31.807912 205 205 205 0
6.088247 8.158250 31.833969 205 205 205 0
6.221704 8.173612 31.893910 205 205 205 0
6.345374 8.175771 31.902335 206 206 206 0
6.456182 8.161589 31.846997 206 206 206 0
6.584893 8.170145 31.880381 206 206 206 0
6.708887 8.172644 31.890134 206 206 206 0
6.828447 8.169749 31.878838 206 206 206 0
6.951527 8.171093 31.884083 206 206 206 0
7.079395 8.177922 31.910729 206 206 206 0
7.197609 8.173556 31.893693 206 206 206 0
7.327123 8.181954 31.926461 206 206 206 0
7.462007 8.195975 31.981171 206 206 206 0
7.582820 8.194338 31.974783 206 206 206 0
7.692565 8.180982 31.922668 206 206 206 0
7.811092 8.177236 31.908054 206 206 206 0
7.959602 8.204513 32.014488 207 207 207 0
8.064096 8.186279 31.943339 206 206 206 0
8.168832 8.168832 31.875258 207 207 207 0
8.279784 8.158023 31.833080 206 206 206 0
8.427747 8.183465 31.932357 207 207 207 0
8.555910 8.189228 31.954846 207 207 207 0
8.665483 8.177287 31.908249 207 207 207 0
8.770967 8.161872 31.848103 206 206 206 0
8.908856 8.176622 31.905655 207 207 207 0
9.045804 8.190120 31.958327 207 207 207 0
9.162162 8.184865 31.937820 207 207 207 0
9.272893 8.174787 31.898496 207 207 207 0
9.407902 8.186097 31.942627 206 206 206 0
9.550120 8.203308 32.009788 206 206 206 0
9.652802 8.186554 31.944411 206 206 206 0
-8.684931 7.382191 28.382128 197 197 197 0
-8.596271 7.399322 28.447990 198 198 198 0
-8.588506 7.487416 28.786681 198 198 198 0
-8.497832 7.504579 28.852667 198 198 198 0
-8.383664 7.501173 28.839573 198 198 198 0
-8.309039 7.533529 28.963972 197 197 197 0
-8.327398 7.652203 29.420235 198 198 198 0
-8.263235 7.697260 29.593465 198 198 198 0
-8.109385 7.658864 29.445842 198 198 198 0
-7.976193 7.639171 29.370131 198 198 198 0
-8.028006 7.798634 29.983215 198 198 198 0
-7.990944 7.875133 30.277329 199 199 199 0
-7.781893 7.781893 29.918850 198 198 198 0
-7.607847 7.721397 29.686262 199 199 199 0
-7.499253 7.726503 29.705896 199 199 199 0
-7.551298 7.899820 30.372241 199 199 199 0
-7.420634 7.884424 30.313047 199 199 199 0
-7.232333 7.806328 30.012793 199 199 199 0
-7.055178 7.737937 29.749855 199 199 199 0
-6.955121 7.753249 29.808725 199 199 199 0
-6.972717 7.902413 30.382209 199 199 199 0
-6.861955 7.908694 30.406357 199 199 199 0
-6.702253 7.857814 30.210743 199 199 199 0
-6.552331 7.816816 30.053116 200 200 200 0
-6.487515 7.877697 30.287184 200 200 200 0
-6.433655 7.954337 30.581840 199 199 199 0
-6.317586 7.955479 30.586232 200 200 200 0
-6.147649 7.887550 30.325066 200 200 200 0
-6.045010 7.905013 30.392206 200 200 200 0
-6.005627 8.007503 30.786249 200 200 200 0
-5.914450 8.043652 30.925228 200 200 200 0
-5.772265 8.010490 30.797734 200 200 200 0
-5.623362 7.966430 30.628336 200 200 200 0
-5.514190 7.977977 30.672730 200 200 200 0
-5.429869 8.026763 30.860296 200 200 200 0
-5.340943 8.070758 31.029443 201 201 201 0
-5.180233 8.005814 30.779754 200 200 200 0
-5.041573 7.972720 30.652520 201 201 201 0
-4.942942 8.002858 30.768391 201 201 201 0
-4.849076 8.042369 30.920297 201 201 201 0
-4.729168 8.039586 30.909597 201 201 201 0
-4.599389 8.019448 30.832173 201 201 201 0
-4.494428 8.042661 30.921420 201 201 201 0
-4.391735 8.071296 31.031511 201 201 201 0
-4.271886 8.069118 31.023136 201 201 201 0
-4.152454 8.067625 31.017398 201 201 201 0
-4.053200 8.106401 31.166477 202 202 202 0
-3.933501 8.105396 31.162616 201 201 201 0
-3.808373 8.092793 31.114159 201 201 201 0
-3.700184 8.116532 31.205428 202 202 202 0
-3.599713 8.159349 31.370047 201 201 201 0
-3.473182 8.144012 31.311080 201 201 201 0
-3.338346 8.107413 31.170367 202 202 202 0
-3.220859 8.111794 31.187211 202 202 202 0
-3.123994 8.170446 31.412712 202 202 202 0
-3.000117 8.160318 31.373772 202 202 202 0
-2.871828 8.136847 31.283534 202 202 202 0
-2.742966 8.109637 31.178921 202 202 202 0
-2.628072 8.123130 31.230797 202 202 202 0
-2.521916 8.166203 31.396399 202 202 202 0
-2.403499 8.171896 31.418286 203 203 203 0
-2.276997 8.149251 31.331221 202 202 202 0
-2.150728 8.124972 31.237878 202 202 202 0
-2.039676 8.158703 31.367562 203 203 203 0
-1.928030 8.194127 31.503757 202 202 202 0
-1.804960 8.182487 31.459005 203 203 203 0
-1.679137 8.155807 31.356429 203 203 203 0
-1.561311 8.166860 31.398923 203 203 203 0
-1.454754 8.243607 31.693990 202 202 202 0
-1.331471 8.230914 31.645190 202 202 202 0
-1.203298 8.182425 31.458766 203 203 203 0
-1.080228 8.161726 31.379185 203 203 203 0
-0.964132 8.195124 31.507590 203 203 203 0
-0.849286 8.250208 31.719369 203 203 203 0
-0.724122 8.206717 31.552160 203 203 203 0
-0.600301 8.164097 31.388300 203 203 203 0
-0.480428 8.167281 31.400544 203 203 203 0
-0.362857 8.224758 31.621521 203 203 203 0
-0.241780 8.220520 31.605227 204 204 204 0
-0.120418 8.188422 31.481821 204 204 204 0
0.000000 8.189543 31.486134 204 204 204 0
0.120826 8.216159 31.588461 204 204 204 0
0.241686 8.217310 31.592887 203 203 203 0
0.362456 8.215667 31.586571 203 203 203 0
0.483349 8.216931 31.591429 203 203 203 0
0.605066 8.228894 31.637424 204 204 204 0
0.727761 8.247964 31.710741 205 205 205 0
0.849749 8.254705 31.736659 204 204 204 0
0.969639 8.241929 31.687538 204 204 204 0
1.090722 8.241014 31.684021 204 204 204 0
1.212631 8.245892 31.702777 204 204 204 0
1.336702 8.263246 31.769496 204 204 204 0
1.455188 8.246068 31.703451 204 204 204 0
1.574356 8.235092 31.661255 204 204 204 0
1.694595 8.230889 31.645094 205 205 205 0
1.815669 8.231033 31.645648 205 205 205 0
1.939751 8.243940 31.695271 205 205 205 0
2.062010 8.248039 31.711030 204 204 204 0
2.185651 8.256905 31.745116 204 204 204 0
2.303084 8.242617 31.690183 205 205 205 0
2.423697 8.240571 31.682319 205 205 205 0
2.552173 8.264178 31.773081 205 205 205 0
2.678490 8.278970 31.829949 205 205 205 0
2.792881 8.257215 31.746308 205 205 205 0
2.914989 8.259136 31.753694 205 205 205 0
3.052433 8.302619 31.920872 205 205 205 0
3.172817 8.298137 31.903643 205 205 205 0
3.283423 8.269362 31.793010 205 205 205 0
3.403235 8.264999 31.776235 204 204 204 0
3.540552 8.301984 31.918431 205 205 205 0
3.660276 8.296626 31.897830 206 206 206 0
3.768127 8.265568 31.778424 205 205 205 0
3.878220 8.241218 31.684806 205 205 205 0
4.002938 8.248478 31.712718 205 205 205 0
4.145096 8.290191 31.873091 205 205 205 0
4.263952 8.284250 31.850249 205 205 205 0
4.373282 8.260644 31.759494 205 205 205 0
4.499597 8.269531 31.793658 206 206 206 0
4.632823 8.290314 31.873566 205 205 205 0
4.753664 8.288439 31.866356 206 206 206 0
4.868931 8.277183 31.823081 206 206 206 0
4.984789 8.267455 31.785680 205 205 205 0
5.122774 8.294015 31.887793 205 205 205 0
5.256219 8.312160 31.957555 206 206 206 0
5.368973 8.297504 31.901209 206 206 206 0
5.477195 8.276651 31.821033 206 206 206 0
5.611326 8.295003 31.891593 205 205 205 0
5.748420 8.316863 31.975637 206 206 206 0
5.854813 8.294319 31.888962 206 206 206 0
5.962013 8.273814 31.810126 206 206 206 0
6.089387 8.281567 31.839934 206 206 206 0
6.220686 8.294248 31.888688 206 206 206 0
6.345421 8.297858 31.902570 206 206 206 0
6.457423 8.284996 31.853117 205 205 205 0
6.584086 8.291071 31.876473 206 206 206 0
6.708565 8.294225 31.888602 206 206 206 0
6.826266 8.289038 31.868658 206 206 206 0
6.956935 8.299501 31.908886 206 206 206 0
7.075287 8.295164 31.892210 206 206 206 0
7.197430 8.295343 31.892899 206 206 206 0
7.328087 8.305166 31.930664 205 205 205 0
7.464426 8.320999 31.991539 206 206 206 0
7.581084 8.314737 31.967464 206 206 206 0
7.691568 8.302010 31.918531 206 206 206 0
7.809873 8.297990 31.903074 206 206 206 0
7.962970 8.330491 32.028033 206 206 206 0
8.064972 8.309365 31.946809 206 206 206 0
8.169191 8.291119 31.876659 206 206 206 0
8.284986 8.284986 31.853081 206 206 206 0
8.426857 8.304728 31.928982 206 206 206 0
8.557943 8.313430 31.962438 207 207 207 0
8.661555 8.295573 31.893785 207 207 207 0
8.778191 8.290514 31.874334 206 206 206 0
8.905921 8.295927 31.895142 207 207 207 0
9.044630 8.311281 31.954177 206 206 206 0
9.159039 8.304196 31.926934 206 206 206 0
9.272434 8.296388 31.896918 206 206 206 0
9.406598 8.307126 31.938200 206 206 206 0
9.548303 8.324161 32.003696 207 207 207 0
9.652673 8.308630 31.943984 207 207 207 0
-8.675258 7.482410 28.350515 198 198 198 0
-8.575877 7.490323 28.380499 197 197 197 0
-8.575921 7.586391 28.744497 197 197 197 0
-8.488867 7.606906 28.822228 198 198 198 0
-8.377300 7.605707 28.817682 197 197 197 0
-8.319157 7.653624 28.999240 198 198 198 0
-8.345181 7.781317 29.483063 197 197 197 0
-8.269176 7.816070 29.614740 197 197 197 0
-8.111028 7.773068 29.451807 198 198 198 0
-7.967023 7.742600 29.336363 198 198 198 0
-8.036679 7.921869 30.015606 198 198 198 0
-7.991467 7.991467 30.279309 198 198 198 0
-7.791715 7.906299 29.956613 198 198 198 0
-7.598199 7.825010 29.648614 198 198 198 0
-7.495721 7.836436 29.691905 198 198 198 0
-7.534749 7.998426 30.305676 199 199 199 0
-7.423797 8.003781 30.325967 199 199 199 0
-7.237486 7.926771 30.034178 199 199 199 0
-7.045378 7.840824 29.708531 200 200 200 0
-6.956825 7.869196 29.816030 198 198 198 0
-6.976345 8.022796 30.398016 199 199 199 0
-6.853891 8.015567 30.370626 200 200 200 0
-6.702789 7.974007 30.213155 200 200 200 0
-6.557464 7.937983 30.076662 199 199 199 0
-6.493852 8.001353 30.316769 199 199 199 0
-6.431893 8.069102 30.573466 200 200 200 0
-6.306765 8.058644 30.533841 199 199 199 0
-6.149570 8.006044 30.334542 200 200 200 0
-6.043606 8.019401 30.385151 200 200 200 0
-5.994383 8.110048 30.728609 200 200 200 0
-5.909274 8.154798 30.898166 200 200 200 0
-5.774113 8.130894 30.807592 200 200 200 0
-5.633152 8.097656 30.681657 200 200 200 0
-5.521894 8.106610 30.715584 201 201 201 0
-5.427808 8.141712 30.848583 200 200 200 0
-5.344582 8.195026 31.050587 200 200 200 0
-5.177445 8.119174 30.763188 201 201 201 0
-5.047308 8.099168 30.687386 200 200 200 0
-4.947565 8.128143 30.797170 200 200 200 0
-4.849064 8.160621 30.920226 201 201 201 0
-4.728904 8.157359 30.907867 201 201 201 0
-4.601636 8.141357 30.847236 200 200 200 0
-4.490383 8.153591 30.893591 201 201 201 0
-4.388830 8.184576 31.010990 201 201 201 0
-4.268482 8.181258 30.998418 202 202 202 0
-4.149609 8.180657 30.996144 200 200 200 0
-4.050230 8.219584 31.143636 201 201 201 0
-3.931374 8.220146 31.145765 201 201 201 0
-3.807679 8.210307 31.108487 201 201 201 0
-3.701200 8.238155 31.214001 202 202 202 0
-3.592070 8.261762 31.303445 202 202 202 0
-3.473507 8.264552 31.314016 202 202 202 0
-3.340874 8.232868 31.193967 201 201 201 0
-3.219389 8.227328 31.172976 201 201 201 0
-3.124936 8.293099 31.422180 202 202 202 0
-2.999659 8.279059 31.368983 202 202 202 0
-2.871159 8.254583 31.276245 203 203 203 0
-2.742866 8.228598 31.177788 201 201 201 0
-2.627425 8.240560 31.223111 202 202 202 0
-2.521837 8.286035 31.395416 202 202 202 0
-2.403088 8.290655 31.412919 202 202 202 0
-2.276046 8.265641 31.318145 202 202 202 0
-2.151835 8.248700 31.253953 202 202 202 0
-2.041173 8.284762 31.390592 202 202 202 0
-1.928186 8.315304 31.506314 203 203 203 0
-1.804233 8.299474 31.446335 202 202 202 0
-1.679155 8.275833 31.356761 202 202 202 0
-1.561713 8.289091 31.406993 203 203 203 0
-1.454594 8.363916 31.690502 202 202 202 0
-1.330688 8.347044 31.626578 204 204 204 0
-1.203661 8.305259 31.468253 203 203 203 0
-1.080037 8.280286 31.373633 202 202 202 0
-0.964420 8.318120 31.516983 203 203 203 0
-0.849357 8.372231 31.722007 203 203 203 0
-0.723698 8.322526 31.533677 203 203 203 0
-0.600098 8.281346 31.377651 204 204 204 0
-0.480394 8.286789 31.398272 203 203 203 0
-0.362807 8.344555 31.617147 204 204 204 0
-0.241806 8.342315 31.608660 203 203 203 0
-0.120404 8.307869 31.478143 203 203 203 0
0.000000 8.311716 31.492718 203 203 203 0
0.120872 8.340155 31.600475 204 204 204 0
0.241715 8.339156 31.596689 203 203 203 0
0.362238 8.331483 31.567617 204 204 204 0
0.483397 8.338592 31.594553 204 204 204 0
0.604997 8.348954 31.633812 203 203 203 0
0.727799 8.369688 31.712373 204 204 204 0
0.849218 8.370862 31.716822 204 204 204 0
0.969742 8.364023 31.690908 204 204 204 0
1.090648 8.361634 31.681858 204 204 204 0
1.212239 8.364451 31.692531 204 204 204 0
1.336740 8.385008 31.770418 204 204 204 0
1.454099 8.361066 31.679706 204 204 204 0
1.574390 8.356378 31.661940 204 204 204 0
1.694640 8.352155 31.645943 204 204 204 0
1.814844 8.348282 31.631266 204 204 204 0
1.939799 8.365385 31.696070 204 204 204 0
2.062932 8.373078 31.725217 205 205 205 0
2.184584 8.374239 31.729616 204 204 204 0
2.303755 8.366267 31.699413 204 204 204 0
2.424200 8.363489 31.688884 205 205 205 0
2.551345 8.382991 31.762776 204 204 204 0
2.677062 8.396239 31.812974 204 204 204 0
2.792794 8.378383 31.745319 205 205 205 0
2.912891 8.374563 31.730843 205 205 205 0
3.050736 8.420031 31.903121 204 204 204 0
3.172777 8.420061 31.903233 205 205 205 0
3.284327 8.393279 31.801759 205 205 205 0
3.401953 8.383384 31.764265 206 206 206 0
3.539778 8.422231 31.911455 204 204 204 0
3.660309 8.418711 31.898119 205 205 205 0
3.766975 8.384556 31.768708 205 205 205 0
3.878310 8.362606 31.685540 205 205 205 0
4.003313 8.370564 31.715691 205 205 205 0
4.144299 8.410490 31.866968 205 205 205 0
4.263306 8.404803 31.845421 206 206 206 0
4.372516 8.380655 31.753928 205 205 205 0
4.496578 8.385511 31.772324 205 205 205 0
4.632012 8.410759 31.867987 206 206 206 0
4.752362 8.408025 31.857631 205 205 205 0
4.867996 8.397294 31.816970 206 206 206 0
4.985107 8.389571 31.787708 205 205 205 0
5.120765 8.412685 31.875285 205 205 205 0
5.257241 8.436038 31.963768 205 205 205 0
5.365668 8.414344 31.881571 205 205 205 0
5.477559 8.398923 31.823144 205 205 205 0
5.611445 8.417167 31.892269 206 206 206 0
5.749618 8.440928 31.982300 206 206 206 0
5.852814 8.413420 31.878070 206 206 206 0
5.960625 8.393533 31.802721 206 206 206 0
6.087800 8.401165 31.831636 205 205 205 0
6.222493 8.418667 31.897952 206 206 206 0
6.344686 8.418911 31.898875 206 206 206 0
6.455776 8.404690 31.844993 207 207 207 0
6.583968 8.412848 31.875904 206 206 206 0
6.706562 8.413687 31.879081 205 205 205 0
6.829606 8.415050 31.884248 206 206 206 0
6.955717 8.420079 31.903301 206 206 206 0
7.075785 8.417744 31.894454 206 206 206 0
7.198076 8.418088 31.895760 207 207 207 0
7.328287 8.427530 31.931533 206 206 206 0
7.463002 8.441756 31.985437 206 206 206 0
7.583844 8.440084 31.979102 206 206 206 0
7.692904 8.425562 31.924075 206 206 206 0
7.810761 8.420977 31.906703 205 205 205 0
7.960569 8.450450 32.018378 206 206 206 0
8.066846 8.433520 31.954231 206 206 206 0
8.168309 8.412139 31.873219 207 207 207 0
8.283788 8.405608 31.848473 207 207 207 0
8.429898 8.429898 31.940504 206 206 206 0
8.557510 8.435260 31.960823 206 206 206 0
8.663045 8.419016 31.899274 207 207 207 0
8.773648 8.408079 31.857834 206 206 206 0
8.905730 8.417745 31.894458 206 206 206 0
9.045163 8.434003 31.956060 206 206 206 0
9.161479 8.428561 31.935439 206 206 206 0
9.270041 8.416222 31.888687 207 207 207 0
9.402227 8.425372 31.923359 207 207 207 0
9.548342 8.446610 32.003827 206 206 206 0
9.656969 8.434568 31.958200 206 206 206 0
-8.691815 7.605338 28.404624 198 198 198 0
-8.593444 7.614444 28.438634 198 198 198 0
-8.569963 7.690993 28.724529 198 198 198 0
-8.487953 7.716321 28.819125 197 197 197 0
-8.375707 7.714467 28.812202 198 198 198 0
-8.310329 7.756307 28.968467 197 197 197 0
-8.352310 7.900834 29.508251 198 198 198 0
-8.276976 7.936826 29.642675 198 198 198 0
-8.097383 7.872456 29.402264 198 198 198 0
-7.985807 7.873331 29.405531 198 198 198 0
-8.020220 8.020220 29.954138 198 198 198 0
-8.005954 8.121982 30.334200 198 198 198 0
-7.787037 8.016068 29.938628 199 199 199 0
-7.602619 7.943034 29.665862 198 198 198 0
-7.494122 7.948311 29.685568 199 199 199 0
-7.539326 8.119274 30.324087 199 199 199 0
-7.423533 8.119489 30.324888 199 199 199 0
-7.233194 8.036882 30.016368 198 198 198 0
-7.052042 7.961983 29.736630 199 199 199 0
-6.960976 7.988006 29.833821 199 199 199 0
-6.964361 8.125088 30.345801 200 200 200 0
-6.862156 8.141541 30.407250 200 200 200 0
-6.701584 8.088119 30.207726 200 200 200 0
-6.554424 8.049293 30.062718 200 200 200 0
-6.496572 8.120715 30.329469 199 199 199 0
-6.431060 8.184986 30.569508 200 200 200 0
-6.318161 8.190209 30.589015 200 200 200 0
-6.151653 8.124824 30.344816 200 200 200 0
-6.042452 8.134070 30.379347 199 199 199 0
-5.998737 8.233560 30.750925 200 200 200 0
-5.913373 8.278722 30.919598 200 200 200 0
-5.769664 8.242377 30.783853 200 200 200 0
-5.627456 8.206706 30.650631 200 200 200 0
-5.516039 8.215378 30.683018 201 201 201 0
-5.427511 8.259256 30.846893 200 200 200 0
-5.336742 8.301598 31.005034 201 201 201 0
-5.179346 8.239868 30.774484 201 201 201 0
-5.044477 8.211940 30.670177 201 201 201 0
-4.943796 8.239661 30.773710 201 201 201 0
-4.848783 8.278409 30.918429 200 200 200 0
-4.729206 8.276110 30.909843 200 200 200 0
-4.597811 8.252482 30.821594 201 201 201 0
-4.496800 8.283579 30.937738 201 201 201 0
-4.389387 8.304246 31.014925 201 201 201 0
-4.267614 8.298138 30.992111 201 201 201 0
-4.154119 8.308237 31.029831 202 202 202 0
-4.050310 8.338873 31.144252 201 201 201 0
-3.929104 8.334464 31.127783 201 201 201 0
-3.806352 8.326395 31.097648 202 202 202 0
-3.700255 8.355414 31.206028 202 202 202 0
-3.596116 8.390938 31.338703 202 202 202 0
-3.473758 8.384932 31.316273 201 201 201 0
-3.340604 8.351509 31.191443 202 202 202 0
-3.220682 8.349917 31.185496 202 202 202 0
-3.124274 8.411506 31.415521 202 202 202 0
-3.004330 8.412125 31.417833 202 202 202 0
-2.870674 8.372798 31.270956 202 202 202 0
-2.741881 8.344854 31.166588 202 202 202 0
-2.628649 8.363883 31.237658 202 202 202 0
-2.522538 8.408460 31.404146 202 202 202 0
-2.402098 8.407344 31.399978 202 202 202 0
-2.274379 8.379292 31.295208 203 203 203 0
-2.150337 8.362421 31.232199 202 202 202 0
-2.040512 8.402109 31.380428 202 202 202 0
-1.927648 8.433460 31.497517 203 203 203 0
-1.804756 8.422195 31.455444 203 203 203 0
-1.679031 8.395155 31.354453 203 203 203 0
-1.560877 8.404721 31.390180 202 202 202 0
-1.453661 8.479687 31.670165 203 203 203 0
-1.331020 8.470126 31.634457 203 203 203 0
-1.203817 8.426717 31.472333 202 202 202 0
-1.079233 8.394033 31.350265 203 203 203 0
-0.964591 8.440172 31.522584 203 203 203 0
-0.849678 8.496781 31.734008 204 204 204 0
-0.723885 8.445322 31.541820 203 203 203 0
-0.599991 8.399870 31.372064 204 204 204 0
-0.480935 8.416360 31.433652 203 203 203 0
-0.362864 8.466823 31.622122 204 204 204 0
-0.241735 8.460726 31.599349 203 203 203 0
-0.120425 8.429780 31.483771 204 204 204 0
0.000000 8.429133 31.481356 204 204 204 0
0.120796 8.455746 31.580749 204 204 204 0
0.241693 8.459251 31.593843 203 203 203 0
0.362254 8.452592 31.568971 204 204 204 0
0.483158 8.455268 31.578965 204 204 204 0
0.605221 8.473093 31.645537 204 204 204 0
0.727937 8.492599 31.718391 204 204 204 0
0.849565 8.495650 31.729787 204 204 204 0
0.969352 8.481834 31.678184 204 204 204 0
1.090932 8.485027 31.690112 204 204 204 0
1.212884 8.490185 31.709374 204 204 204 0
1.336833 8.507121 31.772627 204 204 204 0
1.454212 8.482904 31.682183 204 204 204 0
1.574077 8.475800 31.655650 205 205 205 0
1.693768 8.468839 31.629650 204 204 204 0
1.815237 8.471107 31.638122 204 204 204 0
1.940399 8.489247 31.705870 205 205 205 0
2.061920 8.490259 31.709651 205 205 205 0
2.184338 8.494650 31.726049 205 205 205 0
2.302401 8.482530 31.680785 205 205 205 0
2.424410 8.485435 31.691633 205 205 205 0
2.554306 8.514353 31.799637 205 205 205 0
2.677591 8.519609 31.819268 205 205 205 0
2.791766 8.496680 31.733632 204 204 204 0
2.914627 8.500994 31.749745 204 204 204 0
3.050825 8.542311 31.904056 205 205 205 0
3.172135 8.540363 31.896780 205 205 205 0
3.285135 8.517017 31.809588 204 204 204 0
3.401313 8.503283 31.758295 205 205 205 0
3.539842 8.544445 31.912027 206 206 206 0
3.660845 8.541972 31.902791 205 205 205 0
3.768367 8.509217 31.780454 205 205 205 0
3.877156 8.481280 31.676114 206 206 206 0
4.004239 8.493841 31.723029 205 205 205 0
4.144607 8.533015 31.869337 205 205 205 0
4.262517 8.525034 31.839531 205 205 205 0
4.373878 8.504763 31.763820 205 205 205 0
4.495334 8.504685 31.763530 206 206 206 0
4.631605 8.531903 31.865185 205 205 205 0
4.751967 8.529171 31.854980 205 205 205 0
4.869247 8.521182 31.825143 205 205 205 0
4.987223 8.514770 31.801197 206 206 206 0
5.122688 8.537813 31.887256 205 205 205 0
5.257468 8.558669 31.965150 205 205 205 0
5.367769 8.539632 31.894051 206 206 206 0
5.480943 8.525911 31.842805 206 206 206 0
5.614672 8.544067 31.910613 205 205 205 0
5.748941 8.562252 31.978532 206 206 206 0
5.849072 8.529896 31.857690 206 206 206 0
5.961651 8.516644 31.808196 206 206 206 0
6.086258 8.520761 31.823572 206 206 206 0
6.222329 8.540451 31.897110 205 205 205 0
6.346195 8.542955 31.906463 206 206 206 0
6.452592 8.522291 31.829286 206 206 206 0
6.583086 8.533629 31.871632 205 205 205 0
6.709384 8.539216 31.892498 206 206 206 0
6.826191 8.532739 31.868307 206 206 206 0
6.950073 8.535177 31.877412 206 206 206 0
7.074399 8.538067 31.888207 206 206 206 0
7.198788 8.540935 31.898915 206 206 206 0
7.328983 8.550481 31.934568 206 206 206 0
7.464716 8.566068 31.992783 207 207 207 0
7.581712 8.559997 31.970111 206 206 206 0
7.692230 8.546923 31.921279 206 206 206 0
7.811681 8.544026 31.910462 207 207 207 0
7.959367 8.571626 32.013541 206 206 206 0
8.066354 8.555224 31.952282 206 206 206 0
8.169703 8.535511 31.878659 207 207 207 0
8.284391 8.528049 31.850792 206 206 206 0
8.428146 8.550293 31.933868 207 207 207 0
8.558305 8.558305 31.963791 206 206 206 0
8.666149 8.544091 31.910702 206 206 206 0
8.773791 8.530075 31.858356 206 206 206 0
8.905087 8.539125 31.892156 206 206 206 0
9.044264 8.555385 31.952884 206 206 206 0
9.158670 8.548092 31.925647 206 206 206 0
9.269524 8.537720 31.886908 206 206 206 0
9.404810 8.549827 31.932129 207 207 207 0
9.547572 8.568334 32.001249 206 206 206 0
10.514616 9.316748 34.796444 207 207 207 0
-8.661234 7.686846 28.304688 197 197 197 0
-8.590485 7.720562 28.428841 197 197 197 0
-8.571308 7.802088 28.729035 197 197 197 0
-8.491365 7.829700 28.830709 198 198 198 0
-8.375050 7.824060 28.809942 198 198 198 0
-8.313155 7.869787 28.978317 198 198 198 0
-8.332758 7.994943 29.439172 197 197 197 0
-8.275691 8.048960 29.638075 198 198 198 0
-8.108750 7.996128 29.443536 197 197 197 0
-7.988344 7.988344 29.414872 198 198 198 0
-8.017378 8.131912 29.943523 198 198 198 0
-7.991525 8.223163 30.279530 199 199 199 0
-7.793158 8.136974 29.962162 198 198 198 0
-7.610938 8.065323 29.698326 199 199 199 0
-7.494260 8.062006 29.686114 199 199 199 0
-7.549140 8.245984 30.363559 198 198 198 0
-7.418988 8.230440 30.306323 198 198 198 0
-7.237079 8.156073 30.032489 199 199 199 0
-7.055493 8.079678 29.751183 199 199 199 0
-6.971018 8.113807 29.876857 199 199 199 0
-6.968244 8.245755 30.362717 199 199 199 0
-6.870978 8.268465 30.446342 199 199 199 0
-6.701247 8.203250 30.206205 199 199 199 0
-6.552972 8.162474 30.056058 199 199 199 0
-6.500405 8.241585 30.347363 200 200 200 0
-6.421070 8.289018 30.522021 200 200 200 0
-6.315307 8.303460 30.575198 199 199 199 0
-6.148618 8.236828 30.329846 200 200 200 0
-6.046029 8.255155 30.397329 199 199 199 0
-6.001878 8.355555 30.767027 199 199 199 0
-5.912510 8.395764 30.915084 199 199 199 0
-5.773826 8.366156 30.806062 201 201 201 0
-5.632879 8.331967 30.680170 200 200 200 0
-5.516594 8.333578 30.686100 200 200 200 0
-5.429161 8.379792 30.856271 200 200 200 0
-5.340246 8.425722 31.025397 200 200 200 0
-5.180265 8.359063 30.779945 200 200 200 0
-5.049167 8.336996 30.698688 200 200 200 0
-4.942174 8.354627 30.763610 201 201 201 0
-4.851779 8.401862 30.937538 201 201 201 0
-4.728809 8.393636 30.907248 201 201 201 0
-4.602553 8.379006 30.853378 201 201 201 0
-4.494322 8.397285 30.920685 201 201 201 0
-4.389633 8.423350 31.016663 201 201 201 0
-4.270123 8.421631 31.010334 201 201 201 0
-4.148535 8.415600 30.988126 201 201 201 0
-4.047677 8.452503 31.124009 201 201 201 0
-3.930199 8.455883 31.136455 201 201 201 0
-3.808029 8.449064 31.111347 201 201 201 0
-3.700127 8.474486 31.204955 201 201 201 0
-3.593290 8.504119 31.314071 202 202 202 0
-3.473328 8.503666 31.312404 202 202 202 0
-3.336210 8.459674 31.150416 201 201 201 0
-3.217847 8.461746 31.158043 202 202 202 0
-3.122697 8.527366 31.399672 201 201 201 0
-2.999994 8.519984 31.372490 202 202 202 0
-2.868424 8.485754 31.246447 201 201 201 0
-2.742038 8.464553 31.168379 202 202 202 0
-2.626706 8.477096 31.214568 202 202 202 0
-2.523054 8.530327 31.410574 202 202 202 0
-2.404744 8.536842 31.434565 202 202 202 0
-2.274502 8.499456 31.296902 202 202 202 0
-2.150092 8.480918 31.228639 203 203 203 0
-2.040784 8.523276 31.384612 202 202 202 0
-1.927801 8.554619 31.500024 203 203 203 0
-1.804911 8.543246 31.458145 202 202 202 0
-1.678675 8.513281 31.347808 202 202 202 0
-1.561172 8.526402 31.396121 203 203 203 0
-1.453976 8.602691 31.677038 203 203 203 0
-1.331533 8.594443 31.646666 203 203 203 0
-1.203260 8.543144 31.457770 203 203 203 0
-1.080100 8.520788 31.375451 202 202 202 0
-0.964751 8.562169 31.527825 203 203 203 0
-0.849053 8.611821 31.710654 203 203 203 0
-0.723334 8.559458 31.517841 203 203 203 0
-0.600009 8.520133 31.373039 203 203 203 0
-0.480160 8.522833 31.382982 203 203 203 0
-0.362878 8.588124 31.623398 203 203 203 0
-0.241772 8.582900 31.604162 203 203 203 0
-0.120394 8.547976 31.475563 203 203 203 0
0.000000 8.550047 31.483189 203 203 203 0
0.120793 8.576326 31.579953 204 204 204 0
0.241727 8.581307 31.598294 204 204 204 0
0.362372 8.576132 31.579238 204 204 204 0
0.483564 8.583266 31.605507 203 203 203 0
0.605303 8.595309 31.649853 204 204 204 0
0.727991 8.614559 31.720736 204 204 204 0
0.849443 8.615776 31.725217 204 204 204 0
0.969808 8.607043 31.693061 204 204 204 0
1.090943 8.606328 31.690430 203 203 203 0
1.211914 8.604593 31.684038 204 204 204 0
1.336380 8.625724 31.761849 204 204 204 0
1.454720 8.607094 31.693247 205 205 205 0
1.574253 8.597842 31.659179 204 204 204 0
1.694341 8.592732 31.640363 204 204 204 0
1.815972 8.595601 31.650931 205 205 205 0
1.940826 8.612417 31.712849 204 204 204 0
2.063554 8.618371 31.734775 204 204 204 0
2.185281 8.619721 31.739744 204 204 204 0
2.303883 8.609247 31.701177 204 204 204 0
2.425259 8.609669 31.702730 205 205 205 0
2.551791 8.627483 31.768326 204 204 204 0
2.677572 8.641255 31.819037 205 205 205 0
2.791952 8.618636 31.735748 205 205 205 0
2.912319 8.615611 31.724610 205 205 205 0
3.049097 8.659436 31.885985 205 205 205 0
3.171546 8.660760 31.890859 205 205 205 0
3.282363 8.631398 31.782743 205 205 205 0
3.402082 8.626708 31.765472 205 205 205 0
3.539973 8.666830 31.913209 204 204 204 0
3.660722 8.663708 31.901714 205 205 205 0
3.767232 8.628176 31.770879 205 205 205 0
3.877813 8.603897 31.681476 205 205 205 0
4.003584 8.613772 31.717839 205 205 205 0
4.144497 8.654685 31.868488 206 206 206 0
4.263351 8.648512 31.845760 206 206 206 0
4.373598 8.625708 31.761789 205 205 205 0
4.496654 8.628715 31.772860 205 205 205 0
4.629285 8.649453 31.849223 205 205 205 0
4.755623 8.657673 31.879494 206 206 206 0
4.870222 8.644644 31.831515 205 205 205 0
4.985363 8.633190 31.789341 205 205 205 0
5.121668 8.658057 31.880907 206 206 206 0
5.257597 8.681149 31.965937 206 206 206 0
5.369937 8.665126 31.906934 206 206 206 0
5.480271 8.646650 31.838902 206 206 206 0
5.613895 8.664925 31.906197 206 206 206 0
5.750847 8.687449 31.989135 205 205 205 0
5.853333 8.658055 31.880898 206 206 206 0
5.962170 8.639063 31.810967 205 205 205 0
6.085834 8.641884 31.821352 206 206 206 0
6.221471 8.661263 31.892712 206 206 206 0
6.343755 8.661666 31.894194 206 206 206 0
6.457222 8.650241 31.852125 206 206 206 0
6.582605 8.654906 31.869305 206 206 206 0
6.706943 8.658054 31.880894 205 205 205 0
6.825454 8.653701 31.864864 206 206 206 0
6.956374 8.664957 31.906315 206 206 206 0
7.076321 8.662393 31.896871 206 206 206 0
7.196043 8.659645 31.886753 206 206 206 0
7.329837 8.673640 31.938286 206 206 206 0
7.462671 8.686060 31.984018 206 206 206 0
7.580341 8.680713 31.964331 206 206 206 0
7.691585 8.668295 31.918603 206 206 206 0
7.809261 8.663399 31.900576 206 206 206 0
7.961496 8.696403 32.022106 207 207 207 0
8.063499 8.674370 31.940975 207 207 207 0
8.168010 8.655652 31.872050 206 206 206 0
8.280890 8.646224 31.837333 206 206 206 0
8.432005 8.676411 31.948488 206 206 206 0
8.558722 8.680989 31.965347 206 206 206 0
8.667406 8.667406 31.915332 206 206 206 0
8.777324 8.655417 31.871184 206 206 206 0
8.902402 8.658500 31.882539 206 206 206 0
9.042692 8.676096 31.947331 207 207 207 0
9.158129 8.669696 31.923763 206 206 206 0
9.272166 8.662155 31.895995 207 207 207 0
9.403200 8.670483 31.926663 206 206 206 0
10.428418 9.492535 34.953639 207 207 207 0
10.430262 9.374033 34.517291 207 207 207 0
-8.662015 7.795813 28.307238 197 197 197 0
-8.584190 7.823566 28.408010 197 197 197 0
-8.571637 7.912280 28.730139 197 197 197 0
-8.463802 7.914205 28.737127 198 198 198 0
-8.369387 7.928893 28.790461 198 198 198 0
-8.293923 7.962166 28.911278 198 198 198 0
-8.323530 8.098569 29.406570 198 198 198 0
-8.264078 8.150872 29.596484 198 198 198 0
-8.103664 8.103664 29.425067 199 199 199 0
-7.977920 8.090285 29.376490 197 197 197 0
-8.018627 8.247731 29.948187 198 198 198 0
-7.989681 8.337058 30.272543 198 198 198 0
-7.788072 8.246194 29.942607 198 198 198 0
-7.610971 8.178954 29.698452 198 198 198 0
-7.503029 8.185122 29.720850 199 199 199 0
-7.534138 8.345507 30.303219 199 199 199 0
-7.422024 8.349776 30.318724 199 199 199 0
-7.228905 8.261605 29.998567 199 199 199 0
-7.053810 8.191521 29.744086 199 199 199 0
-6.961206 8.216505 29.834805 200 200 200 0
-6.968237 8.361884 30.362687 199 199 199 0
-6.869624 8.383270 30.440342 200 200 200 0
-6.699711 8.316883 30.199284 199 199 199 0
-6.553983 8.278716 30.060696 200 200 200 0
