ply
    format ascii 1.0
    element vertex 25597
    property float x
    property float y
    property float z
    property uchar red
    property uchar green
    property uchar blue
    property uchar alpha
    end_header
5.893321 7.096040 31.443624 206 206 206 0
5.998714 7.078483 31.365826 206 206 206 0
6.110738 7.069285 31.325068 207 207 207 0
6.232435 7.071417 31.334515 206 206 206 0
6.364247 7.084728 31.393499 207 207 207 0
6.478985 7.078891 31.367634 207 207 207 0
6.597432 7.077245 31.360342 207 207 207 0
6.724728 7.084982 31.394624 207 207 207 0
6.843562 7.083687 31.388888 207 207 207 0
6.964556 7.084634 31.393085 207 207 207 0
7.093993 7.093993 31.434554 206 206 206 0
7.217070 7.096785 31.446926 208 208 208 0
7.338548 7.097939 31.452041 207 207 207 0
7.475155 7.113454 31.520789 207 207 207 0
7.593360 7.111242 31.510987 207 207 207 0
7.701019 7.099377 31.458411 207 207 207 0
7.813902 7.092619 31.428465 207 207 207 0
7.951401 7.108071 31.496934 207 207 207 0
8.067342 7.104077 31.479240 207 207 207 0
8.176285 7.094130 31.435161 207 207 207 0
8.283671 7.083139 31.386459 207 207 207 0
8.412809 7.090797 31.420390 208 208 208 0
8.553467 7.107810 31.495781 207 207 207 0
8.665939 7.101255 31.466735 208 208 208 0
8.768464 7.086840 31.402860 207 207 207 0
8.886845 7.085457 31.396732 207 207 207 0
9.024550 7.099312 31.458125 207 207 207 0
9.146842 7.100838 31.464884 208 208 208 0
9.244076 7.083123 31.386390 207 207 207 0
9.362228 7.081685 31.380017 208 208 208 0
9.526364 7.114626 31.525983 207 207 207 0
-8.550058 6.412543 27.941365 198 198 198 0
-8.486037 6.445091 28.083186 198 198 198 0
-8.488810 6.529854 28.452521 198 198 198 0
-8.382970 6.532185 28.462678 199 199 199 0
-8.274467 6.532474 28.463940 199 199 199 0
-8.186511 6.549208 28.536856 199 199 199 0
-8.195755 6.645207 28.955149 198 198 198 0
-8.153624 6.701609 29.200910 199 199 199 0
-8.013504 6.677920 29.097689 199 199 199 0
-7.839882 6.625252 28.868201 199 199 199 0
-7.852599 6.730799 29.328100 199 199 199 0
-7.869767 6.843276 29.818195 199 199 199 0
-7.713182 6.805749 29.654679 199 199 199 0
-7.527890 6.741394 29.374267 199 199 199 0
-7.371729 6.701572 29.200749 200 200 200 0
-7.441560 6.869132 29.930859 199 199 199 0
-7.323187 6.865488 29.914979 200 200 200 0
-7.165361 6.824153 29.734872 199 199 199 0
-6.969701 6.744872 29.389420 200 200 200 0
-6.832412 6.720406 29.282813 200 200 200 0
-6.811866 6.811866 29.681333 200 200 200 0
-6.759603 6.874173 29.952823 201 201 201 0
-6.607233 6.835069 29.782434 200 200 200 0
-6.459201 6.799159 29.625965 200 200 200 0
-6.354832 6.808748 29.667748 200 200 200 0
-6.317672 6.892006 30.030528 200 200 200 0
-6.226174 6.917972 30.143667 201 201 201 0
-6.084192 6.887765 30.012048 201 201 201 0
-5.944090 6.858566 29.884818 201 201 201 0
-5.837087 6.867161 29.922269 201 201 201 0
-5.821515 6.985818 30.439295 201 201 201 0
-5.695158 6.973663 30.386333 201 201 201 0
-5.541712 6.927141 30.183619 201 201 201 0
-5.417955 6.916538 30.137421 200 200 200 0
-5.343538 6.969832 30.369640 202 202 202 0
-5.264145 7.018860 30.583266 201 201 201 0
-5.115120 6.975163 30.392869 201 201 201 0
-4.970010 6.934898 30.217419 201 201 201 0
-4.856280 6.937543 30.228948 201 201 201 0
-4.755396 6.959116 30.322947 202 202 202 0
-4.657397 6.986095 30.440503 201 201 201 0
-4.543596 6.990147 30.458158 202 202 202 0
-4.426102 6.988582 30.451336 201 201 201 0
-4.316400 6.999568 30.499207 202 202 202 0
-4.206856 7.011427 30.550882 202 202 202 0
-4.085761 7.004162 30.519225 202 202 202 0
-3.979889 7.023333 30.602759 202 202 202 0
-3.864572 7.026494 30.616532 202 202 202 0
-3.756060 7.042612 30.686761 202 202 202 0
-3.636871 7.039105 30.671482 202 202 202 0
-3.537018 7.074037 30.823689 202 202 202 0
-3.428857 7.094186 30.911486 202 202 202 0
-3.302158 7.076053 30.832477 203 203 203 0
-3.169140 7.042533 30.686417 202 202 202 0
-3.032036 6.997006 30.488043 203 203 203 0
-2.959341 7.102418 30.947357 203 203 203 0
-2.834353 7.085882 30.875303 202 202 202 0
-2.705089 7.056755 30.748387 202 202 202 0
-2.578793 7.033073 30.645197 203 203 203 0
-2.473691 7.067688 30.796024 203 203 203 0
-2.368689 7.106066 30.963252 203 203 203 0
-2.245410 7.090769 30.896597 203 203 203 0
-2.118397 7.061324 30.768296 204 204 204 0
-2.000753 7.061482 30.768984 203 203 203 0
-1.891660 7.093724 30.909472 203 203 203 0
-1.779077 7.116310 31.007886 204 204 204 0
-1.657930 7.105415 30.960416 204 204 204 0
-1.534914 7.084220 30.868060 203 203 203 0
-1.421138 7.105690 30.961613 203 203 203 0
-1.311965 7.156171 31.181573 204 204 204 0
-1.190637 7.143820 31.127756 204 204 204 0
-1.066233 7.108222 30.972645 204 204 204 0
-0.946630 7.099725 30.935623 204 204 204 0
-0.824708 7.068927 30.801426 204 204 204 0
-0.716054 7.160543 31.200624 203 203 203 0
-0.593912 7.126942 31.054213 205 205 205 0
-0.472384 7.085753 30.874741 204 204 204 0
-0.354698 7.093953 30.910470 204 204 204 0
-0.238090 7.142709 31.122914 203 203 203 0
-0.119013 7.140756 31.114405 204 204 204 0
0.000000 7.124488 31.043522 204 204 204 0
0.118710 7.122621 31.035384 204 204 204 0
0.238303 7.149085 31.150697 204 204 204 0
0.357385 7.147699 31.144657 204 204 204 0
0.476200 7.143003 31.124196 205 205 205 0
0.594146 7.129750 31.066448 205 205 205 0
0.715682 7.156821 31.184404 205 205 205 0
0.836466 7.169712 31.240576 205 205 205 0
0.956510 7.173825 31.258498 204 204 204 0
1.074899 7.165995 31.224380 205 205 205 0
1.193607 7.161645 31.205424 204 204 204 0
1.314659 7.170869 31.245617 205 205 205 0
1.436058 7.180292 31.286674 206 206 206 0
1.553302 7.169087 31.237853 205 205 205 0
1.670691 7.160104 31.198710 205 205 205 0
1.788038 7.152150 31.164054 206 206 206 0
1.905696 7.146361 31.138828 205 205 205 0
2.030697 7.167165 31.229478 205 205 205 0
2.151862 7.172872 31.254345 206 206 206 0
2.270101 7.168740 31.236339 205 205 205 0
2.387570 7.162711 31.210069 205 205 205 0
2.507440 7.164115 31.216186 205 205 205 0
2.634385 7.184688 31.305828 205 205 205 0
2.757496 7.193469 31.344090 206 206 206 0
2.871734 7.179335 31.282506 205 205 205 0
2.988058 7.171339 31.247666 206 206 206 0
3.124025 7.209288 31.413020 205 205 205 0
3.248083 7.217963 31.450820 206 206 206 0
3.354013 7.187171 31.316650 206 206 206 0
3.463355 7.165563 31.222495 206 206 206 0
3.521570 7.043140 30.689062 206 206 206 0
3.733517 7.226162 31.486544 206 206 206 0
3.837276 7.194893 31.350297 206 206 206 0
3.942052 7.167368 31.230360 206 206 206 0
4.057950 7.161088 31.202998 205 205 205 0
4.196593 7.194160 31.347101 206 206 206 0
4.321566 7.202610 31.383924 206 206 206 0
4.426840 7.178660 31.279565 206 206 206 0
4.545909 7.177751 31.275603 206 206 206 0
4.681324 7.202037 31.381423 206 206 206 0
4.808158 7.212237 31.425871 206 206 206 0
4.921618 7.202368 31.382868 206 206 206 0
5.035314 7.193306 31.343382 206 206 206 0
5.165078 7.207085 31.403420 206 206 206 0
5.302583 7.230795 31.506731 206 206 206 0
5.414092 7.218790 31.454421 207 207 207 0
5.519904 7.199874 31.372002 207 207 207 0
5.650480 7.213379 31.430847 206 206 206 0
5.789996 7.237495 31.535926 206 206 206 0
5.892006 7.214701 31.436607 207 207 207 0
5.998066 7.197680 31.362439 207 207 207 0
6.110619 7.188963 31.324458 206 206 206 0
6.234039 7.193122 31.342579 206 206 206 0
6.364421 7.205005 31.394358 207 207 207 0
6.480225 7.200250 31.373638 207 207 207 0
6.596108 7.195754 31.354050 207 207 207 0
6.726688 7.207166 31.403772 207 207 207 0
6.842412 7.202539 31.383612 207 207 207 0
6.966122 7.206333 31.400145 206 206 206 0
7.091524 7.211719 31.423613 207 207 207 0
7.213218 7.213218 31.430143 207 207 207 0
7.340903 7.220560 31.462136 207 207 207 0
7.473598 7.232514 31.514221 206 206 206 0
7.593470 7.231876 31.511443 207 207 207 0
7.696729 7.215683 31.440885 207 207 207 0
7.816638 7.215358 31.439471 207 207 207 0
7.954119 7.231017 31.507699 207 207 207 0
8.067916 7.225000 31.481480 207 207 207 0
8.177413 7.215365 31.439497 208 208 208 0
8.283785 7.203291 31.386889 207 207 207 0
8.412448 7.210670 31.419042 207 207 207 0
8.549768 7.225156 31.482161 208 208 208 0
8.668352 7.223626 31.475496 207 207 207 0
8.771286 7.209276 31.412969 207 207 207 0
8.886345 7.205145 31.394967 207 207 207 0
9.019602 7.215682 31.440880 207 207 207 0
9.149883 7.223592 31.475345 208 208 208 0
9.245793 7.204514 31.392218 207 207 207 0
9.364808 7.203698 31.388664 207 207 207 0
9.527431 7.236024 31.529515 208 208 208 0
-8.538366 6.510504 27.903158 199 199 199 0
-8.485801 6.552328 28.082407 198 198 198 0
-8.490089 6.639685 28.456810 198 198 198 0
-8.378265 6.637327 28.446703 198 198 198 0
-8.271697 6.639125 28.454408 198 198 198 0
-8.189376 6.660693 28.546845 198 198 198 0
-8.198050 6.757852 28.963257 198 198 198 0
-8.145918 6.806863 29.173313 199 199 199 0
-8.000248 6.777988 29.049557 199 199 199 0
-7.834812 6.731318 28.849534 199 199 199 0
-7.850213 6.840900 29.319191 199 199 199 0
-7.857858 6.946802 29.773072 199 199 199 0
-7.713053 6.919063 29.654185 199 199 199 0
-7.528386 6.854203 29.376203 200 200 200 0
-7.379781 6.820706 29.232643 199 199 199 0
-7.464049 7.004723 30.021315 200 200 200 0
-7.323586 6.980292 29.916608 200 200 200 0
-7.173139 6.945420 29.767149 199 199 199 0
-6.969642 6.857228 29.389170 199 199 199 0
-6.829080 6.829080 29.268533 200 200 200 0
-6.812006 6.925540 29.681944 200 200 200 0
-6.760882 6.990064 29.958488 199 199 199 0
-6.606569 6.948288 29.779441 200 200 200 0
-6.461581 6.915025 29.636882 200 200 200 0
-6.357386 6.925010 29.679675 200 200 200 0
-6.317569 7.006758 30.030037 200 200 200 0
-6.233244 7.041257 30.177892 200 200 200 0
-6.082013 7.000052 30.001295 201 201 201 0
-5.948430 6.977965 29.906634 200 200 200 0
-5.843776 6.989615 29.956562 200 200 200 0
-5.818835 7.098979 30.425281 200 200 200 0
-5.693020 7.087229 30.374923 201 201 201 0
-5.538008 7.037885 30.163440 200 200 200 0
-5.419071 7.033263 30.143631 202 202 202 0
-5.346292 7.089648 30.385290 201 201 201 0
-5.257985 7.127491 30.547479 201 201 201 0
-5.115439 7.091858 30.394765 201 201 201 0
-4.963627 7.041425 30.178613 201 201 201 0
-4.853375 7.048949 30.210859 202 202 202 0
-4.756670 7.076996 30.331068 201 201 201 0
-4.659874 7.106308 30.456693 201 201 201 0
-4.543329 7.106232 30.456369 201 201 201 0
-4.426083 7.105027 30.451205 202 202 202 0
-4.318488 7.119669 30.513959 202 202 202 0
-4.205861 7.126597 30.543651 201 201 201 0
-4.086019 7.121347 30.521148 202 202 202 0
-3.975666 7.132812 30.570288 202 202 202 0
-3.867211 7.148481 30.637439 202 202 202 0
-3.755019 7.158005 30.678258 202 202 202 0
-3.637379 7.157423 30.675766 203 203 203 0
-3.537896 7.193723 30.831340 202 202 202 0
-3.432251 7.219562 30.942086 203 203 203 0
-3.302324 7.194349 30.834027 202 202 202 0
-3.167982 7.157292 30.675203 203 203 203 0
-3.028011 7.104179 30.447569 203 203 203 0
-2.962399 7.228253 30.979335 202 202 202 0
-2.836588 7.209661 30.899652 203 203 203 0
-2.705186 7.174623 30.749484 203 203 203 0
-2.578184 7.148600 30.637953 203 203 203 0
-2.472172 7.181072 30.777123 203 203 203 0
-2.368458 7.223796 30.960233 203 203 203 0
-2.245106 7.207973 30.892417 203 203 203 0
-2.118845 7.180529 30.774794 203 203 203 0
-2.001186 7.180726 30.775639 204 204 204 0
-1.890433 7.207276 30.889430 203 203 203 0
-1.781639 7.245331 31.052526 204 204 204 0
-1.660074 7.233181 31.000454 204 204 204 0
-1.534868 7.202071 30.867120 203 203 203 0
-1.421880 7.227890 30.977778 203 203 203 0
-1.312225 7.276885 31.187763 203 203 203 0
-1.190828 7.264054 31.132771 204 204 204 0
-1.066654 7.229544 30.984865 204 204 204 0
-0.945700 7.210963 30.905230 204 204 204 0
-0.823318 7.174630 30.749514 204 204 204 0
-0.716673 7.286172 31.227568 204 204 204 0
-0.593712 7.243286 31.043762 203 203 203 0
-0.472676 7.208314 30.893878 204 204 204 0
-0.354669 7.211607 30.907989 204 204 204 0
-0.238117 7.262583 31.126467 204 204 204 0
-0.119010 7.259595 31.113660 204 204 204 0
0.000000 7.243003 31.042550 204 204 204 0
0.118708 7.241168 31.034686 204 204 204 0
0.238372 7.270336 31.159694 205 205 205 0
0.357115 7.261344 31.121158 204 204 204 0
0.476001 7.259014 31.111169 204 204 204 0
0.594626 7.254440 31.091567 204 204 204 0
0.715258 7.271790 31.165925 204 204 204 0
0.836053 7.285605 31.225137 205 205 205 0
0.956515 7.293423 31.258644 204 204 204 0
1.075270 7.287944 31.235162 205 205 205 0
1.193738 7.281804 31.208845 204 204 204 0
1.314309 7.288441 31.237292 205 205 205 0
1.436025 7.299793 31.285943 205 205 205 0
1.551968 7.282309 31.211012 205 205 205 0
1.669437 7.273976 31.175297 205 205 205 0
1.788299 7.272415 31.168608 206 206 206 0
1.906070 7.266893 31.144941 205 205 205 0
2.028965 7.280405 31.202851 206 206 206 0
2.151280 7.290451 31.245904 205 205 205 0
2.270077 7.288142 31.236010 205 205 205 0
2.387211 7.280994 31.205375 205 205 205 0
2.506595 7.281061 31.205661 205 205 205 0
2.634186 7.303878 31.303454 206 206 206 0
2.756937 7.311878 31.337737 205 205 205 0
2.870203 7.295100 31.265832 205 205 205 0
2.988647 7.292299 31.253824 205 205 205 0
3.124104 7.329628 31.413814 206 206 206 0
3.246247 7.334113 31.433036 205 205 205 0
3.353636 7.306135 31.313126 205 205 205 0
3.463608 7.285520 31.224774 206 206 206 0
3.521872 7.161140 30.691695 206 206 206 0
3.731953 7.343520 31.473354 206 206 206 0
3.837809 7.315824 31.354651 206 206 206 0
3.939670 7.282420 31.211486 206 206 206 0
4.058247 7.280972 31.205282 205 205 205 0
4.197629 7.315867 31.354836 207 207 207 0
4.320311 7.320527 31.374808 206 206 206 0
4.427040 7.298633 31.280972 206 206 206 0
4.545538 7.296785 31.273053 207 207 207 0
4.680319 7.320498 31.374684 206 206 206 0
4.805075 7.327740 31.405721 206 206 206 0
4.919168 7.318763 31.367246 206 206 206 0
5.033813 7.311014 31.334034 206 206 206 0
5.165362 7.327606 31.405148 207 207 207 0
5.301847 7.350288 31.502359 206 206 206 0
5.413545 7.338361 31.451241 206 206 206 0
5.521676 7.322222 31.382072 206 206 206 0
5.650865 7.334101 31.432985 207 207 207 0
5.789351 7.357300 31.532411 207 207 207 0
5.892456 7.335507 31.439008 207 207 207 0
5.997287 7.316690 31.358361 207 207 207 0
6.109743 7.307732 31.319970 206 206 206 0
6.232460 7.311155 31.334639 206 206 206 0
6.364748 7.325465 31.395970 206 206 206 0
6.477684 7.317384 31.361338 207 207 207 0
6.596463 7.316077 31.355737 207 207 207 0
6.723999 7.324356 31.391219 207 207 207 0
6.845459 7.325842 31.397588 207 207 207 0
6.964578 7.324814 31.393183 207 207 207 0
7.090826 7.331193 31.420522 206 206 206 0
7.213431 7.333655 31.431073 207 207 207 0
7.336621 7.336621 31.443785 206 206 206 0
7.470712 7.350216 31.502053 207 207 207 0
7.591176 7.350187 31.501924 207 207 207 0
7.698105 7.337256 31.446507 207 207 207 0
7.812233 7.331480 31.421752 207 207 207 0
7.952695 7.350219 31.502062 207 207 207 0
8.065729 7.343425 31.472945 207 207 207 0
8.177803 7.335971 31.440997 207 207 207 0
8.281796 7.321588 31.379354 207 207 207 0
8.412295 7.330714 31.418470 207 207 207 0
8.548273 7.344291 31.476656 208 208 208 0
8.664492 7.340750 31.461482 207 207 207 0
8.773408 7.331204 31.420569 207 207 207 0
8.886501 7.325359 31.395516 207 207 207 0
9.021973 7.337872 31.449145 207 207 207 0
9.148285 7.342702 31.469848 207 207 207 0
9.245249 7.324158 31.390370 207 207 207 0
9.362648 7.322071 31.381426 208 208 208 0
9.526143 7.355629 31.525252 208 208 208 0
-8.537012 6.616184 27.898731 198 198 198 0
-8.476877 6.652739 28.052872 198 198 198 0
-8.475453 6.736899 28.407753 199 199 199 0
-8.396613 6.760909 28.509000 198 198 198 0
-8.271930 6.748153 28.455212 198 198 198 0
-8.190829 6.771085 28.551909 198 198 198 0
-8.196800 6.867589 28.958841 199 199 199 0
-8.161208 6.931437 29.228070 199 199 199 0
-8.007068 6.894976 29.074322 198 198 198 0
-7.834651 6.841526 28.848939 199 199 199 0
-7.852205 6.954810 29.326631 199 199 199 0
-7.866811 7.068728 29.806993 199 199 199 0
-7.713181 7.032607 29.654676 199 199 199 0
-7.530025 6.968083 29.382598 200 200 200 0
-7.380630 6.933319 29.236006 199 199 199 0
-7.442983 7.099461 29.936584 199 199 199 0
-7.325369 7.096451 29.923892 200 200 200 0
-7.159672 7.046026 29.711264 200 200 200 0
-6.970754 6.970754 29.393859 200 200 200 0
-6.839894 6.952023 29.314878 199 199 199 0
-6.817845 7.045107 29.707386 200 200 200 0
-6.762585 7.106445 29.966035 200 200 200 0
-6.608718 7.064492 29.789128 200 200 200 0
-6.467076 7.034363 29.662083 200 200 200 0
-6.347727 7.027841 29.634582 201 201 201 0
-6.312921 7.116383 30.007941 200 200 200 0
-6.226612 7.149073 30.145787 200 200 200 0
-6.080869 7.113470 29.995657 200 200 200 0
-5.939138 7.081280 29.859922 200 200 200 0
-5.841264 7.101144 29.943681 200 200 200 0
-5.818568 7.215024 30.423886 201 201 201 0
-5.699867 7.212077 30.411457 201 201 201 0
-5.546947 7.164806 30.212129 202 202 202 0
-5.418446 7.147738 30.140155 201 201 201 0
-5.341903 7.199957 30.360349 201 201 201 0
-5.261979 7.249838 30.570686 201 201 201 0
-5.111478 7.202537 30.371229 201 201 201 0
-4.975367 7.173786 30.249992 202 202 202 0
-4.849739 7.159139 30.188231 201 201 201 0
-4.755915 7.191871 30.326253 201 201 201 0
-4.659225 7.221800 30.452454 201 201 201 0
-4.543584 7.223134 30.458080 202 202 202 0
-4.428629 7.225659 30.468727 202 202 202 0
-4.315997 7.232211 30.496357 201 201 201 0
-4.209013 7.248855 30.566541 202 202 202 0
-4.087320 7.240395 30.530868 202 202 202 0
-3.974677 7.247940 30.562681 202 202 202 0
-3.866424 7.264191 30.631208 202 202 202 0
-3.753092 7.271615 30.662514 202 202 202 0
-3.637140 7.274281 30.673754 202 202 202 0
-3.537627 7.311097 30.828997 202 202 202 0
-3.428269 7.329402 30.906186 203 203 203 0
-3.302887 7.313537 30.839285 203 203 203 0
-3.168223 7.275178 30.677536 203 203 203 0
-3.029268 7.223640 30.460216 202 202 202 0
-2.961224 7.343837 30.967053 203 203 203 0
-2.836841 7.328507 30.902411 203 203 203 0
-2.704463 7.290291 30.741264 203 203 203 0
-2.579301 7.268938 30.651227 203 203 203 0
-2.470684 7.294401 30.758595 203 203 203 0
-2.368194 7.341401 30.956781 203 203 203 0
-2.243713 7.321590 30.873245 203 203 203 0
-2.117835 7.294765 30.760130 203 203 203 0
-2.000026 7.294214 30.757806 203 203 203 0
-1.890223 7.324613 30.885993 203 203 203 0
-1.779422 7.354944 31.013890 203 203 203 0
-1.657644 7.340993 30.955063 203 203 203 0
-1.535335 7.322367 30.876520 204 204 204 0
-1.422089 7.347462 30.982341 204 204 204 0
-1.312869 7.399805 31.203056 203 203 203 0
-1.191073 7.384655 31.139176 203 203 203 0
-1.066140 7.344523 30.969948 203 203 203 0
-0.945531 7.327864 30.899700 203 203 203 0
-0.820306 7.265565 30.637001 204 204 204 0
-0.716473 7.403556 31.218876 204 204 204 0
-0.593847 7.363701 31.050817 204 204 204 0
-0.472491 7.323612 30.881770 203 203 203 0
-0.354706 7.330592 30.911206 204 204 204 0
-0.238099 7.381083 31.124111 204 204 204 0
-0.119022 7.379395 31.116993 204 204 204 0
0.000000 7.358825 31.030253 204 204 204 0
0.118759 7.363068 31.048147 205 205 205 0
0.238263 7.386148 31.145470 204 204 204 0
0.357238 7.382910 31.131816 204 204 204 0
0.475970 7.377531 31.109135 204 204 204 0
0.594269 7.368930 31.072867 204 204 204 0
0.715236 7.390773 31.164971 204 204 204 0
0.836162 7.406006 31.229204 204 204 204 0
0.957493 7.420574 31.290636 205 205 205 0
1.075341 7.407906 31.237219 205 205 205 0
1.193095 7.397190 31.192031 205 205 205 0
1.313622 7.404051 31.220962 204 204 204 0
1.436301 7.420888 31.291959 205 205 205 0
1.552317 7.403360 31.218048 206 206 206 0
1.670457 7.397740 31.194349 205 205 205 0
1.788013 7.390455 31.163632 205 205 205 0
1.905880 7.385286 31.141832 206 206 206 0
2.030167 7.404140 31.221337 205 205 205 0
2.151301 7.410036 31.246200 205 205 205 0
2.269584 7.406010 31.229220 205 205 205 0
2.388471 7.404261 31.221845 205 205 205 0
2.506747 7.400872 31.207556 206 206 206 0
2.634274 7.423864 31.304508 205 205 205 0
2.756903 7.431652 31.337347 205 205 205 0
2.870612 7.415747 31.270280 205 205 205 0
2.989377 7.413654 31.261455 205 205 205 0
3.122148 7.445122 31.394149 206 206 206 0
3.247139 7.456394 31.441678 205 205 205 0
3.353838 7.426355 31.315010 206 206 206 0
3.461698 7.400871 31.207552 206 206 206 0
3.519221 7.273057 30.668595 206 206 206 0
3.730908 7.461816 31.464541 206 206 206 0
3.837941 7.436010 31.355725 205 205 205 0
3.940217 7.402832 31.215821 205 205 205 0
4.057894 7.399690 31.202572 206 206 206 0
4.198516 7.437370 31.361460 206 206 206 0
4.321412 7.442432 31.382804 207 207 207 0
4.426234 7.416933 31.275281 206 206 206 0
4.545506 7.416352 31.272833 205 205 205 0
4.683249 7.445165 31.394330 206 206 206 0
4.806217 7.449636 31.413180 207 207 207 0
4.920090 7.440136 31.373122 206 206 206 0
5.035067 7.432717 31.341841 206 206 206 0
5.164903 7.447069 31.402356 207 207 207 0
5.301979 7.470970 31.503141 206 206 206 0
5.415665 7.461583 31.463558 206 206 206 0
5.520923 7.441244 31.377793 207 207 207 0
5.648853 7.451678 31.421794 206 206 206 0
5.788304 7.476559 31.526709 206 206 206 0
5.894132 7.457881 31.447948 207 207 207 0
5.997467 7.436859 31.359305 206 206 206 0
6.107679 7.425021 31.309387 207 207 207 0
6.234209 7.433095 31.343433 207 207 207 0
6.366801 7.447956 31.406096 206 206 206 0
6.479683 7.439636 31.371016 206 206 206 0
6.594612 7.433927 31.346940 206 206 206 0
6.726724 7.447444 31.403938 206 206 206 0
6.844575 7.444976 31.393532 207 207 207 0
6.964855 7.445190 31.394434 207 207 207 0
7.092173 7.452792 31.426488 207 207 207 0
7.212582 7.453001 31.427371 206 206 206 0
7.335822 7.456081 31.440359 207 207 207 0
7.473094 7.473094 31.512097 207 207 207 0
7.592406 7.471892 31.507028 207 207 207 0
7.699999 7.459374 31.454243 207 207 207 0
7.815897 7.455163 31.436489 207 207 207 0
7.950293 7.468457 31.492547 207 207 207 0
8.066016 7.464075 31.474066 207 207 207 0
8.176791 7.455310 31.437106 207 207 207 0
8.285942 7.445339 31.395063 206 206 206 0
8.409826 7.448703 31.409246 207 207 207 0
8.552278 7.468187 31.491405 207 207 207 0
8.664810 7.461364 31.462637 207 207 207 0
8.774921 7.452672 31.425985 207 207 207 0
8.885129 7.444297 31.390670 208 208 208 0
9.018255 7.455091 31.436184 207 207 207 0
9.146095 7.461288 31.462316 207 207 207 0
9.246688 7.445385 31.395257 208 208 208 0
9.359334 7.439470 31.370316 207 207 207 0
9.527801 7.477515 31.530739 208 208 208 0
-8.532368 6.719240 27.883556 198 198 198 0
-8.465751 6.751169 28.016054 198 198 198 0
-8.482291 6.851081 28.430673 198 198 198 0
-8.383440 6.859179 28.464275 198 198 198 0
-8.275276 6.859768 28.466722 198 198 198 0
-8.180170 6.871343 28.514755 198 198 198 0
-8.202247 6.982994 28.978084 198 198 198 0
-8.144113 7.028481 29.166846 199 199 199 0
-8.008962 7.007842 29.081199 199 199 199 0
-7.825357 6.943627 28.814720 199 199 199 0
-7.849204 7.064284 29.315421 199 199 199 0
-7.865861 7.181873 29.803393 199 199 199 0
-7.715387 7.148079 29.663156 199 199 199 0
-7.530196 7.080632 29.383265 200 200 200 0
-7.390293 7.054371 29.274284 199 199 199 0
-7.435701 7.206910 29.907294 199 199 199 0
-7.333937 7.219344 29.958891 199 199 199 0
-7.160539 7.160539 29.714864 199 199 199 0
-6.969260 7.081668 29.387562 199 199 199 0
-6.838649 7.062867 29.309545 200 200 200 0
-6.816425 7.157246 29.701197 200 200 200 0
-6.761126 7.219508 29.959571 200 200 200 0
-6.610413 7.180276 29.796768 199 199 199 0
-6.459804 7.139784 29.628732 200 200 200 0
-6.358708 7.153547 29.685846 200 200 200 0
-6.318055 7.237045 30.032346 201 201 201 0
-6.228399 7.266465 30.154436 200 200 200 0
-6.087116 7.235629 30.026472 200 200 200 0
-5.945122 7.202744 29.890004 201 201 201 0
-5.840805 7.215112 29.941330 201 201 201 0
-5.818886 7.331796 30.425546 201 201 201 0
-5.698250 7.326322 30.402829 200 200 200 0
-5.545337 7.278255 30.203361 200 200 200 0
-5.422673 7.268690 30.163667 201 201 201 0
-5.345719 7.321311 30.382035 201 201 201 0
-5.262800 7.367920 30.575453 201 201 201 0
-5.114126 7.322499 30.386964 201 201 201 0
-4.965500 7.275035 30.189999 201 201 201 0
-4.852503 7.278754 30.205433 202 202 202 0
-4.761375 7.316259 30.361072 201 201 201 0
-4.659065 7.338027 30.451404 201 201 201 0
-4.539087 7.332371 30.427931 201 201 201 0
-4.426675 7.338961 30.455278 202 202 202 0
-4.323199 7.361123 30.547247 202 202 202 0
-4.210121 7.367712 30.574589 201 201 201 0
-4.083729 7.350711 30.504041 202 202 202 0
-3.979511 7.373800 30.599855 203 203 203 0
-3.870073 7.388322 30.660118 202 202 202 0
-3.754815 7.392293 30.676597 202 202 202 0
-3.635777 7.388838 30.662259 202 202 202 0
-3.536429 7.426501 30.818553 202 202 202 0
-3.428801 7.448774 30.910984 202 202 202 0
-3.302480 7.430581 30.835484 202 202 202 0
-3.170108 7.396918 30.695789 203 203 203 0
-3.027671 7.336280 30.444153 203 203 203 0
-2.963454 7.467905 30.990371 203 203 203 0
-2.836885 7.446824 30.902889 203 203 203 0
-2.704203 7.407166 30.738316 203 203 203 0
-2.577814 7.381923 30.633564 203 203 203 0
-2.470381 7.411142 30.754815 203 203 203 0
-2.368686 7.461361 30.963216 203 203 203 0
-2.244719 7.443017 30.887091 203 203 203 0
-2.119185 7.417147 30.779735 202 202 202 0
-2.000182 7.412438 30.760195 203 203 203 0
-1.890137 7.442414 30.884589 203 203 203 0
-1.780347 7.477458 31.030017 203 203 203 0
-1.658308 7.462387 30.967472 203 203 203 0
-1.535002 7.438857 30.869829 203 203 203 0
-1.422168 7.466382 30.984053 204 204 204 0
-1.313021 7.520030 31.206680 203 203 203 0
-1.190552 7.500478 31.125545 204 204 204 0
-1.067099 7.469692 30.997789 204 204 204 0
-0.945429 7.445252 30.896366 203 203 203 0
-0.811817 7.306353 30.319962 204 204 204 0
-0.716867 7.527100 31.236020 203 203 203 0
-0.594192 7.486818 31.068859 204 204 204 0
-0.472522 7.442220 30.883785 204 204 204 0
-0.354858 7.452010 30.924412 203 203 203 0
-0.238190 7.502979 31.135924 204 204 204 0
-0.119079 7.501962 31.131703 204 204 204 0
0.000000 7.477227 31.029055 204 204 204 0
0.118780 7.483151 31.053639 204 204 204 0
0.238186 7.502873 31.135485 204 204 204 0
0.357255 7.502357 31.133342 205 205 205 0
0.475735 7.492832 31.093816 204 204 204 0
0.594004 7.484454 31.059049 204 204 204 0
0.714844 7.505866 31.147904 204 204 204 0
0.836241 7.526167 31.232148 204 204 204 0
0.956295 7.530825 31.251480 205 205 205 0
1.074935 7.524548 31.225429 205 205 205 0
1.192959 7.515644 31.188479 204 204 204 0
1.313718 7.524019 31.223234 205 205 205 0
1.436699 7.542668 31.300626 205 205 205 0
1.552208 7.522240 31.215851 205 205 205 0
1.670177 7.515796 31.189112 205 205 205 0
1.787433 7.507218 31.153516 205 205 205 0
1.906402 7.506459 31.150363 205 205 205 0
2.029796 7.522184 31.215619 205 205 205 0
2.151732 7.531062 31.252462 205 205 205 0
2.270660 7.529030 31.244030 205 205 205 0
2.387542 7.520756 31.209694 205 205 205 0
2.507600 7.522800 31.218175 205 205 205 0
2.635210 7.546285 31.315633 206 206 206 0
2.757950 7.554384 31.349244 205 205 205 0
2.871238 7.537001 31.277107 205 205 205 0
2.989736 7.534136 31.265217 205 205 205 0
3.123321 7.568048 31.405947 206 206 206 0
3.247637 7.577820 31.446498 206 206 206 0
3.353289 7.544901 31.309890 205 205 205 0
3.462591 7.522180 31.215605 205 205 205 0
3.522948 7.398191 30.701075 206 206 206 0
3.731218 7.582798 31.467156 206 206 206 0
3.837382 7.554845 31.351158 206 206 206 0
3.942304 7.526217 31.232357 206 206 206 0
4.056840 7.517085 31.194462 205 205 205 0
4.197845 7.556121 31.356451 206 206 206 0
4.320668 7.561169 31.377401 205 205 205 0
4.425671 7.535603 31.271305 206 206 206 0
4.545097 7.535292 31.270016 206 206 206 0
4.681749 7.562826 31.384276 206 206 206 0
4.805533 7.568714 31.408711 206 206 206 0
4.922172 7.563338 31.386401 206 206 206 0
5.032805 7.549207 31.327760 206 206 206 0
5.165518 7.568085 31.406100 207 207 207 0
5.300816 7.589804 31.496232 207 207 207 0
5.411782 7.576494 31.440998 206 206 206 0
5.523792 7.565194 31.394102 206 206 206 0
5.654605 7.579577 31.453788 206 206 206 0
5.795874 7.607085 31.567941 206 206 206 0
5.895639 7.580107 31.455991 206 206 206 0
5.997819 7.557252 31.361145 206 206 206 0
6.112877 7.551202 31.336037 206 206 206 0
6.232040 7.550356 31.332527 207 207 207 0
6.364165 7.564951 31.393093 206 206 206 0
6.481216 7.561419 31.378436 207 207 207 0
6.596522 7.556016 31.356016 207 207 207 0
6.726742 7.567585 31.404027 206 206 206 0
6.844426 7.564892 31.392848 207 207 207 0
6.963075 7.563340 31.386409 206 206 206 0
7.091895 7.572702 31.425260 206 206 206 0
7.214774 7.575513 31.436925 207 207 207 0
7.333858 7.574313 31.431943 206 206 206 0
7.474119 7.594669 31.516420 206 206 206 0
7.590366 7.590366 31.498562 207 207 207 0
7.698152 7.577868 31.446698 207 207 207 0
7.813192 7.572786 31.425611 207 207 207 0
7.952623 7.591141 31.501776 207 207 207 0
8.065544 7.584019 31.472223 208 208 208 0
8.174837 7.573746 31.429591 207 207 207 0
8.278622 7.558742 31.367330 207 207 207 0
8.412605 7.571345 31.419627 207 207 207 0
8.553327 7.589572 31.495267 206 206 206 0
8.668087 7.584576 31.474536 207 207 207 0
8.765396 7.564657 31.391874 207 207 207 0
8.885694 7.564847 31.392665 207 207 207 0
9.019424 7.576316 31.440257 207 207 207 0
9.146963 7.582351 31.465300 207 207 207 0
9.243359 7.562748 31.383954 207 207 207 0
9.363669 7.562963 31.384846 207 207 207 0
9.528249 7.598477 31.532221 207 207 207 0
-8.535206 6.828165 27.892831 198 198 198 0
-8.478037 6.868283 28.056711 198 198 198 0
-8.467069 6.947339 28.379652 198 198 198 0
-8.387442 6.971380 28.477861 198 198 198 0
-8.262180 6.957625 28.421671 199 199 199 0
-8.179739 6.980044 28.513250 199 199 199 0
-8.178940 7.073678 28.895744 198 198 198 0
-8.146073 7.141763 29.173868 199 199 199 0
-8.012908 7.122585 29.095525 198 198 198 0
-7.836537 7.063921 28.855886 199 199 199 0
-7.857226 7.183749 29.345381 199 199 199 0
-7.893384 7.321399 29.907677 199 199 199 0
-7.709560 7.256056 29.640754 199 199 199 0
-7.530218 7.193044 29.383351 200 200 200 0
-7.386657 7.162819 29.259882 199 199 199 0
-7.441174 7.326695 29.929309 200 200 200 0
-7.326185 7.326185 29.927225 199 199 199 0
-7.166094 7.279841 29.737914 200 200 200 0
-6.975435 7.200449 29.413598 199 199 199 0
-6.830602 7.166533 29.275055 200 200 200 0
-6.814468 7.268766 29.692671 199 199 199 0
-6.766046 7.339440 29.981373 200 200 200 0
-6.609864 7.293643 29.794292 200 200 200 0
-6.466706 7.260863 29.660389 200 200 200 0
-6.358556 7.266921 29.685136 200 200 200 0
-6.315980 7.349504 30.022485 200 200 200 0
-6.229742 7.383398 30.160940 200 200 200 0
-6.080922 7.343000 29.995917 200 200 200 0
-5.938921 7.309441 29.858830 201 201 201 0
-5.844631 7.334438 29.960941 200 200 200 0
-5.818938 7.448241 30.425821 201 201 201 0
-5.696319 7.440089 30.392522 201 201 201 0
-5.539250 7.385667 30.170208 201 201 201 0
-5.417493 7.377011 30.134850 201 201 201 0
-5.345871 7.437733 30.382896 201 201 201 0
-5.259960 7.480833 30.558957 201 201 201 0
-5.116800 7.442618 30.402852 201 201 201 0
-4.966029 7.391300 30.193217 201 201 201 0
-4.852736 7.394645 30.206884 201 201 201 0
-4.757276 7.425991 30.334932 201 201 201 0
-4.657848 7.452557 30.443452 201 201 201 0
-4.537769 7.446595 30.419099 202 202 202 0
-4.424461 7.451725 30.440051 202 202 202 0
-4.319164 7.470987 30.518736 202 202 202 0
-4.207090 7.479271 30.552576 201 201 201 0
-4.087691 7.474636 30.533642 202 202 202 0
-3.978995 7.489873 30.595887 202 202 202 0
-3.864831 7.495429 30.618583 202 202 202 0
-3.756563 7.513127 30.690877 202 202 202 0
-3.635868 7.506309 30.663026 201 201 201 0
-3.539783 7.551537 30.847781 203 203 203 0
-3.428724 7.566840 30.910295 203 203 203 0
-3.299776 7.542345 30.810234 202 202 202 0
-3.169088 7.511911 30.685912 202 202 202 0
-3.026254 7.449242 30.429909 202 202 202 0
-2.962622 7.584312 30.981669 202 202 202 0
-2.835917 7.562445 30.892342 202 202 202 0
-2.705184 7.527468 30.749460 203 203 203 0
-2.577870 7.499258 30.634225 203 203 203 0
-2.472478 7.535171 30.780926 203 203 203 0
-2.367756 7.576820 30.951064 203 203 203 0
-2.244744 7.561244 30.887435 203 203 203 0
-2.118112 7.531065 30.764155 203 203 203 0
-2.000994 7.533153 30.772682 204 204 204 0
-1.891002 7.564008 30.898727 203 203 203 0
-1.779091 7.590790 31.008130 203 203 203 0
-1.658682 7.582544 30.974445 203 203 203 0
-1.534509 7.554507 30.859915 203 203 203 0
-1.422213 7.585137 30.985037 203 203 203 0
-1.312650 7.637238 31.197869 203 203 203 0
-1.190534 7.619419 31.125076 203 203 203 0
-1.065925 7.579910 30.963686 204 204 204 0
-0.945682 7.565456 30.904639 203 203 203 0
-0.814464 7.446530 30.418830 203 203 203 0
-0.716845 7.646352 31.235096 204 204 204 0
-0.593721 7.599631 31.044245 204 204 204 0
-0.472516 7.560262 30.883425 204 204 204 0
-0.354725 7.567458 30.912817 204 204 204 0
-0.238134 7.620303 31.128690 204 204 204 0
-0.119042 7.618658 31.121968 204 204 204 0
0.000000 7.597209 31.034350 205 205 205 0
0.118753 7.600166 31.046429 204 204 204 0
0.238257 7.624211 31.144652 204 204 204 0
0.357270 7.621753 31.134613 204 204 204 0
0.476047 7.616758 31.114206 204 204 204 0
0.593777 7.600344 31.047155 204 204 204 0
0.715282 7.629680 31.166992 204 204 204 0
0.836263 7.645836 31.232990 204 204 204 0
0.956399 7.651190 31.254861 205 205 205 0
1.075297 7.646555 31.235926 205 205 205 0
1.192892 7.634511 31.186729 204 204 204 0
1.313757 7.643676 31.224168 205 205 205 0
1.436215 7.659814 31.290090 205 205 205 0
1.553007 7.645573 31.231914 205 205 205 0
1.670723 7.637590 31.199304 205 205 205 0
1.787518 7.626744 31.154998 206 206 206 0
1.906797 7.627189 31.156817 205 205 205 0
2.030050 7.642541 31.219529 205 205 205 0
2.151296 7.649051 31.246125 205 205 205 0
2.270513 7.648043 31.242006 205 205 205 0
2.388663 7.643722 31.224356 205 205 205 0
2.507124 7.640759 31.212249 205 205 205 0
2.634896 7.665152 31.311896 205 205 205 0
2.757752 7.673745 31.346996 205 205 205 0
2.871488 7.657300 31.279821 205 205 205 0
2.989766 7.653800 31.265524 206 206 206 0
3.125854 7.694410 31.431414 206 206 206 0
3.247310 7.697327 31.443330 206 206 206 0
3.353625 7.665429 31.313028 205 205 205 0
3.460356 7.636647 31.195455 205 205 205 0
3.526421 7.523032 30.731341 206 206 206 0
3.731232 7.703189 31.467275 206 206 206 0
3.835948 7.671895 31.339441 206 206 206 0
3.941127 7.643397 31.223027 205 205 205 0
4.059421 7.641262 31.214307 206 206 206 0
4.198404 7.677082 31.360630 206 206 206 0
4.319711 7.679485 31.370447 206 206 206 0
4.424886 7.653857 31.265756 206 206 206 0
4.542847 7.651110 31.254534 206 206 206 0
4.682260 7.683709 31.387702 206 206 206 0
4.806193 7.689909 31.413029 206 206 206 0
4.918137 7.677091 31.360667 206 206 206 0
5.032353 7.668348 31.324950 206 206 206 0
5.166179 7.689197 31.410118 207 207 207 0
5.304391 7.715478 31.517477 206 206 206 0
5.415231 7.701662 31.461039 206 206 206 0
5.523860 7.685371 31.394488 206 206 206 0
5.657491 7.703817 31.469841 207 207 207 0
5.814770 7.753027 31.670862 206 206 206 0
5.891198 7.694625 31.432294 206 206 206 0
5.998174 7.677663 31.363002 206 206 206 0
6.111030 7.668743 31.326565 207 207 207 0
6.233167 7.671590 31.338195 206 206 206 0
6.365798 7.687002 31.401150 206 206 206 0
6.480001 7.680001 31.372555 206 206 206 0
6.598315 7.678039 31.364540 207 207 207 0
6.725225 7.685971 31.396940 206 206 206 0
6.843826 7.684296 31.390097 206 206 206 0
6.966913 7.687628 31.403709 207 207 207 0
7.096378 7.697765 31.445120 207 207 207 0
7.217286 7.698438 31.447869 206 206 206 0
7.336858 7.697688 31.444802 206 206 206 0
7.473076 7.714143 31.512021 207 207 207 0
7.589429 7.709897 31.494676 207 207 207 0
7.698169 7.698169 31.446767 207 207 207 0
7.812578 7.692385 31.423141 207 207 207 0
7.951538 7.710582 31.497477 206 206 206 0
8.067487 7.706257 31.479807 207 207 207 0
8.175627 7.694707 31.432628 207 207 207 0
8.282617 7.682428 31.382466 207 207 207 0
8.409331 7.688531 31.407397 207 207 207 0
8.557153 7.713490 31.509353 207 207 207 0
8.668409 7.705252 31.475703 208 208 208 0
8.768780 7.687698 31.403995 207 207 207 0
8.889797 7.688473 31.407162 206 206 206 0
9.024596 7.700989 31.458287 207 207 207 0
9.149329 7.704698 31.473441 207 207 207 0
9.245345 7.684443 31.390698 207 207 207 0
9.361453 7.681192 31.377420 207 207 207 0
9.524572 7.716109 31.520054 208 208 208 0
-8.531305 6.931685 27.880080 198 198 198 0
-8.496046 6.990418 28.116311 198 198 198 0
-8.477844 7.064870 28.415768 199 199 199 0
-8.375444 7.070180 28.437124 198 198 198 0
-8.270531 7.073481 28.450400 199 199 199 0
-8.180012 7.089344 28.514204 199 199 199 0
-8.194434 7.197814 28.950482 199 199 199 0
-8.159662 7.265452 29.222533 199 199 199 0
-8.001657 7.223718 29.054673 198 198 198 0
-7.832531 7.170627 28.841135 199 199 199 0
-7.861024 7.299522 29.359565 199 199 199 0
-7.880029 7.423215 29.857075 199 199 199 0
-7.718792 7.378257 29.676248 200 200 200 0
-7.529954 7.305179 29.382320 199 199 199 0
-7.385388 7.273488 29.254854 200 200 200 0
-7.446977 7.446977 29.952647 199 199 199 0
-7.321147 7.435539 29.906644 199 199 199 0
-7.165332 7.392803 29.734752 200 200 200 0
-6.967185 7.304307 29.378811 199 199 199 0
-6.828850 7.276643 29.267544 200 200 200 0
-6.806063 7.373235 29.656048 200 200 200 0
-6.760542 7.448055 29.956983 200 200 200 0
-6.604269 7.401336 29.769075 200 200 200 0
-6.465742 7.373214 29.655966 200 200 200 0
-6.353718 7.374851 29.662549 200 200 200 0
-6.313797 7.461760 30.012105 200 200 200 0
-6.236301 7.506659 30.192696 200 200 200 0
-6.083358 7.460722 30.007932 200 200 200 0
-5.947302 7.434127 29.900963 200 200 200 0
-5.847330 7.452479 29.974778 200 200 200 0
-5.821041 7.567353 30.436816 201 201 201 0
-5.698984 7.559876 30.406742 201 201 201 0
-5.545449 7.509462 30.203971 201 201 201 0
-5.421143 7.497326 30.155157 201 201 201 0
-5.353494 7.564720 30.426226 201 201 201 0
-5.264170 7.603801 30.583412 201 201 201 0
-5.115065 7.556346 30.392543 201 201 201 0
-4.970185 7.513070 30.218480 202 202 202 0
-4.852951 7.510520 30.208225 201 201 201 0
-4.756589 7.540933 30.330550 202 202 202 0
-4.658867 7.570659 30.450110 201 201 201 0
-4.539749 7.566248 30.432369 202 202 202 0
-4.425247 7.569502 30.445457 202 202 202 0
-4.322591 7.593742 30.542954 202 202 202 0
-4.209516 7.600514 30.570192 202 202 202 0
-4.086347 7.588931 30.523604 202 202 202 0
-3.981746 7.612161 30.617038 202 202 202 0
-3.864400 7.611698 30.615174 203 203 203 0
-3.756866 7.631133 30.693346 202 202 202 0
-3.637748 7.627537 30.678881 201 201 201 0
-3.537428 7.664426 30.827255 203 203 203 0
-3.430218 7.688419 30.923758 202 202 202 0
-3.301355 7.663859 30.824975 202 202 202 0
-3.169263 7.629708 30.687613 203 203 203 0
-3.029082 7.572704 30.458337 202 202 202 0
-2.957973 7.690730 30.933051 203 203 203 0
-2.837477 7.684835 30.909341 203 203 203 0
-2.705047 7.644698 30.747907 203 203 203 0
-2.579565 7.621443 30.654371 202 202 202 0
-2.472975 7.654446 30.787112 203 203 203 0
-2.368476 7.697547 30.960469 203 203 203 0
-2.245059 7.680465 30.891763 203 203 203 0
-2.119166 7.652544 30.779465 204 204 204 0
-2.000733 7.649862 30.768676 203 203 203 0
-1.889662 7.676751 30.876825 203 203 203 0
-1.778509 7.706874 30.997985 203 203 203 0
-1.658495 7.700157 30.970968 204 204 204 0
-1.534820 7.674101 30.866169 203 203 203 0
-1.423305 7.709567 31.008818 204 204 204 0
-1.312269 7.754318 31.188811 203 203 203 0
-1.191077 7.741999 31.139263 203 203 203 0
-1.065857 7.697855 30.961709 204 204 204 0
-0.945853 7.685055 30.910228 203 203 203 0
-0.815971 7.576872 30.475100 204 204 204 0
-0.716810 7.765440 31.233543 204 204 204 0
-0.594134 7.723737 31.065810 204 204 204 0
-0.472529 7.678597 30.884251 204 204 204 0
-0.354932 7.690196 30.930906 204 204 204 0
-0.238060 7.736948 31.118947 204 204 204 0
-0.119060 7.738901 31.126803 204 204 204 0
0.000000 7.715691 31.033447 204 204 204 0
0.118726 7.717166 31.039380 204 204 204 0
0.238202 7.741566 31.137519 204 204 204 0
0.357278 7.741020 31.135324 205 205 205 0
0.475836 7.732336 31.100397 204 204 204 0
0.593997 7.721956 31.058649 204 204 204 0
0.714877 7.744497 31.149308 204 204 204 0
0.836145 7.764207 31.228587 204 204 204 0
0.956863 7.774511 31.270031 205 205 205 0
1.075076 7.764436 31.229506 204 204 204 0
1.193075 7.754987 31.191501 205 205 205 0
1.313364 7.760789 31.214837 205 205 205 0
1.435355 7.774839 31.271347 205 205 205 0
1.551382 7.756909 31.199233 205 205 205 0
1.670241 7.754690 31.190307 204 204 204 0
1.787244 7.744724 31.150224 205 205 205 0
1.906620 7.745645 31.153926 205 205 205 0
2.030469 7.763559 31.225977 205 205 205 0
2.151157 7.768066 31.244108 205 205 205 0
2.271190 7.769861 31.251327 205 205 205 0
2.387918 7.760733 31.214614 205 205 205 0
2.508598 7.764708 31.230602 206 206 206 0
2.633969 7.782180 31.300875 205 205 205 0
2.757004 7.791533 31.338492 206 206 206 0
2.872433 7.779506 31.290119 205 205 205 0
2.989812 7.773510 31.266005 206 206 206 0
3.125392 7.813480 31.426765 206 206 206 0
3.248197 7.819734 31.451922 206 206 206 0
3.351700 7.780732 31.295052 206 206 206 0
3.460282 7.755804 31.194789 206 206 206 0
3.528207 7.644449 30.746903 206 206 206 0
3.730554 7.822129 31.461556 206 206 206 0
3.837215 7.794342 31.349793 206 206 206 0
3.939958 7.760523 31.213766 205 205 205 0
4.057202 7.756415 31.197244 206 206 206 0
4.198766 7.797709 31.363333 206 206 206 0
4.318450 7.797202 31.361294 206 206 206 0
4.424339 7.772488 31.261893 206 206 206 0
4.543864 7.772399 31.261534 206 206 206 0
4.682386 7.803977 31.388544 206 206 206 0
4.805472 7.808891 31.408311 206 206 206 0
4.919139 7.798635 31.367058 207 207 207 0
5.033703 7.790254 31.333349 206 206 206 0
5.163797 7.805739 31.395634 206 206 206 0
5.302238 7.832852 31.504682 206 206 206 0
5.413424 7.819390 31.450538 207 207 207 0
5.522938 7.804152 31.389249 207 207 207 0
5.658390 7.825433 31.474842 206 206 206 0
5.832207 7.897781 31.765835 206 206 206 0
5.894024 7.818604 31.447375 206 206 206 0
5.999474 7.799317 31.369801 207 207 207 0
6.107611 7.784210 31.309041 207 207 207 0
6.230404 7.788005 31.324304 207 207 207 0
6.363345 7.804103 31.389051 206 206 206 0
6.478559 7.798266 31.365573 206 206 206 0
6.594906 7.793979 31.348333 207 207 207 0
6.724636 7.805381 31.394191 206 206 206 0
6.843006 7.803428 31.386338 207 207 207 0
6.966182 7.806928 31.400414 207 207 207 0
7.093069 7.814398 31.430460 206 206 206 0
7.216148 7.817494 31.442912 207 207 207 0
7.339461 7.820737 31.455955 206 206 206 0
7.474323 7.835984 31.517282 207 207 207 0
7.594130 7.835214 31.514183 207 207 207 0
7.700358 7.820676 31.455712 207 207 207 0
7.812298 7.812298 31.422011 206 206 206 0
7.949218 7.828775 31.488287 207 207 207 0
8.064109 7.823390 31.466625 207 207 207 0
8.174186 7.813560 31.427090 207 207 207 0
8.280352 7.800331 31.373882 207 207 207 0
8.413169 7.812228 31.421732 207 207 207 0
8.552199 7.829478 31.491114 207 207 207 0
8.667956 7.825238 31.474058 207 207 207 0
8.768918 7.807941 31.404487 207 207 207 0
8.889608 7.808439 31.406493 207 207 207 0
9.022641 7.819622 31.451470 207 207 207 0
9.151172 7.826660 31.479780 207 207 207 0
9.243910 7.803300 31.385823 208 208 208 0
9.361135 7.800946 31.376354 207 207 207 0
9.525584 7.837506 31.523401 207 207 207 0
-8.535526 7.041809 27.893876 198 198 198 0
-8.485361 7.089036 28.080950 198 198 198 0
-8.471186 7.167927 28.393451 198 198 198 0
-8.380470 7.183260 28.454188 198 198 198 0
-8.274724 7.185945 28.464824 199 199 199 0
-8.186225 7.203878 28.535860 198 198 198 0
-8.188153 7.302948 28.928293 198 198 198 0
-8.137338 7.357045 29.142584 198 198 198 0
-8.008228 7.340876 29.078534 199 199 199 0
-7.840920 7.288743 28.872025 199 199 199 0
-7.860102 7.410954 29.356124 199 199 199 0
-7.878602 7.536054 29.851671 199 199 199 0
-7.702531 7.475986 29.613728 199 199 199 0
-7.529159 7.416783 29.379218 198 198 198 0
-7.390061 7.390061 29.273366 199 199 199 0
-7.458739 7.573489 29.999956 200 200 200 0
-7.323583 7.552445 29.916596 199 199 199 0
-7.172540 7.514089 29.764663 199 199 199 0
-6.974421 7.424384 29.409325 200 200 200 0
-6.829064 7.388824 29.268464 200 200 200 0
-6.808615 7.489476 29.667167 200 200 200 0
-6.764881 7.567494 29.976209 199 199 199 0
-6.610886 7.522732 29.798901 200 200 200 0
-6.458960 7.478796 29.624861 200 200 200 0
-6.351413 7.485594 29.651789 200 200 200 0
-6.320768 7.584921 30.045241 200 200 200 0
-6.233611 7.618858 30.179672 200 200 200 0
-6.081920 7.573712 30.000839 200 200 200 0
-5.948729 7.550310 29.908141 200 200 200 0
-5.853725 7.575409 30.007561 200 200 200 0
-5.819856 7.682210 30.430622 201 201 201 0
-5.693902 7.669337 30.379629 200 200 200 0
-5.543849 7.622793 30.195257 201 201 201 0
-5.415333 7.604510 30.122836 200 200 200 0
-5.349770 7.675757 30.405059 201 201 201 0
-5.264385 7.721098 30.584664 200 200 200 0
-5.115981 7.673972 30.397986 201 201 201 0
-4.966314 7.622714 30.194947 201 201 201 0
-4.856391 7.631472 30.229638 202 202 202 0
-4.754797 7.654064 30.319127 201 201 201 0
-4.662184 7.692604 30.471793 201 201 201 0
-4.539603 7.682406 30.431395 202 202 202 0
-4.421972 7.680267 30.422925 202 202 202 0
-4.316921 7.700454 30.502888 202 202 202 0
-4.204217 7.707731 30.531713 201 201 201 0
-4.086403 7.705788 30.524015 201 201 201 0
-3.975497 7.717141 30.568986 201 201 201 0
-3.865522 7.731044 30.624062 202 202 202 0
-3.758035 7.750948 30.702902 202 202 202 0
-3.638242 7.745934 30.683042 202 202 202 0
-3.536837 7.781041 30.822109 202 202 202 0
-3.430385 7.807082 30.925262 202 202 202 0
-3.301147 7.781274 30.823030 203 203 203 0
-3.166832 7.741144 30.664068 203 203 203 0
-3.029035 7.689089 30.457868 202 202 202 0
-2.960459 7.815611 30.959045 202 202 202 0
-2.835281 7.797023 30.885414 202 202 202 0
-2.704476 7.760669 30.741411 203 203 203 0
-2.579616 7.738849 30.654977 203 203 203 0
-2.472834 7.771763 30.785355 202 202 202 0
-2.368186 7.815015 30.956684 203 203 203 0
-2.244788 7.797686 30.888039 203 203 203 0
-2.118642 7.768355 30.771857 203 203 203 0
-2.001325 7.769850 30.777778 203 203 203 0
-1.890522 7.798404 30.890886 203 203 203 0
-1.778343 7.824709 30.995083 203 203 203 0
-1.660242 7.826854 31.003582 204 204 204 0
-1.534052 7.788265 30.850723 203 203 203 0
-1.421864 7.820252 30.977431 203 203 203 0
-1.312010 7.872058 31.182643 204 204 204 0
-1.190182 7.855203 31.115876 203 203 203 0
-1.065860 7.816307 30.961802 203 203 203 0
-0.945806 7.802898 30.908688 203 203 203 0
-0.816606 7.699428 30.498824 204 204 204 0
-0.716937 7.886310 31.239097 204 204 204 0
-0.594182 7.843205 31.068349 203 203 203 0
-0.472414 7.794839 30.876764 204 204 204 0
-0.354583 7.800831 30.900498 204 204 204 0
-0.238122 7.858026 31.127060 204 204 204 0
-0.119007 7.854490 31.113051 204 204 204 0
0.000000 7.829120 31.012557 204 204 204 0
0.118773 7.839018 31.051765 204 204 204 0
0.238197 7.860507 31.136886 205 205 205 0
0.357116 7.856551 31.121215 204 204 204 0
0.475809 7.850852 31.098643 204 204 204 0
0.594170 7.843040 31.067697 204 204 204 0
0.715367 7.869038 31.170679 205 205 205 0
0.836487 7.886880 31.241353 204 204 204 0
0.957033 7.895521 31.275583 204 204 204 0
1.075426 7.886457 31.239678 204 204 204 0
1.193228 7.875304 31.195499 205 205 205 0
1.314186 7.885115 31.234363 205 205 205 0
1.435422 7.894822 31.272816 205 205 205 0
1.553235 7.885653 31.236496 205 205 205 0
1.670208 7.873836 31.189683 205 205 205 0
1.787136 7.863398 31.148337 204 204 204 0
1.906398 7.863891 31.150290 205 205 205 0
2.029451 7.879045 31.210319 205 205 205 0
2.151827 7.890034 31.253848 205 205 205 0
2.270667 7.887579 31.244125 205 205 205 0
2.388227 7.881149 31.218653 205 205 205 0
2.508188 7.882875 31.225490 205 205 205 0
2.635503 7.906508 31.319104 206 206 206 0
2.757624 7.913183 31.345545 205 205 205 0
2.871971 7.897919 31.285083 205 205 205 0
2.990004 7.893611 31.268019 206 206 206 0
3.124579 7.931624 31.418594 206 206 206 0
3.248546 7.940890 31.455300 206 206 206 0
3.354005 7.905870 31.316576 205 205 205 0
3.461323 7.877493 31.204170 205 205 205 0
3.531116 7.768456 30.772255 205 205 205 0
3.731574 7.944641 31.470158 205 205 205 0
3.835925 7.911596 31.339260 206 206 206 0
3.941482 7.882964 31.225842 206 206 206 0
4.057323 7.875979 31.198175 206 206 206 0
4.200362 7.920682 31.375252 206 206 206 0
4.321498 7.922747 31.383429 206 206 206 0
4.425711 7.894512 31.271586 206 206 206 0
4.544916 7.893802 31.268772 206 206 206 0
4.681428 7.922416 31.382119 206 206 206 0
4.802490 7.924109 31.388825 206 206 206 0
4.918452 7.917509 31.362681 206 206 206 0
5.034388 7.911181 31.337616 206 206 206 0
5.167028 7.930788 31.415282 205 205 205 0
5.301431 7.952147 31.499888 206 206 206 0
5.415342 7.942502 31.461684 206 206 206 0
5.523380 7.924849 31.391758 206 206 206 0
5.658853 7.946475 31.477421 206 206 206 0
5.831220 8.017928 31.760459 206 206 206 0
5.892447 7.936765 31.438959 206 206 206 0
5.999641 7.919526 31.370671 207 207 207 0
6.108781 7.905481 31.315038 206 206 206 0
6.232965 7.911071 31.337179 206 206 206 0
