ply
    format ascii 1.0
    element vertex 25557
    property float x
    property float y
    property float z
    property uchar red
    property uchar green
    property uchar blue
    property uchar alpha
    end_header
9.752711 2.805575 34.927787 201 201 201 0
9.886508 2.805631 34.928485 201 201 201 0
10.020563 2.805758 34.930066 201 201 201 0
10.153855 2.805671 34.928983 201 201 201 0
10.287050 2.805559 34.927596 200 200 200 0
10.421370 2.805754 34.930016 201 201 201 0
10.554630 2.805661 34.928864 202 202 202 0
-10.710102 2.945278 35.000335 191 191 191 0
-10.576287 2.945295 35.000534 191 191 191 0
-10.442447 2.945306 35.000660 191 191 191 0
-10.302401 2.943543 34.979716 191 191 191 0
-10.168867 2.943619 34.980623 192 192 192 0
-10.034874 2.943563 34.979952 192 192 192 0
-9.898975 2.942938 34.972530 192 192 192 0
-9.764574 2.942748 34.970272 192 192 192 0
-9.631737 2.943031 34.973629 192 192 192 0
-9.497827 2.942989 34.973129 192 192 192 0
-9.362032 2.942353 34.965571 192 192 192 0
-9.228220 2.942331 34.965314 193 193 193 0
-9.094792 2.942433 34.966522 193 193 193 0
-8.961255 2.942501 34.967338 193 193 193 0
-8.827051 2.942350 34.965543 192 192 192 0
-8.692379 2.942036 34.961805 193 193 193 0
-8.558097 2.941846 34.959547 192 192 192 0
-8.425125 2.942107 34.962653 193 193 193 0
-8.291606 2.942183 34.963549 193 193 193 0
-8.157126 2.941914 34.960359 194 194 194 0
-8.022501 2.941584 34.956431 194 194 194 0
-7.889139 2.941713 34.957964 193 193 193 0
-7.755828 2.941866 34.959784 194 194 194 0
-7.621083 2.941471 34.955086 194 194 194 0
-7.486551 2.941145 34.951217 193 193 193 0
-7.352899 2.941159 34.951390 193 193 193 0
-7.219873 2.941430 34.954600 193 193 193 0
-7.085258 2.941051 34.950095 194 194 194 0
-6.951620 2.941070 34.950325 194 194 194 0
-6.818058 2.941123 34.950956 194 194 194 0
-6.684915 2.941363 34.953805 194 194 194 0
-6.551275 2.941389 34.954115 194 194 194 0
-6.416769 2.941019 34.949720 194 194 194 0
-6.282936 2.940949 34.948883 195 195 195 0
-6.149393 2.941014 34.949662 194 194 194 0
-6.016248 2.941277 34.952785 195 195 195 0
-5.882306 2.941153 34.951313 195 195 195 0
-5.747944 2.940808 34.947218 195 195 195 0
-5.614237 2.940791 34.947009 195 195 195 0
-5.480849 2.940943 34.948822 195 195 195 0
-5.346995 2.940847 34.947682 196 196 196 0
-5.212597 2.940439 34.942834 196 196 196 0
-5.079047 2.940501 34.943567 196 196 196 0
-4.945782 2.940735 34.946347 195 195 195 0
-4.812413 2.940919 34.948535 196 196 196 0
-4.677793 2.940327 34.941501 196 196 196 0
-4.544274 2.940413 34.942515 196 196 196 0
-4.411059 2.940706 34.946003 196 196 196 0
-4.277530 2.940802 34.947143 195 195 195 0
-4.143322 2.940422 34.942626 195 195 195 0
-4.009429 2.940248 34.940562 196 196 196 0
-3.875831 2.940286 34.941009 196 196 196 0
-3.742504 2.940539 34.944017 197 197 197 0
-3.608723 2.940441 34.942853 196 196 196 0
-3.474793 2.940210 34.940104 196 196 196 0
-3.341239 2.940290 34.941062 197 197 197 0
-3.207799 2.940483 34.943349 197 197 197 0
-3.074061 2.940407 34.942443 197 197 197 0
-2.940107 2.940107 34.938888 197 197 197 0
-2.806365 2.940001 34.937629 197 197 197 0
-2.673002 2.940303 34.941207 197 197 197 0
-2.397805 2.776406 32.993533 196 196 196 0
-2.405447 2.939991 34.937507 197 197 197 0
-2.271771 2.939938 34.936880 197 197 197 0
-2.138378 2.940269 34.940812 198 198 198 0
-2.004717 2.940252 34.940606 197 197 197 0
-1.870895 2.939978 34.937346 197 197 197 0
-1.737237 2.939939 34.936890 197 197 197 0
-1.603687 2.940093 34.938713 197 197 197 0
-1.470070 2.940141 34.939287 197 197 197 0
-1.336341 2.939950 34.937019 198 198 198 0
-1.202644 2.939795 34.935180 198 198 198 0
-1.069085 2.939985 34.937432 198 198 198 0
-0.935495 2.940127 34.939118 198 198 198 0
-0.801738 2.939705 34.934102 198 198 198 0
-0.668092 2.939604 34.932901 198 198 198 0
-0.534519 2.939854 34.935872 198 198 198 0
-0.400903 2.939956 34.937088 198 198 198 0
-0.267244 2.939686 34.933883 198 198 198 0
-0.133621 2.939655 34.933512 198 198 198 0
0.000000 2.939825 34.935533 198 198 198 0
0.133636 2.939998 34.937593 198 198 198 0
0.267251 2.939761 34.934769 198 198 198 0
0.400861 2.939646 34.933409 198 198 198 0
0.534499 2.939745 34.934586 198 198 198 0
0.668167 2.939936 34.936848 198 198 198 0
0.801766 2.939809 34.935343 199 199 199 0
0.935333 2.939617 34.933064 198 198 198 0
1.068965 2.939653 34.933482 199 199 199 0
1.202670 2.939861 34.935954 199 199 199 0
1.336240 2.939728 34.934385 199 199 199 0
1.469736 2.939472 34.931342 199 199 199 0
1.603420 2.939604 34.932908 199 199 199 0
1.737093 2.939696 34.933997 199 199 199 0
1.870565 2.939459 34.931185 199 199 199 0
2.004126 2.939385 34.930305 199 199 199 0
2.137859 2.939557 34.932345 199 199 199 0
2.271648 2.939779 34.934988 199 199 199 0
2.405132 2.939606 34.932926 199 199 199 0
2.538576 2.939404 34.930526 199 199 199 0
2.672343 2.939578 34.932594 199 199 199 0
2.806116 2.939740 34.934526 199 199 199 0
2.939605 2.939605 34.932919 200 200 200 0
3.073069 2.939458 34.931165 199 199 199 0
3.206756 2.939526 34.931979 200 200 200 0
3.340570 2.939702 34.934068 200 200 200 0
3.474044 2.939576 34.932570 200 200 200 0
3.607404 2.939366 34.930079 199 199 199 0
3.741166 2.939488 34.931523 200 200 200 0
3.874836 2.939531 34.932032 200 200 200 0
4.008176 2.939329 34.929640 200 200 200 0
4.141766 2.939318 34.929504 200 200 200 0
4.275646 2.939507 34.931750 199 199 199 0
4.409405 2.939604 34.932900 199 199 199 0
4.542738 2.939418 34.930701 200 200 200 0
4.676202 2.939327 34.929610 200 200 200 0
4.809990 2.939438 34.930935 200 200 200 0
4.943858 2.939591 34.932752 200 200 200 0
5.077197 2.939430 34.930834 200 200 200 0
5.210664 2.939349 34.929877 201 201 201 0
5.344589 2.939524 34.931951 200 200 200 0
5.478274 2.939562 34.932403 200 200 200 0
5.611395 2.939302 34.929321 201 201 201 0
5.744850 2.939226 34.928411 200 200 200 0
5.878943 2.939471 34.931328 201 201 201 0
6.012541 2.939465 34.931249 200 200 200 0
6.145597 2.939199 34.928089 200 200 200 0
6.279367 2.939278 34.929036 200 200 200 0
6.413393 2.939472 34.931334 201 201 201 0
6.547011 2.939474 34.931365 200 200 200 0
6.680130 2.939257 34.928786 200 200 200 0
6.813901 2.939330 34.929648 201 201 201 0
6.947796 2.939452 34.931102 200 200 200 0
7.081345 2.939426 34.930795 200 200 200 0
7.214590 2.939278 34.929026 201 201 201 0
7.348307 2.939323 34.929564 201 201 201 0
7.482206 2.939438 34.930934 200 200 200 0
7.615674 2.939383 34.930280 201 201 201 0
7.748788 2.939195 34.928051 200 200 200 0
7.882726 2.939321 34.929547 200 200 200 0
8.016332 2.939322 34.929551 200 200 200 0
8.145270 2.937638 34.909546 201 201 201 0
8.283130 2.939175 34.927811 200 200 200 0
8.417222 2.939347 34.929855 201 201 201 0
8.550947 2.939388 34.930337 201 201 201 0
8.684022 2.939207 34.928193 201 201 201 0
8.817641 2.939214 34.928268 201 201 201 0
8.951496 2.939297 34.929258 200 200 200 0
9.085212 2.939333 34.929689 201 201 201 0
9.218451 2.939216 34.928298 200 200 200 0
9.352178 2.939256 34.928771 201 201 201 0
9.486279 2.939410 34.930606 201 201 201 0
9.619702 2.939353 34.929928 201 201 201 0
9.752713 2.939174 34.927794 201 201 201 0
9.886508 2.939232 34.928485 201 201 201 0
10.020548 2.939361 34.930016 201 201 201 0
10.153811 2.939261 34.928832 201 201 201 0
10.287022 2.939149 34.927502 201 201 201 0
10.421296 2.939340 34.929767 201 201 201 0
10.554611 2.939259 34.928803 201 201 201 0
-10.710098 3.079153 35.000321 191 191 191 0
-10.576294 3.079174 35.000559 191 191 191 0
-10.442441 3.079181 35.000640 191 191 191 0
-10.302724 3.077437 34.980815 192 192 192 0
-10.168907 3.077432 34.980761 192 192 192 0
-10.034932 3.077379 34.980155 191 191 191 0
-9.898966 3.076706 34.972499 192 192 192 0
-9.764439 3.076467 34.969787 192 192 192 0
-9.631379 3.076690 34.972326 192 192 192 0
-9.497368 3.076612 34.971438 192 192 192 0
-9.361925 3.076061 34.965173 192 192 192 0
-9.228229 3.076076 34.965345 193 193 193 0
-9.094467 3.076070 34.965272 192 192 192 0
-8.961563 3.076358 34.968543 193 193 193 0
-8.827089 3.076107 34.965691 192 192 192 0
-8.692239 3.075715 34.961241 193 193 193 0
-8.558038 3.075545 34.959307 193 193 193 0
-8.425030 3.075805 34.962258 194 194 194 0
-8.291912 3.076032 34.964841 193 193 193 0
-8.157081 3.075621 34.960169 194 194 194 0
-8.022423 3.075262 34.956090 194 194 194 0
-7.889035 3.075387 34.957507 194 194 194 0
-7.755944 3.075633 34.960308 194 194 194 0
-7.621345 3.075279 34.956288 194 194 194 0
-7.486709 3.074898 34.951954 194 194 194 0
-7.353038 3.074907 34.952054 194 194 194 0
-7.219840 3.075117 34.954444 194 194 194 0
-7.085241 3.074727 34.950012 194 194 194 0
-6.951697 3.074789 34.950715 194 194 194 0
-6.818101 3.074830 34.951175 194 194 194 0
-6.684758 3.074988 34.952980 194 194 194 0
-6.551335 3.075116 34.954434 194 194 194 0
-6.416839 3.074736 34.950105 195 195 195 0
-6.283006 3.074662 34.949275 195 195 195 0
-6.149368 3.074684 34.949517 194 194 194 0
-6.016047 3.074868 34.951615 194 194 194 0
-5.882259 3.074817 34.951034 195 195 195 0
-5.748000 3.074512 34.947560 195 195 195 0
-5.614209 3.074448 34.946836 195 195 195 0
-5.480826 3.074610 34.948674 195 195 195 0
-5.346966 3.074505 34.947488 196 196 196 0
-5.212637 3.074120 34.943103 196 196 196 0
-5.078994 3.074128 34.943200 195 195 195 0
-4.945917 3.074489 34.947305 195 195 195 0
-4.812356 3.074561 34.948116 196 196 196 0
-4.677879 3.074035 34.942142 196 196 196 0
-4.544245 3.074048 34.942289 196 196 196 0
-4.411060 3.074375 34.946005 196 196 196 0
-4.277452 3.074419 34.946505 196 196 196 0
-4.143350 3.074098 34.942862 196 196 196 0
-4.009430 3.073897 34.940571 196 196 196 0
-3.875894 3.073985 34.941576 196 196 196 0
-3.742530 3.074221 34.944259 196 196 196 0
-3.608750 3.074121 34.943117 196 196 196 0
-3.474865 3.073919 34.940826 196 196 196 0
-3.341301 3.073997 34.941709 197 197 197 0
-3.207798 3.074140 34.943335 196 196 196 0
-3.074087 3.074087 34.942739 197 197 197 0
-2.940101 3.073742 34.938812 197 197 197 0
-2.806364 3.073637 34.937616 197 197 197 0
-2.672996 3.073946 34.941127 198 198 198 0
-2.392782 2.896525 32.924413 197 197 197 0
-2.405451 3.073632 34.937558 197 197 197 0
-2.271743 3.073535 34.936462 197 197 197 0
-2.138379 3.073920 34.940831 197 197 197 0
-2.004727 3.073914 34.940770 197 197 197 0
-1.870885 3.073597 34.937166 197 197 197 0
-1.737235 3.073570 34.936853 198 198 198 0
-1.603671 3.073703 34.938368 198 198 198 0
-1.470093 3.073830 34.939815 197 197 197 0
-1.336334 3.073567 34.936825 197 197 197 0
-1.202634 3.073397 34.934894 198 198 198 0
-1.069081 3.073608 34.937285 198 198 198 0
-0.935487 3.073742 34.938817 198 198 198 0
-0.801735 3.073318 34.933997 197 197 197 0
-0.668096 3.073243 34.933141 199 199 199 0
-0.534519 3.073485 34.935891 198 198 198 0
-0.400904 3.073596 34.937158 198 198 198 0
-0.267243 3.073292 34.933700 198 198 198 0
-0.133621 3.073292 34.933700 198 198 198 0
0.000000 3.073425 34.935208 198 198 198 0
0.133637 3.073640 34.937658 199 199 199 0
0.267253 3.073415 34.935098 198 198 198 0
0.400859 3.073252 34.933247 198 198 198 0
0.534498 3.073366 34.934542 199 199 199 0
0.668169 3.073577 34.936941 199 199 199 0
0.801769 3.073446 34.935450 198 198 198 0
0.935338 3.073253 34.933249 199 199 199 0
1.068982 3.073323 34.934047 199 199 199 0
1.202680 3.073517 34.936250 198 198 198 0
1.336252 3.073380 34.934699 199 199 199 0
1.469739 3.073091 34.931411 199 199 199 0
1.603429 3.073240 34.933100 199 199 199 0
1.737097 3.073325 34.934074 199 199 199 0
1.870588 3.073110 34.931623 199 199 199 0
2.004148 3.073027 34.930682 199 199 199 0
2.137883 3.073207 34.932733 200 200 200 0
2.271633 3.073386 34.934766 199 199 199 0
2.405134 3.073227 34.932960 199 199 199 0
2.538579 3.073016 34.930564 199 199 199 0
2.672351 3.073203 34.932689 199 199 199 0
2.806118 3.073368 34.934558 199 199 199 0
2.939626 3.073245 34.933164 199 199 199 0
3.073076 3.073076 34.931241 200 200 200 0
3.206757 3.073142 34.931990 200 200 200 0
3.340590 3.073343 34.934275 200 200 200 0
3.474052 3.073200 34.932653 200 200 200 0
3.607384 3.072957 34.929889 199 199 199 0
3.741149 3.073087 34.931363 200 200 200 0
3.874874 3.073176 34.932374 200 200 200 0
4.008139 3.072907 34.929319 200 200 200 0
4.141756 3.072916 34.929419 200 200 200 0
4.275644 3.073119 34.931728 200 200 200 0
4.409432 3.073241 34.933115 200 200 200 0
4.542732 3.073025 34.930658 200 200 200 0
4.676159 3.072904 34.929291 200 200 200 0
4.810029 3.073074 34.931220 200 200 200 0
4.943824 3.073188 34.932515 200 200 200 0
5.077146 3.073010 34.930487 200 200 200 0
5.210662 3.072955 34.929861 200 200 200 0
5.344618 3.073155 34.932144 200 200 200 0
5.478247 3.073163 34.932230 200 200 200 0
5.611335 3.072874 34.928944 200 200 200 0
5.744875 3.072840 34.928558 201 201 201 0
5.878898 3.073060 34.931062 201 201 201 0
6.012540 3.073076 34.931242 200 200 200 0
6.145629 3.072815 34.928269 200 200 200 0
6.279373 3.072885 34.929067 200 200 200 0
6.413460 3.073116 34.931702 200 200 200 0
6.547049 3.073105 34.931568 200 200 200 0
6.680114 3.072852 34.928698 200 200 200 0
6.813910 3.072940 34.929695 201 201 201 0
6.947825 3.073076 34.931246 201 201 201 0
7.081356 3.073041 34.930849 200 200 200 0
7.214599 3.072885 34.929070 200 200 200 0
7.348297 3.072924 34.929515 201 201 201 0
7.482184 3.073040 34.930832 201 201 201 0
7.615620 3.072970 34.930032 201 201 201 0
7.748821 3.072808 34.928198 200 200 200 0
7.882667 3.072904 34.929286 201 201 201 0
8.016303 3.072916 34.929425 201 201 201 0
8.145336 3.071192 34.909828 201 201 201 0
8.283201 3.072800 34.928109 201 201 201 0
8.417191 3.072943 34.929726 201 201 201 0
8.551023 3.073024 34.930650 201 201 201 0
8.684066 3.072823 34.928369 201 201 201 0
8.817605 3.072802 34.928125 200 200 200 0
8.951557 3.072923 34.929497 201 201 201 0
9.085244 3.072950 34.929811 201 201 201 0
9.218477 3.072826 34.928397 201 201 201 0
9.352199 3.072865 34.928847 201 201 201 0
9.486252 3.073011 34.930505 201 201 201 0
9.619721 3.072966 34.929996 201 201 201 0
9.752720 3.072775 34.927817 200 200 200 0
9.886499 3.072831 34.928455 201 201 201 0
10.020551 3.072969 34.930024 201 201 201 0
10.153838 3.072872 34.928924 201 201 201 0
10.287070 3.072761 34.927664 201 201 201 0
10.421277 3.072941 34.929703 201 201 201 0
10.554638 3.072869 34.928892 201 201 201 0
-10.710107 3.213032 35.000350 192 192 192 0
-10.576289 3.213050 35.000541 192 192 192 0
-10.442453 3.213062 35.000680 191 191 191 0
-10.308633 3.213080 35.000877 192 192 192 0
-10.169237 3.211338 34.981895 191 191 191 0
-10.034718 3.211110 34.979408 192 192 192 0
-9.898770 3.210412 34.971806 192 192 192 0
-9.764591 3.210277 34.970333 192 192 192 0
-9.631374 3.210458 34.972308 192 192 192 0
-9.497582 3.210450 34.972226 192 192 192 0
-9.362199 3.209897 34.966195 192 192 192 0
-9.228210 3.209812 34.965274 192 192 192 0
-9.094880 3.209958 34.966858 193 193 193 0
-8.961356 3.210038 34.967734 192 192 192 0
-8.827196 3.209889 34.966115 193 193 193 0
-8.692283 3.209458 34.961420 193 193 193 0
-8.558022 3.209258 34.959242 193 193 193 0
-8.425107 3.209565 34.962578 193 193 193 0
-8.291691 3.209687 34.963909 193 193 193 0
-8.157068 3.209338 34.960112 193 193 193 0
-8.022258 3.208903 34.955371 194 194 194 0
-7.889228 3.209178 34.958363 194 194 194 0
-7.755916 3.209344 34.960179 193 193 193 0
-7.621193 3.208923 34.955590 193 193 193 0
-7.486716 3.208593 34.951989 194 194 194 0
-7.352885 3.208532 34.951326 194 194 194 0
-7.219587 3.208705 34.953218 194 194 194 0
-7.085230 3.208406 34.949955 194 194 194 0
-6.951609 3.208435 34.950272 194 194 194 0
-6.817960 3.208452 34.950454 195 195 195 0
-6.684886 3.208745 34.953653 194 194 194 0
-6.551406 3.208852 34.954816 195 195 195 0
-6.416741 3.208370 34.949568 194 194 194 0
-6.282860 3.208269 34.948463 195 195 195 0
-6.149493 3.208431 34.950228 195 195 195 0
-6.016242 3.208662 34.952749 195 195 195 0
-5.882249 3.208499 34.950973 195 195 195 0
-5.747917 3.208140 34.947056 195 195 195 0
-5.614181 3.208103 34.946660 195 195 195 0
-5.480871 3.208315 34.948964 195 195 195 0
-5.346877 3.208126 34.946906 195 195 195 0
-5.212568 3.207734 34.942638 195 195 195 0
-5.079048 3.207820 34.943570 195 195 195 0
-4.945767 3.208065 34.946246 195 195 195 0
-4.812328 3.208219 34.947916 195 195 195 0
-4.677801 3.207635 34.941557 196 196 196 0
-4.544232 3.207693 34.942193 195 195 195 0
-4.411010 3.208008 34.945616 195 195 195 0
-4.277499 3.208125 34.946890 195 195 195 0
-4.143341 3.207748 34.942790 196 196 196 0
-4.009429 3.207543 34.940556 196 196 196 0
-3.875897 3.207639 34.941602 196 196 196 0
-3.742520 3.207875 34.944169 196 196 196 0
-3.608740 3.207769 34.943019 196 196 196 0
-3.474824 3.207530 34.940415 196 196 196 0
-3.341243 3.207593 34.941099 196 196 196 0
-3.207835 3.207835 34.943736 197 197 197 0
-3.074065 3.207720 34.942480 197 197 197 0
-2.940091 3.207372 34.938697 197 197 197 0
-2.806395 3.207308 34.937997 196 196 196 0
-2.672980 3.207576 34.940913 197 197 197 0
-2.399199 3.030567 33.012715 197 197 197 0
-2.405437 3.207250 34.937359 197 197 197 0
-2.271758 3.207188 34.936688 197 197 197 0
-2.138380 3.207569 34.940842 196 196 196 0
-2.004751 3.207602 34.941199 197 197 197 0
-1.870864 3.207196 34.936776 197 197 197 0
-1.737226 3.207186 34.936667 198 198 198 0
-1.603675 3.207350 34.938450 197 197 197 0
-1.470087 3.207462 34.939671 197 197 197 0
-1.336335 3.207205 34.936868 198 198 198 0
-1.202643 3.207048 34.935168 197 197 197 0
-1.069090 3.207271 34.937592 198 198 198 0
-0.935489 3.207391 34.938898 198 198 198 0
-0.801738 3.206953 34.934130 198 198 198 0
-0.668096 3.206859 34.933105 198 198 198 0
-0.534523 3.207139 34.936150 198 198 198 0
-0.400901 3.207204 34.936865 197 197 197 0
-0.267243 3.206918 34.933745 198 198 198 0
-0.133620 3.206891 34.933449 198 198 198 0
0.000000 3.207065 34.935353 198 198 198 0
0.133637 3.207277 34.937663 198 198 198 0
0.267252 3.207025 34.934911 198 198 198 0
0.400857 3.206854 34.933045 199 199 199 0
0.534504 3.207023 34.934889 198 198 198 0
0.668173 3.207231 34.937153 198 198 198 0
0.801765 3.207060 34.935290 198 198 198 0
0.935341 3.206885 34.933387 199 199 199 0
1.068978 3.206935 34.933936 199 199 199 0
1.202672 3.207126 34.936010 199 199 199 0
1.336236 3.206967 34.934280 199 199 199 0
1.469747 3.206720 34.931593 199 199 199 0
1.603428 3.206856 34.933068 199 199 199 0
1.737092 3.206939 34.933980 199 199 199 0
1.870569 3.206691 34.931269 199 199 199 0
2.004162 3.206659 34.930924 199 199 199 0
2.137868 3.206803 34.932489 199 199 199 0
2.271613 3.206983 34.934455 200 200 200 0
2.405124 3.206832 34.932814 199 199 199 0
2.538595 3.206646 34.930786 200 200 200 0
2.672350 3.206820 34.932682 199 199 199 0
2.806120 3.206995 34.934583 199 199 199 0
2.939611 3.206848 34.932987 200 200 200 0
3.073058 3.206669 34.931039 200 200 200 0
3.206779 3.206779 34.932233 200 200 200 0
3.340597 3.206973 34.934351 199 199 199 0
3.474044 3.206810 34.932568 199 199 199 0
3.607401 3.206578 34.930048 199 199 199 0
3.741120 3.206674 34.931089 199 199 199 0
3.874872 3.206791 34.932360 200 200 200 0
4.008160 3.206528 34.929502 199 199 199 0
4.141765 3.206528 34.929496 199 199 199 0
4.275642 3.206732 34.931718 199 199 199 0
4.409421 3.206852 34.933027 200 200 200 0
4.542752 3.206649 34.930814 199 199 199 0
4.676199 3.206537 34.929593 200 200 200 0
4.810006 3.206671 34.931053 200 200 200 0
4.943824 3.206805 34.932517 200 200 200 0
5.077214 3.206662 34.930954 200 200 200 0
5.210686 3.206576 34.930022 200 200 200 0
5.344632 3.206779 34.932234 200 200 200 0
5.478275 3.206795 34.932409 200 200 200 0
5.611378 3.206501 34.929210 201 201 201 0
5.744877 3.206443 34.928574 200 200 200 0
5.878897 3.206671 34.931058 200 200 200 0
6.012491 3.206662 34.930959 201 201 201 0
6.145607 3.206404 34.928147 200 200 200 0
6.279384 3.206494 34.929130 200 200 200 0
6.413439 3.206720 34.931587 200 200 200 0
6.547046 3.206716 34.931551 201 201 201 0
6.680169 3.206481 34.928990 200 200 200 0
6.813918 3.206550 34.929735 201 201 201 0
6.947787 3.206671 34.931058 200 200 200 0
7.081335 3.206642 34.930742 200 200 200 0
7.214557 3.206470 34.928865 201 201 201 0
7.348285 3.206524 34.929458 200 200 200 0
7.482151 3.206636 34.930677 201 201 201 0
7.615620 3.206577 34.930029 201 201 201 0
7.748846 3.206419 34.928313 201 201 201 0
7.882675 3.206512 34.929323 201 201 201 0
8.016269 3.206508 34.929278 200 200 200 0
8.145646 3.204844 34.911156 200 200 200 0
8.283066 3.206348 34.927541 201 201 201 0
8.417221 3.206560 34.929850 200 200 200 0
8.551018 3.206632 34.930631 201 201 201 0
8.684025 3.206409 34.928203 201 201 201 0
8.817614 3.206405 34.928158 201 201 201 0
8.951569 3.206532 34.929545 201 201 201 0
9.085249 3.206558 34.929830 201 201 201 0
9.218458 3.206420 34.928325 201 201 201 0
9.352200 3.206468 34.928850 200 200 200 0
9.486311 3.206640 34.930723 201 201 201 0
9.619741 3.206580 34.930068 201 201 201 0
9.752684 3.206362 34.927688 201 201 201 0
9.886542 3.206446 34.928607 201 201 201 0
10.020577 3.206585 34.930118 201 201 201 0
10.153865 3.206484 34.929018 201 201 201 0
10.287026 3.206346 34.927515 201 201 201 0
10.421334 3.206564 34.929895 201 201 201 0
10.554631 3.206470 34.928868 201 201 201 0
-10.710112 3.346910 35.000365 191 191 191 0
-10.576292 3.346928 35.000551 192 192 192 0
-10.442449 3.346939 35.000666 192 192 192 0
-10.302632 3.345010 34.980501 192 192 192 0
-10.169031 3.345076 34.981188 192 192 192 0
-10.034950 3.344983 34.980218 192 192 192 0
-9.898979 3.344250 34.972545 192 192 192 0
-9.764731 3.344086 34.970834 192 192 192 0
-9.631433 3.344248 34.972525 192 192 192 0
-9.497551 3.344208 34.972112 192 192 192 0
-9.362161 3.343629 34.966055 192 192 192 0
-9.228346 3.343604 34.965791 192 192 192 0
-9.094449 3.343547 34.965201 193 193 193 0
-8.961358 3.343790 34.967742 193 193 193 0
-8.827352 3.343694 34.966733 193 193 193 0
-8.692428 3.343242 34.962004 193 193 193 0
-8.558286 3.343080 34.960318 193 193 193 0
-8.425282 3.343366 34.963305 192 192 192 0
-8.291597 3.343386 34.963510 194 194 194 0
-8.157202 3.343116 34.960687 193 193 193 0
-8.022455 3.342690 34.956233 193 193 193 0
-7.889203 3.342883 34.958249 193 193 193 0
-7.755970 3.343090 34.960423 193 193 193 0
-7.621214 3.342638 34.955690 194 194 194 0
-7.486720 3.342286 34.952009 193 193 193 0
-7.353086 3.342312 34.952282 193 193 193 0
-7.219725 3.342465 34.953884 194 194 194 0
-7.085214 3.342082 34.949878 194 194 194 0
-6.951592 3.342112 34.950188 194 194 194 0
-6.818038 3.342175 34.950852 195 195 195 0
-6.684868 3.342434 34.953556 195 195 195 0
-6.551312 3.342506 34.954312 194 194 194 0
-6.416797 3.342082 34.949877 195 195 195 0
-6.282916 3.341976 34.948773 194 194 194 0
-6.149409 3.342070 34.949750 195 195 195 0
-6.016127 3.342293 34.952083 195 195 195 0
-5.882091 3.342097 34.950038 195 195 195 0
-5.747863 3.341781 34.946727 195 195 195 0
-5.614178 3.341772 34.946639 195 195 195 0
-5.480862 3.341989 34.948904 195 195 195 0
-5.346907 3.341817 34.947104 196 196 196 0
-5.212660 3.341449 34.943258 195 195 195 0
-5.079042 3.341475 34.943526 195 195 195 0
-4.945845 3.341787 34.946793 195 195 195 0
-4.812341 3.341904 34.948013 195 195 195 0
-4.677897 3.341355 34.942276 196 196 196 0
-4.544256 3.341365 34.942375 196 196 196 0
-4.411038 3.341696 34.945836 196 196 196 0
-4.277524 3.341816 34.947092 196 196 196 0
-4.143346 3.341408 34.942833 196 196 196 0
-4.009424 3.341187 34.940515 196 196 196 0
-3.875846 3.341246 34.941137 195 195 195 0
-3.742522 3.341538 34.944184 197 197 197 0
-3.608767 3.341451 34.943273 196 196 196 0
-3.474838 3.341191 34.940555 196 196 196 0
-3.341254 3.341254 34.941217 197 197 197 0
-3.207804 3.341462 34.943393 196 196 196 0
-3.074049 3.341358 34.942304 197 197 197 0
-2.940074 3.340994 34.938496 196 196 196 0
-2.806349 3.340892 34.937429 197 197 197 0
-2.673005 3.341256 34.941237 196 196 196 0
-2.422666 3.187718 33.335617 197 197 197 0
-2.405462 3.340920 34.937722 197 197 197 0
-2.271763 3.340828 34.936760 197 197 197 0
-2.138406 3.341259 34.941273 197 197 197 0
-2.004744 3.341241 34.941080 197 197 197 0
-1.870894 3.340881 34.937323 197 197 197 0
-1.737218 3.340804 34.936508 197 197 197 0
-1.603688 3.341017 34.938743 197 197 197 0
-1.470088 3.341109 34.939701 198 198 198 0
-1.336340 3.340851 34.937001 197 197 197 0
-1.202645 3.340680 34.935211 198 198 198 0
-1.069091 3.340910 34.937625 198 198 198 0
-0.935491 3.341038 34.938962 198 198 198 0
-0.801730 3.340541 34.933763 198 198 198 0
-0.668104 3.340521 34.933557 198 198 198 0
-0.534532 3.340826 34.936740 198 198 198 0
-0.400904 3.340864 34.937140 198 198 198 0
-0.267240 3.340496 34.933294 198 198 198 0
-0.133619 3.340478 34.933104 199 199 199 0
0.000000 3.340712 34.935546 198 198 198 0
0.133637 3.340913 34.937650 198 198 198 0
0.267254 3.340672 34.935132 198 198 198 0
0.400859 3.340495 34.933286 198 198 198 0
0.534509 3.340680 34.935211 198 198 198 0
0.668167 3.340837 34.936859 198 198 198 0
0.801767 3.340697 34.935395 198 198 198 0
0.935347 3.340525 34.933597 198 198 198 0
1.068972 3.340539 34.933737 199 199 199 0
1.202671 3.340753 34.935977 199 199 199 0
1.336244 3.340611 34.934494 199 199 199 0
1.469739 3.340316 34.931407 199 199 199 0
1.603431 3.340482 34.933144 199 199 199 0
1.737103 3.340583 34.934199 199 199 199 0
1.870577 3.340316 34.931404 199 199 199 0
2.004140 3.340233 34.930545 199 199 199 0
2.137893 3.340458 34.932894 200 200 200 0
2.271631 3.340634 34.934737 199 199 199 0
2.405138 3.340470 34.933021 200 200 200 0
2.538589 3.340249 34.930706 200 200 200 0
2.672349 3.340437 34.932670 199 199 199 0
2.806117 3.340615 34.934539 200 200 200 0
2.939603 3.340458 34.932893 199 199 199 0
3.073072 3.340296 34.931198 199 199 199 0
3.206785 3.340401 34.932302 200 200 200 0
3.340562 3.340562 34.933978 200 200 200 0
3.474050 3.340433 34.932632 199 199 199 0
3.607425 3.340208 34.930279 200 200 200 0
3.741150 3.340313 34.931376 199 199 199 0
3.874881 3.340414 34.932438 200 200 200 0
4.008195 3.340162 34.929802 200 200 200 0
4.141748 3.340119 34.929351 200 200 200 0
4.275647 3.340349 34.931756 200 200 200 0
4.409450 3.340492 34.933255 200 200 200 0
4.542759 3.340264 34.930868 200 200 200 0
4.676189 3.340135 34.929519 199 199 199 0
4.810076 3.340331 34.931561 200 200 200 0
4.943902 3.340474 34.933063 200 200 200 0
5.077205 3.340267 34.930893 200 200 200 0
5.210639 3.340153 34.929705 200 200 200 0
5.344631 3.340395 34.932231 200 200 200 0
5.478278 3.340413 34.932425 200 200 200 0
5.611363 3.340097 34.929117 200 200 200 0
5.744840 3.340024 34.928351 200 200 200 0
5.878882 3.340274 34.930966 200 200 200 0
6.012544 3.340302 34.931266 200 200 200 0
6.145610 3.340006 34.928164 200 200 200 0
6.279362 3.340086 34.929008 201 201 201 0
6.413481 3.340355 34.931815 200 200 200 0
6.547058 3.340336 34.931617 200 200 200 0
6.680111 3.340055 34.928683 200 200 200 0
6.813911 3.340152 34.929699 200 200 200 0
6.947819 3.340298 34.931219 200 200 200 0
7.081371 3.340269 34.930921 201 201 201 0
7.214554 3.340071 34.928850 200 200 200 0
7.348302 3.340137 34.929540 201 201 201 0
7.482183 3.340260 34.930824 200 200 200 0
7.615636 3.340191 34.930104 201 201 201 0
7.748854 3.340023 34.928346 201 201 201 0
7.882640 3.340102 34.929170 200 200 200 0
8.016369 3.340154 34.929713 201 201 201 0
8.146155 3.338588 34.913339 201 201 201 0
8.283091 3.339956 34.927645 200 200 200 0
8.417179 3.340150 34.929676 201 201 201 0
8.551019 3.340242 34.930634 201 201 201 0
8.684053 3.340021 34.928320 200 200 200 0
8.817708 3.340041 34.928533 201 201 201 0
8.951595 3.340147 34.929645 200 200 200 0
9.085193 3.340145 34.929616 200 200 200 0
9.218412 3.340004 34.928150 201 201 201 0
9.352201 3.340072 34.928854 200 200 200 0
9.486301 3.340247 34.930687 201 201 201 0
9.619671 3.340164 34.929815 201 201 201 0
9.752673 3.339957 34.927651 201 201 201 0
9.886451 3.340017 34.928285 201 201 201 0
10.020532 3.340177 34.929958 201 201 201 0
10.153837 3.340078 34.928921 201 201 201 0
10.287106 3.339969 34.927785 201 201 201 0
10.421215 3.340133 34.929496 201 201 201 0
10.554638 3.340075 34.928892 200 200 200 0
-10.710114 3.480787 35.000373 191 191 191 0
-10.576283 3.480802 35.000522 191 191 191 0
-10.442444 3.480815 35.000651 192 192 192 0
-10.302510 3.478770 34.980087 191 191 191 0
-10.169448 3.479022 34.982620 192 192 192 0
-10.034750 3.478713 34.979522 192 192 192 0
-9.898989 3.478023 34.972581 192 192 192 0
-9.764422 3.477739 34.969727 192 192 192 0
-9.631446 3.478022 34.972571 192 192 192 0
-9.497478 3.477950 34.971844 193 193 193 0
-9.361898 3.477276 34.965072 192 192 192 0
-9.228316 3.477337 34.965676 192 192 192 0
-9.094763 3.477409 34.966407 193 193 193 0
-8.961584 3.477630 34.968623 193 193 193 0
-8.826986 3.477298 34.965285 193 193 193 0
-8.692347 3.476939 34.961677 193 193 193 0
-8.558258 3.476792 34.960205 193 193 193 0
-8.425258 3.477091 34.963205 193 193 193 0
-8.291577 3.477113 34.963427 193 193 193 0
-8.157547 3.476987 34.962166 194 194 194 0
-8.022556 3.476441 34.956669 193 193 193 0
-7.889132 3.476567 34.957934 193 193 193 0
-7.755862 3.476766 34.959939 194 194 194 0
-7.621057 3.476272 34.954968 193 193 193 0
-7.486734 3.475983 34.952071 194 194 194 0
-7.352973 3.475951 34.951743 194 194 194 0
-7.219603 3.476105 34.953293 193 193 193 0
-7.085268 3.475792 34.950144 194 194 194 0
-6.951658 3.475829 34.950518 194 194 194 0
-6.818029 3.475858 34.950807 194 194 194 0
-6.684734 3.476061 34.952856 194 194 194 0
-6.551324 3.476213 34.954378 194 194 194 0
-6.416903 3.475823 34.950453 194 194 194 0
-6.282821 3.475603 34.948248 194 194 194 0
-6.149350 3.475720 34.949420 194 194 194 0
-6.016044 3.475937 34.951599 195 195 195 0
-5.882122 3.475799 34.950219 195 195 195 0
-5.747761 3.475391 34.946110 195 195 195 0
-5.614198 3.475456 34.946765 195 195 195 0
-5.480870 3.475674 34.948956 194 194 194 0
-5.346979 3.475536 34.947572 194 194 194 0
-5.212619 3.475079 34.942980 195 195 195 0
-5.079025 3.475122 34.943410 196 196 196 0
-4.945787 3.475418 34.946383 196 196 196 0
-4.812369 3.475600 34.948210 195 195 195 0
-4.677894 3.475007 34.942255 196 196 196 0
-4.544272 3.475031 34.942496 196 196 196 0
-4.411045 3.475369 34.945894 196 196 196 0
-4.277526 3.475490 34.947110 196 196 196 0
-4.143352 3.475070 34.942884 196 196 196 0
-4.009435 3.474843 34.940606 195 195 195 0
-3.875876 3.474923 34.941411 197 197 197 0
-3.742529 3.475205 34.944244 196 196 196 0
-3.608759 3.475101 34.943201 196 196 196 0
-3.474888 3.474888 34.941052 196 196 196 0
-3.341267 3.474918 34.941359 196 196 196 0
-3.207814 3.475132 34.943513 196 196 196 0
-3.074074 3.475041 34.942591 197 197 197 0
-2.940097 3.474661 34.938769 197 197 197 0
-2.806361 3.474542 34.937579 197 197 197 0
-2.672982 3.474877 34.940945 197 197 197 0
-2.443891 3.344272 33.627672 197 197 197 0
-2.405441 3.474527 34.937421 197 197 197 0
-2.271775 3.474479 34.936943 197 197 197 0
-2.138412 3.474919 34.941372 198 198 198 0
-2.004744 3.474889 34.941067 198 198 198 0
-1.870890 3.474510 34.937255 198 198 198 0
-1.737246 3.474493 34.937079 198 198 198 0
-1.603685 3.474651 34.938671 197 197 197 0
-1.470093 3.474766 34.939826 198 198 198 0
-1.336341 3.474486 34.937014 198 198 198 0
-1.202656 3.474340 34.935549 198 198 198 0
-1.069094 3.474555 34.937712 197 197 197 0
-0.935490 3.474679 34.938951 197 197 197 0
-0.801742 3.474214 34.934279 197 197 197 0
-0.668096 3.474097 34.933099 198 198 198 0
-0.534524 3.474407 34.936214 198 198 198 0
-0.400903 3.474494 34.937089 198 198 198 0
-0.267243 3.474156 34.933696 198 198 198 0
-0.133620 3.474130 34.933438 198 198 198 0
0.000000 3.474321 34.935356 198 198 198 0
0.133637 3.474552 34.937673 198 198 198 0
0.267252 3.474279 34.934932 198 198 198 0
0.400858 3.474100 34.933129 199 199 199 0
0.534505 3.474279 34.934936 198 198 198 0
0.668168 3.474472 34.936877 198 198 198 0
0.801773 3.474350 34.935644 198 198 198 0
0.935339 3.474118 34.933313 199 199 199 0
1.068971 3.474157 34.933706 199 199 199 0
1.202670 3.474379 34.935941 198 198 198 0
1.336235 3.474210 34.934243 199 199 199 0
1.469741 3.473932 34.931446 199 199 199 0
1.603418 3.474071 34.932844 199 199 199 0
1.737103 3.474206 34.934203 199 199 199 0
1.870564 3.473904 34.931161 199 199 199 0
2.004140 3.473843 34.930544 199 199 199 0
2.137881 3.474057 34.932700 199 199 199 0
2.271636 3.474267 34.934810 199 199 199 0
2.405121 3.474064 34.932773 199 199 199 0
2.538580 3.473846 34.930583 199 199 199 0
2.672312 3.474005 34.932177 199 199 199 0
2.806097 3.474215 34.934287 199 199 199 0
2.939634 3.474113 34.933266 200 200 200 0
3.073092 3.473930 34.931427 199 199 199 0
3.206786 3.474018 34.932304 199 199 199 0
3.340586 3.474209 34.934231 200 200 200 0
3.474090 3.474090 34.933027 200 200 200 0
3.607431 3.473822 34.930337 200 200 200 0
3.741159 3.473933 34.931454 200 200 200 0
3.874895 3.474044 34.932565 200 200 200 0
4.008188 3.473763 34.929747 200 200 200 0
4.141733 3.473712 34.929230 200 200 200 0
4.275655 3.473969 34.931818 200 200 200 0
4.409436 3.474101 34.933140 200 200 200 0
4.542744 3.473863 34.930751 199 199 199 0
4.676224 3.473766 34.929776 201 201 201 0
4.810020 3.473903 34.931151 200 200 200 0
4.943862 3.474065 34.932783 200 200 200 0
5.077210 3.473881 34.930926 200 200 200 0
5.210731 3.473820 34.930321 200 200 200 0
5.344608 3.473995 34.932079 200 200 200 0
5.478269 3.474024 34.932372 200 200 200 0
5.611368 3.473704 34.929150 200 200 200 0
5.744840 3.473624 34.928351 201 201 201 0
5.878917 3.473905 34.931175 200 200 200 0
6.012506 3.473892 34.931044 200 200 200 0
6.145621 3.473612 34.928226 200 200 200 0
6.279381 3.473700 34.929110 200 200 200 0
6.413482 3.473970 34.931821 201 201 201 0
6.547046 3.473943 34.931551 201 201 201 0
6.680141 3.473673 34.928841 201 201 201 0
6.813951 3.473779 34.929905 201 201 201 0
6.947780 3.473890 34.931023 200 200 200 0
7.081372 3.473881 34.930926 201 201 201 0
7.214591 3.473692 34.929028 201 201 201 0
7.348238 3.473713 34.929238 201 201 201 0
7.482213 3.473885 34.930968 200 200 200 0
7.615723 3.473839 34.930504 200 200 200 0
7.748844 3.473620 34.928301 200 200 200 0
7.882730 3.473746 34.929569 201 201 201 0
8.016301 3.473731 34.929417 201 201 201 0
8.146469 3.472265 34.914684 201 201 201 0
8.283054 3.473539 34.927488 201 201 201 0
8.417216 3.473772 34.929831 200 200 200 0
8.551020 3.473852 34.930639 200 200 200 0
8.684061 3.473625 34.928351 201 201 201 0
8.817624 3.473609 34.928199 201 201 201 0
8.951626 3.473765 34.929768 201 201 201 0
9.085168 3.473741 34.929519 200 200 200 0
9.218422 3.473608 34.928189 200 200 200 0
9.352017 3.473606 34.928167 200 200 200 0
9.486252 3.473839 34.930506 201 201 201 0
9.619730 3.473792 34.930031 201 201 201 0
9.752678 3.473557 34.927668 200 200 200 0
9.886502 3.473636 34.928465 201 201 201 0
10.020565 3.473796 34.930074 201 201 201 0
10.153785 3.473663 34.928740 201 201 201 0
10.287046 3.473548 34.927582 201 201 201 0
10.421271 3.473757 34.929683 201 201 201 0
10.554577 3.473658 34.928692 201 201 201 0
-10.710111 3.614662 35.000361 191 191 191 0
-10.576261 3.614672 35.000450 191 191 191 0
-10.442432 3.614688 35.000610 191 191 191 0
-10.302747 3.612651 34.980891 191 191 191 0
-10.169246 3.612759 34.981928 191 191 191 0
-10.035257 3.612693 34.981289 192 192 192 0
-9.899009 3.611800 34.972650 191 191 191 0
-9.764434 3.611503 34.969770 192 192 192 0
-9.631158 3.611684 34.971525 193 193 193 0
-9.497315 3.611655 34.971241 192 192 192 0
-9.362150 3.611115 34.966014 192 192 192 0
-9.228284 3.611068 34.965554 193 193 193 0
-9.094836 3.611185 34.966691 193 193 193 0
-8.961323 3.611279 34.967605 192 192 192 0
-8.827079 3.611078 34.965651 192 192 192 0
-8.692360 3.610673 34.961730 193 193 193 0
-8.558528 3.610629 34.961307 193 193 193 0
-8.425158 3.610782 34.962790 193 193 193 0
-8.291669 3.610888 34.963818 194 194 194 0
-8.157169 3.610550 34.960546 193 193 193 0
-8.022599 3.610169 34.956857 193 193 193 0
-7.889125 3.610278 34.957904 193 193 193 0
-7.756024 3.610563 34.960669 193 193 193 0
-7.621375 3.610125 34.956425 194 194 194 0
-7.486827 3.609720 34.952507 194 194 194 0
-7.352927 3.609619 34.951523 194 194 194 0
-7.219715 3.609857 34.953837 194 194 194 0
-7.085274 3.609479 34.950173 195 195 195 0
-6.951590 3.609479 34.950175 194 194 194 0
-6.818046 3.609554 34.950894 194 194 194 0
-6.684825 3.609806 34.953334 194 194 194 0
-6.551223 3.609858 34.953839 194 194 194 0
-6.416754 3.609424 34.949639 194 194 194 0
-6.282825 3.609283 34.948271 195 195 195 0
-6.149316 3.609381 34.949222 194 194 194 0
-6.016119 3.609671 34.952033 195 195 195 0
-5.882188 3.609525 34.950615 195 195 195 0
-5.747773 3.609067 34.946181 194 194 194 0
-5.614177 3.609114 34.946636 195 195 195 0
-5.480970 3.609419 34.949592 195 195 195 0
-5.347074 3.609275 34.948197 195 195 195 0
-5.212590 3.608716 34.942787 195 195 195 0
-5.078976 3.608746 34.943074 195 195 195 0
-4.945785 3.609086 34.946369 195 195 195 0
-4.812338 3.609254 34.947990 195 195 195 0
-4.677891 3.608659 34.942231 195 195 195 0
-4.544279 3.608692 34.942550 196 196 196 0
-4.411040 3.609033 34.945853 196 196 196 0
-4.277556 3.609188 34.947351 196 196 196 0
-4.143261 3.608646 34.942110 196 196 196 0
-4.009430 3.608487 34.940566 196 196 196 0
-3.875901 3.608598 34.941640 196 196 196 0
-3.742500 3.608840 34.943980 196 196 196 0
-3.608782 3.608782 34.943420 196 196 196 0
-3.474837 3.608485 34.940544 196 196 196 0
-3.341301 3.608605 34.941711 197 197 197 0
-3.207764 3.608734 34.942959 197 197 197 0
-3.074091 3.608715 34.942778 197 197 197 0
-2.940099 3.608304 34.938792 197 197 197 0
-2.806394 3.608220 34.937985 196 196 196 0
-2.672978 3.608521 34.940894 197 197 197 0
-2.458164 3.493180 33.824063 197 197 197 0
-2.405435 3.608152 34.937321 197 197 197 0
-2.271808 3.608166 34.937455 197 197 197 0
-2.138386 3.608527 34.940951 197 197 197 0
-2.004741 3.608534 34.941020 197 197 197 0
-1.870899 3.608162 34.937423 197 197 197 0
-1.737239 3.608111 34.936924 198 198 198 0
-1.603687 3.608295 34.938710 198 198 198 0
-1.470087 3.608395 34.939671 198 198 198 0
-1.336330 3.608090 34.936726 198 198 198 0
-1.202630 3.607891 34.934796 197 197 197 0
-1.069090 3.608180 34.937597 197 197 197 0
-0.935489 3.608313 34.938886 198 198 198 0
-0.801742 3.607837 34.934277 197 197 197 0
-0.668088 3.607674 34.932691 197 197 197 0
-0.534525 3.608047 34.936302 198 198 198 0
-0.400904 3.608136 34.937172 198 198 198 0
-0.267242 3.607772 34.933640 198 198 198 0
-0.133622 3.607786 34.933779 198 198 198 0
0.000000 3.607979 34.935649 198 198 198 0
0.133637 3.608202 34.937811 198 198 198 0
0.267249 3.607864 34.934538 198 198 198 0
0.400859 3.607734 34.933273 198 198 198 0
0.534504 3.607899 34.934874 198 198 198 0
0.668169 3.608112 34.936938 199 199 199 0
0.801778 3.608001 34.935862 198 198 198 0
0.935334 3.607715 34.933093 199 199 199 0
1.068987 3.607831 34.934210 198 198 198 0
1.202672 3.608016 34.936006 199 199 199 0
1.336243 3.607856 34.934461 199 199 199 0
1.469763 3.607599 34.931969 199 199 199 0
1.603426 3.607708 34.933025 199 199 199 0
1.737102 3.607828 34.934184 198 198 198 0
1.870564 3.607516 34.931167 199 199 199 0
2.004132 3.607437 34.930401 199 199 199 0
2.137864 3.607645 34.932416 199 199 199 0
2.271651 3.607917 34.935047 199 199 199 0
2.405118 3.607677 34.932726 199 199 199 0
2.538595 3.607478 34.930793 199 199 199 0
2.672333 3.607650 34.932461 199 199 199 0
2.806117 3.607864 34.934536 199 199 199 0
2.939633 3.607731 34.933247 200 200 200 0
3.073070 3.607517 34.931170 199 199 199 0
3.206794 3.607644 34.932399 199 199 199 0
3.340610 3.607859 34.934482 199 199 199 0
3.474074 3.607693 34.932876 200 200 200 0
3.607440 3.607440 34.930429 199 199 199 0
3.741189 3.607575 34.931733 199 199 199 0
3.874887 3.607653 34.932492 199 199 199 0
4.008164 3.607348 34.929534 201 201 201 0
4.141707 3.607293 34.929006 200 200 200 0
4.275658 3.607586 34.931844 200 200 200 0
4.409444 3.607727 34.933207 200 200 200 0
4.542732 3.607464 34.930658 200 200 200 0
4.676193 3.607349 34.929545 200 200 200 0
4.810026 3.607519 34.931196 200 200 200 0
4.943865 3.607685 34.932802 200 200 200 0
5.077224 3.607502 34.931024 200 200 200 0
5.210668 3.607386 34.929903 200 200 200 0
5.344600 3.607605 34.932027 200 200 200 0
5.478250 3.607628 34.932248 200 200 200 0
5.611381 3.607317 34.929233 200 200 200 0
5.744890 3.607257 34.928654 200 200 200 0
5.878885 3.607497 34.930983 200 200 200 0
6.012514 3.607508 34.931090 200 200 200 0
6.145628 3.607217 34.928265 200 200 200 0
6.279377 3.607302 34.929092 201 201 201 0
6.413457 3.607570 34.931683 200 200 200 0
6.547072 3.607570 34.931688 200 200 200 0
6.680153 3.607283 34.928904 200 200 200 0
6.813921 3.607370 34.929749 201 201 201 0
6.947795 3.607509 34.931097 201 201 201 0
7.081403 3.607507 34.931081 201 201 201 0
7.214545 3.607272 34.928805 201 201 201 0
7.348303 3.607349 34.929547 200 200 200 0
7.482189 3.607484 34.930854 200 200 200 0
7.615686 3.607430 34.930333 201 201 201 0
7.748846 3.607221 34.928312 200 200 200 0
7.882651 3.607315 34.929217 200 200 200 0
8.016345 3.607355 34.929606 200 200 200 0
8.146596 3.605870 34.915231 200 200 200 0
8.283104 3.607158 34.927700 201 201 201 0
8.417164 3.607356 34.929614 201 201 201 0
8.550987 3.607448 34.930501 201 201 201 0
8.684066 3.607227 34.928368 201 201 201 0
8.817671 3.607229 34.928386 201 201 201 0
8.951634 3.607375 34.929796 201 201 201 0
9.085144 3.607336 34.929426 201 201 201 0
9.218448 3.607219 34.928285 201 201 201 0
9.352031 3.607212 34.928219 201 201 201 0
9.486186 3.607423 34.930263 201 201 201 0
9.619759 3.607410 34.930134 200 200 200 0
9.752720 3.607170 34.927819 201 201 201 0
9.886541 3.607252 34.928604 201 201 201 0
10.020600 3.607416 34.930196 201 201 201 0
10.153854 3.607290 34.928980 201 201 201 0
10.287082 3.607159 34.927704 200 200 200 0
10.421271 3.607363 34.929683 201 201 201 0
10.554565 3.607256 34.928649 201 201 201 0
-10.710109 3.748538 35.000358 191 191 191 0
-10.576279 3.748555 35.000510 191 191 191 0
-10.442445 3.748570 35.000653 191 191 191 0
-10.302469 3.746353 34.979949 192 192 192 0
-10.169329 3.746595 34.982213 192 192 192 0
-10.034997 3.746399 34.980383 191 191 191 0
-9.898832 3.745504 34.972026 192 192 192 0
-9.764425 3.745259 34.969738 192 192 192 0
-9.631372 3.745534 34.972304 192 192 192 0
-9.497347 3.745433 34.971360 192 192 192 0
-9.361834 3.744733 34.964832 192 192 192 0
-9.228151 3.744757 34.965052 192 192 192 0
-9.094570 3.744823 34.965666 192 192 192 0
-8.961297 3.745019 34.967502 192 192 192 0
-8.827149 3.744851 34.965931 193 193 193 0
-8.692467 3.744447 34.962161 193 193 193 0
-8.558187 3.744207 34.959916 192 192 192 0
-8.425267 3.744563 34.963240 193 193 193 0
-8.291870 3.744715 34.964663 193 193 193 0
-8.157219 3.744297 34.960758 193 193 193 0
-8.022437 3.743804 34.956154 194 194 194 0
-7.889171 3.744014 34.958110 193 193 193 0
-7.755911 3.744233 34.960158 193 193 193 0
-7.621255 3.743775 34.955878 193 193 193 0
-7.486738 3.743369 34.952092 194 194 194 0
-7.352925 3.743307 34.951515 194 194 194 0
-7.219717 3.743557 34.953848 194 194 194 0
-7.085236 3.743144 34.949988 194 194 194 0
-6.951734 3.743241 34.950900 194 194 194 0
-6.818041 3.743238 34.950870 195 195 195 0
-6.684845 3.743513 34.953438 194 194 194 0
-6.551275 3.743586 34.954115 194 194 194 0
-6.416772 3.743117 34.949741 194 194 194 0
-6.282914 3.743013 34.948766 194 194 194 0
-6.149418 3.743124 34.949804 195 195 195 0
-6.016068 3.743331 34.951737 194 194 194 0
-5.882189 3.743211 34.950616 195 195 195 0
-5.747902 3.742820 34.946968 195 195 195 0
-5.614216 3.742811 34.946880 195 195 195 0
-5.480916 3.743064 34.949248 196 196 196 0
-5.347063 3.742944 34.948124 195 195 195 0
-5.212700 3.742451 34.943520 195 195 195 0
-5.078904 3.742351 34.942582 195 195 195 0
-4.945721 3.742708 34.945917 195 195 195 0
-4.812393 3.742972 34.948386 195 195 195 0
-4.677895 3.742316 34.942259 196 196 196 0
-4.544312 3.742375 34.942807 196 196 196 0
-4.411038 3.742699 34.945833 196 196 196 0
-4.277538 3.742845 34.947203 196 196 196 0
-4.143368 3.742397 34.943019 196 196 196 0
-4.009478 3.742180 34.940988 196 196 196 0
-3.875848 3.742198 34.941161 196 196 196 0
-3.742490 3.742490 34.943886 196 196 196 0
-3.608781 3.742440 34.943417 196 196 196 0
-3.474876 3.742174 34.940932 196 196 196 0
-3.341307 3.742264 34.941771 196 196 196 0
-3.207837 3.742477 34.943760 197 197 197 0
-3.074039 3.742308 34.942188 196 196 196 0
-2.940168 3.742032 34.939609 196 196 196 0
-2.806403 3.741870 34.938099 196 196 196 0
-2.673043 3.742260 34.941739 197 197 197 0
-2.461662 3.627713 33.872202 197 197 197 0
-2.405451 3.741813 34.937562 197 197 197 0
-2.271807 3.741799 34.937436 197 197 197 0
-2.138411 3.742219 34.941357 197 197 197 0
-2.004729 3.742161 34.940811 196 196 196 0
-1.870901 3.741801 34.937453 197 197 197 0
-1.737246 3.741760 34.937064 197 197 197 0
-1.603686 3.741935 34.938701 197 197 197 0
-1.470100 3.742074 34.939997 198 198 198 0
-1.336350 3.741781 34.937267 197 197 197 0
-1.202645 3.741562 34.935216 197 197 197 0
-1.069076 3.741767 34.937134 198 198 198 0
-0.935476 3.741905 34.938426 198 198 198 0
-0.801746 3.741481 34.934463 198 198 198 0
-0.668096 3.741338 34.933130 197 197 197 0
-0.534529 3.741705 34.936555 198 198 198 0
-0.400904 3.741768 34.937138 198 198 198 0
-0.267244 3.741418 34.933878 197 197 197 0
-0.133622 3.741409 34.933788 197 197 197 0
0.000000 3.741604 34.935610 199 199 199 0
0.133637 3.741827 34.937691 198 198 198 0
0.267252 3.741532 34.934941 198 198 198 0
0.400857 3.741334 34.933094 198 198 198 0
0.534504 3.741527 34.934896 198 198 198 0
0.668172 3.741765 34.937119 198 198 198 0
0.801771 3.741596 34.935541 198 198 198 0
0.935329 3.741318 34.932938 199 199 199 0
1.068985 3.741446 34.934137 199 199 199 0
1.202672 3.741647 34.936011 199 199 199 0
1.336245 3.741486 34.934507 199 199 199 0
1.469743 3.741164 34.931502 199 199 199 0
1.603440 3.741361 34.933338 198 198 198 0
1.737096 3.741437 34.934054 199 199 199 0
1.870574 3.741148 34.931354 199 199 199 0
2.004153 3.741086 34.930778 199 199 199 0
2.137864 3.741263 34.932424 199 199 199 0
2.271633 3.741513 34.934765 199 199 199 0
2.405104 3.741272 34.932516 199 199 199 0
2.538592 3.741082 34.930742 199 199 199 0
2.672357 3.741300 34.932770 200 200 200 0
2.806107 3.741476 34.934414 199 199 199 0
2.939639 3.741358 34.933319 199 199 199 0
3.073105 3.741172 34.931575 200 200 200 0
3.206757 3.741216 34.931989 199 199 199 0
3.340608 3.741481 34.934463 200 200 200 0
3.474073 3.741310 34.932865 199 199 199 0
3.607428 3.741037 34.930315 199 199 199 0
3.741188 3.741188 34.931730 199 199 199 0
3.874880 3.741263 34.932429 200 200 200 0
4.008220 3.741005 34.930020 200 200 200 0
4.141776 3.740959 34.929585 200 200 200 0
4.275649 3.741193 34.931777 200 200 200 0
4.409451 3.741352 34.933263 200 200 200 0
4.542756 3.741093 34.930839 200 200 200 0
4.676218 3.740974 34.929731 199 199 199 0
4.810019 3.741126 34.931149 200 200 200 0
4.943886 3.741319 34.932952 200 200 200 0
5.077228 3.741116 34.931052 199 199 199 0
5.210702 3.741017 34.930127 200 200 200 0
5.344614 3.741230 34.932121 200 200 200 0
5.478271 3.741258 34.932382 200 200 200 0
5.611413 3.740942 34.929429 200 200 200 0
5.744807 3.740804 34.928146 200 200 200 0
5.878863 3.741095 34.930857 201 201 201 0
6.012515 3.741120 34.931096 201 201 201 0
6.145651 3.740831 34.928397 200 200 200 0
6.279351 3.740890 34.928945 201 201 201 0
6.413458 3.741184 34.931689 201 201 201 0
6.546983 3.741133 34.931217 200 200 200 0
6.680102 3.740857 34.928638 200 200 200 0
6.813840 3.740932 34.929336 200 200 200 0
6.947820 3.741134 34.931223 200 200 200 0
7.081355 3.741093 34.930844 201 201 201 0
7.214632 3.740920 34.929226 200 200 200 0
7.348277 3.740941 34.929423 200 200 200 0
7.482218 3.741109 34.930992 201 201 201 0
7.615654 3.741023 34.930185 201 201 201 0
7.748832 3.740816 34.928249 201 201 201 0
7.882704 3.740944 34.929454 200 200 200 0
8.016266 3.740924 34.929265 201 201 201 0
8.146424 3.739342 34.914494 201 201 201 0
8.283024 3.740720 34.927361 200 200 200 0
8.417228 3.740990 34.929882 200 200 200 0
8.550991 3.741059 34.930519 201 201 201 0
8.684036 3.740815 34.928249 201 201 201 0
8.817719 3.740850 34.928575 200 200 200 0
8.951633 3.740981 34.929794 201 201 201 0
9.085151 3.740945 34.929455 201 201 201 0
9.218454 3.740822 34.928310 201 201 201 0
9.352148 3.740859 34.928656 201 201 201 0
9.486247 3.741055 34.930487 201 201 201 0
9.619772 3.741023 34.930183 201 201 201 0
9.752674 3.740752 34.927653 201 201 201 0
9.886482 3.740831 34.928393 201 201 201 0
