ply
    format ascii 1.0
    element vertex 25597
    property float x
    property float y
    property float z
    property uchar red
    property uchar green
    property uchar blue
    property uchar alpha
    end_header
6.739608 0.945910 30.912087 208 208 208 0
6.862980 0.946618 30.935227 209 209 209 0
6.974439 0.945687 30.904793 209 209 209 0
7.093726 0.945830 30.909483 209 209 209 0
7.206050 0.945056 30.884176 208 208 208 0
7.330661 0.945892 30.911497 208 208 208 0
7.463690 0.947770 30.972879 209 209 209 0
7.595178 0.949397 31.026054 208 208 208 0
7.709524 0.948864 31.008642 208 208 208 0
7.807247 0.946333 30.925916 208 208 208 0
7.928781 0.946720 30.938567 209 209 209 0
8.063166 0.948608 31.000253 209 209 209 0
8.169802 0.947223 30.955014 209 209 209 0
8.267359 0.944841 30.877159 208 208 208 0
8.378904 0.944102 30.853001 209 209 209 0
8.522319 0.946924 30.945239 208 208 208 0
8.646847 0.947600 30.967309 209 209 209 0
8.758487 0.946863 30.943250 208 208 208 0
8.869327 0.946061 30.917042 209 209 209 0
8.997407 0.947095 30.950831 208 208 208 0
9.130564 0.948630 31.000983 209 209 209 0
9.250925 0.948813 31.006955 208 208 208 0
9.351407 0.946978 30.946990 209 209 209 0
-8.355949 0.940044 27.307022 200 200 200 0
-8.352032 0.951497 27.639719 199 199 199 0
-8.365631 0.965265 28.039654 200 200 200 0
-8.262783 0.965780 28.054607 200 200 200 0
-8.167516 0.967206 28.096030 200 200 200 0
-8.058980 0.967078 28.092305 200 200 200 0
-7.995311 0.972403 28.246991 200 200 200 0
-7.999657 0.986259 28.649503 200 200 200 0
-7.914560 0.989320 28.738418 201 201 201 0
-7.756367 0.983202 28.560683 201 201 201 0
-7.677054 0.987050 28.672471 200 200 200 0
-7.673157 1.000847 29.073250 200 200 200 0
-7.623982 1.009056 29.311734 200 200 200 0
-7.430819 0.998170 28.995488 201 201 201 0
-7.255249 0.989352 28.739349 200 200 200 0
-7.189640 0.995489 28.917606 201 201 201 0
-7.228838 1.016555 29.529566 201 201 201 0
-7.086061 1.012294 29.405793 201 201 201 0
-6.899486 1.001538 29.093341 201 201 201 0
-6.750801 0.996020 28.933036 201 201 201 0
-6.654228 0.998134 28.994456 202 202 202 0
-6.651684 1.014664 29.474618 201 201 201 0
-6.543306 1.015341 29.494280 201 201 201 0
-6.366284 1.005203 29.199787 202 202 202 0
-6.237635 1.002477 29.120611 201 201 201 0
-6.183158 1.011789 29.391124 202 202 202 0
-6.115780 1.019297 29.609197 202 202 202 0
-6.007126 1.020078 29.631894 202 202 202 0
-5.875036 1.016833 29.537637 202 202 202 0
-5.763833 1.017147 29.546756 201 201 201 0
-5.702445 1.026440 29.816707 202 202 202 0
-5.611658 1.030713 29.940818 202 202 202 0
-5.481664 1.027812 29.856559 202 202 202 0
-5.349537 1.024379 29.756847 203 203 203 0
-5.237663 1.024760 29.767905 203 203 203 0
-5.161803 1.032361 29.988689 202 202 202 0
-5.072178 1.037491 30.137719 203 203 203 0
-4.918229 1.029397 29.902591 203 203 203 0
-4.782191 1.024755 29.767763 203 203 203 0
-4.680580 1.027444 29.845876 203 203 203 0
-4.580441 1.030599 29.937520 203 203 203 0
-4.471052 1.031781 29.971861 203 203 203 0
-4.351857 1.030703 29.940536 203 203 203 0
-4.237570 1.030760 29.942199 203 203 203 0
-4.134591 1.033648 30.026081 203 203 203 0
-4.027746 1.035706 30.085874 203 203 203 0
-3.909265 1.034805 30.059707 204 204 204 0
-3.804016 1.037459 30.136785 203 203 203 0
-3.695138 1.039258 30.189035 204 204 204 0
-3.573191 1.037378 30.134440 204 204 204 0
-3.464009 1.039203 30.187442 204 204 204 0
-3.367591 1.045114 30.359168 204 204 204 0
-3.254700 1.046154 30.389358 204 204 204 0
-3.128636 1.042879 30.294228 204 204 204 0
-3.009324 1.041689 30.259671 204 204 204 0
-2.903248 1.045169 30.360761 204 204 204 0
-2.791785 1.046919 30.411603 204 204 204 0
-2.668455 1.044178 30.331971 204 204 204 0
-2.541906 1.039871 30.206842 204 204 204 0
-2.420141 1.037203 30.129360 205 205 205 0
-2.320668 1.044300 30.335526 205 205 205 0
-2.215387 1.049394 30.483477 204 204 204 0
-2.094324 1.047162 30.418652 205 205 205 0
-1.970271 1.043084 30.300200 205 205 205 0
-1.855222 1.043563 30.314093 205 205 205 0
-1.747136 1.048282 30.451173 205 205 205 0
-1.634958 1.051044 30.531429 205 205 205 0
-1.512842 1.047352 30.424173 204 204 204 0
-1.395710 1.046782 30.407622 205 205 205 0
-1.285011 1.051372 30.540954 205 205 205 0
-1.175712 1.058141 30.737570 205 205 205 0
-1.054650 1.054650 30.636160 205 205 205 0
-0.934019 1.050771 30.523482 205 205 205 0
-0.818333 1.052143 30.563329 206 206 206 0
-0.707167 1.060750 30.813371 205 205 205 0
-0.587826 1.058086 30.735988 205 205 205 0
-0.467581 1.052057 30.560855 205 205 205 0
-0.349353 1.048060 30.444739 205 205 205 0
-0.233039 1.048677 30.462666 205 205 205 0
-0.117200 1.054799 30.640493 206 206 206 0
0.000000 1.053930 30.615242 206 206 206 0
0.116671 1.050035 30.502095 206 206 206 0
0.233415 1.050369 30.511801 206 206 206 0
0.351406 1.054218 30.623626 206 206 206 0
0.468679 1.054528 30.632628 206 206 206 0
0.585659 1.054187 30.622704 206 206 206 0
0.702502 1.053752 30.610091 205 205 205 0
0.821175 1.055796 30.669466 206 206 206 0
0.940891 1.058502 30.748070 206 206 206 0
1.059271 1.059271 30.770406 206 206 206 0
1.174882 1.057394 30.715867 206 206 206 0
1.292982 1.057894 30.730406 206 206 206 0
1.411279 1.058459 30.746808 206 206 206 0
1.532080 1.060671 30.811068 206 206 206 0
1.646027 1.058160 30.738140 206 206 206 0
1.760847 1.056508 30.690150 206 206 206 0
1.876389 1.055469 30.659943 206 206 206 0
1.994320 1.055817 30.670052 207 207 207 0
2.114343 1.057172 30.709419 207 207 207 0
2.233819 1.058125 30.737097 206 206 206 0
2.354938 1.059722 30.783510 207 207 207 0
2.467195 1.057369 30.715156 207 207 207 0
2.585554 1.057727 30.725541 207 207 207 0
2.708644 1.059904 30.788790 207 207 207 0
2.829187 1.060945 30.819034 207 207 207 0
2.943898 1.059803 30.785859 207 207 207 0
3.055972 1.057837 30.728729 207 207 207 0
3.188736 1.062912 30.876165 207 207 207 0
3.315269 1.065622 30.954890 207 207 207 0
3.424697 1.062837 30.873988 207 207 207 0
3.532226 1.059668 30.781930 208 208 208 0
3.654935 1.061110 30.823822 207 207 207 0
3.789128 1.065692 30.956931 207 207 207 0
3.895809 1.062493 30.864006 208 208 208 0
4.000138 1.058860 30.758464 207 207 207 0
4.112345 1.057460 30.717794 208 208 208 0
4.249531 1.062383 30.860791 208 208 208 0
4.376162 1.064472 30.921477 207 207 207 0
4.481407 1.061386 30.831830 208 208 208 0
4.596398 1.060707 30.812122 207 207 207 0
4.723839 1.062864 30.874765 208 208 208 0
4.844937 1.063523 30.893904 207 207 207 0
4.958477 1.062531 30.865092 207 207 207 0
5.069367 1.061030 30.821505 208 208 208 0
5.190863 1.061767 30.842915 208 208 208 0
5.331738 1.066348 30.975965 207 207 207 0
5.449994 1.066303 30.974676 208 208 208 0
5.556417 1.063995 30.907618 208 208 208 0
5.670558 1.063230 30.885391 208 208 208 0
5.798377 1.065008 30.937051 208 208 208 0
5.925275 1.066549 30.981830 208 208 208 0
6.022983 1.062879 30.875216 208 208 208 0
6.135800 1.061965 30.848665 208 208 208 0
6.253346 1.061889 30.846445 208 208 208 0
6.383767 1.063961 30.906643 208 208 208 0
6.504430 1.064361 30.918265 208 208 208 0
6.623867 1.064550 30.923748 208 208 208 0
6.739695 1.064162 30.912489 209 209 209 0
6.860343 1.064536 30.923338 208 208 208 0
6.972957 1.063671 30.898225 208 208 208 0
7.094653 1.064198 30.913519 208 208 208 0
7.214779 1.064476 30.921584 208 208 208 0
7.329418 1.063948 30.906254 208 208 208 0
7.463818 1.066260 30.973411 209 209 209 0
7.594614 1.067993 31.023749 208 208 208 0
7.709721 1.067500 31.009436 208 208 208 0
7.809941 1.064992 30.936585 209 209 209 0
7.926503 1.064754 30.929678 209 209 209 0
8.065295 1.067466 31.008439 208 208 208 0
8.170642 1.065736 30.958196 208 208 208 0
8.265200 1.062669 30.869096 208 208 208 0
8.382319 1.062547 30.865576 208 208 208 0
8.522001 1.065250 30.944085 208 208 208 0
8.647272 1.066102 30.968832 208 208 208 0
8.758328 1.065202 30.942687 208 208 208 0
8.870033 1.064404 30.919505 208 208 208 0
9.000674 1.065869 30.962071 208 208 208 0
9.133423 1.067543 31.010688 209 209 209 0
9.253456 1.067706 31.015438 208 208 208 0
9.350773 1.065278 30.944892 208 208 208 0
-8.357610 1.044701 27.312451 200 200 200 0
-8.342033 1.055954 27.606630 200 200 200 0
-8.367199 1.072718 28.044912 200 200 200 0
-8.259016 1.072600 28.041818 200 200 200 0
-8.157605 1.073369 28.061935 200 200 200 0
-8.065383 1.075384 28.114625 200 200 200 0
-8.010023 1.082436 28.298970 200 200 200 0
-8.010178 1.097285 28.687180 200 200 200 0
-7.910838 1.098728 28.724904 200 200 200 0
-7.756848 1.092514 28.562452 201 201 201 0
-7.671881 1.095983 28.653152 200 200 200 0
-7.685465 1.113835 29.119881 200 200 200 0
-7.619899 1.120573 29.296036 200 200 200 0
-7.429626 1.108899 28.990835 201 201 201 0
-7.264098 1.100621 28.774404 200 200 200 0
-7.190355 1.106208 28.920484 201 201 201 0
-7.221123 1.128300 29.498051 201 201 201 0
-7.085389 1.124665 29.403003 201 201 201 0
-6.896893 1.112402 29.082409 201 201 201 0
-6.749409 1.106461 28.927072 201 201 201 0
-6.654321 1.109054 28.994863 201 201 201 0
-6.653216 1.127664 29.481404 201 201 201 0
-6.532237 1.126248 29.444387 201 201 201 0
-6.366728 1.116970 29.201827 201 201 201 0
-6.237987 1.113926 29.122253 201 201 201 0
-6.189797 1.125418 29.422684 202 202 202 0
-6.120280 1.133385 29.630987 202 202 202 0
-6.013188 1.134564 29.661798 203 203 203 0
-5.871938 1.129219 29.522061 202 202 202 0
-5.760760 1.129561 29.530999 202 202 202 0
-5.708165 1.141633 29.846613 202 202 202 0
-5.613170 1.145545 29.948887 203 203 203 0
-5.480649 1.141802 29.851030 202 202 202 0
-5.343259 1.136864 29.721926 203 203 203 0
-5.237693 1.138629 29.768079 202 202 202 0
-5.161586 1.147019 29.987429 202 202 202 0
-5.068025 1.151824 30.113045 203 203 203 0
-4.917569 1.143621 29.898578 203 203 203 0
-4.780979 1.138328 29.760216 202 202 202 0
-4.681539 1.141839 29.851992 203 203 203 0
-4.578130 1.144533 29.922421 203 203 203 0
-4.470207 1.146207 29.966195 203 203 203 0
-4.350701 1.144921 29.932583 203 203 203 0
-4.234753 1.144528 29.922300 204 204 204 0
-4.133009 1.148058 30.014591 203 203 203 0
-4.025845 1.150241 30.071668 203 203 203 0
-3.908460 1.149547 30.053516 203 203 203 0
-3.808522 1.154098 30.172487 204 204 204 0
-3.693323 1.154164 30.174211 204 204 204 0
-3.570718 1.151845 30.113582 204 204 204 0
-3.463274 1.154425 30.181039 204 204 204 0
-3.367815 1.161316 30.361192 204 204 204 0
-3.254627 1.162367 30.388672 204 204 204 0
-3.127933 1.158494 30.287418 204 204 204 0
-3.009283 1.157416 30.259255 204 204 204 0
-2.903185 1.161274 30.360108 204 204 204 0
-2.790213 1.162589 30.394473 204 204 204 0
-2.667213 1.159658 30.317855 204 204 204 0
-2.542751 1.155796 30.216884 204 204 204 0
-2.419290 1.152043 30.118769 204 204 204 0
-2.318766 1.159383 30.310671 204 204 204 0
-2.214916 1.165745 30.476999 204 204 204 0
-2.094514 1.163619 30.421407 205 205 205 0
-1.970622 1.159189 30.305599 205 205 205 0
-1.855551 1.159720 30.319466 204 204 204 0
-1.746802 1.164535 30.445353 205 205 205 0
-1.634637 1.167598 30.525429 205 205 205 0
-1.514041 1.164647 30.448290 205 205 205 0
-1.395626 1.163021 30.405790 205 205 205 0
-1.285091 1.168265 30.542871 205 205 205 0
-1.175778 1.175778 30.739287 206 206 206 0
-1.055173 1.172414 30.651359 205 205 205 0
-0.933732 1.167165 30.514113 205 205 205 0
-0.818102 1.168718 30.554708 205 205 205 0
-0.707304 1.178840 30.819336 205 205 205 0
-0.587718 1.175437 30.730378 205 205 205 0
-0.467857 1.169642 30.578873 206 206 206 0
-0.349405 1.164682 30.449208 205 205 205 0
-0.233124 1.165620 30.473723 205 205 205 0
-0.117209 1.172094 30.642968 205 205 205 0
0.000000 1.171763 30.634328 205 205 205 0
0.116683 1.166833 30.505445 206 206 206 0
0.233506 1.167529 30.523645 205 205 205 0
0.351615 1.172050 30.641823 206 206 206 0
0.468681 1.171702 30.632737 206 206 206 0
0.585626 1.171252 30.620963 206 206 206 0
0.702434 1.170724 30.607157 206 206 206 0
0.821158 1.173082 30.668818 207 207 207 0
0.940909 1.176136 30.748657 206 206 206 0
1.059241 1.176935 30.769538 206 206 206 0
1.175463 1.175463 30.731071 206 206 206 0
1.293114 1.175558 30.733547 207 207 207 0
1.411204 1.176003 30.745184 206 206 206 0
1.531525 1.178096 30.799892 206 206 206 0
1.645470 1.175336 30.727731 207 207 207 0
1.759557 1.173038 30.667654 207 207 207 0
1.877210 1.173256 30.673358 207 207 207 0
1.994560 1.173271 30.673745 207 207 207 0
2.116093 1.175607 30.734822 207 207 207 0
2.233229 1.175384 30.728982 207 207 207 0
2.353810 1.176905 30.768752 207 207 207 0
2.466235 1.174398 30.703210 207 207 207 0
2.583892 1.174496 30.705782 206 206 206 0
2.708156 1.177459 30.783250 207 207 207 0
2.830396 1.179332 30.832203 207 207 207 0
2.943423 1.177369 30.780891 207 207 207 0
3.056498 1.175576 30.734013 207 207 207 0
3.189156 1.181169 30.880233 207 207 207 0
3.315479 1.184099 30.956849 207 207 207 0
3.424667 1.180920 30.873721 207 207 207 0
3.534018 1.178006 30.797538 207 207 207 0
3.653173 1.178443 30.808967 207 207 207 0
3.791111 1.184722 30.973132 208 208 208 0
3.896101 1.180637 30.866316 207 207 207 0
3.999861 1.176430 30.756334 208 208 208 0
4.112611 1.175032 30.719784 208 208 208 0
4.248294 1.180082 30.851807 207 207 207 0
4.377604 1.183136 30.931663 208 208 208 0
4.482573 1.179625 30.839857 208 208 208 0
4.595281 1.178277 30.804629 207 207 207 0
4.720739 1.180185 30.854502 207 207 207 0
4.842430 1.181081 30.877922 208 208 208 0
4.957238 1.180295 30.857381 208 208 208 0
5.065381 1.177996 30.797270 208 208 208 0
5.189008 1.179320 30.831897 207 207 207 0
5.329875 1.184417 30.965140 207 207 207 0
5.450329 1.184854 30.976581 208 208 208 0
5.553851 1.181670 30.893346 208 208 208 0
5.669359 1.181117 30.878863 208 208 208 0
5.796468 1.182953 30.926865 208 208 208 0
5.923276 1.184655 30.971380 208 208 208 0
6.023304 1.181040 30.876860 208 208 208 0
6.134289 1.179671 30.841068 208 208 208 0
6.253287 1.179865 30.846154 208 208 208 0
6.384605 1.182334 30.910701 209 209 209 0
6.505275 1.182777 30.922281 208 208 208 0
6.620810 1.182287 30.909476 208 208 208 0
6.740969 1.182626 30.918329 208 208 208 0
6.861194 1.182965 30.927177 208 208 208 0
6.977274 1.182589 30.917355 208 208 208 0
7.097915 1.182986 30.927735 208 208 208 0
7.213310 1.182510 30.915292 208 208 208 0
7.329879 1.182239 30.908197 208 208 208 0
7.461278 1.184330 30.962870 208 208 208 0
7.592033 1.186255 31.013206 208 208 208 0
7.709823 1.186127 31.009846 208 208 208 0
7.809735 1.183293 30.935771 208 208 208 0
7.925597 1.182925 30.926141 209 209 209 0
8.065875 1.186158 31.010670 209 209 209 0
8.170404 1.184117 30.957295 209 209 209 0
8.265532 1.180790 30.870335 208 208 208 0
8.377115 1.179875 30.846415 209 209 209 0
8.521616 1.183558 30.942689 208 208 208 0
8.648336 1.184704 30.972644 209 209 209 0
8.757317 1.183421 30.939118 208 208 208 0
8.867832 1.182378 30.911833 209 209 209 0
8.998761 1.184047 30.955489 209 209 209 0
9.129011 1.185586 30.995707 208 208 208 0
9.253247 1.186314 31.014739 209 209 209 0
9.353511 1.183989 30.953954 209 209 209 0
-8.362732 1.149876 27.329188 199 199 199 0
-8.348351 1.162429 27.627537 199 199 199 0
-8.374860 1.181070 28.070587 199 199 199 0
-8.266049 1.180864 28.065695 200 200 200 0
-8.159871 1.181034 28.069732 199 199 199 0
-8.064608 1.182809 28.111925 200 200 200 0
-8.012708 1.191078 28.308455 200 200 200 0
-8.011621 1.207231 28.692350 200 200 200 0
-7.912684 1.208882 28.731604 201 201 201 0
-7.755672 1.201583 28.558122 200 200 200 0
-7.664330 1.204395 28.624949 200 200 200 0
-7.689921 1.225930 29.136768 201 201 201 0
-7.623836 1.233268 29.311173 201 201 201 0
-7.429618 1.219788 28.990801 201 201 201 0
-7.256566 1.209428 28.744567 200 200 200 0
-7.180205 1.215112 28.879658 200 200 200 0
-7.211734 1.239517 29.459698 201 201 201 0
-7.075584 1.235419 29.362316 200 200 200 0
-6.904506 1.224993 29.114510 201 201 201 0
-6.736863 1.214844 28.873301 202 202 202 0
-6.655022 1.220087 28.997915 201 201 201 0
-6.652711 1.240336 29.479167 201 201 201 0
-6.527116 1.237901 29.421304 201 201 201 0
-6.367242 1.228766 29.204184 201 201 201 0
-6.239116 1.225541 29.127527 202 202 202 0
-6.191413 1.238283 29.430363 201 201 201 0
-6.116013 1.245854 29.610326 201 201 201 0
-6.010186 1.247397 29.646988 201 201 201 0
-5.867972 1.241302 29.502123 202 202 202 0
-5.763920 1.243198 29.547199 203 203 203 0
-5.700486 1.254107 29.806460 202 202 202 0
-5.608591 1.259071 29.924456 201 201 201 0
-5.483633 1.256666 29.867284 202 202 202 0
-5.344905 1.250935 29.731082 202 202 202 0
-5.232934 1.251354 29.741029 202 202 202 0
-5.159572 1.261229 29.975726 202 202 202 0
-5.068906 1.267226 30.118277 202 202 202 0
-4.922440 1.259229 29.928197 202 202 202 0
-4.782725 1.252619 29.771088 202 202 202 0
-4.680459 1.255733 29.845108 203 203 203 0
-4.579183 1.259275 29.929301 202 202 202 0
-4.474036 1.261908 29.991862 203 203 203 0
-4.354344 1.260468 29.957649 203 203 203 0
-4.238280 1.260029 29.947218 203 203 203 0
-4.135064 1.263492 30.029510 203 203 203 0
-4.024901 1.264969 30.064620 204 204 204 0
-3.909994 1.264998 30.065310 204 204 204 0
-3.800801 1.266934 30.111315 203 203 203 0
-3.691799 1.269056 30.161758 203 203 203 0
-3.575511 1.268730 30.154005 204 204 204 0
-3.464961 1.270486 30.195738 204 204 204 0
-3.366592 1.276983 30.350161 204 204 204 0
-3.253148 1.278022 30.374862 204 204 204 0
-3.127798 1.274288 30.286107 204 204 204 0
-3.008162 1.272684 30.247979 204 204 204 0
-2.902963 1.277304 30.357785 204 204 204 0
-2.790201 1.278842 30.394345 204 204 204 0
-2.666852 1.275451 30.313750 205 205 205 0
-2.542467 1.271233 30.213511 204 204 204 0
-2.419062 1.267128 30.115928 204 204 204 0
-2.318674 1.275271 30.309461 204 204 204 0
-2.217002 1.283528 30.505709 204 204 204 0
-2.094237 1.279812 30.417386 204 204 204 0
-1.970862 1.275263 30.309292 204 204 204 0
-1.855021 1.275327 30.310794 204 204 204 0
-1.746349 1.280656 30.437454 205 205 205 0
-1.635426 1.284978 30.540177 204 204 204 0
-1.512717 1.279991 30.421657 204 204 204 0
-1.395228 1.278959 30.397130 205 205 205 0
-1.285367 1.285367 30.549425 205 205 205 0
-1.176200 1.293820 30.750320 205 205 205 0
-1.054727 1.289111 30.638403 206 206 206 0
-0.934682 1.285188 30.545179 205 205 205 0
-0.817969 1.285380 30.549729 205 205 205 0
-0.706673 1.295567 30.791844 205 205 205 0
-0.587778 1.293113 30.733512 205 205 205 0
-0.467833 1.286541 30.577327 205 205 205 0
-0.349473 1.281401 30.455166 205 205 205 0
-0.233081 1.281948 30.468163 206 206 206 0
-0.117279 1.290073 30.661279 205 205 205 0
0.000000 1.288881 30.632946 205 205 205 0
0.116675 1.283428 30.503348 206 206 206 0
0.233562 1.284589 30.530944 205 205 205 0
0.351637 1.289336 30.643749 205 205 205 0
0.468481 1.288322 30.619645 206 206 206 0
0.585690 1.288519 30.624340 205 205 205 0
0.702820 1.288503 30.623963 207 207 207 0
0.820908 1.289998 30.659497 206 206 206 0
0.941042 1.293933 30.753014 207 207 207 0
1.059240 1.294626 30.769489 206 206 206 0
1.176580 1.294238 30.760268 207 207 207 0
1.292979 1.292979 30.730337 207 207 207 0
1.410699 1.293140 30.734177 206 206 206 0
1.531091 1.295539 30.791179 207 207 207 0
1.645655 1.293014 30.731178 206 206 206 0
1.759688 1.290438 30.669942 206 206 206 0
1.876407 1.290030 30.660249 207 207 207 0
1.994222 1.290379 30.668547 206 206 206 0
2.116354 1.293327 30.738613 207 207 207 0
2.234245 1.293510 30.742959 206 206 206 0
2.354467 1.294957 30.777344 206 206 206 0
2.467992 1.292758 30.725076 206 206 206 0
2.584366 1.292183 30.711422 206 206 206 0
2.706347 1.294340 30.762685 207 207 207 0
2.827121 1.295764 30.796527 206 206 206 0
2.943175 1.294997 30.778301 207 207 207 0
3.055538 1.292728 30.724363 207 207 207 0
3.190776 1.299946 30.895922 207 207 207 0
3.315881 1.302668 30.960606 207 207 207 0
3.425227 1.299224 30.878769 208 208 208 0
3.531458 1.294868 30.775234 207 207 207 0
3.654765 1.296852 30.822390 207 207 207 0
3.789060 1.302489 30.956374 207 207 207 0
3.894279 1.298093 30.851881 208 208 208 0
4.000211 1.294186 30.759026 208 208 208 0
4.112741 1.292576 30.720752 207 207 207 0
4.250071 1.298633 30.864712 207 207 207 0
4.374521 1.300533 30.909881 208 208 208 0
4.483070 1.297731 30.843273 208 208 208 0
4.595416 1.296143 30.805538 208 208 208 0
4.721565 1.298430 30.859904 208 208 208 0
4.843615 1.299507 30.885479 208 208 208 0
4.957161 1.298304 30.856900 207 207 207 0
5.067213 1.296264 30.808410 208 208 208 0
5.190415 1.297604 30.840254 208 208 208 0
5.331877 1.303348 30.976775 208 208 208 0
5.448434 1.302886 30.965811 208 208 208 0
5.556695 1.300503 30.909165 207 207 207 0
5.668596 1.299053 30.874703 207 207 207 0
5.796018 1.301147 30.924466 208 208 208 0
5.924306 1.303347 30.976764 207 207 207 0
6.024270 1.299352 30.881816 207 207 207 0
6.133992 1.297575 30.839580 208 208 208 0
6.252607 1.297711 30.842800 208 208 208 0
6.386531 1.300960 30.920022 208 208 208 0
6.502047 1.300409 30.906936 209 209 209 0
6.621064 1.300566 30.910662 208 208 208 0
6.741383 1.300969 30.920227 208 208 208 0
6.860623 1.301153 30.924604 208 208 208 0
6.977280 1.300849 30.917383 208 208 208 0
7.097635 1.301233 30.926512 208 208 208 0
7.214463 1.300969 30.920231 208 208 208 0
7.334097 1.301211 30.925983 209 209 209 0
7.463786 1.303201 30.973279 208 208 208 0
7.589598 1.304462 31.003261 208 208 208 0
7.709955 1.304762 31.010377 208 208 208 0
7.808258 1.301376 30.929920 208 208 208 0
7.927520 1.301533 30.933644 208 208 208 0
8.064001 1.304471 31.003465 209 209 209 0
8.168869 1.302284 30.951480 208 208 208 0
8.268611 1.299353 30.881834 209 209 209 0
8.377209 1.297877 30.846759 208 208 208 0
8.521922 1.301960 30.943798 209 209 209 0
8.643941 1.302512 30.956903 209 209 209 0
8.761599 1.302400 30.954243 209 209 209 0
8.869173 1.300812 30.916508 209 209 209 0
8.999188 1.302514 30.956960 209 209 209 0
9.133915 1.304845 31.012360 209 209 209 0
9.252898 1.304896 31.013567 208 208 208 0
9.352881 1.302300 30.951870 208 208 208 0
-8.369591 1.255439 27.351603 199 199 199 0
-8.351933 1.268648 27.639390 199 199 199 0
-8.375594 1.288553 28.073047 199 199 199 0
-8.277506 1.290001 28.104596 199 199 199 0
-8.181729 1.291852 28.144921 200 200 200 0
-8.077759 1.292441 28.157765 200 200 200 0
-8.029818 1.302133 28.368902 201 201 201 0
-8.022675 1.318796 28.731936 200 200 200 0
-7.903719 1.317286 28.699052 200 200 200 0
-7.760275 1.311596 28.575071 200 200 200 0
-7.659972 1.313138 28.608671 201 201 201 0
-7.690800 1.337530 29.140097 200 200 200 0
-7.607378 1.342478 29.247895 200 200 200 0
-7.430861 1.330900 28.995651 201 201 201 0
-7.264615 1.320839 28.776452 200 200 200 0
-7.188942 1.327189 28.914800 201 201 201 0
-7.220087 1.353766 29.493820 200 200 200 0
-7.074356 1.347496 29.357219 201 201 201 0
-6.898111 1.335118 29.087544 202 202 202 0
-6.744669 1.326820 28.906759 202 202 202 0
-6.651507 1.330301 28.982599 202 202 202 0
-6.652850 1.353122 29.479783 201 201 201 0
-6.539187 1.352935 29.475713 201 201 201 0
-6.368899 1.340821 29.211782 202 202 202 0
-6.241205 1.337401 29.137277 202 202 202 0
-6.186503 1.349782 29.407026 202 202 202 0
-6.126045 1.361343 29.658897 201 201 201 0
-6.016819 1.362299 29.679708 202 202 202 0
-5.875294 1.355837 29.538932 203 203 203 0
-5.759268 1.355122 29.523354 202 202 202 0
-5.710845 1.370603 29.860629 202 202 202 0
-5.614180 1.374901 29.954278 203 203 203 0
-5.483445 1.370861 29.866256 202 202 202 0
-5.345076 1.364700 29.732031 202 202 202 0
-5.228945 1.364073 29.718356 202 202 202 0
-5.155994 1.374932 29.954940 202 202 202 0
-5.072150 1.383314 30.137554 203 203 203 0
-4.922123 1.373616 29.926271 202 202 202 0
-4.780797 1.365942 29.759085 203 203 203 0
-4.682908 1.370607 29.860726 202 202 202 0
-4.578875 1.373662 29.927285 202 202 202 0
-4.471432 1.375825 29.974408 203 203 203 0
-4.355667 1.375474 29.966747 203 203 203 0
-4.239096 1.374842 29.952980 203 203 203 0
-4.138774 1.379591 30.056455 204 204 204 0
-4.024668 1.379886 30.062881 204 204 204 0
-3.909436 1.379801 30.061025 204 204 204 0
-3.803858 1.383221 30.135534 203 203 203 0
-3.693526 1.385072 30.175862 204 204 204 0
-3.575099 1.383909 30.150528 204 204 204 0
-3.463207 1.385283 30.180455 204 204 204 0
-3.366343 1.392970 30.347924 204 204 204 0
-3.251149 1.393350 30.356199 203 203 203 0
-3.126984 1.389770 30.278223 204 204 204 0
-3.009710 1.389097 30.263545 204 204 204 0
-2.906619 1.395177 30.396013 204 204 204 0
-2.790733 1.395367 30.400147 204 204 204 0
-2.666702 1.391323 30.312047 204 204 204 0
-2.543099 1.387145 30.221017 204 204 204 0
-2.420719 1.383268 30.136554 205 205 205 0
-2.319274 1.391564 30.317305 204 204 204 0
-2.215942 1.399542 30.491119 204 204 204 0
-2.094471 1.396314 30.420780 204 204 204 0
-1.972038 1.392027 30.327375 205 205 205 0
-1.856986 1.392740 30.342913 205 205 205 0
-1.746394 1.397115 30.438237 204 204 204 0
-1.634668 1.401144 30.526009 205 205 205 0
-1.514131 1.397660 30.450105 204 204 204 0
-1.395171 1.395171 30.395883 204 204 204 0
-1.285668 1.402547 30.556580 206 206 206 0
-1.175532 1.410639 30.732868 206 206 206 0
-1.055254 1.407005 30.653713 206 206 206 0
-0.933537 1.400306 30.507760 205 205 205 0
-0.818657 1.403413 30.575442 206 206 206 0
-0.706298 1.412597 30.775531 206 206 206 0
-0.587730 1.410551 30.730958 205 205 205 0
-0.467768 1.403304 30.573065 205 205 205 0
-0.349260 1.397040 30.436596 205 205 205 0
-0.233058 1.398350 30.465147 206 206 206 0
-0.117226 1.406716 30.647417 206 206 206 0
0.000000 1.405913 30.629906 205 205 205 0
0.116732 1.400787 30.518235 206 206 206 0
0.233548 1.401287 30.529134 206 206 206 0
0.351276 1.405104 30.612298 206 206 206 0
0.468841 1.406523 30.643192 206 206 206 0
0.585569 1.405365 30.617963 205 205 205 0
0.702152 1.404304 30.594868 206 206 206 0
0.820903 1.407262 30.659311 206 206 206 0
0.940652 1.410978 30.740259 205 205 205 0
1.059890 1.413186 30.788375 207 207 207 0
1.175987 1.411184 30.744749 206 206 206 0
1.292898 1.410435 30.728425 206 206 206 0
1.411201 1.411201 30.745114 206 206 206 0
1.530680 1.412935 30.782896 206 206 206 0
1.645638 1.410547 30.730866 206 206 206 0
1.759718 1.407774 30.670466 207 207 207 0
1.877124 1.407843 30.671959 207 207 207 0
1.994972 1.408215 30.680074 207 207 207 0
2.115649 1.410432 30.728377 206 206 206 0
2.233794 1.410817 30.736756 206 206 206 0
2.355023 1.413014 30.784617 207 207 207 0
2.467911 1.410235 30.724074 206 206 206 0
2.584870 1.409929 30.717414 207 207 207 0
2.708345 1.413050 30.785395 206 206 206 0
2.830216 1.415108 30.830237 206 206 206 0
2.942328 1.412317 30.769440 207 207 207 0
3.056494 1.410689 30.733972 207 207 207 0
3.189147 1.417399 30.880143 207 207 207 0
3.317187 1.421651 30.972799 207 207 207 0
3.424190 1.416906 30.869416 208 208 208 0
3.534836 1.413934 30.804668 207 207 207 0
3.656003 1.415227 30.832828 207 207 207 0
3.790590 1.421471 30.968875 208 208 208 0
3.896541 1.416924 30.869803 207 207 207 0
3.999547 1.411605 30.753916 207 207 207 0
4.112680 1.410062 30.720301 207 207 207 0
4.248888 1.416296 30.856122 207 207 207 0
4.375838 1.419191 30.919189 208 208 208 0
4.482974 1.415676 30.842617 208 208 208 0
4.594458 1.413679 30.799115 208 208 208 0
4.723612 1.417084 30.873281 207 207 207 0
4.847103 1.418664 30.907722 207 207 207 0
4.956587 1.416168 30.853328 208 208 208 0
5.067790 1.414267 30.811918 208 208 208 0
5.191526 1.415871 30.846858 208 208 208 0
5.330560 1.421483 30.969119 208 208 208 0
5.450553 1.421883 30.977853 208 208 208 0
5.556431 1.418663 30.907696 208 208 208 0
5.668912 1.417228 30.876425 208 208 208 0
5.797922 1.419899 30.934623 207 207 207 0
5.924498 1.421880 30.977767 208 208 208 0
6.025166 1.417686 30.886410 208 208 208 0
6.136551 1.416127 30.852442 208 208 208 0
6.252196 1.415592 30.840777 209 209 209 0
6.386702 1.419267 30.920853 209 209 209 0
6.502915 1.418818 30.911065 209 209 209 0
6.619802 1.418529 30.904771 208 208 208 0
6.738606 1.418654 30.907492 208 208 208 0
6.861882 1.419700 30.930278 209 209 209 0
6.974842 1.418612 30.906580 208 208 208 0
7.096241 1.419248 30.920440 208 208 208 0
7.210820 1.418522 30.904617 208 208 208 0
7.331475 1.418995 30.914925 209 209 209 0
7.465473 1.421995 30.980279 209 209 209 0
7.593393 1.423761 31.018761 208 208 208 0
7.710096 1.423402 31.010945 209 209 209 0
7.810494 1.420090 30.938774 209 209 209 0
7.926417 1.419657 30.929341 208 208 208 0
8.065359 1.423299 31.008684 209 209 209 0
8.170021 1.420873 30.955845 208 208 208 0
8.265615 1.416963 30.870643 209 209 209 0
8.378700 1.416118 30.852251 209 209 209 0
8.520752 1.420125 30.939549 208 208 208 0
8.646952 1.421417 30.967685 209 209 209 0
8.760353 1.420598 30.949842 209 209 209 0
8.869721 1.419155 30.918419 209 209 209 0
8.999248 1.420934 30.957165 208 208 208 0
9.132706 1.423279 31.008252 209 209 209 0
9.251860 1.423363 31.010090 208 208 208 0
9.354353 1.420914 30.956740 209 209 209 0
-8.369397 1.360027 27.350972 199 199 199 0
-8.354150 1.374733 27.646727 200 200 200 0
-8.384821 1.397470 28.103977 199 199 199 0
-8.299467 1.401209 28.179160 200 200 200 0
-8.174097 1.398201 28.118668 200 200 200 0
-8.067183 1.398312 28.120901 200 200 200 0
-8.004587 1.406211 28.279764 200 200 200 0
-8.009363 1.426325 28.684263 201 201 201 0
-7.901522 1.426664 28.691076 200 200 200 0
-7.756001 1.420113 28.559333 200 200 200 0
-7.659579 1.422493 28.607206 200 200 200 0
-7.678271 1.446631 29.092625 201 201 201 0
-7.616302 1.456058 29.282208 201 201 201 0
-7.427830 1.441221 28.983826 201 201 201 0
-7.252879 1.428597 28.729962 201 201 201 0
-7.181375 1.436275 28.884363 201 201 201 0
-7.219051 1.466370 29.489588 201 201 201 0
-7.082605 1.461490 29.391450 201 201 201 0
-6.903982 1.447609 29.112302 201 201 201 0
-6.745319 1.437527 28.909540 201 201 201 0
-6.655802 1.442090 29.001315 202 202 202 0
-6.656099 1.466598 29.494178 201 201 201 0
-6.540700 1.466019 29.482535 202 202 202 0
-6.367815 1.452309 29.206811 202 202 202 0
-6.242019 1.449040 29.141080 201 201 201 0
-6.185146 1.461944 29.400575 201 201 201 0
-6.115961 1.472361 29.610074 202 202 202 0
-6.011785 1.474589 29.654878 202 202 202 0
-5.871292 1.467823 29.518812 202 202 202 0
-5.764413 1.469360 29.549725 202 202 202 0
-5.711409 1.484966 29.863579 202 202 202 0
-5.607749 1.487770 29.919960 202 202 202 0
-5.483244 1.485045 29.865162 203 203 203 0
-5.348275 1.479310 29.749828 202 202 202 0
-5.238108 1.480335 29.770435 202 202 202 0
-5.156301 1.489598 29.956725 203 203 203 0
-5.068736 1.497581 30.117270 203 203 203 0
-4.921863 1.488005 29.924688 202 202 202 0
-4.782177 1.480198 29.767675 202 202 202 0
-4.679363 1.483700 29.838117 203 203 203 0
-4.579967 1.488489 29.934426 203 203 203 0
-4.474193 1.491398 29.992913 203 203 203 0
-4.354995 1.489867 29.962129 203 203 203 0
-4.239685 1.489619 29.957142 203 203 203 0
-4.142730 1.495986 30.085184 203 203 203 0
-4.029259 1.496582 30.097173 203 203 203 0
-3.912912 1.496114 30.087754 203 203 203 0
-3.808623 1.500367 30.173287 204 204 204 0
-3.692438 1.500053 30.166979 203 203 203 0
-3.575055 1.499217 30.150160 203 203 203 0
-3.460896 1.499722 30.160315 204 204 204 0
-3.366961 1.509327 30.353488 204 204 204 0
-3.252238 1.509968 30.366366 204 204 204 0
-3.127047 1.505615 30.278839 203 203 203 0
-3.010528 1.505264 30.271778 204 204 204 0
-2.903114 1.509620 30.359367 205 205 205 0
-2.793022 1.512887 30.425072 204 204 204 0
-2.668762 1.508430 30.335454 204 204 204 0
-2.543407 1.502922 30.224677 205 205 205 0
-2.420348 1.498310 30.131933 204 204 204 0
-2.319610 1.507747 30.321704 205 205 205 0
-2.215628 1.515956 30.486801 205 205 205 0
-2.094172 1.512457 30.416440 204 204 204 0
-1.970730 1.507029 30.307265 204 204 204 0
-1.855348 1.507470 30.316144 205 205 205 0
-1.745769 1.513000 30.427351 205 205 205 0
-1.634119 1.517397 30.515768 204 204 204 0
-1.512041 1.512041 30.408063 205 205 205 0
-1.394558 1.510771 30.382519 204 204 204 0
-1.284405 1.517933 30.526552 205 205 205 0
-1.175792 1.528530 30.739672 205 205 205 0
-1.054670 1.523412 30.636747 205 205 205 0
-0.933719 1.517294 30.513704 205 205 205 0
-0.817276 1.517798 30.523832 206 206 206 0
-0.706587 1.530938 30.788102 206 206 206 0
-0.587722 1.528077 30.730560 205 205 205 0
-0.467609 1.519730 30.562687 205 205 205 0
-0.349221 1.513290 30.433192 206 206 206 0
-0.232921 1.513988 30.447220 205 205 205 0
-0.117208 1.523705 30.642631 206 206 206 0
0.000000 1.523902 30.646605 205 205 205 0
0.116691 1.516987 30.507528 205 205 205 0
0.233401 1.517103 30.509873 206 206 206 0
0.351476 1.523062 30.629702 205 205 205 0
0.468639 1.523078 30.630024 206 206 206 0
0.585897 1.523332 30.635125 206 206 206 0
0.702357 1.521774 30.603809 206 206 206 0
0.820898 1.524525 30.659123 206 206 206 0
0.940881 1.528931 30.747734 206 206 206 0
1.059388 1.530227 30.773796 206 206 206 0
1.175439 1.528071 30.730437 206 206 206 0
1.293253 1.528389 30.736842 207 207 207 0
1.411076 1.528665 30.742386 206 206 206 0
1.531299 1.531299 30.795351 206 206 206 0
1.645146 1.527636 30.721681 207 207 207 0
1.759929 1.525272 30.674148 206 206 206 0
1.877156 1.525189 30.672486 207 207 207 0
1.994980 1.525573 30.680205 206 206 206 0
2.115184 1.527633 30.721629 206 206 206 0
2.234558 1.528908 30.747267 207 207 207 0
2.353842 1.529997 30.769174 207 207 207 0
2.466619 1.526955 30.707992 206 206 206 0
2.586617 1.528456 30.738173 206 206 206 0
2.709693 1.531566 30.800720 207 207 207 0
2.829905 1.532865 30.826852 207 207 207 0
2.944407 1.531092 30.791189 207 207 207 0
3.057891 1.528946 30.748028 207 207 207 0
3.188403 1.535157 30.872944 207 207 207 0
3.316177 1.539654 30.963369 207 207 207 0
3.423839 1.534824 30.866250 207 207 207 0
3.531392 1.530270 30.774657 207 207 207 0
3.655322 1.532877 30.827085 208 208 208 0
3.792033 1.540513 30.980662 207 207 207 0
3.896302 1.534907 30.867913 207 207 207 0
4.000670 1.529668 30.762550 208 208 208 0
4.113264 1.527784 30.724663 207 207 207 0
4.250295 1.534829 30.866339 208 208 208 0
4.374038 1.536824 30.906470 207 207 207 0
4.482037 1.533328 30.836167 207 207 207 0
4.594172 1.531391 30.797198 208 208 208 0
4.725421 1.535762 30.885106 207 207 207 0
4.846721 1.536765 30.905284 208 208 208 0
4.959570 1.535105 30.871899 208 208 208 0
5.065121 1.531316 30.795686 208 208 208 0
5.191647 1.533896 30.847577 208 208 208 0
5.331712 1.540272 30.975811 208 208 208 0
5.450092 1.540243 30.975233 208 208 208 0
5.557965 1.537309 30.916227 208 208 208 0
5.669046 1.535367 30.877156 208 208 208 0
5.799740 1.538707 30.944326 208 208 208 0
5.924358 1.540333 30.977038 207 207 207 0
6.024633 1.535691 30.883675 208 208 208 0
6.137056 1.534264 30.854980 208 208 208 0
6.253894 1.533974 30.849150 208 208 208 0
6.383914 1.536868 30.907356 208 208 208 0
6.502778 1.537020 30.910415 208 208 208 0
6.619470 1.536663 30.903223 208 208 208 0
6.737633 1.536653 30.903029 209 209 209 0
6.858387 1.537225 30.914521 209 209 209 0
6.974550 1.536765 30.905283 208 208 208 0
7.093450 1.536914 30.908281 208 208 208 0
7.210277 1.536616 30.902292 209 209 209 0
7.329810 1.536896 30.907905 208 208 208 0
7.464061 1.540203 30.974420 209 209 209 0
7.593887 1.542508 31.020782 208 208 208 0
7.708398 1.541680 31.004116 208 208 208 0
7.809952 1.538324 30.936627 209 209 209 0
7.927541 1.538180 30.933726 208 208 208 0
8.065149 1.541867 31.007877 208 208 208 0
8.171343 1.539528 30.960851 208 208 208 0
8.265013 1.534931 30.868395 209 209 209 0
8.377875 1.533977 30.849211 208 208 208 0
8.522891 1.538855 30.947316 208 208 208 0
8.646102 1.539717 30.964640 209 209 209 0
8.757823 1.538536 30.940903 208 208 208 0
8.868797 1.537258 30.915196 209 209 209 0
9.003105 1.540005 30.970433 209 209 209 0
9.134983 1.542270 31.015984 208 208 208 0
9.250028 1.541671 31.003948 209 209 209 0
9.352157 1.538963 30.949472 209 209 209 0
-8.366847 1.464198 27.342637 200 200 200 0
-8.368152 1.482964 27.693065 200 200 200 0
-8.376043 1.503392 28.074554 199 199 199 0
-8.286496 1.506636 28.135118 200 200 200 0
-8.181025 1.507031 28.142502 200 200 200 0
-8.073656 1.507082 28.143463 200 200 200 0
-8.012581 1.515894 28.308006 200 200 200 0
-8.019618 1.538009 28.720990 201 201 201 0
-7.916466 1.539313 28.745337 201 201 201 0
-7.746158 1.527411 28.523089 200 200 200 0
-7.658225 1.531645 28.602147 200 200 200 0
-7.681972 1.558661 29.106646 200 200 200 0
-7.612505 1.567280 29.267609 201 201 201 0
-7.428263 1.552174 28.985515 200 200 200 0
-7.258799 1.539745 28.753413 201 201 201 0
-7.181553 1.546796 28.885080 201 201 201 0
-7.214514 1.578175 29.471054 201 201 201 0
-7.075927 1.572428 29.363739 202 202 202 0
-6.899041 1.557848 29.091467 200 200 200 0
-6.759019 1.551250 28.968260 201 201 201 0
-6.659584 1.553903 29.017794 201 201 201 0
-6.658174 1.579906 29.503374 201 201 201 0
-6.540976 1.578856 29.483776 201 201 201 0
-6.368531 1.564201 29.210094 201 201 201 0
-6.245544 1.561386 29.157533 202 202 202 0
-6.188372 1.575222 29.415909 202 202 202 0
-6.118022 1.586154 29.620055 202 202 202 0
-6.012018 1.588080 29.656028 202 202 202 0
-5.871537 1.580798 29.520046 202 202 202 0
-5.768131 1.583408 29.568784 202 202 202 0
-5.711114 1.599112 29.862036 202 202 202 0
-5.613737 1.603925 29.951913 202 202 202 0
-5.478474 1.597888 29.839182 202 202 202 0
-5.348711 1.593233 29.752252 203 203 203 0
-5.235356 1.593369 29.754794 202 202 202 0
-5.159869 1.605293 29.977454 203 203 203 0
-5.069903 1.613151 30.124203 203 203 203 0
-4.923820 1.603104 29.936584 202 202 202 0
-4.783023 1.594341 29.772940 203 203 203 0
-4.682049 1.598748 29.855247 203 203 203 0
-4.583921 1.604372 29.960268 203 203 203 0
-4.471382 1.605112 29.974072 204 204 204 0
-4.353906 1.604070 29.954631 203 203 203 0
-4.240459 1.604498 29.962617 203 203 203 0
-4.138099 1.609261 30.051552 203 203 203 0
-4.023452 1.609381 30.053796 203 203 203 0
-3.913786 1.611559 30.094468 204 204 204 0
-3.807239 1.615192 30.162320 204 204 204 0
-3.695305 1.616696 30.190398 204 204 204 0
-3.573460 1.613821 30.136705 204 204 204 0
-3.461614 1.615420 30.166568 204 204 204 0
-3.366623 1.625266 30.350447 204 204 204 0
-3.251631 1.625815 30.360696 204 204 204 0
-3.125559 1.620660 30.264429 203 203 203 0
-3.009050 1.620258 30.256910 203 203 203 0
-2.904374 1.626450 30.372542 204 204 204 0
-2.791969 1.628649 30.413609 204 204 204 0
-2.668041 1.624025 30.327258 204 204 204 0
-2.543893 1.618841 30.230456 204 204 204 0
-2.421553 1.614369 30.146940 204 204 204 0
-2.321176 1.624823 30.342169 204 204 204 0
-2.215193 1.632247 30.480806 205 205 205 0
-2.094533 1.629081 30.421684 204 204 204 0
-1.970858 1.623060 30.309241 205 205 205 0
-1.856168 1.624147 30.329537 204 204 204 0
-1.747298 1.630811 30.453995 205 205 205 0
-1.634509 1.634509 30.523040 204 204 204 0
-1.512984 1.629367 30.427030 205 205 205 0
-1.394665 1.627109 30.384861 205 205 205 0
-1.285422 1.635991 30.550720 204 204 204 0
-1.176037 1.646451 30.746055 205 205 205 0
-1.055133 1.641318 30.650196 205 205 205 0
-0.933544 1.633702 30.507982 205 205 205 0
-0.818393 1.636785 30.565551 205 205 205 0
-0.706464 1.648415 30.782728 205 205 205 0
-0.587789 1.645809 30.734065 205 205 205 0
-0.467962 1.637868 30.585771 205 205 205 0
-0.349286 1.630002 30.438888 205 205 205 0
-0.232998 1.630987 30.457265 206 206 206 0
-0.117167 1.640343 30.631989 205 205 205 0
0.000000 1.640446 30.633914 206 206 206 0
0.116721 1.634100 30.515410 206 206 206 0
0.233455 1.634182 30.516942 205 205 205 0
0.351492 1.640295 30.631094 206 206 206 0
0.468494 1.639729 30.620516 206 206 206 0
0.585545 1.639527 30.616744 206 206 206 0
0.702412 1.638961 30.606186 206 206 206 0
0.820923 1.641846 30.660060 206 206 206 0
0.940777 1.646360 30.744350 206 206 206 0
1.059113 1.647509 30.765803 206 206 206 0
1.176095 1.646533 30.747579 207 207 207 0
1.293237 1.645938 30.736479 207 207 207 0
1.411397 1.646630 30.749394 206 206 206 0
1.532029 1.649877 30.810033 206 206 206 0
1.645333 1.645333 30.725178 207 207 207 0
1.761572 1.644134 30.702776 206 206 206 0
1.877557 1.642862 30.679033 206 206 206 0
1.993975 1.642097 30.664739 207 207 207 0
2.114745 1.644801 30.715247 207 207 207 0
2.233839 1.645987 30.737385 207 207 207 0
2.354507 1.648155 30.777873 207 207 207 0
2.468246 1.645497 30.728240 206 206 206 0
2.586108 1.645705 30.732117 207 207 207 0
2.708202 1.648471 30.783772 207 207 207 0
2.829102 1.650310 30.818105 207 207 207 0
2.942672 1.647896 30.773040 208 208 208 0
3.056849 1.645996 30.737550 206 206 206 0
3.188119 1.653099 30.870195 207 207 207 0
3.316701 1.658350 30.968261 207 207 207 0
3.424526 1.653219 30.872444 207 207 207 0
3.532292 1.648403 30.782505 208 208 208 0
3.655585 1.650910 30.829310 208 208 208 0
3.789638 1.657967 30.961097 208 208 208 0
3.895751 1.652743 30.863544 208 208 208 0
3.999021 1.646656 30.749874 207 207 207 0
4.112352 1.644941 30.717850 207 207 207 0
4.249093 1.652425 30.857613 208 208 208 0
4.375338 1.655533 30.915656 207 207 207 0
4.482044 1.651279 30.836218 207 207 207 0
4.593167 1.648829 30.790462 208 208 208 0
4.725178 1.653812 30.883514 208 208 208 0
4.844765 1.654310 30.892814 208 208 208 0
4.959033 1.653011 30.868556 208 208 208 0
5.067165 1.649775 30.808115 207 207 207 0
5.189848 1.651315 30.836884 207 207 207 0
5.333156 1.659204 30.984203 208 208 208 0
5.451524 1.659160 30.983373 207 207 207 0
5.556401 1.655098 30.907529 208 208 208 0
5.667927 1.653145 30.871064 208 208 208 0
5.797728 1.656494 30.933590 208 208 208 0
5.922894 1.658410 30.969383 208 208 208 0
6.024283 1.653725 30.881883 209 209 209 0
6.135296 1.651810 30.846132 208 208 208 0
6.253979 1.651994 30.849569 207 207 207 0
6.388328 1.656233 30.928726 208 208 208 0
6.504956 1.655807 30.920763 208 208 208 0
6.619679 1.654920 30.904195 208 208 208 0
6.736512 1.654582 30.897890 208 208 208 0
6.861082 1.656123 30.926669 208 208 208 0
6.973514 1.654732 30.900693 208 208 208 0
7.095241 1.655556 30.916081 208 208 208 0
7.207905 1.654273 30.892125 208 208 208 0
7.330735 1.655327 30.911805 209 209 209 0
7.464764 1.658836 30.977337 208 208 208 0
7.594519 1.661301 31.023362 208 208 208 0
7.707777 1.660137 31.001616 209 209 209 0
7.811772 1.657043 30.943838 208 208 208 0
7.927089 1.656407 30.931965 208 208 208 0
8.065001 1.660441 31.007308 208 208 208 0
8.170828 1.657849 30.958900 209 209 209 0
8.264714 1.652943 30.867277 209 209 209 0
8.378353 1.652070 30.850972 208 208 208 0
8.521254 1.656910 30.941373 208 208 208 0
8.642878 1.657538 30.953094 209 209 209 0
8.758303 1.656976 30.942602 209 209 209 0
8.864054 1.654624 30.898665 209 209 209 0
9.004112 1.658652 30.973897 209 209 209 0
9.132179 1.660396 31.006463 209 209 209 0
9.253759 1.660931 31.016453 209 209 209 0
9.350051 1.656971 30.942504 208 208 208 0
-8.376042 1.570508 27.372686 199 199 199 0
-8.371063 1.589442 27.702698 199 199 199 0
-8.377739 1.611104 28.080238 199 199 199 0
-8.275994 1.612207 28.099462 200 200 200 0
-8.161841 1.610890 28.076510 199 199 199 0
-8.077702 1.615540 28.157568 200 200 200 0
-8.022619 1.626206 28.343468 199 199 199 0
-8.008731 1.645630 28.681999 200 200 200 0
-7.907458 1.647387 28.712629 200 200 200 0
-7.757072 1.638818 28.563275 200 200 200 0
-7.649387 1.639154 28.569141 201 201 201 0
-7.671188 1.667649 29.065786 201 201 201 0
-7.622083 1.681342 29.304432 200 200 200 0
-7.428187 1.663027 28.985219 201 201 201 0
-7.253344 1.648487 28.731806 201 201 201 0
-7.188483 1.658881 28.912954 201 201 201 0
-7.218925 1.691935 29.489071 201 201 201 0
-7.090226 1.688149 29.423078 201 201 201 0
-6.897753 1.668811 29.086033 201 201 201 0
-6.746749 1.659037 28.915672 201 201 201 0
-6.657601 1.664400 29.009157 201 201 201 0
-6.660162 1.693262 29.512185 201 201 201 0
-6.540645 1.691546 29.482286 201 201 201 0
-6.369376 1.676152 29.213970 202 202 202 0
-6.246023 1.673042 29.159773 202 202 202 0
-6.189895 1.688153 29.423148 201 201 201 0
-6.110992 1.697498 29.586018 201 201 201 0
-6.009270 1.700737 29.642473 202 202 202 0
-5.870203 1.693328 29.513338 202 202 202 0
-5.767614 1.696357 29.566136 202 202 202 0
-5.705376 1.711613 29.832029 202 202 202 0
-5.612227 1.718029 29.943855 202 202 202 0
-5.482017 1.713130 29.858478 202 202 202 0
-5.348261 1.706892 29.749747 202 202 202 0
-5.238283 1.708136 29.771427 202 202 202 0
-5.159607 1.719869 29.975928 202 202 202 0
-5.073729 1.729680 30.146935 203 203 203 0
-4.919493 1.716102 29.910278 202 202 202 0
-4.779288 1.706889 29.749691 202 202 202 0
-4.682032 1.712938 29.855135 203 203 203 0
-4.581955 1.718233 29.947416 203 203 203 0
-4.475035 1.721167 29.998559 203 203 203 0
-4.357801 1.720184 29.981428 203 203 203 0
-4.246071 1.721380 30.002268 203 203 203 0
-4.140974 1.725406 30.072431 204 204 204 0
-4.028144 1.726347 30.088841 202 202 202 0
-3.910453 1.725200 30.068845 204 204 204 0
-3.806537 1.730244 30.156761 203 203 203 0
-3.692245 1.730740 30.165397 203 203 203 0
-3.573175 1.728956 30.134301 203 203 203 0
-3.463419 1.731710 30.182303 204 204 204 0
-3.365358 1.740703 30.339042 204 204 204 0
-3.251316 1.741776 30.357757 203 203 203 0
-3.127508 1.737505 30.283306 204 204 204 0
-3.010525 1.736842 30.271748 205 205 205 0
-2.904938 1.742963 30.378440 205 205 205 0
-2.791321 1.744576 30.406549 204 204 204 0
-2.670574 1.741679 30.356052 204 204 204 0
-2.545390 1.735493 30.248246 204 204 204 0
-2.421940 1.729957 30.151761 204 204 204 0
-2.321449 1.741087 30.345741 204 204 204 0
-2.215521 1.749096 30.485327 204 204 204 0
-2.094391 1.745326 30.419628 204 204 204 0
-1.970163 1.738379 30.298542 204 204 204 0
-1.857163 1.741090 30.345796 205 205 205 0
-1.747341 1.747341 30.454741 205 205 205 0
-1.633829 1.750531 30.510352 204 204 204 0
-1.513495 1.746341 30.437315 204 204 204 0
-1.394977 1.743722 30.391666 206 206 206 0
-1.284313 1.751336 30.524368 204 204 204 0
-1.175462 1.763193 30.731035 205 205 205 0
-1.055077 1.758462 30.648573 205 205 205 0
-0.933588 1.750478 30.509416 205 205 205 0
-0.818164 1.753209 30.557028 205 205 205 0
-0.706631 1.766578 30.790035 205 205 205 0
-0.587652 1.762955 30.726884 205 205 205 0
-0.467583 1.753436 30.560971 205 205 205 0
-0.348961 1.744805 30.410549 205 205 205 0
-0.232940 1.747050 30.449674 206 206 206 0
-0.117305 1.759576 30.667990 206 206 206 0
0.000000 1.757024 30.623521 206 206 206 0
0.116655 1.749827 30.498082 206 206 206 0
0.233542 1.751562 30.528311 206 206 206 0
0.351578 1.757891 30.638615 205 205 205 0
0.468647 1.757428 30.630555 205 205 205 0
0.585392 1.756175 30.608717 206 206 206 0
0.702931 1.757327 30.628795 206 206 206 0
0.821493 1.760342 30.681345 207 207 207 0
0.940948 1.764278 30.749945 206 206 206 0
1.059515 1.765859 30.777499 206 206 206 0
1.175679 1.763519 30.736707 207 207 207 0
1.293114 1.763337 30.733538 207 207 207 0
1.410981 1.763726 30.740320 205 205 205 0
1.531303 1.766888 30.795431 206 206 206 0
1.646037 1.763611 30.738325 206 206 206 0
1.759881 1.759881 30.673304 206 206 206 0
1.877593 1.760244 30.679631 207 207 207 0
1.994044 1.759450 30.665799 206 206 206 0
2.116122 1.763435 30.735251 207 207 207 0
2.233937 1.763634 30.738723 207 207 207 0
2.354039 1.765529 30.771755 207 207 207 0
2.468657 1.763326 30.733356 207 207 207 0
2.585944 1.763144 30.730174 206 206 206 0
2.707809 1.765962 30.779298 207 207 207 0
2.828843 1.768027 30.815280 207 207 207 0
2.943172 1.765903 30.778269 206 206 206 0
3.055102 1.762559 30.719975 207 207 207 0
3.188425 1.771347 30.873155 207 207 207 0
3.315280 1.776043 30.954994 208 208 208 0
3.424923 1.771512 30.876021 206 206 206 0
3.532187 1.766093 30.781585 207 207 207 0
3.655494 1.768787 30.828538 207 207 207 0
3.792176 1.777582 30.981827 207 207 207 0
3.895198 1.770545 30.859167 207 207 207 0
3.999617 1.764537 30.754459 208 208 208 0
4.112244 1.762390 30.717044 207 207 207 0
4.249081 1.770450 30.857523 207 207 207 0
4.373953 1.773224 30.905867 208 208 208 0
4.483671 1.769870 30.847407 208 208 208 0
4.592081 1.766185 30.783180 208 208 208 0
4.722767 1.771037 30.867755 208 208 208 0
4.845233 1.772646 30.895793 207 207 207 0
4.957050 1.770375 30.856207 207 207 207 0
5.067371 1.767688 30.809369 208 208 208 0
5.190932 1.769636 30.843329 208 208 208 0
5.333750 1.777917 30.987654 208 208 208 0
5.450201 1.777239 30.975850 208 208 208 0
5.558559 1.774008 30.919534 208 208 208 0
5.668134 1.771292 30.872189 208 208 208 0
5.797682 1.774801 30.933343 208 208 208 0
5.926368 1.777910 30.987544 207 207 207 0
6.024730 1.771980 30.884175 208 208 208 0
6.134482 1.769562 30.842042 209 209 209 0
6.252902 1.769689 30.844258 208 208 208 0
6.387460 1.774294 30.924520 208 208 208 0
6.503564 1.773699 30.914146 208 208 208 0
6.621258 1.773551 30.911567 208 208 208 0
6.737372 1.772993 30.901831 208 208 208 0
6.862544 1.774796 30.933263 208 208 208 0
6.976975 1.773807 30.916030 208 208 208 0
7.097420 1.774355 30.925576 208 208 208 0
