ply
    format ascii 1.0
    element vertex 25597
    property float x
    property float y
    property float z
    property uchar red
    property uchar green
    property uchar blue
    property uchar alpha
    end_header
1.963665 -7.508133 30.198623 206 206 206 0
2.077419 -7.501792 30.173119 206 206 206 0
2.197233 -7.516849 30.233682 206 206 206 0
2.316998 -7.530244 30.287556 206 206 206 0
2.431749 -7.526842 30.273876 206 206 206 0
2.545926 -7.522054 30.254615 206 206 206 0
2.659769 -7.516739 30.233239 206 206 206 0
2.779982 -7.529119 30.283032 206 206 206 0
2.902814 -7.547317 30.356228 207 207 207 0
3.011956 -7.529889 30.286131 206 206 206 0
3.122936 -7.518179 30.239031 206 206 206 0
3.250424 -7.545627 30.349430 207 207 207 0
3.376923 -7.568965 30.443297 207 207 207 0
3.486908 -7.554968 30.387002 206 206 206 0
3.594206 -7.536238 30.311665 207 207 207 0
3.713820 -7.543697 30.341668 207 207 207 0
3.850805 -7.584918 30.507464 207 207 207 0
3.955510 -7.562005 30.415305 206 206 206 0
4.057255 -7.534902 30.306294 206 206 206 0
4.166649 -7.523116 30.258890 208 208 208 0
4.296671 -7.548206 30.359801 207 207 207 0
4.423008 -7.565672 30.430052 207 207 207 0
4.528286 -7.547143 30.355527 207 207 207 0
4.635550 -7.532769 30.297715 207 207 207 0
4.756936 -7.541485 30.332769 207 207 207 0
4.882062 -7.555572 30.389429 207 207 207 0
4.999549 -7.557457 30.397013 207 207 207 0
5.111840 -7.551582 30.373381 208 208 208 0
5.229061 -7.553087 30.379437 207 207 207 0
5.358960 -7.572444 30.457291 207 207 207 0
5.484222 -7.584563 30.506035 208 208 208 0
5.590080 -7.569900 30.447060 207 207 207 0
5.696329 -7.556355 30.392579 207 207 207 0
5.821742 -7.568264 30.440480 207 207 207 0
5.953192 -7.587401 30.517451 207 207 207 0
6.056378 -7.570472 30.449361 207 207 207 0
6.159525 -7.554134 30.383646 207 207 207 0
6.269628 -7.546775 30.354046 207 207 207 0
6.398856 -7.562285 30.416429 207 207 207 0
6.520542 -7.568486 30.441372 207 207 207 0
6.629322 -7.559753 30.406247 208 208 208 0
6.748142 -7.562573 30.417589 207 207 207 0
6.867543 -7.565937 30.431118 208 208 208 0
6.980446 -7.562150 30.415889 207 207 207 0
7.098935 -7.564439 30.425095 208 208 208 0
7.224992 -7.574589 30.465917 207 207 207 0
7.340963 -7.574010 30.463589 207 207 207 0
7.456646 -7.573156 30.460155 208 208 208 0
7.589138 -7.589138 30.524434 207 207 207 0
7.705071 -7.588327 30.521175 207 207 207 0
7.809552 -7.576431 30.473327 208 208 208 0
7.922212 -7.572703 30.458332 207 207 207 0
8.057496 -7.590395 30.529491 208 208 208 0
8.164301 -7.581136 30.492253 208 208 208 0
8.271792 -7.572767 30.458592 208 208 208 0
8.375580 -7.561287 30.412417 208 208 208 0
8.500865 -7.569263 30.444497 208 208 208 0
8.636929 -7.586491 30.513791 207 207 207 0
8.734181 -7.569624 30.445947 208 208 208 0
8.843522 -7.563538 30.421471 208 208 208 0
8.948358 -7.553809 30.382339 209 209 209 0
9.083093 -7.569244 30.444421 208 208 208 0
9.211454 -7.579045 30.483840 208 208 208 0
-8.237039 -6.589631 26.918427 199 199 199 0
-8.199802 -6.642877 27.135937 199 199 199 0
-8.233640 -6.755807 27.597252 199 199 199 0
-8.122163 -6.750889 27.577161 199 199 199 0
-8.017210 -6.751335 27.578983 199 199 199 0
-7.916353 -6.755288 27.595131 199 199 199 0
-7.843988 -6.783989 27.712375 199 199 199 0
-7.851710 -6.883691 28.119652 199 199 199 0
-7.807761 -6.940232 28.350623 200 200 200 0
-7.633397 -6.880809 28.107879 200 200 200 0
-7.502435 -6.859369 28.020300 199 199 199 0
-7.514585 -6.970050 28.472426 200 200 200 0
-7.503768 -7.062370 28.849550 200 200 200 0
-7.351776 -7.022592 28.687059 200 200 200 0
-7.171146 -6.953838 28.406202 200 200 200 0
-7.070903 -6.962120 28.440033 200 200 200 0
-7.079524 -7.079524 28.919623 200 200 200 0
-6.993267 -7.104271 29.020716 201 201 201 0
-6.833957 -7.054407 28.817022 200 200 200 0
-6.649524 -6.976550 28.498977 201 201 201 0
-6.523448 -6.958344 28.424608 201 201 201 0
-6.537140 -7.091135 28.967054 201 201 201 0
-6.456056 -7.123924 29.100995 201 201 201 0
-6.296287 -7.069515 28.878737 201 201 201 0
-6.154848 -7.034112 28.734116 201 201 201 0
-6.072747 -7.066470 28.866297 200 200 200 0
-6.024380 -7.140005 29.166689 202 202 202 0
-5.929671 -7.160357 29.249824 201 201 201 0
-5.799654 -7.138036 29.158645 202 202 202 0
-5.662928 -7.106419 29.029490 202 202 202 0
-5.570838 -7.130673 29.128565 202 202 202 0
-5.535052 -7.229455 29.532088 202 202 202 0
-5.420915 -7.227887 29.525682 202 202 202 0
-5.275381 -7.183497 29.344351 202 202 202 0
-5.145785 -7.159353 29.245723 202 202 202 0
-5.072949 -7.214860 29.472469 202 202 202 0
-5.002435 -7.276269 29.723321 202 202 202 0
-4.861822 -7.236200 29.559640 202 202 202 0
-4.718099 -7.189484 29.368805 202 202 202 0
-4.600772 -7.181694 29.336984 202 202 202 0
-4.497455 -7.195928 29.395129 202 202 202 0
-4.407793 -7.233301 29.547799 202 202 202 0
-4.288904 -7.223417 29.507423 203 203 203 0
-4.166981 -7.207751 29.443425 202 202 202 0
-4.068582 -7.233034 29.546707 202 202 202 0
-3.965378 -7.250978 29.620007 203 203 203 0
-3.851214 -7.249344 29.613332 203 203 203 0
-3.738411 -7.250252 29.617040 203 203 203 0
-3.639457 -7.278914 29.734126 203 203 203 0
-3.525791 -7.279053 29.734693 203 203 203 0
-3.408734 -7.271966 29.705744 204 204 204 0
-3.302585 -7.288463 29.773133 203 203 203 0
-3.204580 -7.324754 29.921382 203 203 203 0
-3.084279 -7.310883 29.864720 203 203 203 0
-2.958977 -7.283636 29.753416 203 203 203 0
-2.845425 -7.284288 29.756080 203 203 203 0
-2.743438 -7.315836 29.884950 204 204 204 0
-2.632218 -7.324433 29.920070 204 204 204 0
-2.512549 -7.309234 29.857980 204 204 204 0
-2.391620 -7.288746 29.774290 204 204 204 0
-2.272243 -7.271178 29.702524 203 203 203 0
-2.171908 -7.315899 29.885210 204 204 204 0
-2.065405 -7.343661 29.998614 203 203 203 0
-1.943697 -7.317447 29.891533 204 204 204 0
-1.823844 -7.295378 29.801380 204 204 204 0
-1.712809 -7.307985 29.852878 204 204 204 0
-1.603189 -7.328864 29.938171 204 204 204 0
-1.493533 -7.352780 30.035867 205 205 205 0
-1.374645 -7.331442 29.948700 204 204 204 0
-1.257799 -7.318103 29.894211 204 204 204 0
-1.151048 -7.366707 30.092755 204 204 204 0
-1.041304 -7.404832 30.248496 205 205 205 0
-0.922080 -7.376640 30.133334 204 204 204 0
-0.803384 -7.345222 30.004991 205 205 205 0
-0.689641 -7.356170 30.049715 205 205 205 0
-0.579146 -7.413067 30.282137 205 205 205 0
-0.462165 -7.394634 30.206838 205 205 205 0
-0.344632 -7.352142 30.033258 205 205 205 0
-0.228893 -7.324571 29.920632 205 205 205 0
-0.114493 -7.327552 29.932809 205 205 205 0
0.000000 -7.386827 30.174945 205 205 205 0
0.115249 -7.375922 30.130399 205 205 205 0
0.230056 -7.361808 30.072743 205 205 205 0
0.345236 -7.365035 30.085929 204 204 204 0
0.461926 -7.390817 30.191247 205 205 205 0
0.576974 -7.385265 30.168564 206 206 206 0
0.692058 -7.381956 30.155048 206 206 206 0
0.806131 -7.370336 30.107583 205 205 205 0
0.924465 -7.395717 30.211263 205 205 205 0
1.041978 -7.409623 30.268067 206 206 206 0
1.158719 -7.415801 30.293305 205 205 205 0
1.273526 -7.409604 30.267989 206 206 206 0
1.389241 -7.409283 30.266679 206 206 206 0
1.506285 -7.415555 30.292300 206 206 206 0
1.624500 -7.426286 30.336134 206 206 206 0
1.736918 -7.410849 30.273074 206 206 206 0
1.849913 -7.399651 30.227331 206 206 206 0
1.963503 -7.392010 30.196120 206 206 206 0
2.077375 -7.386222 30.172475 206 206 206 0
2.196444 -7.398548 30.222828 206 206 206 0
2.317500 -7.415999 30.294112 206 206 206 0
2.430879 -7.408392 30.263039 206 206 206 0
2.545597 -7.405373 30.250706 206 206 206 0
2.659908 -7.401483 30.234814 206 206 206 0
2.780955 -7.415881 30.293631 206 206 206 0
2.901921 -7.428919 30.346890 206 206 206 0
3.012825 -7.416185 30.294875 207 207 207 0
3.123180 -7.403094 30.241399 206 206 206 0
3.248679 -7.425553 30.333140 206 206 206 0
3.377486 -7.453761 30.448371 206 206 206 0
3.488433 -7.441990 30.400288 207 207 207 0
3.595394 -7.422750 30.321690 206 206 206 0
3.712182 -7.424365 30.328287 207 207 207 0
3.849241 -7.465195 30.495077 207 207 207 0
3.953372 -7.441642 30.398865 207 207 207 0
4.058017 -7.420373 30.311981 207 207 207 0
4.166117 -7.406431 30.255029 207 207 207 0
4.294884 -7.428988 30.347173 206 206 206 0
4.419695 -7.443697 30.407260 207 207 207 0
4.527875 -7.430359 30.352774 207 207 207 0
4.633643 -7.413829 30.285251 207 207 207 0
4.756550 -7.424859 30.330305 207 207 207 0
4.884116 -7.442462 30.402216 207 207 207 0
4.999354 -7.440900 30.395832 207 207 207 0
5.111347 -7.434686 30.370450 207 207 207 0
5.227559 -7.434751 30.370715 207 207 207 0
5.358966 -7.455952 30.457321 206 206 206 0
5.484409 -7.468131 30.507073 207 207 207 0
5.589736 -7.452981 30.445183 207 207 207 0
5.697587 -7.441747 30.399291 207 207 207 0
5.820865 -7.450707 30.435896 208 208 208 0
5.954267 -7.472021 30.522962 208 208 208 0
6.055230 -7.452591 30.443591 207 207 207 0
6.158823 -7.437070 30.380187 207 207 207 0
6.273269 -7.434985 30.371672 207 207 207 0
6.401966 -7.449561 30.431211 208 208 208 0
6.520546 -7.452052 30.441391 207 207 207 0
6.630275 -7.444519 30.410618 207 207 207 0
6.747442 -7.445453 30.414431 208 208 208 0
6.867127 -7.449087 30.429276 208 208 208 0
6.981531 -7.446967 30.420615 208 208 208 0
7.100198 -7.449389 30.430509 208 208 208 0
7.224228 -7.457267 30.462693 208 208 208 0
7.337294 -7.453759 30.448363 208 208 208 0
7.456421 -7.456421 30.459237 208 208 208 0
7.591769 -7.474973 30.535019 208 208 208 0
7.703819 -7.470370 30.516216 208 208 208 0
7.804904 -7.455431 30.455191 207 207 207 0
7.921883 -7.455890 30.457068 208 208 208 0
8.058070 -7.474152 30.531667 208 208 208 0
8.165743 -7.465822 30.497640 208 208 208 0
8.270896 -7.455455 30.455292 208 208 208 0
8.374961 -7.444410 30.410171 207 207 207 0
8.504200 -7.455737 30.456440 209 209 209 0
8.634058 -7.467294 30.503651 208 208 208 0
8.735195 -7.454033 30.449482 208 208 208 0
8.840416 -7.444560 30.410786 208 208 208 0
8.950027 -7.438983 30.388004 208 208 208 0
9.082333 -7.452171 30.441874 208 208 208 0
9.209366 -7.460752 30.476930 208 208 208 0
-8.248358 -6.495582 26.955419 200 200 200 0
-8.196592 -6.536523 27.125316 199 199 199 0
-8.230053 -6.647350 27.585227 199 199 199 0
-8.124897 -6.647643 27.586442 199 199 199 0
-8.012024 -6.641547 27.561143 199 199 199 0
-7.935059 -6.665450 27.660337 200 200 200 0
-7.834001 -6.669487 27.677091 199 199 199 0
-7.854964 -6.778941 28.131305 199 199 199 0
-7.790848 -6.816992 28.289209 200 200 200 0
-7.654862 -6.792342 28.186916 199 199 199 0
-7.507247 -6.756522 28.038270 200 200 200 0
-7.524606 -6.870293 28.510397 199 199 199 0
-7.508709 -6.956598 28.868545 200 200 200 0
-7.354395 -6.915326 28.697278 200 200 200 0
-7.171442 -6.845468 28.407378 201 201 201 0
-7.070449 -6.852897 28.438207 201 201 201 0
-7.079212 -6.968599 28.918348 201 201 201 0
-6.990582 -6.990582 29.009574 201 201 201 0
-6.823580 -6.933637 28.773264 200 200 200 0
-6.644434 -6.862284 28.477163 200 200 200 0
-6.526266 -6.852579 28.436889 201 201 201 0
-6.525713 -6.968135 28.916422 201 201 201 0
-6.454004 -7.010383 29.091745 201 201 201 0
-6.296221 -6.958981 28.878436 201 201 201 0
-6.152164 -6.921185 28.721587 201 201 201 0
-6.061796 -6.943512 28.814241 201 201 201 0
-6.014872 -7.017351 29.120660 201 201 201 0
-5.929341 -7.048085 29.248200 202 202 202 0
-5.795180 -7.021084 29.136151 201 201 201 0
-5.659313 -6.990916 29.010959 201 201 201 0
-5.568748 -7.016623 29.117638 202 202 202 0
-5.539099 -7.121699 29.553685 202 202 202 0
-5.428413 -7.124792 29.566519 202 202 202 0
-5.277193 -7.073684 29.354432 202 202 202 0
-5.150747 -7.054284 29.273925 202 202 202 0
-5.076233 -7.106726 29.491548 202 202 202 0
-4.998223 -7.156546 29.698292 202 202 202 0
-4.860559 -7.121284 29.551962 202 202 202 0
-4.722468 -7.083703 29.396006 203 203 203 0
-4.603241 -7.073273 29.352727 202 202 202 0
-4.492721 -7.076035 29.364188 203 203 203 0
-4.407757 -7.120224 29.547561 202 202 202 0
-4.292106 -7.115860 29.529454 203 203 203 0
-4.166673 -7.094606 29.441253 203 203 203 0
-4.066006 -7.115511 29.528006 203 203 203 0
-3.966888 -7.140399 29.631284 203 203 203 0
-3.849087 -7.132132 29.596981 202 202 202 0
-3.739885 -7.139780 29.628718 203 203 203 0
-3.638800 -7.163888 29.728761 202 202 202 0
-3.524672 -7.163043 29.725252 203 203 203 0
-3.405116 -7.150744 29.674216 203 203 203 0
-3.305622 -7.181179 29.800513 203 203 203 0
-3.207646 -7.217204 29.950011 203 203 203 0
-3.086012 -7.200695 29.881503 203 203 203 0
-2.960472 -7.173452 29.768450 203 203 203 0
-2.846614 -7.173467 29.768512 203 203 203 0
-2.743363 -7.201327 29.884126 204 204 204 0
-2.632553 -7.210906 29.923876 203 203 203 0
-2.512712 -7.195492 29.859912 204 204 204 0
-2.391770 -7.175310 29.776158 204 204 204 0
-2.272663 -7.158890 29.708018 204 204 204 0
-2.173861 -7.208067 29.912094 204 204 204 0
-2.065834 -7.230418 30.004848 204 204 204 0
-1.942535 -7.198805 29.873659 204 204 204 0
-1.823501 -7.180037 29.795774 203 203 203 0
-1.711453 -7.188102 29.829242 205 205 205 0
-1.604049 -7.218220 29.954227 204 204 204 0
-1.493163 -7.236099 30.028423 204 204 204 0
-1.375202 -7.219810 29.960825 204 204 204 0
-1.257430 -7.201647 29.885454 204 204 204 0
-1.150294 -7.246852 30.073045 205 205 205 0
-1.040725 -7.285076 30.231667 204 204 204 0
-0.921545 -7.257167 30.115850 204 204 204 0
-0.804255 -7.238294 30.037529 205 205 205 0
-0.689920 -7.244156 30.061859 205 205 205 0
-0.578802 -7.292900 30.264134 205 205 205 0
-0.462021 -7.276832 30.197456 204 204 204 0
-0.344808 -7.240972 30.048645 205 205 205 0
-0.228878 -7.209664 29.918723 205 205 205 0
-0.114561 -7.217355 29.950636 205 205 205 0
0.000000 -7.273325 30.182903 205 205 205 0
0.115300 -7.263899 30.143787 205 205 205 0
0.230010 -7.245300 30.066603 205 205 205 0
0.345114 -7.247403 30.075331 205 205 205 0
0.461780 -7.273038 30.181713 205 205 205 0
0.576871 -7.268579 30.163208 205 205 205 0
0.691484 -7.260586 30.130039 205 205 205 0
0.806073 -7.254655 30.105424 206 206 206 0
0.923892 -7.275647 30.192537 205 205 205 0
1.042039 -7.294271 30.269825 205 205 205 0
1.159212 -7.303035 30.306193 206 206 206 0
1.273519 -7.293792 30.267836 206 206 206 0
1.388790 -7.291146 30.256857 206 206 206 0
1.505732 -7.297008 30.281183 206 206 206 0
1.624751 -7.311377 30.340812 206 206 206 0
1.736241 -7.292210 30.261273 206 206 206 0
1.849813 -7.283637 30.225695 206 206 206 0
1.963528 -7.276606 30.196517 207 207 207 0
2.077509 -7.271282 30.174423 206 206 206 0
2.197312 -7.285823 30.234767 206 206 206 0
2.317009 -7.298579 30.287702 206 206 206 0
2.431874 -7.295621 30.275426 206 206 206 0
2.545764 -7.290144 30.252697 207 207 207 0
2.660207 -7.286653 30.238212 206 206 206 0
2.781146 -7.300507 30.295704 207 207 207 0
2.902191 -7.313521 30.349707 206 206 206 0
3.012161 -7.298699 30.288199 207 207 207 0
3.125084 -7.291862 30.259828 207 207 207 0
3.249511 -7.311399 30.340903 207 207 207 0
3.378679 -7.339888 30.459128 206 206 206 0
3.487707 -7.324184 30.393958 206 206 206 0
3.594549 -7.305052 30.314564 206 206 206 0
3.711484 -7.306983 30.322578 206 206 206 0
3.849989 -7.349979 30.501002 207 207 207 0
3.953329 -7.325286 30.398530 207 207 207 0
4.057463 -7.303433 30.307845 206 206 206 0
4.165818 -7.290181 30.252853 207 207 207 0
4.294185 -7.311720 30.342236 207 207 207 0
4.421323 -7.330089 30.418461 207 207 207 0
4.529947 -7.317607 30.366664 206 206 206 0
4.633701 -7.298080 30.285630 207 207 207 0
4.755939 -7.307906 30.326408 207 207 207 0
4.882392 -7.323589 30.391487 208 208 208 0
4.997785 -7.322336 30.386291 207 207 207 0
5.113815 -7.322053 30.385116 207 207 207 0
5.228727 -7.320218 30.377502 207 207 207 0
5.359394 -7.340039 30.459753 207 207 207 0
5.483207 -7.349831 30.500386 208 208 208 0
5.589098 -7.335691 30.441710 207 207 207 0
5.694750 -7.321821 30.384154 208 208 208 0
5.823995 -7.338234 30.452263 207 207 207 0
5.954216 -7.355208 30.522700 207 207 207 0
6.054249 -7.334956 30.438660 207 207 207 0
6.161089 -7.323559 30.391363 207 207 207 0
6.272441 -7.317848 30.367666 208 208 208 0
6.398859 -7.329602 30.416443 207 207 207 0
6.521620 -7.336823 30.446405 207 207 207 0
6.630758 -7.328732 30.412833 207 207 207 0
6.747914 -7.329631 30.416560 208 208 208 0
6.867670 -7.333275 30.431683 208 208 208 0
6.981652 -7.330734 30.421140 207 207 207 0
7.101579 -7.334418 30.436428 208 208 208 0
7.224107 -7.340624 30.462183 208 208 208 0
7.339942 -7.339942 30.459350 208 208 208 0
7.457467 -7.340944 30.463508 208 208 208 0
7.591019 -7.357449 30.532003 208 208 208 0
7.705936 -7.355666 30.524604 208 208 208 0
7.810951 -7.344626 30.478788 208 208 208 0
7.921380 -7.338926 30.455134 207 207 207 0
8.057878 -7.357193 30.530937 208 208 208 0
8.166428 -7.349785 30.500199 207 207 207 0
8.271841 -7.339803 30.458772 208 208 208 0
8.376380 -7.329333 30.415324 208 208 208 0
8.504184 -7.339228 30.456386 208 208 208 0
8.635775 -7.352079 30.509715 208 208 208 0
8.736098 -7.338322 30.452629 208 208 208 0
8.842015 -7.329565 30.416290 208 208 208 0
8.953123 -7.325282 30.398515 209 209 209 0
9.080486 -7.334238 30.435681 208 208 208 0
9.207979 -7.343072 30.472339 209 209 209 0
-8.233867 -6.381247 26.908062 199 199 199 0
-8.197659 -6.433606 27.128845 199 199 199 0
-8.236317 -6.546816 27.606224 199 199 199 0
-8.143704 -6.557268 27.650299 199 199 199 0
-8.021595 -6.543933 27.594066 200 200 200 0
-7.926028 -6.552183 27.628857 200 200 200 0
-7.834995 -6.564455 27.680603 199 199 199 0
-7.854254 -6.670736 28.128763 199 199 199 0
-7.807080 -6.722763 28.348148 200 200 200 0
-7.650286 -6.680532 28.170068 199 199 199 0
-7.505521 -6.647747 28.031824 200 200 200 0
-7.518720 -6.755951 28.488093 200 200 200 0
-7.502352 -6.840380 28.844107 200 200 200 0
-7.352507 -6.803812 28.689911 200 200 200 0
-7.168356 -6.733910 28.395153 201 201 201 0
-7.071506 -6.745129 28.442458 200 200 200 0
-7.093632 -6.871956 28.977256 200 200 200 0
-6.995495 -6.884455 29.029960 201 201 201 0
-6.824767 -6.824767 28.778273 201 201 201 0
-6.654873 -6.763969 28.521903 200 200 200 0
-6.522201 -6.739608 28.419179 201 201 201 0
-6.524938 -6.856715 28.912988 201 201 201 0
-6.454141 -6.899254 29.092364 201 201 201 0
-6.296320 -6.848628 28.878888 202 202 202 0
-6.158908 -6.818791 28.753073 201 201 201 0
-6.067928 -6.840209 28.843388 201 201 201 0
-6.014604 -6.905657 29.119362 202 202 202 0
-5.929182 -6.936025 29.247415 201 201 201 0
-5.796847 -6.911626 29.144531 202 202 202 0
-5.660952 -6.881942 29.019363 202 202 202 0
-5.561691 -6.896497 29.080737 201 201 201 0
-5.533930 -7.002116 29.526106 202 202 202 0
-5.419385 -7.000039 29.517350 202 202 202 0
-5.277345 -6.961604 29.355279 202 202 202 0
-5.152467 -6.944630 29.283703 202 202 202 0
-5.071708 -6.987687 29.465262 202 202 202 0
-4.994631 -7.037889 29.676951 202 202 202 0
-4.859165 -7.006238 29.543489 202 202 202 0
-4.713300 -6.957728 29.338932 202 202 202 0
-4.598052 -6.953151 29.319634 202 202 202 0
-4.499537 -6.974282 29.408737 203 203 203 0
-4.405036 -7.002877 29.529316 203 203 203 0
-4.291587 -7.002062 29.525879 203 203 203 0
-4.168992 -6.985878 29.457634 203 203 203 0
-4.066773 -7.003887 29.533574 203 203 203 0
-3.964636 -7.023070 29.614465 203 203 203 0
-3.849403 -7.019500 29.599409 202 202 202 0
-3.737317 -7.021625 29.608371 203 203 203 0
-3.636381 -7.045489 29.708998 203 203 203 0
-3.525192 -7.050383 29.729636 204 204 204 0
-3.406134 -7.039344 29.683088 203 203 203 0
-3.303929 -7.063572 29.785248 203 203 203 0
-3.208741 -7.105070 29.960237 203 203 203 0
-3.089223 -7.093771 29.912589 204 204 204 0
-2.962409 -7.064206 29.787924 203 203 203 0
-2.845450 -7.056715 29.756336 203 203 203 0
-2.744581 -7.090168 29.897399 203 203 203 0
-2.630312 -7.090405 29.898398 204 204 204 0
-2.512305 -7.080132 29.855079 204 204 204 0
-2.390528 -7.057749 29.760697 204 204 204 0
-2.272405 -7.044456 29.704644 204 204 204 0
-2.174302 -7.095090 29.918152 204 204 204 0
-2.065501 -7.114505 30.000019 204 204 204 0
-1.944085 -7.090194 29.897506 204 204 204 0
-1.822996 -7.064108 29.787512 204 204 204 0
-1.711896 -7.075839 29.836975 204 204 204 0
-1.602423 -7.096445 29.923867 204 204 204 0
-1.492752 -7.119280 30.020154 205 205 205 0
-1.374654 -7.102381 29.948899 205 205 205 0
-1.258276 -7.092104 29.905561 204 204 204 0
-1.150035 -7.130217 30.066273 204 204 204 0
-1.040664 -7.169019 30.229891 204 204 204 0
-0.921535 -7.141900 30.115538 205 205 205 0
-0.803750 -7.118929 30.018677 205 205 205 0
-0.689814 -7.128075 30.057243 204 204 204 0
-0.579081 -7.180602 30.278735 205 205 205 0
-0.461970 -7.160534 30.194115 205 205 205 0
-0.344804 -7.125959 30.048319 205 205 205 0
-0.228993 -7.098771 29.933676 205 205 205 0
-0.114587 -7.104407 29.957441 205 205 205 0
0.000000 -7.152869 30.161793 205 205 205 0
0.115302 -7.148696 30.144194 205 205 205 0
0.230180 -7.135586 30.088916 205 205 205 0
0.345144 -7.132980 30.077926 205 205 205 0
0.461979 -7.160671 30.194690 205 205 205 0
0.577514 -7.161170 30.196797 206 206 206 0
0.691916 -7.149796 30.148835 205 205 205 0
0.806256 -7.141121 30.112253 205 205 205 0
0.923918 -7.160361 30.193386 205 205 205 0
1.042169 -7.179385 30.273602 206 206 206 0
1.159136 -7.186645 30.304217 205 205 205 0
1.274298 -7.182410 30.286357 206 206 206 0
1.388899 -7.175981 30.259247 206 206 206 0
1.506282 -7.183805 30.292242 206 206 206 0
1.623979 -7.191908 30.326408 205 205 205 0
1.737260 -7.180674 30.279040 206 206 206 0
1.850365 -7.170164 30.234722 206 206 206 0
1.963552 -7.161188 30.196871 206 206 206 0
2.077546 -7.155991 30.174957 206 206 206 0
2.197786 -7.171723 30.241295 206 206 206 0
2.317021 -7.182766 30.287859 206 206 206 0
2.432719 -7.182312 30.285946 206 206 206 0
2.546386 -7.176180 30.260089 206 206 206 0
2.660710 -7.172348 30.243928 206 206 206 0
2.780248 -7.182306 30.285922 206 206 206 0
2.901722 -7.196270 30.344803 207 207 207 0
3.013156 -7.185219 30.298202 207 207 207 0
3.123070 -7.171494 30.240330 207 207 207 0
3.249342 -7.194972 30.339329 207 207 207 0
3.378247 -7.222460 30.455238 206 206 206 0
3.487694 -7.207900 30.393843 206 206 206 0
3.594978 -7.189955 30.318175 206 206 206 0
3.711308 -7.190659 30.321144 207 207 207 0
3.849169 -7.231772 30.494506 207 207 207 0
3.953683 -7.209658 30.401254 207 207 207 0
4.056241 -7.185341 30.298716 206 206 206 0
4.164721 -7.172575 30.244888 207 207 207 0
4.291193 -7.190647 30.321093 207 207 207 0
4.420519 -7.212426 30.412930 207 207 207 0
4.526837 -7.196510 30.345814 207 207 207 0
4.635390 -7.184854 30.296664 207 207 207 0
4.756021 -7.192031 30.326929 207 207 207 0
4.880945 -7.205205 30.382480 208 208 208 0
4.998084 -7.206540 30.388107 207 207 207 0
5.114748 -7.207145 30.390658 207 207 207 0
5.230901 -7.207019 30.390128 208 208 208 0
5.359332 -7.223448 30.459405 208 208 208 0
5.485165 -7.235749 30.511276 207 207 207 0
5.590019 -7.220441 30.446725 207 207 207 0
5.694707 -7.205547 30.383923 207 207 207 0
5.820391 -7.217285 30.433418 208 208 208 0
5.954177 -7.238411 30.522500 208 208 208 0
6.053110 -7.217169 30.432929 208 208 208 0
6.160634 -7.206780 30.389121 208 208 208 0
6.273322 -7.202703 30.371930 207 207 207 0
6.400540 -7.215154 30.424434 207 207 207 0
6.521194 -7.219894 30.444418 208 208 208 0
6.630742 -7.212387 30.412762 208 208 208 0
6.746227 -7.211484 30.408957 207 207 207 0
6.866727 -7.215883 30.427504 208 208 208 0
6.981471 -7.214186 30.420352 208 208 208 0
7.100080 -7.216474 30.429999 208 208 208 0
7.226487 -7.226487 30.472222 208 208 208 0
7.337817 -7.221343 30.450530 208 208 208 0
7.457379 -7.224336 30.463150 207 207 207 0
7.588306 -7.238076 30.521090 208 208 208 0
7.706696 -7.239623 30.527613 208 208 208 0
7.809612 -7.226805 30.473561 207 207 207 0
7.921184 -7.222256 30.454378 207 207 207 0
8.059683 -7.242034 30.537777 209 209 209 0
8.168672 -7.235110 30.508580 208 208 208 0
8.270264 -7.221921 30.452965 208 208 208 0
8.376559 -7.213148 30.415973 208 208 208 0
8.502962 -7.221694 30.452008 208 208 208 0
8.632528 -7.232658 30.498243 208 208 208 0
8.736620 -7.222272 30.454448 208 208 208 0
8.842413 -7.213548 30.417658 209 209 209 0
8.950959 -7.207266 30.391169 208 208 208 0
9.078931 -7.216586 30.430472 208 208 208 0
9.207599 -7.226217 30.471082 208 208 208 0
-8.232170 -6.277030 26.902517 199 199 199 0
-8.186446 -6.321179 27.091737 199 199 199 0
-8.221008 -6.429250 27.554913 199 199 199 0
-8.135326 -6.444868 27.621851 200 200 200 0
-8.018190 -6.435653 27.582354 199 199 199 0
-7.925487 -6.446063 27.626970 200 200 200 0
-7.839136 -6.461991 27.695236 199 199 199 0
-7.845197 -6.555576 28.096327 200 200 200 0
-7.811004 -6.617656 28.362398 199 199 199 0
-7.644603 -6.567898 28.149141 199 199 199 0
-7.509729 -6.544192 28.047539 200 200 200 0
-7.521378 -6.649334 28.498164 200 200 200 0
-7.513265 -6.739841 28.886064 200 200 200 0
-7.353663 -6.695126 28.694421 200 200 200 0
-7.177040 -6.633325 28.429549 200 200 200 0
-7.069086 -6.634066 28.432725 201 201 201 0
-7.086013 -6.753856 28.946131 200 200 200 0
-6.991345 -6.769398 29.012740 201 201 201 0
-6.826330 -6.716228 28.784861 200 200 200 0
-6.658344 -6.658344 28.536779 200 200 200 0
-6.518654 -6.627298 28.403722 201 201 201 0
-6.520907 -6.741954 28.895122 201 201 201 0
-6.456756 -6.790726 29.104152 201 201 201 0
-6.295745 -6.737552 28.876255 201 201 201 0
-6.156508 -6.706197 28.741869 201 201 201 0
-6.066460 -6.728256 28.836411 202 202 202 0
-6.019721 -6.800055 29.144136 201 201 201 0
-5.929263 -6.824246 29.247815 201 201 201 0
-5.790396 -6.792580 29.112096 201 201 201 0
-5.653336 -6.761833 28.980319 202 202 202 0
-5.558463 -6.781325 29.063859 202 202 202 0
-5.534988 -6.890496 29.531750 201 201 201 0
-5.424995 -6.894265 29.547906 202 202 202 0
-5.273596 -6.844454 29.334424 202 202 202 0
-5.148869 -6.827848 29.263252 202 202 202 0
-5.078258 -6.883861 29.503316 202 202 202 0
-4.997050 -6.927729 29.691326 202 202 202 0
-4.861487 -6.896528 29.557605 202 202 202 0
-4.714141 -6.846729 29.344171 202 202 202 0
-4.596714 -6.839014 29.311107 203 203 203 0
-4.494450 -6.854036 29.375488 202 202 202 0
-4.407307 -6.893480 29.544542 202 202 202 0
-4.288624 -6.884369 29.505494 202 202 202 0
-4.171601 -6.877504 29.476068 203 203 203 0
-4.067437 -6.892046 29.538396 203 203 203 0
-3.963314 -6.907490 29.604586 202 202 202 0
-3.848235 -6.904187 29.590428 203 203 203 0
-3.737711 -6.909103 29.611499 203 203 203 0
-3.637368 -6.933733 29.717059 203 203 203 0
-3.526595 -6.939428 29.741468 203 203 203 0
-3.405737 -6.924998 29.679623 203 203 203 0
-3.303832 -6.949440 29.784379 203 203 203 0
-3.204591 -6.981430 29.921482 203 203 203 0
-3.090605 -6.982478 29.925976 203 203 203 0
-2.960813 -6.946524 29.771879 204 204 204 0
-2.845635 -6.943350 29.758275 204 204 204 0
-2.744224 -6.974903 29.893507 203 203 203 0
-2.630813 -6.977374 29.904099 204 204 204 0
-2.513996 -6.970625 29.875174 204 204 204 0
-2.390632 -6.944216 29.761990 203 203 203 0
-2.272544 -6.931260 29.706463 204 204 204 0
-2.172358 -6.974414 29.891411 204 204 204 0
-2.063799 -6.993987 29.975301 204 204 204 0
-1.942288 -6.969388 29.869870 205 205 205 0
-1.824147 -6.954560 29.806321 205 205 205 0
-1.712856 -6.965614 29.853697 204 204 204 0
-1.603646 -6.987313 29.946698 204 204 204 0
-1.492999 -7.005612 30.025124 205 205 205 0
-1.375211 -6.990658 29.961031 205 205 205 0
-1.257626 -6.974105 29.890090 204 204 204 0
-1.150054 -7.015328 30.066764 204 204 204 0
-1.040387 -7.051515 30.221857 204 204 204 0
-0.921451 -7.026068 30.112794 204 204 204 0
-0.803241 -6.999668 29.999648 205 205 205 0
-0.690066 -7.015671 30.068234 205 205 205 0
-0.579248 -7.066830 30.287498 205 205 205 0
-0.462034 -7.046021 30.198310 205 205 205 0
-0.344763 -7.010173 30.044672 205 205 205 0
-0.228990 -6.984184 29.933288 205 205 205 0
-0.114566 -6.988523 29.951882 205 205 205 0
0.000000 -7.041940 30.180822 204 204 204 0
0.115301 -7.033346 30.143986 205 205 205 0
0.230062 -7.016887 30.073448 205 205 205 0
0.345239 -7.019863 30.086203 206 206 206 0
0.461950 -7.044738 30.192811 205 205 205 0
0.577177 -7.041558 30.179185 206 206 206 0
0.692295 -7.038332 30.165356 206 206 206 0
0.806555 -7.028550 30.123434 205 205 205 0
0.923904 -7.044765 30.192930 206 206 206 0
1.042357 -7.064865 30.279073 206 206 206 0
1.158942 -7.069544 30.299128 206 206 206 0
1.272577 -7.057020 30.245452 206 206 206 0
1.388333 -7.057359 30.246906 205 205 205 0
1.505579 -7.064640 30.278110 206 206 206 0
1.624753 -7.079283 30.340867 206 206 206 0
1.737134 -7.064346 30.276849 206 206 206 0
1.849299 -7.050454 30.217309 206 206 206 0
1.964664 -7.049677 30.213981 206 206 206 0
2.076787 -7.037999 30.163931 206 206 206 0
2.195793 -7.049652 30.213875 206 206 206 0
2.318118 -7.070260 30.302198 206 206 206 0
2.431852 -7.063952 30.275161 206 206 206 0
2.545825 -7.058879 30.253419 206 206 206 0
2.662200 -7.060618 30.260873 207 207 207 0
2.781098 -7.068625 30.295189 206 206 206 0
2.903172 -7.083739 30.359964 206 206 206 0
3.013033 -7.069039 30.296965 206 206 206 0
3.122602 -7.054767 30.235794 207 207 207 0
3.251017 -7.082572 30.354963 207 207 207 0
3.377089 -7.103532 30.444797 206 206 206 0
3.486963 -7.090159 30.387479 207 207 207 0
3.595128 -7.074284 30.319444 207 207 207 0
3.711014 -7.074121 30.318744 207 207 207 0
3.848351 -7.113618 30.488022 206 206 206 0
3.954012 -7.093963 30.403784 207 207 207 0
4.055960 -7.068959 30.296621 206 206 206 0
4.162006 -7.052289 30.225174 207 207 207 0
4.290271 -7.073150 30.314582 207 207 207 0
4.420088 -7.095404 30.409959 207 207 207 0
4.526863 -7.080479 30.345992 207 207 207 0
4.635351 -7.068910 30.296410 207 207 207 0
4.756987 -7.077469 30.333094 207 207 207 0
4.881606 -7.089952 30.386592 207 207 207 0
4.996311 -7.087790 30.377329 207 207 207 0
5.110691 -7.085276 30.366552 207 207 207 0
5.227941 -7.086765 30.372935 207 207 207 0
5.358138 -7.105356 30.452615 207 207 207 0
5.485233 -7.119132 30.511654 208 208 208 0
5.589756 -7.103649 30.445297 208 208 208 0
5.698101 -7.093555 30.402035 207 207 207 0
5.821969 -7.102803 30.441671 207 207 207 0
5.955200 -7.122886 30.527744 208 208 208 0
6.055383 -7.103430 30.444358 208 208 208 0
6.161451 -7.091481 30.393147 207 207 207 0
6.271169 -7.084098 30.361504 207 207 207 0
6.399951 -7.098128 30.421634 207 207 207 0
6.521015 -7.103249 30.443582 207 207 207 0
6.629348 -7.094566 30.406368 208 208 208 0
6.747549 -7.096560 30.414917 208 208 208 0
6.866787 -7.099560 30.427772 208 208 208 0
6.981622 -7.097983 30.421013 208 208 208 0
7.097714 -7.097714 30.419861 208 208 208 0
7.221824 -7.105343 30.452558 208 208 208 0
7.339668 -7.106662 30.458212 207 207 207 0
7.458261 -7.108655 30.466753 207 207 207 0
7.592619 -7.125381 30.538439 208 208 208 0
7.706150 -7.122351 30.525450 207 207 207 0
7.810908 -7.111423 30.478617 208 208 208 0
7.919512 -7.104268 30.447951 208 208 208 0
8.057352 -7.123166 30.528944 208 208 208 0
8.168159 -7.117967 30.506665 208 208 208 0
8.272315 -7.107200 30.460516 208 208 208 0
8.377862 -7.097911 30.420703 208 208 208 0
8.505482 -7.107320 30.461032 208 208 208 0
8.635818 -7.118715 30.509869 208 208 208 0
8.734843 -7.104339 30.448254 208 208 208 0
8.841048 -7.096104 30.412960 208 208 208 0
8.952126 -7.091944 30.395132 209 209 209 0
9.082014 -7.102601 30.440805 208 208 208 0
9.204141 -7.106995 30.459638 208 208 208 0
-8.222142 -6.166606 26.869744 200 200 200 0
-8.189100 -6.219570 27.100521 199 199 199 0
-8.228605 -6.329696 27.580377 199 199 199 0
-8.121511 -6.328450 27.574947 199 199 199 0
-8.035462 -6.343785 27.641767 199 199 199 0
-7.932715 -6.346172 27.652167 200 200 200 0
-7.837446 -6.354686 27.689265 199 199 199 0
-7.848575 -6.450883 28.108424 200 200 200 0
-7.801507 -6.501256 28.327911 200 200 200 0
-7.650582 -6.465281 28.171157 201 201 201 0
-7.512251 -6.439072 28.056958 200 200 200 0
-7.523961 -6.542575 28.507952 199 199 199 0
-7.525522 -6.640167 28.933189 200 200 200 0
-7.349143 -6.581322 28.676785 201 201 201 0
-7.173164 -6.521058 28.414198 201 201 201 0
-7.065661 -6.522148 28.418947 200 200 200 0
-7.085741 -6.642882 28.945019 201 201 201 0
-6.996762 -6.663582 29.035218 201 201 201 0
-6.826400 -6.606193 28.785155 201 201 201 0
-6.650934 -6.541902 28.505020 201 201 201 0
-6.521622 -6.521622 28.416652 201 201 201 0
-6.526333 -6.636948 28.919165 201 201 201 0
-6.460383 -6.683155 29.120502 201 201 201 0
-6.296765 -6.628174 28.880931 201 201 201 0
-6.161062 -6.601138 28.763129 201 201 201 0
-6.066120 -6.617586 28.834797 201 201 201 0
-6.016715 -6.685239 29.129584 201 201 201 0
-5.928412 -6.711410 29.243617 201 201 201 0
-5.788079 -6.678552 29.100446 201 201 201 0
-5.657735 -6.656159 29.002873 201 201 201 0
-5.561082 -6.673299 29.077554 201 201 201 0
-5.536593 -6.779502 29.540314 202 202 202 0
-5.423453 -6.779317 29.539507 202 202 202 0
-5.275324 -6.734456 29.344034 202 202 202 0
-5.151394 -6.719210 29.277604 202 202 202 0
-5.078624 -6.771499 29.505442 201 201 201 0
-4.996812 -6.813834 29.689910 202 202 202 0
-4.861239 -6.783124 29.556098 202 202 202 0
-4.717005 -6.738578 29.361997 203 203 203 0
-4.595091 -6.724523 29.300756 202 202 202 0
-4.499222 -6.748833 29.406678 203 203 203 0
-4.408073 -6.781651 29.549676 202 202 202 0
-4.290393 -6.774305 29.517669 203 203 203 0
-4.168060 -6.759017 29.451054 203 203 203 0
-4.066927 -6.778211 29.534688 203 203 203 0
-3.966290 -6.799354 29.626816 202 202 202 0
-3.850745 -6.795432 29.609725 202 202 202 0
-3.738375 -6.797046 29.616757 203 203 203 0
-3.636401 -6.818251 29.709155 203 203 203 0
-3.522328 -6.817409 29.705485 203 203 203 0
-3.407172 -6.814344 29.692132 203 203 203 0
-3.303608 -6.835051 29.782359 204 204 204 0
-3.206688 -6.871473 29.941060 204 204 204 0
-3.089163 -6.864806 29.912010 203 203 203 0
-2.964454 -6.841047 29.808484 203 203 203 0
-2.847712 -6.834509 29.779994 203 203 203 0
-2.744462 -6.861155 29.896100 204 204 204 0
-2.633426 -6.869807 29.933800 204 204 204 0
-2.513921 -6.856150 29.874290 204 204 204 0
-2.391421 -6.832631 29.771813 204 204 204 0
-2.271714 -6.815141 29.695604 204 204 204 0
-2.171826 -6.858397 29.884081 204 204 204 0
-2.064644 -6.882147 29.987569 204 204 204 0
-1.943631 -6.859873 29.890514 204 204 204 0
-1.823806 -6.839271 29.800744 204 204 204 0
-1.711801 -6.847204 29.835311 204 204 204 0
-1.603943 -6.874043 29.952259 204 204 204 0
-1.493430 -6.892756 30.033795 204 204 204 0
-1.375146 -6.875730 29.959610 204 204 204 0
-1.258235 -6.863098 29.904565 205 205 205 0
-1.149950 -6.899703 30.064064 204 204 204 0
-1.040372 -6.935810 30.221396 204 204 204 0
-0.921429 -6.910719 30.112066 204 204 204 0
-0.803768 -6.889444 30.019363 204 204 204 0
-0.689350 -6.893496 30.037021 204 204 204 0
-0.579070 -6.948840 30.278169 205 205 205 0
-0.461816 -6.927242 30.184063 205 205 205 0
-0.344603 -6.892052 30.030728 205 205 205 0
-0.228950 -6.868514 29.928164 205 205 205 0
-0.114535 -6.872098 29.943782 205 205 205 0
0.000000 -6.921676 30.159807 205 205 205 0
0.115320 -6.919224 30.149122 205 205 205 0
0.230120 -6.903604 30.081062 205 205 205 0
0.345211 -6.904215 30.083726 205 205 205 0
0.462206 -6.933096 30.209569 205 205 205 0
0.577221 -6.926649 30.181479 205 205 205 0
0.692087 -6.920873 30.156308 206 206 206 0
0.805971 -6.908323 30.101624 206 206 206 0
0.924280 -6.932097 30.205214 205 205 205 0
1.042361 -6.949074 30.279190 205 205 205 0
1.159470 -6.956821 30.312946 205 205 205 0
1.273593 -6.946869 30.269582 205 205 205 0
1.388743 -6.943714 30.255835 206 206 206 0
1.506299 -6.952150 30.292594 205 205 205 0
1.624157 -6.960673 30.329730 206 206 206 0
1.737113 -6.948451 30.276474 206 206 206 0
1.849930 -6.937236 30.227608 206 206 206 0
1.964355 -6.933016 30.209220 207 207 207 0
2.076793 -6.922642 30.164016 206 206 206 0
2.197006 -6.937914 30.230562 206 206 206 0
2.317647 -6.952940 30.296037 206 206 206 0
2.431869 -6.948198 30.275372 206 206 206 0
2.546103 -6.943917 30.256718 207 207 207 0
2.662144 -6.944723 30.260230 206 206 206 0
2.783200 -6.958001 30.318087 206 206 206 0
2.903160 -6.967584 30.359845 206 206 206 0
3.013011 -6.953101 30.296738 207 207 207 0
3.123454 -6.941010 30.244051 207 207 207 0
3.249515 -6.963247 30.340947 207 207 207 0
3.378947 -6.990926 30.461550 206 206 206 0
3.487735 -6.975470 30.394203 206 206 206 0
3.595322 -6.958688 30.321080 207 207 207 0
3.711614 -6.959276 30.323643 206 206 206 0
3.849547 -6.999176 30.497499 207 207 207 0
3.952656 -6.975275 30.393353 207 207 207 0
4.055562 -6.952393 30.293651 208 208 208 0
4.161873 -6.936455 30.224204 207 207 207 0
4.289361 -6.955720 30.308149 207 207 207 0
4.418623 -6.976773 30.399884 207 207 207 0
4.528029 -6.966198 30.353804 206 206 206 0
4.635374 -6.953061 30.296564 207 207 207 0
4.754472 -6.957764 30.317056 207 207 207 0
4.880833 -6.972618 30.381778 207 207 207 0
5.000683 -6.977697 30.403908 208 208 208 0
5.111707 -6.970510 30.372591 207 207 207 0
5.228596 -6.971462 30.376739 207 207 207 0
5.359911 -6.991188 30.462695 208 208 208 0
5.485101 -7.002256 30.510921 207 207 207 0
5.590854 -6.988567 30.451274 207 207 207 0
5.697375 -6.976377 30.398159 208 208 208 0
5.823455 -6.988146 30.449439 207 207 207 0
5.953952 -7.004650 30.521351 207 207 207 0
6.057191 -6.989067 30.453451 207 207 207 0
6.158527 -6.971917 30.378724 208 208 208 0
6.270776 -6.967529 30.359603 207 207 207 0
6.396151 -6.977619 30.403568 207 207 207 0
6.518564 -6.984176 30.432138 207 207 207 0
6.631004 -6.980005 30.413964 207 207 207 0
6.751485 -6.984294 30.432656 207 207 207 0
6.865215 -6.981575 30.420804 208 208 208 0
6.984317 -6.984317 30.432753 208 208 208 0
7.098388 -6.982021 30.422751 207 207 207 0
7.225348 -6.992273 30.467419 208 208 208 0
7.339951 -6.990430 30.459389 208 208 208 0
7.459271 -6.993066 30.470877 208 208 208 0
7.591645 -7.007672 30.534518 208 208 208 0
7.707946 -7.007224 30.532565 208 208 208 0
7.811024 -6.994947 30.479070 208 208 208 0
7.921674 -6.989712 30.456262 207 207 207 0
8.055311 -7.004618 30.521211 207 207 207 0
8.168327 -7.001423 30.507290 208 208 208 0
8.271414 -6.989927 30.457200 208 208 208 0
8.379300 -6.982750 30.425926 207 207 207 0
8.503687 -6.989332 30.454605 207 207 207 0
8.634654 -7.001071 30.505756 208 208 208 0
8.735649 -6.988519 30.451064 208 208 208 0
8.841849 -6.980407 30.415719 208 208 208 0
8.947070 -6.971743 30.377965 208 208 208 0
9.081309 -6.985622 30.438441 208 208 208 0
9.200307 -6.987575 30.446950 208 208 208 0
-8.233843 -6.072460 26.907985 199 199 199 0
-8.199183 -6.123440 27.133889 199 199 199 0
-8.239732 -6.232618 27.617670 199 199 199 0
-8.113537 -6.216866 27.547872 199 199 199 0
-8.016826 -6.223588 27.577660 200 200 200 0
-7.932858 -6.240515 27.652663 199 199 199 0
-7.842800 -6.253044 27.708180 200 200 200 0
-7.860640 -6.353120 28.151636 200 200 200 0
-7.803464 -6.394505 28.335018 200 200 200 0
-7.641567 -6.350035 28.137963 200 200 200 0
-7.517342 -6.336046 28.075975 200 200 200 0
-7.539358 -6.446697 28.566288 200 200 200 0
-7.520303 -6.524969 28.913122 201 201 201 0
-7.356051 -6.477716 28.703739 200 200 200 0
-7.178986 -6.417578 28.437259 201 201 201 0
-7.070659 -6.417982 28.439049 200 200 200 0
-7.078140 -6.525160 28.913970 201 201 201 0
-6.995928 -6.551742 29.031759 201 201 201 0
-6.831485 -6.500930 28.806601 201 201 201 0
-6.649323 -6.431312 28.498115 201 201 201 0
-6.518866 -6.410218 28.404644 200 200 200 0
-6.529338 -6.529338 28.932481 201 201 201 0
-6.460668 -6.572059 29.121786 201 201 201 0
-6.297500 -6.518465 28.884303 201 201 201 0
-6.166791 -6.497155 28.789876 201 201 201 0
-6.076005 -6.517896 28.881782 201 201 201 0
-6.023638 -6.581382 29.163097 201 201 201 0
-5.928280 -6.599406 29.242965 202 202 202 0
-5.789952 -6.569369 29.109865 202 202 202 0
-5.664078 -6.552561 29.035385 202 202 202 0
-5.566556 -6.568537 29.106178 202 202 202 0
-5.536395 -6.666271 29.539255 202 202 202 0
-5.418521 -6.660265 29.512641 202 202 202 0
-5.275731 -6.622727 29.346302 202 202 202 0
-5.152800 -6.609026 29.285592 202 202 202 0
-5.075707 -6.654816 29.488493 202 202 202 0
-4.995133 -6.698019 29.679934 202 202 202 0
-4.861881 -6.670953 29.560002 202 202 202 0
-4.716277 -6.625246 29.357464 202 202 202 0
-4.596135 -6.613950 29.307413 202 202 202 0
-4.497949 -6.634474 29.398357 202 202 202 0
-4.405602 -6.664886 29.533115 203 203 203 0
-4.290615 -6.661744 29.519192 202 202 202 0
-4.171404 -6.651698 29.474676 202 202 202 0
-4.063957 -6.660373 29.513120 203 203 203 0
-3.964275 -6.682635 29.611765 203 203 203 0
-3.850136 -6.681118 29.605044 203 203 203 0
-3.736059 -6.679620 29.598407 203 203 203 0
-3.635039 -6.702103 29.698032 202 202 202 0
-3.522722 -6.704536 29.708812 203 203 203 0
-3.403544 -6.693637 29.660516 203 203 203 0
-3.305037 -6.724040 29.795236 203 203 203 0
-3.204065 -6.751422 29.916572 204 204 204 0
-3.088847 -6.749703 29.908955 204 204 204 0
-2.961221 -6.719695 29.775981 203 203 203 0
-2.846451 -6.717625 29.766812 204 204 204 0
-2.745552 -6.749481 29.907971 204 204 204 0
-2.634805 -6.758848 29.949478 204 204 204 0
-2.514050 -6.742225 29.875817 204 204 204 0
-2.392722 -6.722408 29.788007 204 204 204 0
-2.271641 -6.701341 29.694653 205 205 205 0
-2.171317 -6.742512 29.877090 204 204 204 0
-2.065104 -6.768951 29.994243 204 204 204 0
-1.944194 -6.747497 29.899177 204 204 204 0
-1.822467 -6.720348 29.778876 205 205 205 0
-1.712257 -6.734879 29.843268 204 204 204 0
-1.604043 -6.759896 29.954122 204 204 204 0
-1.493593 -6.778614 30.037063 204 204 204 0
-1.375261 -6.761698 29.962103 205 205 205 0
-1.257879 -6.746807 29.896121 205 205 205 0
-1.151099 -6.791482 30.094082 205 205 205 0
-1.040967 -6.824120 30.238707 205 205 205 0
-0.921897 -6.798992 30.127358 204 204 204 0
-0.803766 -6.774597 30.019264 204 204 204 0
-0.690089 -6.785879 30.069256 206 206 206 0
-0.579144 -6.833902 30.282051 205 205 205 0
-0.461771 -6.811129 30.181139 205 205 205 0
-0.344611 -6.777343 30.031430 205 205 205 0
-0.228943 -6.753805 29.927128 205 205 205 0
-0.114560 -6.759058 29.950407 205 205 205 0
0.000000 -6.806848 30.162171 206 206 206 0
0.115310 -6.803271 30.146322 205 205 205 0
0.230043 -6.786256 30.070925 205 205 205 0
0.345125 -6.787468 30.076294 205 205 205 0
0.461700 -6.810070 30.176450 205 205 205 0
0.577097 -6.809745 30.175008 205 205 205 0
0.691676 -6.801484 30.138404 205 205 205 0
0.806160 -6.794774 30.108671 206 206 206 0
0.923925 -6.813943 30.193612 205 205 205 0
1.042473 -6.833989 30.282438 206 206 206 0
1.158725 -6.836480 30.293474 205 205 205 0
1.273532 -6.830765 30.268151 206 206 206 0
1.388508 -6.826833 30.250729 206 206 206 0
1.506506 -6.837221 30.296760 206 206 206 0
1.624324 -6.845365 30.332844 206 206 206 0
1.737437 -6.833921 30.282135 206 206 206 0
1.851062 -6.825792 30.246113 206 206 206 0
1.964447 -6.817788 30.210648 206 206 206 0
2.076919 -6.807678 30.165849 206 206 206 0
2.197486 -6.823772 30.237163 206 206 206 0
2.316136 -6.832601 30.276288 207 207 207 0
2.432462 -6.834060 30.282750 206 206 206 0
2.544433 -6.823706 30.236873 206 206 206 0
2.662044 -6.828722 30.259099 206 206 206 0
2.781721 -6.838398 30.301974 206 206 206 0
2.903949 -6.853320 30.368094 207 207 207 0
3.013493 -6.838310 30.301585 206 206 206 0
3.122111 -6.822391 30.231043 206 206 206 0
3.250630 -6.849541 30.351350 207 207 207 0
3.380180 -6.876918 30.472664 207 207 207 0
3.487933 -6.859602 30.395932 207 207 207 0
3.595637 -6.843310 30.323739 207 207 207 0
3.710675 -6.841556 30.315969 206 206 206 0
3.848029 -6.879809 30.485471 207 207 207 0
3.953845 -6.861085 30.402502 207 207 207 0
4.054849 -6.835317 30.288322 207 207 207 0
4.162838 -6.822429 30.231213 208 208 208 0
4.288168 -6.837890 30.299724 207 207 207 0
4.417706 -6.859070 30.393574 207 207 207 0
4.527446 -6.849213 30.349895 207 207 207 0
4.634243 -6.835508 30.289168 207 207 207 0
4.753493 -6.840392 30.310811 208 208 208 0
4.879797 -6.854952 30.375329 207 207 207 0
4.999448 -6.859707 30.396398 207 207 207 0
5.113930 -6.857315 30.385798 208 208 208 0
5.227333 -6.853615 30.369401 208 208 208 0
5.360508 -6.875435 30.466089 207 207 207 0
5.483805 -6.883925 30.503710 207 207 207 0
5.591625 -6.873039 30.455473 208 208 208 0
5.699451 -6.862604 30.409236 207 207 207 0
5.823090 -6.871246 30.447528 207 207 207 0
5.955346 -6.889517 30.528492 208 208 208 0
6.054947 -6.870036 30.442167 208 208 208 0
6.158884 -6.856116 30.380485 208 208 208 0
6.272190 -6.852948 30.366447 208 208 208 0
6.395631 -6.860768 30.401098 208 208 208 0
6.519688 -6.868957 30.437385 207 207 207 0
6.631206 -6.863880 30.414889 207 207 207 0
6.747979 -6.864324 30.416854 209 209 209 0
6.865419 -6.865419 30.421710 207 207 207 0
6.980078 -6.863744 30.414285 207 207 207 0
7.098392 -6.865658 30.422767 208 208 208 0
7.224713 -6.875130 30.464741 207 207 207 0
7.339848 -6.873826 30.458959 208 208 208 0
7.457313 -6.874710 30.462880 209 209 209 0
7.590433 -6.889778 30.529647 207 207 207 0
7.708657 -6.891072 30.535380 208 208 208 0
7.811122 -6.878450 30.479452 208 208 208 0
7.923041 -6.874403 30.461520 208 208 208 0
8.059305 -6.891290 30.536345 208 208 208 0
8.166504 -6.883196 30.500480 208 208 208 0
8.273062 -6.874798 30.463267 208 208 208 0
8.377227 -6.864672 30.418398 208 208 208 0
8.503827 -6.872956 30.455108 208 208 208 0
8.635710 -6.885228 30.509486 208 208 208 0
8.735785 -6.872151 30.451539 208 208 208 0
8.842589 -6.864641 30.418263 209 209 209 0
8.946882 -6.855403 30.377325 208 208 208 0
9.080362 -6.868479 30.435268 208 208 208 0
9.201794 -6.872226 30.451870 209 209 209 0
-8.236751 -5.971644 26.917486 199 199 199 0
-8.187027 -6.010729 27.093660 199 199 199 0
-8.221465 -6.113397 27.556444 199 199 199 0
-8.122940 -6.118578 27.579798 199 199 199 0
-8.029579 -6.127836 27.621530 200 200 200 0
-7.930125 -6.132630 27.643136 200 200 200 0
-7.851040 -6.153518 27.737291 200 200 200 0
-7.875626 -6.257347 28.205304 200 200 200 0
-7.803415 -6.286084 28.334841 200 200 200 0
-7.654254 -6.252771 28.184679 200 200 200 0
-7.524705 -6.234755 28.103473 200 200 200 0
-7.530458 -6.329950 28.532566 200 200 200 0
-7.531966 -6.424324 28.957963 200 200 200 0
-7.345828 -6.359075 28.663849 201 201 201 0
-7.174726 -6.305062 28.420383 200 200 200 0
-7.067013 -6.305950 28.424388 200 200 200 0
-7.080505 -6.416708 28.923632 201 201 201 0
-6.989732 -6.434992 29.006047 201 201 201 0
-6.830391 -6.389721 28.801987 201 201 201 0
-6.650457 -6.323385 28.502976 201 201 201 0
-6.525810 -6.308283 28.434901 200 200 200 0
-6.522149 -6.411604 28.900626 201 201 201 0
-6.462316 -6.462316 29.129214 201 201 201 0
-6.300048 -6.410575 28.895987 201 201 201 0
-6.162513 -6.382603 28.769904 201 201 201 0
-6.072509 -6.403737 28.865167 201 201 201 0
-6.022933 -6.469076 29.159683 201 201 201 0
-5.936071 -6.496078 29.281397 201 201 201 0
-5.801676 -6.471101 29.168810 202 202 202 0
-5.665542 -6.443166 29.042892 202 202 202 0
-5.570450 -6.461722 29.126536 202 202 202 0
-5.539744 -6.557248 29.557124 202 202 202 0
-5.420295 -6.549523 29.522303 201 201 201 0
-5.276469 -6.511387 29.350405 202 202 202 0
-5.149535 -6.492892 29.267035 202 202 202 0
-5.084805 -6.553749 29.541352 202 202 202 0
-4.996148 -6.585831 29.685963 202 202 202 0
-4.862248 -6.558381 29.562229 202 202 202 0
-4.719662 -6.517629 29.378537 202 202 202 0
-4.598293 -6.504903 29.321175 202 202 202 0
-4.491058 -6.512034 29.353322 202 202 202 0
-4.404640 -6.550490 29.526661 203 203 203 0
-4.292722 -6.552049 29.533692 203 203 203 0
-4.167998 -6.533619 29.450616 203 203 203 0
-4.064079 -6.547682 29.514007 203 203 203 0
-3.965275 -6.571027 29.619234 203 203 203 0
-3.851461 -6.570139 29.615233 203 203 203 0
-3.732901 -6.560855 29.573385 203 203 203 0
-3.632577 -6.584045 29.677914 203 203 203 0
-3.522822 -6.591086 29.709650 203 203 203 0
-3.403857 -6.580791 29.663244 203 203 203 0
-3.302197 -6.604393 29.769634 203 203 203 0
-3.203484 -6.635789 29.911151 204 204 204 0
-3.088604 -6.634778 29.906594 204 204 204 0
-2.963544 -6.610983 29.799337 204 204 204 0
-2.846398 -6.603642 29.766249 204 204 204 0
-2.745687 -6.635409 29.909441 204 204 204 0
-2.632395 -6.638214 29.922083 204 204 204 0
-2.513750 -6.627159 29.872251 204 204 204 0
-2.391367 -6.604728 29.771141 205 205 205 0
-2.272458 -6.590129 29.705339 204 204 204 0
-2.172487 -6.631802 29.893179 204 204 204 0
-2.064626 -6.652684 29.987309 204 204 204 0
-1.943629 -6.631205 29.890490 204 204 204 0
-1.823165 -6.608975 29.790284 204 204 204 0
-1.713339 -6.624910 29.862116 204 204 204 0
-1.604475 -6.647111 29.962188 204 204 204 0
-1.494302 -6.666885 30.051318 205 205 205 0
-1.374890 -6.645301 29.954028 205 205 205 0
-1.258538 -6.635928 29.911780 205 205 205 0
-1.149681 -6.668148 30.057010 204 204 204 0
-1.040707 -6.706781 30.231152 204 204 204 0
-0.921988 -6.684414 30.130333 205 205 205 0
-0.803746 -6.659606 30.018507 204 204 204 0
-0.690377 -6.673649 30.081806 204 204 204 0
