ply
    format ascii 1.0
    element vertex 25597
    property float x
    property float y
    property float z
    property uchar red
    property uchar green
    property uchar blue
    property uchar alpha
    end_header
1.822719 7.974396 29.782991 206 206 206 0
1.934207 7.964381 29.745587 207 207 207 0
2.045733 7.955630 29.712904 206 206 206 0
2.156290 7.944225 29.670307 206 206 206 0
2.274781 7.961732 29.735695 207 207 207 0
2.394914 7.983047 29.815300 206 206 206 0
2.508642 7.982044 29.811556 206 206 206 0
2.621144 7.977396 29.794195 206 206 206 0
2.733894 7.973857 29.780979 206 206 206 0
2.847732 7.973649 29.780200 207 207 207 0
2.969334 7.994361 29.857556 207 207 207 0
3.078556 7.981440 29.809302 206 206 206 0
3.191184 7.977959 29.796301 206 206 206 0
3.310227 7.990203 29.842029 207 207 207 0
3.439588 8.025706 29.974626 207 207 207 0
3.549005 8.013883 29.930468 207 207 207 0
3.651757 7.988219 29.834618 207 207 207 0
3.768633 7.994071 29.856473 207 207 207 0
3.900172 8.029766 29.989790 207 207 207 0
4.008979 8.017958 29.945688 207 207 207 0
4.110822 7.993264 29.853462 207 207 207 0
4.211742 7.968160 29.759700 207 207 207 0
4.327472 7.971659 29.772771 207 207 207 0
4.460398 8.005843 29.900442 207 207 207 0
4.575072 8.006375 29.902429 207 207 207 0
4.675463 7.982498 29.813252 207 207 207 0
4.790659 7.984432 29.820474 207 207 207 0
4.920112 8.009485 29.914044 207 207 207 0
5.038819 8.016302 29.939504 207 207 207 0
5.146576 8.005784 29.900222 208 208 208 0
5.258765 8.002468 29.887836 207 207 207 0
5.377095 8.008439 29.910138 207 207 207 0
5.508778 8.033635 30.004239 208 208 208 0
5.623979 8.034256 30.006558 208 208 208 0
5.723348 8.012688 29.926004 207 207 207 0
5.834639 8.008327 29.909720 207 207 207 0
5.958606 8.021200 29.957797 208 208 208 0
6.083547 8.034874 30.008865 208 208 208 0
6.180708 8.012029 29.923545 207 207 207 0
6.281202 7.994257 29.857169 208 208 208 0
6.398812 7.998515 29.873072 208 208 208 0
6.524890 8.013023 29.927257 208 208 208 0
6.641862 8.016040 29.938524 208 208 208 0
6.747132 8.005072 29.897562 208 208 208 0
6.866395 8.010794 29.918933 208 208 208 0
6.987003 8.017873 29.945369 208 208 208 0
7.101444 8.017760 29.944947 208 208 208 0
7.222302 8.024780 29.971166 208 208 208 0
7.333405 8.020912 29.956721 209 209 209 0
7.444011 8.016627 29.940718 208 208 208 0
7.575843 8.034985 30.009283 208 208 208 0
7.699237 8.043979 30.042870 208 208 208 0
7.805946 8.035533 30.011328 208 208 208 0
7.908120 8.022730 29.963512 208 208 208 0
8.023596 8.023596 29.966743 208 208 208 0
8.163318 8.048341 30.059164 208 208 208 0
8.260792 8.031325 29.995613 208 208 208 0
8.363589 8.019880 29.952865 208 208 208 0
8.469393 8.011588 29.921896 208 208 208 0
8.601725 8.028277 29.984226 208 208 208 0
8.722878 8.034230 30.006460 208 208 208 0
8.829114 8.026467 29.977468 209 209 209 0
8.931132 8.015118 29.935082 208 208 208 0
10.532149 9.332284 34.854467 208 208 208 0
-8.108281 7.196100 26.497651 199 199 199 0
-8.055242 7.239522 26.657541 199 199 199 0
-8.083199 7.357783 27.093007 199 199 199 0
-8.000661 7.377233 27.164625 200 200 200 0
-7.905780 7.385663 27.195665 200 200 200 0
-7.813582 7.396858 27.236887 200 200 200 0
-7.704513 7.392168 27.219617 199 199 199 0
-7.704884 7.493791 27.593817 200 200 200 0
-7.663956 7.557512 27.828451 199 199 199 0
-7.548222 7.548222 27.794246 200 200 200 0
-7.380618 7.486055 27.565333 200 200 200 0
-7.313311 7.525291 27.709808 200 200 200 0
-7.357553 7.682151 28.287400 200 200 200 0
-7.261746 7.695283 28.335758 201 201 201 0
-7.080433 7.616830 28.046875 200 200 200 0
-6.931644 7.571488 27.879917 200 200 200 0
-6.852534 7.602030 27.992377 200 200 200 0
-6.886430 7.760897 28.577363 201 201 201 0
-6.725999 7.702353 28.361791 201 201 201 0
-6.568977 7.645859 28.153764 200 200 200 0
-6.419908 7.596891 27.973454 200 200 200 0
-6.348486 7.639703 28.131100 201 201 201 0
-6.336073 7.756227 28.560165 201 201 201 0
-6.226133 7.755358 28.556967 201 201 201 0
-6.085686 7.715781 28.411233 202 202 202 0
-5.942425 7.671131 28.246823 201 201 201 0
-5.891458 7.746177 28.523158 201 201 201 0
-5.818344 7.794386 28.700675 201 201 201 0
-5.713183 7.800692 28.723895 201 201 201 0
-5.576523 7.763395 28.586561 201 201 201 0
-5.473170 7.771901 28.617881 201 201 201 0
-5.409542 7.838316 28.862435 202 202 202 0
-5.344929 7.906041 29.111813 202 202 202 0
-5.211354 7.872471 28.988202 202 202 202 0
-5.068195 7.822648 28.804745 202 202 202 0
-4.959071 7.824313 28.810872 202 202 202 0
-4.882298 7.878253 29.009494 202 202 202 0
-4.794972 7.917280 29.153198 202 202 202 0
-4.649244 7.859435 28.940202 202 202 202 0
-4.519126 7.825803 28.816361 203 203 203 0
-4.413896 7.834665 28.848992 203 203 203 0
-4.322755 7.869631 28.977745 203 203 203 0
-4.222293 7.889022 29.049146 203 203 203 0
-4.112426 7.891411 29.057944 203 203 203 0
-4.003097 7.894998 29.071150 203 203 203 0
-3.898553 7.908494 29.120848 202 202 202 0
-3.793316 7.921337 29.168138 203 203 203 0
-3.678346 7.914017 29.141185 203 203 203 0
-3.574960 7.931943 29.207193 203 203 203 0
-3.470680 7.948976 29.269910 203 203 203 0
-3.362523 7.957971 29.303031 204 204 204 0
-3.248197 7.952483 29.282823 204 204 204 0
-3.148163 7.982841 29.394608 203 203 203 0
-3.044997 8.007213 29.484353 203 203 203 0
-2.926898 7.992682 29.430846 203 203 203 0
-2.803764 7.962690 29.320407 204 204 204 0
-2.690018 7.957970 29.303029 203 203 203 0
-2.599486 8.024500 29.548005 203 203 203 0
-2.478978 8.000338 29.459036 204 204 204 0
-2.358494 7.973957 29.361897 204 204 204 0
-2.240754 7.954678 29.290908 204 204 204 0
-2.127693 7.950855 29.276828 204 204 204 0
-2.027403 7.996978 29.446663 204 204 204 0
-1.916150 8.002742 29.467890 204 204 204 0
-1.799467 7.985135 29.403056 204 204 204 0
-1.680739 7.955497 29.293924 204 204 204 0
-1.572585 7.975253 29.366667 204 204 204 0
-1.469026 8.023144 29.543014 204 204 204 0
-1.356643 8.026803 29.556487 205 205 205 0
-1.240027 8.003809 29.471820 205 205 205 0
-1.124291 7.982463 29.393218 205 205 205 0
-1.018924 8.038176 29.598363 204 204 204 0
-0.911017 8.085273 29.771788 205 205 205 0
-0.793661 8.049991 29.641870 204 204 204 0
-0.677247 8.014087 29.509666 205 205 205 0
-0.565792 8.034246 29.583894 205 205 205 0
-0.455421 8.083716 29.766054 205 205 205 0
-0.341170 8.074368 29.731632 205 205 205 0
-0.226202 8.030171 29.568887 204 204 204 0
-0.112677 8.000075 29.458068 205 205 205 0
0.000000 8.013280 29.506694 205 205 205 0
0.113512 8.059356 29.676356 206 206 206 0
0.226973 8.057539 29.669663 206 206 206 0
0.339165 8.026905 29.556864 205 205 205 0
0.452327 8.028809 29.563875 205 205 205 0
0.567386 8.056881 29.667240 205 205 205 0
0.680809 8.056237 29.664870 206 206 206 0
0.794331 8.056787 29.666895 206 206 206 0
0.908088 8.059277 29.676063 205 205 205 0
1.023271 8.072475 29.724662 205 205 205 0
1.138759 8.085187 29.771471 206 206 206 0
1.254310 8.095998 29.811280 205 205 205 0
1.367527 8.091199 29.793608 206 206 206 0
1.480685 8.086819 29.777478 205 205 205 0
1.596311 8.095579 29.809738 206 206 206 0
1.760626 8.333632 30.686299 207 207 207 0
1.822842 8.088862 29.785002 206 206 206 0
1.935375 8.083038 29.763556 206 206 206 0
2.044884 8.065933 29.700572 206 206 206 0
2.156909 8.060028 29.678830 206 206 206 0
2.274337 8.073897 29.729898 206 206 206 0
2.393301 8.091636 29.795216 206 206 206 0
2.510023 8.100528 29.827960 206 206 206 0
2.620908 8.090629 29.791508 207 207 207 0
2.732838 8.084645 29.769474 207 207 207 0
2.847616 8.087230 29.778992 207 207 207 0
2.968104 8.105206 29.845186 206 206 206 0
3.078463 8.095217 29.808403 207 207 207 0
3.192651 8.095651 29.810002 207 207 207 0
3.311270 8.106903 29.851433 206 206 206 0
3.440532 8.142591 29.982845 207 207 207 0
3.548317 8.126791 29.924665 207 207 207 0
3.651881 8.102611 29.835630 207 207 207 0
3.767393 8.105604 29.846648 206 206 206 0
3.897531 8.138962 29.969483 207 207 207 0
4.009577 8.133713 29.950153 207 207 207 0
4.109525 8.104897 29.844048 207 207 207 0
4.210916 8.080406 29.753866 207 207 207 0
4.324372 8.079747 29.751440 207 207 207 0
4.463379 8.125638 29.920420 207 207 207 0
4.574643 8.119992 29.899629 206 206 206 0
4.677599 8.100232 29.826869 207 207 207 0
4.792876 8.102242 29.834271 207 207 207 0
4.920095 8.123879 29.913941 208 208 208 0
5.039120 8.131308 29.941298 207 207 207 0
5.148560 8.123283 29.911748 207 207 207 0
5.256140 8.112738 29.872920 208 208 208 0
5.377735 8.123812 29.913696 207 207 207 0
5.511077 8.151802 30.016762 208 208 208 0
5.624401 8.149643 30.008811 207 207 207 0
5.723622 8.127543 29.927435 207 207 207 0
5.834920 8.123124 29.911164 208 208 208 0
5.958707 8.135927 29.958306 208 208 208 0
6.086511 8.153627 30.023483 208 208 208 0
6.177169 8.121833 29.906409 208 208 208 0
6.279295 8.105999 29.848106 207 207 207 0
6.400192 8.114529 29.879516 208 208 208 0
6.528540 8.132041 29.943998 207 207 207 0
6.641648 8.130293 29.937561 208 208 208 0
6.743866 8.115500 29.883089 208 208 208 0
6.867468 8.126504 29.923607 208 208 208 0
6.987703 8.133228 29.948369 208 208 208 0
7.101101 8.131906 29.943501 207 207 207 0
7.221549 8.138571 29.968041 208 208 208 0
7.333212 8.135282 29.955932 208 208 208 0
7.446191 8.133532 29.949486 208 208 208 0
7.574992 8.148855 30.005912 208 208 208 0
7.699558 8.159233 30.044124 208 208 208 0
7.804972 8.149309 30.007582 208 208 208 0
7.909901 8.139174 29.970261 208 208 208 0
8.023436 8.138056 29.966146 208 208 208 0
8.161822 8.161822 30.053659 208 208 208 0
8.263133 8.148367 30.004113 208 208 208 0
8.359059 8.130044 29.936643 207 207 207 0
8.465057 8.121879 29.906578 208 208 208 0
8.600340 8.141655 29.979400 208 208 208 0
8.722044 8.148226 30.003592 209 209 209 0
8.829427 8.141419 29.978530 208 208 208 0
10.441525 9.504465 34.997571 208 208 208 0
10.455920 9.397093 34.602201 209 209 209 0
-8.117678 7.305910 26.528358 199 199 199 0
-8.040715 7.328246 26.609463 199 199 199 0
-8.075650 7.454446 27.067704 199 199 199 0
-7.981521 7.463240 27.099638 200 200 200 0
-7.889405 7.474173 27.139335 199 199 199 0
-7.803557 7.491414 27.201940 200 200 200 0
-7.702967 7.494778 27.214155 199 199 199 0
-7.689737 7.584398 27.539572 200 200 200 0
-7.666135 7.666135 27.836365 201 201 201 0
-7.523071 7.629030 27.701633 199 199 199 0
-7.369623 7.580184 27.524270 200 200 200 0
-7.316500 7.634608 27.721890 200 200 200 0
-7.348417 7.780677 28.252276 200 200 200 0
-7.264147 7.806248 28.345127 200 200 200 0
-7.087271 7.731568 28.073959 200 200 200 0
-6.913400 7.657920 27.806537 201 201 201 0
-6.855467 7.712400 28.004358 200 200 200 0
-6.885118 7.868707 28.571919 201 201 201 0
-6.738932 7.825857 28.416328 201 201 201 0
-6.561598 7.744837 28.122139 201 201 201 0
-6.414475 7.697370 27.949780 201 201 201 0
-6.351163 7.750572 28.142962 201 201 201 0
-6.334742 7.863817 28.554167 201 201 201 0
-6.224495 7.862519 28.549453 202 202 202 0
-6.076017 7.812022 28.366093 202 202 202 0
-5.933554 7.767562 28.204654 202 202 202 0
-5.888379 7.851172 28.508251 201 201 201 0
-5.820048 7.906481 28.709080 202 202 202 0
-5.714402 7.912248 28.730023 201 201 201 0
-5.572960 7.867708 28.568294 202 202 202 0
-5.468615 7.874806 28.594066 201 201 201 0
-5.414497 7.955995 28.888872 202 202 202 0
-5.339730 8.009596 29.083499 202 202 202 0
-5.207357 7.977227 28.965966 202 202 202 0
-5.070681 7.936718 28.818874 202 202 202 0
-4.955621 7.928994 28.790828 202 202 202 0
-4.876236 7.979295 28.973475 202 202 202 0
-4.795900 8.030344 29.158837 202 202 202 0
-4.650646 7.972535 28.948930 202 202 202 0
-4.515936 7.930425 28.796024 203 203 203 0
-4.412483 7.942470 28.839759 202 202 202 0
-4.322529 7.980054 28.976229 203 203 203 0
-4.219075 7.994037 29.027004 202 202 202 0
-4.111857 8.001451 29.053926 203 203 203 0
-4.003153 8.006306 29.071555 203 203 203 0
-3.897698 8.018122 29.114461 203 203 203 0
-3.791063 8.028134 29.150812 203 203 203 0
-3.673820 8.015608 29.105331 203 203 203 0
-3.571491 8.035856 29.178851 203 203 203 0
-3.467707 8.054028 29.244837 204 204 204 0
-3.365536 8.077286 29.329289 203 203 203 0
-3.248266 8.064661 29.283446 203 203 203 0
-3.150403 8.101036 29.415526 203 203 203 0
-3.048688 8.129834 29.520094 203 203 203 0
-2.925903 8.102500 29.420843 203 203 203 0
-2.803641 8.074486 29.319122 203 203 203 0
-2.689543 8.068629 29.297853 204 204 204 0
-2.596091 8.126893 29.509415 204 204 204 0
-2.478769 8.112335 29.456555 203 203 203 0
-2.359680 8.090332 29.376658 203 203 203 0
-2.239536 8.062331 29.274984 204 204 204 0
-2.127959 8.063844 29.280480 204 204 204 0
-2.026320 8.105279 29.430934 205 205 205 0
-1.916170 8.115545 29.468211 205 205 205 0
-1.799521 8.097845 29.403938 204 204 204 0
-1.681473 8.071072 29.306726 204 204 204 0
-1.572872 8.089058 29.372034 204 204 204 0
-1.468857 8.135207 29.539604 205 205 205 0
-1.356379 8.138273 29.550736 204 204 204 0
-1.239086 8.110381 29.449459 204 204 204 0
-1.124534 8.096646 29.399584 204 204 204 0
-1.019620 8.156957 29.618580 205 205 205 0
-0.910709 8.196384 29.761742 205 205 205 0
-0.793645 8.163210 29.641287 205 205 205 0
-0.677780 8.133354 29.532876 205 205 205 0
-0.566076 8.151496 29.598752 205 205 205 0
-0.455762 8.203724 29.788395 205 205 205 0
-0.341010 8.184231 29.717615 205 205 205 0
-0.226250 8.144985 29.575109 205 205 205 0
-0.112684 8.113259 29.459908 205 205 205 0
0.000000 8.121824 29.491010 205 205 205 0
0.113508 8.172585 29.675328 206 206 206 0
0.226865 8.167133 29.655529 206 206 206 0
0.339020 8.136481 29.544229 206 206 206 0
0.452494 8.144890 29.574765 205 205 205 0
0.567436 8.171085 29.669881 205 205 205 0
0.680669 8.168027 29.658775 205 205 205 0
0.794583 8.172854 29.676303 206 206 206 0
0.908281 8.174527 29.682378 205 205 205 0
1.023384 8.187072 29.727930 206 206 206 0
1.139896 8.207248 29.801192 206 206 206 0
1.254391 8.210558 29.813208 206 206 206 0
1.368075 8.208452 29.805563 206 206 206 0
1.481208 8.203614 29.787994 206 206 206 0
1.596583 8.210997 29.814805 206 206 206 0
1.755999 8.428796 30.605651 206 206 206 0
1.822836 8.202762 29.784902 206 206 206 0
1.934154 8.191712 29.744779 206 206 206 0
2.044704 8.178815 29.697950 206 206 206 0
2.156237 8.171003 29.669581 206 206 206 0
2.274437 8.187974 29.731207 206 206 206 0
2.394520 8.209784 29.810398 206 206 206 0
2.508668 8.210187 29.811862 206 206 206 0
2.621097 8.205174 29.793661 207 207 207 0
2.733501 8.200504 29.776703 206 206 206 0
2.846876 8.199002 29.771249 206 206 206 0
2.968608 8.220760 29.850255 206 206 206 0
3.078098 8.208262 29.804874 207 207 207 0
3.192412 8.209060 29.807770 206 206 206 0
3.310583 8.219378 29.845235 206 206 206 0
3.438540 8.252496 29.965490 206 206 206 0
3.549525 8.244058 29.934851 207 207 207 0
3.651709 8.216345 29.834221 207 207 207 0
3.766556 8.217939 29.840013 207 207 207 0
3.897567 8.253671 29.969758 207 207 207 0
4.007772 8.244559 29.936670 206 206 206 0
4.110635 8.221270 29.852107 207 207 207 0
4.213755 8.199739 29.773926 206 206 206 0
4.324443 8.193682 29.751933 207 207 207 0
4.462914 8.239227 29.917308 207 207 207 0
4.575234 8.235422 29.903493 207 207 207 0
4.675982 8.211481 29.816561 207 207 207 0
4.791523 8.214039 29.825849 207 207 207 0
4.919930 8.238023 29.912938 207 207 207 0
5.039422 8.246328 29.943092 207 207 207 0
5.148206 8.237130 29.909693 207 207 207 0
5.256288 8.227233 29.873759 208 208 208 0
5.376963 8.237049 29.909401 208 208 208 0
5.512061 8.268091 30.022117 207 207 207 0
5.624319 8.264306 30.008373 207 207 207 0
5.724304 8.242997 29.931000 207 207 207 0
5.835608 8.238505 29.914689 208 208 208 0
5.959737 8.251943 29.963483 207 207 207 0
6.085643 8.267288 30.019201 207 207 207 0
6.179013 8.238684 29.915338 207 207 207 0
6.277283 8.217534 29.838539 208 208 208 0
6.399357 8.227745 29.875616 208 208 208 0
6.526619 8.244150 29.935184 207 207 207 0
6.641901 8.245119 29.938702 208 208 208 0
6.743714 8.229618 29.882417 208 208 208 0
6.866259 8.239510 29.918339 208 208 208 0
6.987566 8.247619 29.947781 208 208 208 0
7.103441 8.249157 29.953367 208 208 208 0
7.223835 8.255812 29.977530 208 208 208 0
7.331502 8.247939 29.948945 208 208 208 0
7.444230 8.245916 29.941597 208 208 208 0
7.575040 8.263680 30.006102 208 208 208 0
7.698597 8.273119 30.040374 208 208 208 0
7.806905 8.266135 30.015015 208 208 208 0
7.910383 8.254313 29.972087 208 208 208 0
8.022239 8.251446 29.961679 208 208 208 0
8.162143 8.277103 30.054839 208 208 208 0
8.258390 8.258390 29.986892 208 208 208 0
8.361229 8.246691 29.944413 208 208 208 0
8.467773 8.238914 29.916173 208 208 208 0
8.600242 8.256232 29.979056 208 208 208 0
8.721688 8.262652 30.002366 208 208 208 0
8.827720 8.254491 29.972735 208 208 208 0
10.407571 9.606988 34.883763 209 209 209 0
10.516415 9.584580 34.802398 209 209 209 0
-8.111181 7.401452 26.507126 199 199 199 0
-8.048738 7.437442 26.636017 199 199 199 0
-8.090506 7.571884 27.117499 200 200 200 0
-8.006877 7.590935 27.185729 200 200 200 0
-7.896971 7.585248 27.165362 200 200 200 0
-7.795637 7.587753 27.174334 200 200 200 0
-7.705657 7.601526 27.223659 200 200 200 0
-7.689257 7.689257 27.537855 200 200 200 0
-7.669584 7.776106 27.848888 200 200 200 0
-7.541682 7.754123 27.770162 200 200 200 0
-7.376293 7.692420 27.549180 200 200 200 0
-7.316215 7.740344 27.720812 199 199 199 0
-7.356492 7.897411 28.283323 201 201 201 0
-7.262911 7.913321 28.340302 200 200 200 0
-7.089277 7.841170 28.081904 200 200 200 0
-6.930892 7.783925 27.876892 200 200 200 0
-6.863585 7.828777 28.037522 201 201 201 0
-6.894185 7.988500 28.609546 200 200 200 0
-6.733140 7.927730 28.391905 201 201 201 0
-6.561682 7.852505 28.122500 201 201 201 0
-6.417327 7.807747 27.962208 201 201 201 0
-6.344113 7.849496 28.111723 201 201 201 0
-6.340155 7.979850 28.578565 201 201 201 0
-6.224831 7.972153 28.550998 201 201 201 0
-6.075137 7.919375 28.361985 202 202 202 0
-5.950959 7.898546 28.287389 201 201 201 0
-5.883372 7.953448 28.484010 202 202 202 0
-5.819054 8.014923 28.704174 202 202 202 0
-5.719146 8.028802 28.753878 202 202 202 0
-5.578971 7.985585 28.599106 202 202 202 0
-5.478898 7.999191 28.647832 202 202 202 0
-5.417393 8.070810 28.904324 202 202 202 0
-5.336941 8.116597 29.068304 201 201 201 0
-5.212215 8.095568 28.992990 202 202 202 0
-5.066860 8.040886 28.797157 202 202 202 0
-4.959148 8.044839 28.811315 202 202 202 0
-4.883642 8.102406 29.017481 202 202 202 0
-4.798589 8.146442 29.175189 203 203 203 0
-4.655197 8.091177 28.977264 202 202 202 0
-4.519559 8.047021 28.819126 203 203 203 0
-4.413162 8.054021 28.844198 202 202 202 0
-4.319224 8.084702 28.954075 203 203 203 0
-4.218844 8.104622 29.025416 203 203 203 0
-4.110965 8.110822 29.047622 203 203 203 0
-3.999609 8.110317 29.045814 203 203 203 0
-3.895134 8.124137 29.095307 203 203 203 0
-3.791344 8.140239 29.152972 203 203 203 0
-3.674159 8.127685 29.108014 203 203 203 0
-3.575963 8.157665 29.215382 203 203 203 0
-3.470067 8.171449 29.264747 203 203 203 0
-3.362419 8.181887 29.302129 203 203 203 0
-3.247663 8.175153 29.278011 203 203 203 0
-3.149086 8.210117 29.403230 204 204 204 0
-3.046947 8.238042 29.503240 203 203 203 0
-2.925031 8.212588 29.412080 203 203 203 0
-2.802139 8.182246 29.303413 203 203 203 0
-2.690349 8.183143 29.306629 203 203 203 0
-2.596361 8.240624 29.512486 204 204 204 0
-2.477801 8.221793 29.445045 204 204 204 0
-2.360233 8.204618 29.383537 204 204 204 0
-2.238810 8.171657 29.265492 204 204 204 0
-2.127934 8.175745 29.280132 204 204 204 0
-2.025679 8.215253 29.421623 204 204 204 0
-1.915637 8.225969 29.460003 204 204 204 0
-1.800599 8.215232 29.421548 204 204 204 0
-1.682107 8.186255 29.317774 205 205 205 0
-1.572424 8.199070 29.363669 204 204 204 0
-1.468599 8.246747 29.534415 204 204 204 0
-1.356800 8.253870 29.559923 205 205 205 0
-1.239391 8.225046 29.456697 204 204 204 0
-1.124160 8.206368 29.389805 204 204 204 0
-1.019750 8.271304 29.622363 205 205 205 0
-0.910779 8.310861 29.764030 204 204 204 0
-0.793831 8.278521 29.648208 205 205 205 0
-0.677803 8.246602 29.533894 204 204 204 0
-0.565722 8.259536 29.580218 205 205 205 0
-0.455647 8.315553 29.780834 205 205 205 0
-0.340891 8.295024 29.707310 205 205 205 0
-0.226200 8.256300 29.568626 205 205 205 0
-0.112694 8.226674 29.462528 205 205 205 0
0.000000 8.235111 29.492741 205 205 205 0
0.113502 8.285679 29.673845 206 206 206 0
0.226909 8.282177 29.661301 206 206 206 0
0.338989 8.248740 29.541551 205 205 205 0
0.452294 8.254370 29.561717 205 205 205 0
0.567300 8.282583 29.662756 206 206 206 0
0.680605 8.280700 29.656011 205 205 205 0
0.794823 8.288872 29.685277 206 206 206 0
0.909014 8.294754 29.706343 206 206 206 0
1.023454 8.301352 29.729972 206 206 206 0
1.139732 8.320047 29.796927 206 206 206 0
1.254507 8.325365 29.815974 206 206 206 0
1.367464 8.318740 29.792246 206 206 206 0
1.481383 8.318533 29.791504 206 206 206 0
1.595621 8.320023 29.796842 206 206 206 0
1.756384 8.547738 30.612365 206 206 206 0
1.823329 8.318938 29.792956 206 206 206 0
1.935159 8.309801 29.760232 206 206 206 0
2.044723 8.292489 29.698232 206 206 206 0
2.156272 8.284624 29.670067 206 206 206 0
2.273344 8.297707 29.716921 206 206 206 0
2.394452 8.323570 29.809544 207 207 207 0
2.509624 8.327388 29.823217 206 206 206 0
2.620643 8.317693 29.788498 207 207 207 0
2.732263 8.310633 29.763213 206 206 206 0
2.846513 8.311819 29.767460 207 207 207 0
2.968816 8.335522 29.852347 207 207 207 0
3.078754 8.324038 29.811222 207 207 207 0
3.193315 8.325428 29.816200 207 207 207 0
3.310361 8.332977 29.843233 207 207 207 0
3.438494 8.367003 29.965093 207 207 207 0
3.549532 8.358575 29.934908 207 207 207 0
3.653759 8.335139 29.850975 207 207 207 0
3.767419 8.333987 29.846853 207 207 207 0
3.898013 8.369263 29.973186 206 206 206 0
4.009403 8.362468 29.948852 207 207 207 0
4.110697 8.335580 29.852555 207 207 207 0
4.210729 8.307654 29.752543 207 207 207 0
4.328726 8.315710 29.781394 206 206 206 0
4.460314 8.348794 29.899879 206 206 206 0
4.574448 8.348368 29.898355 207 207 207 0
4.675079 8.323922 29.810803 207 207 207 0
4.791893 8.328766 29.828154 207 207 207 0
4.919224 8.351241 29.908645 207 207 207 0
5.038974 8.360116 29.940427 208 208 208 0
5.148394 8.351838 29.910783 207 207 207 0
5.254827 8.339182 29.865457 207 207 207 0
5.379683 8.355677 29.924532 207 207 207 0
5.509902 8.379642 30.010357 207 207 207 0
5.625044 8.380168 30.012240 208 208 208 0
5.723382 8.356138 29.926181 207 207 207 0
5.833733 8.350245 29.905075 207 207 207 0
5.958647 8.365023 29.958002 208 208 208 0
6.085681 8.382165 30.019392 207 207 207 0
6.178391 8.352269 29.912324 207 207 207 0
6.279440 8.334529 29.848792 208 208 208 0
6.397040 8.338998 29.864797 207 207 207 0
6.527838 8.360213 29.940777 208 208 208 0
6.642307 8.360145 29.940532 207 207 207 0
6.745876 8.346592 29.891993 208 208 208 0
6.869724 8.358164 29.933437 208 208 208 0
6.987630 8.362245 29.948053 208 208 208 0
7.104632 8.365132 29.958391 208 208 208 0
7.222549 8.368986 29.972193 208 208 208 0
7.332372 8.363487 29.952500 208 208 208 0
7.444336 8.360562 29.942027 208 208 208 0
7.577791 8.381496 30.016998 209 209 209 0
7.700067 8.389625 30.046111 208 208 208 0
7.805388 8.379313 30.009180 208 208 208 0
7.910002 8.368553 29.970643 209 209 209 0
8.023045 8.366890 29.964689 207 207 207 0
8.163570 8.393529 30.060093 208 208 208 0
8.261358 8.376099 29.997670 209 209 209 0
8.359614 8.359614 29.938630 208 208 208 0
8.465036 8.350643 29.906503 208 208 208 0
8.596708 8.367463 29.966739 208 208 208 0
8.722194 8.377897 30.004106 208 208 208 0
8.828808 8.370169 29.976431 208 208 208 0
10.329742 9.667579 34.622898 208 208 208 0
10.851066 10.026935 35.909874 208 208 208 0
-8.112965 7.504493 26.512959 200 200 200 0
-8.049244 7.539798 26.637690 199 199 199 0
-8.075355 7.661234 27.066716 199 199 199 0
-7.999222 7.687564 27.159740 199 199 199 0
-7.896348 7.688550 27.163221 200 200 200 0
-7.799030 7.695043 27.186161 199 199 199 0
-7.715663 7.715663 27.259011 199 199 199 0
-7.690204 7.795550 27.541246 199 199 199 0
-7.647282 7.859706 27.767908 200 200 200 0
-7.541859 7.860530 27.770816 200 200 200 0
-7.372494 7.793779 27.534992 201 201 201 0
-7.319295 7.849678 27.732480 200 200 200 0
-7.365827 8.015753 28.319214 200 200 200 0
-7.268045 8.027393 28.360337 201 201 201 0
-7.085348 7.944178 28.066341 200 200 200 0
-6.931667 7.891436 27.880008 201 201 201 0
-6.858911 7.930616 28.018426 200 200 200 0
-6.892901 8.096423 28.604215 200 200 200 0
-6.737391 8.041402 28.409827 201 201 201 0
-6.568327 7.968134 28.150977 201 201 201 0
-6.419752 7.917694 27.972776 200 200 200 0
-6.340537 7.952538 28.095879 202 202 202 0
-6.335773 8.083572 28.558813 202 202 202 0
-6.228470 8.086083 28.567685 201 201 201 0
-6.085782 8.041926 28.411680 201 201 201 0
-5.948305 8.003174 28.274770 201 201 201 0
-5.889351 8.070593 28.512958 202 202 202 0
-5.824192 8.131891 28.729520 201 201 201 0
-5.717890 8.136997 28.747560 201 201 201 0
-5.577803 8.093283 28.593122 202 202 202 0
-5.477644 8.106913 28.641275 201 201 201 0
-5.417810 8.181998 28.906547 201 201 201 0
-5.341440 8.234720 29.092811 202 202 202 0
-5.218696 8.216671 29.029044 203 203 203 0
-5.072086 8.159443 28.826861 202 202 202 0
-4.962018 8.159763 28.827992 202 202 202 0
-4.881482 8.209764 29.004644 202 202 202 0
-4.797935 8.256912 29.171213 202 202 202 0
-4.653033 8.198201 28.963791 202 202 202 0
-4.516626 8.151960 28.800423 202 202 202 0
-4.411391 8.161074 28.832622 202 202 202 0
-4.322852 8.202335 28.978398 203 203 203 0
-4.221813 8.221424 29.045838 203 203 203 0
-4.110418 8.220835 29.043756 202 202 202 0
-4.000275 8.222787 29.050651 203 203 203 0
-3.893944 8.232911 29.086418 203 203 203 0
-3.789866 8.248533 29.141609 203 203 203 0
-3.673116 8.236684 29.099748 203 203 203 0
-3.571135 8.258249 29.175936 203 203 203 0
-3.470819 8.285181 29.271088 203 203 203 0
-3.363680 8.297077 29.313113 203 203 203 0
-3.248349 8.288891 29.284195 204 204 204 0
-3.148922 8.322152 29.401702 203 203 203 0
-3.046360 8.349284 29.497557 204 204 204 0
-2.927441 8.331948 29.436313 204 204 204 0
-2.803594 8.298638 29.318628 204 204 204 0
-2.690029 8.294255 29.303144 204 204 204 0
-2.599307 8.362986 29.545968 203 203 203 0
-2.480023 8.341894 29.471452 204 204 204 0
-2.358698 8.311604 29.364437 204 204 204 0
-2.239960 8.287854 29.280529 204 204 204 0
-2.127887 8.287558 29.279486 204 204 204 0
-2.028212 8.338205 29.458417 204 204 204 0
-1.915727 8.339049 29.461399 204 204 204 0
-1.800627 8.327900 29.422011 204 204 204 0
-1.681287 8.294352 29.303486 204 204 204 0
-1.574994 8.324966 29.411646 204 204 204 0
-1.469698 8.365973 29.556520 204 204 204 0
-1.356915 8.367645 29.562426 204 204 204 0
-1.240204 8.343194 29.476042 204 204 204 0
-1.123984 8.317484 29.385211 205 205 205 0
-1.018510 8.374417 29.586351 205 205 205 0
-0.910556 8.422639 29.756718 204 204 204 0
-0.793573 8.389204 29.638593 204 204 204 0
-0.677766 8.359117 29.532297 205 205 205 0
-0.565919 8.375599 29.590527 205 205 205 0
-0.456096 8.437780 29.810209 205 205 205 0
-0.341220 8.416757 29.735936 206 206 206 0
-0.226161 8.367959 29.563535 205 205 205 0
-0.112668 8.337413 29.455620 205 205 205 0
0.000000 8.353975 29.514133 205 205 205 0
0.113488 8.398105 29.670042 205 205 205 0
0.226962 8.397588 29.668213 205 205 205 0
0.338985 8.361632 29.541182 205 205 205 0
0.452273 8.367044 29.560304 205 205 205 0
0.567044 8.392250 29.649356 206 206 206 0
0.680635 8.394502 29.657311 205 205 205 0
0.794582 8.399867 29.676265 205 205 205 0
0.908428 8.402960 29.687193 206 206 206 0
1.023930 8.418978 29.743785 206 206 206 0
1.140817 8.442043 29.825272 206 206 206 0
1.255308 8.444797 29.835000 206 206 206 0
1.367268 8.431488 29.787980 206 206 206 0
1.480418 8.426992 29.772097 205 205 205 0
1.595700 8.434416 29.798325 205 205 205 0
1.751077 8.638644 30.519853 205 205 205 0
1.823533 8.433839 29.796286 206 206 206 0
1.935254 8.424048 29.761697 207 207 207 0
2.046361 8.412816 29.722014 206 206 206 0
2.157256 8.401942 29.683598 206 206 206 0
2.273854 8.413260 29.723581 206 206 206 0
2.393599 8.434587 29.798930 206 206 206 0
2.509161 8.439904 29.817715 206 206 206 0
2.619964 8.429450 29.780780 206 206 206 0
2.731135 8.421000 29.750926 206 206 206 0
2.847986 8.430038 29.782860 207 207 207 0
2.969596 8.451928 29.860194 206 206 206 0
3.078574 8.437572 29.809476 206 206 206 0
3.193624 8.440291 29.819082 206 206 206 0
3.311206 8.449285 29.850855 206 206 206 0
3.439739 8.484689 29.975937 207 207 207 0
3.549160 8.472189 29.931775 206 206 206 0
3.654826 8.451785 29.859687 207 207 207 0
3.765652 8.444189 29.832851 207 207 207 0
3.898850 8.485731 29.979620 207 207 207 0
4.009758 8.477774 29.951508 207 207 207 0
4.111014 8.450418 29.854860 207 207 207 0
4.212256 8.424512 29.763336 208 208 208 0
4.324336 8.421074 29.751190 207 207 207 0
4.461422 8.465263 29.907306 207 207 207 0
4.574640 8.463084 29.899609 207 207 207 0
4.674418 8.436754 29.806584 207 207 207 0
4.787736 8.435535 29.802279 207 207 207 0
4.919335 8.465832 29.909316 208 208 208 0
5.037494 8.472150 29.931637 207 207 207 0
5.147096 8.464114 29.903247 207 207 207 0
5.255358 8.454272 29.868475 207 207 207 0
5.377792 8.467162 29.914017 207 207 207 0
5.510497 8.495349 30.013600 207 207 207 0
5.623960 8.493327 30.006454 207 207 207 0
5.724188 8.471798 29.930396 208 208 208 0
5.837519 8.470125 29.924484 207 207 207 0
5.958064 8.478784 29.955073 207 207 207 0
6.085997 8.497429 30.020947 208 208 208 0
6.177685 8.465716 29.908907 208 208 208 0
6.278817 8.447863 29.845833 208 208 208 0
6.400104 8.457280 29.879102 207 207 207 0
6.527570 8.474389 29.939546 207 207 207 0
6.641403 8.473515 29.936459 208 208 208 0
6.744575 8.459297 29.886230 208 208 208 0
6.866954 8.469243 29.921367 207 207 207 0
6.987073 8.476121 29.945666 208 208 208 0
7.103158 8.477962 29.952172 208 208 208 0
7.223989 8.485321 29.978169 208 208 208 0
7.336055 8.482313 29.967543 208 208 208 0
7.443859 8.474547 29.940107 208 208 208 0
7.576583 8.494956 30.012211 208 208 208 0
7.701278 8.505890 30.050838 208 208 208 0
7.803610 8.492163 30.002343 208 208 208 0
7.911533 8.484832 29.976444 209 209 209 0
8.021656 8.480036 29.959498 208 208 208 0
8.162124 8.507002 30.054769 208 208 208 0
8.260846 8.490314 29.995811 208 208 208 0
8.360286 8.474810 29.941036 208 208 208 0
8.463907 8.463907 29.902514 209 209 209 0
8.599861 8.485196 29.977727 209 209 209 0
10.123784 9.857369 34.825539 208 208 208 0
10.268709 9.868630 34.865323 207 207 207 0
10.653440 10.107110 35.707860 208 208 208 0
10.475398 9.812398 34.666659 207 207 207 0
-8.121070 7.613503 26.539443 198 198 198 0
-8.047959 7.640467 26.633437 199 199 199 0
-8.080869 7.770066 27.085198 199 199 199 0
-8.017645 7.809394 27.222290 199 199 199 0
-7.913865 7.809735 27.223477 199 199 199 0
-7.802936 7.802936 27.199779 199 199 199 0
-7.724043 7.828422 27.288617 200 200 200 0
-7.689468 7.900138 27.538607 200 200 200 0
-7.667438 7.986914 27.841096 199 199 199 0
-7.536128 7.960699 27.749714 200 200 200 0
-7.370333 7.896786 27.526922 200 200 200 0
-7.312944 7.948852 27.708415 200 200 200 0
-7.359526 8.117124 28.294985 200 200 200 0
-7.266806 8.134484 28.355500 200 200 200 0
-7.094631 8.062080 28.103112 200 200 200 0
-6.934150 8.000942 27.889993 200 200 200 0
-6.860473 8.039617 28.024809 201 201 201 0
-6.892811 8.205727 28.603843 200 200 200 0
-6.748801 8.163873 28.457944 201 201 201 0
-6.572915 8.081453 28.170644 201 201 201 0
-6.420768 8.025960 27.977203 201 201 201 0
-6.347424 8.068760 28.126395 202 202 202 0
-6.345711 8.205661 28.603612 201 201 201 0
-6.229129 8.196222 28.570710 201 201 201 0
-6.079540 8.142242 28.382542 201 201 201 0
-5.943762 8.105130 28.253176 202 202 202 0
-5.890349 8.181040 28.517786 202 202 202 0
-5.829918 8.249884 28.757767 202 202 202 0
-5.719406 8.249143 28.755183 202 202 202 0
-5.578425 8.203566 28.596307 202 202 202 0
-5.479510 8.219264 28.651031 202 202 202 0
-5.420842 8.297208 28.922729 202 202 202 0
-5.342379 8.347468 29.097927 201 201 201 0
-5.214219 8.320563 29.004140 201 201 201 0
-5.076909 8.277569 28.854271 202 202 202 0
-4.961184 8.268640 28.823146 202 202 202 0
-4.884163 8.325278 29.020577 202 202 202 0
-4.799413 8.371069 29.180197 202 202 202 0
-4.655339 8.313105 28.978143 202 202 202 0
-4.519475 8.267332 28.818588 202 202 202 0
-4.416477 8.280895 28.865865 202 202 202 0
-4.322447 8.312398 28.975678 203 203 203 0
-4.219750 8.328454 29.031648 203 203 203 0
-4.110313 8.331715 29.043016 202 202 202 0
-4.001127 8.335681 29.056839 203 203 203 0
-3.896303 8.349220 29.104036 203 203 203 0
-3.788520 8.357029 29.131256 203 203 203 0
-3.674046 8.350105 29.107119 203 203 203 0
-3.571803 8.371414 29.181400 204 204 204 0
-3.470393 8.396111 29.267489 203 203 203 0
-3.364932 8.412331 29.324029 203 203 203 0
-3.250479 8.406411 29.303394 203 203 203 0
-3.147853 8.431748 29.391715 203 203 203 0
-3.046622 8.462838 29.500089 203 203 203 0
-2.927556 8.444872 29.437462 204 204 204 0
-2.805490 8.416470 29.338458 203 203 203 0
-2.690834 8.408857 29.311920 204 204 204 0
-2.599939 8.478060 29.553151 204 204 204 0
-2.479990 8.454510 29.471058 204 204 204 0
-2.359771 8.427755 29.377795 203 203 203 0
-2.240737 8.402764 29.290682 204 204 204 0
-2.129369 8.405402 29.299877 204 204 204 0
-2.027301 8.447086 29.445180 203 203 203 0
-1.917931 8.461460 29.495285 204 204 204 0
-1.800496 8.439826 29.419873 204 204 204 0
-1.681803 8.409013 29.312464 204 204 204 0
-1.573870 8.431448 29.390669 204 204 204 0
-1.469930 8.480365 29.561186 204 204 204 0
-1.357381 8.483633 29.572578 204 204 204 0
-1.240376 8.457111 29.480126 204 204 204 0
-1.124121 8.430909 29.388790 204 204 204 0
-1.020232 8.501931 29.636362 205 205 205 0
-0.910859 8.539303 29.766634 204 204 204 0
-0.794012 8.507274 29.654986 205 205 205 0
-0.677579 8.469731 29.524118 205 205 205 0
-0.565795 8.486923 29.584047 205 205 205 0
-0.455837 8.546950 29.793291 204 204 204 0
-0.341022 8.525538 29.718653 205 205 205 0
-0.226259 8.484696 29.576283 205 205 205 0
-0.112669 8.450167 29.455920 205 205 205 0
0.000000 8.468240 29.518921 205 205 205 0
0.113505 8.512871 29.674495 205 205 205 0
0.227008 8.512805 29.674266 205 205 205 0
0.339106 8.477641 29.551688 206 206 206 0
0.452452 8.483480 29.572043 205 205 205 0
0.567380 8.510697 29.666917 206 206 206 0
0.681085 8.513560 29.676898 206 206 206 0
0.794445 8.511915 29.671164 206 206 206 0
0.908588 8.518013 29.692421 206 206 206 0
1.023431 8.528595 29.729307 206 206 206 0
1.140773 8.555798 29.824133 206 206 206 0
1.254876 8.555974 29.824744 206 206 206 0
1.367762 8.548513 29.798739 206 206 206 0
1.480352 8.540494 29.770785 206 206 206 0
1.595642 8.548082 29.797236 206 206 206 0
1.742172 8.710862 30.364661 206 206 206 0
1.823273 8.546591 29.792038 205 205 205 0
1.934964 8.536606 29.757233 205 205 205 0
2.045107 8.521277 29.703798 206 206 206 0
2.156782 8.513612 29.677077 206 206 206 0
2.274738 8.530266 29.735132 206 206 206 0
2.394865 8.553090 29.814694 206 206 206 0
2.509799 8.556132 29.825297 206 206 206 0
2.621605 8.548712 29.799432 206 206 206 0
2.733600 8.542500 29.777776 206 206 206 0
2.846582 8.539747 29.768183 206 206 206 0
2.967776 8.560891 29.841887 206 206 206 0
3.077666 8.549071 29.800683 206 206 206 0
3.190984 8.547280 29.794439 206 206 206 0
3.311175 8.563382 29.850570 207 207 207 0
3.439074 8.597685 29.970144 206 206 206 0
3.549762 8.588133 29.936848 207 207 207 0
3.654279 8.564716 29.855218 207 207 207 0
3.768338 8.564404 29.854132 206 206 206 0
3.899771 8.602435 29.986702 207 207 207 0
4.009210 8.591164 29.947414 207 207 207 0
4.110658 8.563871 29.852274 207 207 207 0
4.214280 8.542460 29.777637 206 206 206 0
4.325203 8.536585 29.757159 207 207 207 0
4.460579 8.578036 29.901651 207 207 207 0
4.574580 8.577337 29.899214 207 207 207 0
4.675134 8.552075 29.811153 207 207 207 0
4.789188 8.552121 29.811316 208 208 208 0
4.915921 8.574281 29.888563 207 207 207 0
5.038352 8.588100 29.936734 208 208 208 0
5.145502 8.575836 29.893982 207 207 207 0
5.253878 8.566106 29.860063 207 207 207 0
5.376964 8.580261 29.909407 207 207 207 0
5.512331 8.613017 30.023590 207 207 207 0
5.623608 8.607564 30.004580 207 207 207 0
5.725675 8.588513 29.938171 207 207 207 0
5.836841 8.583590 29.921011 207 207 207 0
5.958060 8.593355 29.955051 207 207 207 0
6.086250 8.612618 30.022198 207 207 207 0
6.181333 8.585185 29.926572 207 207 207 0
6.281512 8.565698 29.858644 208 208 208 0
6.398260 8.569099 29.870497 207 207 207 0
6.527022 8.588186 29.937032 208 208 208 0
6.640828 8.587278 29.933866 208 208 208 0
6.745947 8.575357 29.892311 208 208 208 0
6.868916 8.586145 29.929919 207 207 207 0
6.988149 8.591986 29.950279 208 208 208 0
7.104695 8.594390 29.958657 208 208 208 0
7.222565 8.598291 29.972257 208 208 208 0
7.333728 8.594212 29.958038 207 207 207 0
7.445036 8.590426 29.944842 208 208 208 0
7.577473 8.610765 30.015739 208 208 208 0
7.699127 8.618426 30.042443 208 208 208 0
7.807958 8.611719 30.019063 207 207 207 0
7.911787 8.599768 29.977405 209 209 209 0
8.022419 8.595449 29.962351 208 208 208 0
8.162215 8.622058 30.055104 209 209 209 0
8.260110 8.604281 29.993136 209 209 209 0
8.357347 8.586315 29.930510 209 209 209 0
8.465644 8.580044 29.908651 208 208 208 0
10.014927 10.014927 34.910420 208 208 208 0
10.145637 10.012141 34.900710 208 208 208 0
10.137513 9.747608 33.978591 208 208 208 0
10.790191 10.243852 35.708417 208 208 208 0
-8.100792 7.695753 26.473178 198 198 198 0
-8.059238 7.753191 26.670765 200 200 200 0
-8.075523 7.868458 27.067279 199 199 199 0
-7.995181 7.891347 27.146017 199 199 199 0
-7.906212 7.906212 27.197152 199 199 199 0
-7.800701 7.904710 27.191986 200 200 200 0
-7.708384 7.916719 27.233295 199 199 199 0
-7.701061 8.017543 27.580127 199 199 199 0
-7.681755 8.108519 27.893082 200 200 200 0
-7.532891 8.063377 27.737794 200 200 200 0
-7.372818 8.004774 27.536202 199 199 199 0
-7.317916 8.060314 27.727257 200 200 200 0
-7.364397 8.230796 28.313713 201 201 201 0
-7.264810 8.240680 28.347711 200 200 200 0
-7.097616 8.173013 28.114939 200 200 200 0
-6.932162 8.105297 27.881998 200 200 200 0
-6.859806 8.146020 28.022084 200 200 200 0
-6.895275 8.318110 28.614070 201 201 201 0
-6.742875 8.265460 28.432955 200 200 200 0
-6.569227 8.184610 28.154834 201 201 201 0
-6.425871 8.139436 27.999437 201 201 201 0
-6.366145 8.200458 28.209352 201 201 201 0
-6.348791 8.319106 28.617494 201 201 201 0
-6.231203 8.308271 28.580223 201 201 201 0
-6.081239 8.253110 28.390471 201 201 201 0
-5.950483 8.222485 28.285123 201 201 201 0
-5.894350 8.295751 28.537157 201 201 201 0
-5.824417 8.351995 28.730633 201 201 201 0
-5.724233 8.366187 28.779451 201 201 201 0
-5.583353 8.320290 28.621570 202 202 202 0
-5.485457 8.337895 28.682130 202 202 202 0
-5.426687 8.416902 28.953910 202 202 202 0
-5.339486 8.454185 29.082165 202 202 202 0
-5.209429 8.423758 28.977496 201 201 201 0
-5.074688 8.384267 28.841649 202 202 202 0
-4.968475 8.391203 28.865508 202 202 202 0
-4.881208 8.431178 29.003020 202 202 202 0
-4.802963 8.488958 29.201783 202 202 202 0
-4.657687 8.428196 28.992763 202 202 202 0
-4.525240 8.388250 28.855350 202 202 202 0
-4.416837 8.391990 28.868216 202 202 202 0
-4.323642 8.425559 28.983693 202 202 202 0
-4.220372 8.440743 29.035925 203 203 203 0
-4.108319 8.438709 29.028928 203 203 203 0
-3.998140 8.440519 29.035152 203 203 203 0
-3.896868 8.461770 29.108257 203 203 203 0
-3.791397 8.474887 29.153377 203 203 203 0
-3.676363 8.466775 29.125474 203 203 203 0
-3.575685 8.492251 29.213110 203 203 203 0
-3.475233 8.519927 29.308313 203 203 203 0
-3.361547 8.515920 29.294529 203 203 203 0
-3.249836 8.516812 29.297600 203 203 203 0
-3.147860 8.544192 29.391787 203 203 203 0
-3.047703 8.578719 29.510557 203 203 203 0
-2.923984 8.547029 29.401544 203 203 203 0
-2.801958 8.517951 29.301516 203 203 203 0
-2.690712 8.520587 29.310586 203 203 203 0
-2.598823 8.587416 29.540475 204 204 204 0
-2.481832 8.573602 29.492956 204 204 204 0
-2.361308 8.545687 29.396927 204 204 204 0
-2.239186 8.508906 29.270404 204 204 204 0
-2.128940 8.515759 29.293977 204 204 204 0
-2.028885 8.566403 29.468190 204 204 204 0
-1.917874 8.574023 29.494405 203 203 203 0
-1.801309 8.556220 29.433160 204 204 204 0
-1.682218 8.523236 29.319696 204 204 204 0
-1.574639 8.548041 29.405025 204 204 204 0
-1.469850 8.592968 29.559575 205 205 205 0
-1.357605 8.598163 29.577444 205 205 205 0
-1.240624 8.571586 29.486019 204 204 204 0
-1.124286 8.544576 29.393105 204 204 204 0
-1.019572 8.609722 29.617208 205 205 205 0
-0.910407 8.648869 29.751871 205 205 205 0
-0.793661 8.616889 29.641862 205 205 205 0
-0.677774 8.585140 29.532644 205 205 205 0
-0.565725 8.599021 29.580396 204 204 204 0
-0.456132 8.666517 29.812579 205 205 205 0
-0.341176 8.643122 29.732101 205 205 205 0
-0.226288 8.598957 29.580176 205 205 205 0
-0.112767 8.570303 29.481607 205 205 205 0
0.000000 8.581918 29.521562 205 205 205 0
0.113522 8.627682 29.678987 205 205 205 0
0.226957 8.624358 29.667553 205 205 205 0
0.338901 8.585504 29.533897 205 205 205 0
0.452269 8.593102 29.560035 205 205 205 0
0.567181 8.621148 29.656512 205 205 205 0
0.681770 8.635755 29.706759 206 206 206 0
0.794776 8.628995 29.683505 205 205 205 0
0.908995 8.635455 29.705729 206 206 206 0
1.022884 8.637689 29.713412 205 205 205 0
1.139723 8.661898 29.796691 205 205 205 0
1.255177 8.672132 29.831897 206 206 206 0
1.367091 8.658246 29.784127 206 206 206 0
1.480368 8.654462 29.771110 206 206 206 0
1.595833 8.663096 29.800812 206 206 206 0
1.734764 8.789472 30.235541 206 206 206 0
1.823327 8.660805 29.792932 206 206 206 0
1.935815 8.654234 29.770326 205 205 205 0
2.045976 8.638565 29.716425 206 206 206 0
2.156942 8.627770 29.679291 206 206 206 0
2.274305 8.642357 29.729472 206 206 206 0
2.393607 8.662576 29.799024 206 206 206 0
2.508897 8.667100 29.814586 206 206 206 0
2.621611 8.662716 29.799504 206 206 206 0
2.733494 8.656064 29.776621 206 206 206 0
2.848520 8.659502 29.788448 206 206 206 0
2.969200 8.679200 29.856207 206 206 206 0
3.080126 8.669984 29.824505 207 207 207 0
3.191763 8.663356 29.801707 207 207 207 0
3.311386 8.678114 29.852475 206 206 206 0
3.440536 8.716023 29.982880 207 207 207 0
3.549196 8.701254 29.932076 206 206 206 0
3.653465 8.676979 29.848567 207 207 207 0
3.768980 8.680075 29.859218 206 206 206 0
3.899028 8.715475 29.980993 207 207 207 0
4.011735 8.711195 29.966271 207 207 207 0
4.110972 8.678720 29.854557 207 207 207 0
4.215032 8.657904 29.782953 206 206 206 0
4.326179 8.652358 29.763872 206 206 206 0
4.464200 8.699467 29.925926 206 206 206 0
4.574917 8.692343 29.901421 207 207 207 0
4.673379 8.662848 29.799959 208 208 208 0
4.787797 8.663632 29.802656 207 207 207 0
4.917091 8.690672 29.895672 207 207 207 0
5.037348 8.700874 29.930767 207 207 207 0
5.146740 8.692272 29.901175 207 207 207 0
5.253206 8.679210 29.856244 207 207 207 0
5.373206 8.688589 29.888506 207 207 207 0
5.510919 8.725623 30.015901 207 207 207 0
5.623600 8.722318 30.004535 207 207 207 0
5.724031 8.700527 29.929574 207 207 207 0
5.834223 8.694136 29.907587 208 208 208 0
5.957696 8.707401 29.953221 208 208 208 0
6.085909 8.726964 30.020515 207 207 207 0
6.181757 8.700251 29.928624 207 207 207 0
6.280149 8.678024 29.852163 208 208 208 0
6.400580 8.686501 29.881325 208 208 208 0
6.525784 8.701045 29.931356 208 208 208 0
6.642122 8.703470 29.939698 208 208 208 0
6.747008 8.691061 29.897009 207 207 207 0
6.868953 8.700674 29.930078 208 208 208 0
6.986683 8.704720 29.943999 207 207 207 0
7.099606 8.702743 29.937197 208 208 208 0
7.222410 8.712749 29.971616 208 208 208 0
7.334616 8.709856 29.961666 208 208 208 0
7.444131 8.703907 29.941200 208 208 208 0
7.574116 8.721709 30.002440 208 208 208 0
7.696352 8.730191 30.031616 208 208 208 0
7.803130 8.721146 30.000501 208 208 208 0
7.911111 8.713687 29.974845 208 208 208 0
8.022312 8.709938 29.961948 208 208 208 0
8.163516 8.738412 30.059897 207 207 207 0
8.263224 8.722292 30.004445 208 208 208 0
8.360713 8.704304 29.942566 208 208 208 0
9.860072 10.126560 34.835088 207 207 207 0
8.599881 8.714546 29.977799 209 209 209 0
7.521015 7.521015 25.872084 208 208 208 0
11.626862 11.475864 39.476656 208 208 208 0
13.400356 13.056758 44.914887 208 208 208 0
19.978191 19.219526 66.114639 208 208 208 0
-8.081127 7.778084 26.408911 199 199 199 0
-8.051512 7.847676 26.645195 199 199 199 0
-8.053161 7.949916 26.992329 199 199 199 0
-8.014217 8.014217 27.210651 199 199 199 0
-7.915710 8.019864 27.229825 199 199 199 0
-7.801794 8.009842 27.195796 199 199 199 0
-7.697175 8.009223 27.193695 200 200 200 0
-7.696400 8.118121 27.563436 200 200 200 0
-7.664799 8.197077 27.831514 200 200 200 0
-7.532106 8.168622 27.734901 199 199 199 0
-7.362490 8.098739 27.497629 200 200 200 0
-7.335528 8.186023 27.793985 200 200 200 0
-7.355682 8.329228 28.280209 200 200 200 0
-7.263912 8.348077 28.344207 200 200 200 0
-7.098064 8.281075 28.116714 200 200 200 0
-6.950043 8.233128 27.953920 200 200 200 0
-6.862155 8.256030 28.031679 201 201 201 0
-6.869929 8.396580 28.508887 201 201 201 0
-6.756227 8.390797 28.489254 200 200 200 0
-6.579988 8.305886 28.200954 201 201 201 0
-6.427520 8.248651 28.006625 200 200 200 0
-6.359806 8.300085 28.181259 200 200 200 0
-6.352798 8.433887 28.635557 201 201 201 0
-6.236041 8.424126 28.602414 200 200 200 0
-6.080032 8.360044 28.384838 201 201 201 0
-5.958244 8.341542 28.322016 201 201 201 0
-5.889708 8.398288 28.514686 201 201 201 0
-5.817400 8.451694 28.696014 201 201 201 0
-5.725441 8.478058 28.785528 202 202 202 0
-5.583273 8.429647 28.621161 201 201 201 0
-5.483561 8.444684 28.672215 202 202 202 0
-5.427348 8.528690 28.957440 202 202 202 0
-5.345909 8.575729 29.117151 202 202 202 0
-5.208680 8.533369 28.973326 202 202 202 0
-5.075226 8.495486 28.844703 202 202 202 0
-4.977354 8.516806 28.917091 202 202 202 0
-4.889324 8.556317 29.051241 202 202 202 0
-4.795539 8.587360 29.156643 202 202 202 0
-4.656229 8.536420 28.983687 202 202 202 0
-4.524586 8.497394 28.851179 202 202 202 0
-4.416372 8.501515 28.865174 202 202 202 0
-4.327176 8.543398 29.007379 202 202 202 0
-4.223576 8.558298 29.057968 202 202 202 0
-4.113566 8.560664 29.066000 203 203 203 0
-3.996467 8.547998 29.022997 203 203 203 0
-3.895057 8.569125 29.094729 203 203 203 0
-3.789483 8.582064 29.138662 203 203 203 0
-3.675843 8.576967 29.121355 203 203 203 0
-3.573276 8.598196 29.193432 203 203 203 0
-3.470656 8.620662 29.269713 203 203 203 0
-3.361296 8.627326 29.292339 204 204 204 0
-3.249788 8.628748 29.297166 203 203 203 0
-3.147431 8.655436 29.387781 203 203 203 0
-3.045254 8.684614 29.486850 203 203 203 0
-2.927305 8.669328 29.434947 203 203 203 0
-2.806964 8.645450 29.353876 203 203 203 0
-2.691390 8.634877 29.317976 203 203 203 0
-2.593174 8.681497 29.476265 204 204 204 0
-2.484719 8.696516 29.527260 204 204 204 0
-2.364290 8.669063 29.434047 203 203 203 0
-2.242064 8.631948 29.308031 204 204 204 0
-2.131321 8.637459 29.326744 204 204 204 0
-2.030602 8.686463 29.493125 204 204 204 0
-1.921041 8.701187 29.543118 203 203 203 0
-1.802190 8.673038 29.447544 204 204 204 0
-1.684489 8.647044 29.359289 205 205 205 0
-1.572440 8.648418 29.363951 204 204 204 0
-1.468084 8.695575 29.524063 205 205 205 0
-1.357112 8.708137 29.566716 204 204 204 0
-1.239883 8.679184 29.468411 204 204 204 0
-1.124619 8.659568 29.401810 204 204 204 0
-1.019797 8.724933 29.623744 205 205 205 0
-0.910647 8.764978 29.759709 204 204 204 0
-0.793845 8.732294 29.648736 204 204 204 0
-0.678252 8.704229 29.553448 205 205 205 0
-0.566504 8.724162 29.621125 204 204 204 0
-0.455855 8.775202 29.794423 204 204 204 0
-0.341383 8.762162 29.750147 205 205 205 0
-0.226401 8.716426 29.594858 205 205 205 0
-0.112707 8.678430 29.465850 204 204 204 0
0.000000 8.696866 29.528446 205 205 205 0
0.113495 8.739143 29.671991 205 205 205 0
0.226886 8.735119 29.658327 206 206 206 0
0.339227 8.706829 29.562276 205 205 205 0
0.452355 8.707831 29.565677 206 206 206 0
0.567171 8.734429 29.655986 205 205 205 0
0.680945 8.738793 29.670804 206 206 206 0
0.794299 8.737284 29.665680 205 205 205 0
0.908424 8.743580 29.687056 205 205 205 0
1.022218 8.745640 29.694050 206 206 206 0
1.139505 8.774185 29.790967 205 205 205 0
1.254822 8.783757 29.823468 205 205 205 0
1.366233 8.766662 29.765426 206 206 206 0
1.480770 8.770712 29.779177 206 206 206 0
1.595231 8.773768 29.789553 206 206 206 0
1.724968 8.854834 30.064796 206 206 206 0
1.823877 8.777408 29.801911 206 206 206 0
1.935554 8.766920 29.766300 206 206 206 0
2.045809 8.751517 29.714006 206 206 206 0
2.157987 8.745525 29.693660 206 206 206 0
