ply
    format ascii 1.0
    element vertex 25597
    property float x
    property float y
    property float z
    property uchar red
    property uchar green
    property uchar blue
    property uchar alpha
    end_header
4.366102 7.724642 29.268322 208 208 208 0
4.498113 7.759244 29.399429 208 208 208 0
4.619806 7.774796 29.458354 207 207 207 0
4.719225 7.753012 29.375816 208 208 208 0
4.828163 7.747518 29.354998 207 207 207 0
4.950094 7.762648 29.412325 207 207 207 0
5.065803 7.767565 29.430956 207 207 207 0
5.174877 7.762316 29.411068 208 208 208 0
5.275783 7.745298 29.346588 208 208 208 0
5.396255 7.757117 29.391370 208 208 208 0
5.530369 7.787663 29.507105 208 208 208 0
5.649104 7.795764 29.537801 208 208 208 0
5.747009 7.775365 29.460511 208 208 208 0
5.848998 7.761170 29.406726 208 208 208 0
5.974222 7.777760 29.469584 209 209 209 0
6.100948 7.795655 29.537389 208 208 208 0
6.192326 7.768555 29.434707 208 208 208 0
6.294012 7.755123 29.383812 209 209 209 0
6.408081 7.757151 29.391498 208 208 208 0
6.530263 7.768761 29.435488 209 209 209 0
6.649499 7.776533 29.464935 209 209 209 0
6.757880 7.771562 29.446099 208 208 208 0
6.874554 7.776134 29.463425 209 209 209 0
6.991345 7.780691 29.480689 208 208 208 0
7.099684 7.775844 29.462325 208 208 208 0
7.214093 7.777694 29.469332 208 208 208 0
7.327769 7.778709 29.473180 208 208 208 0
7.444496 7.782882 29.488992 208 208 208 0
7.562474 7.788220 29.509215 209 209 209 0
7.690941 7.804043 29.569170 209 209 209 0
7.802457 7.802457 29.563158 208 208 208 0
7.902598 7.789704 29.514839 208 208 208 0
8.013189 7.787465 29.506357 209 209 209 0
8.138828 7.799710 29.552752 209 209 209 0
8.246286 7.794435 29.532765 208 208 208 0
8.348344 7.784266 29.494237 209 209 209 0
8.445419 7.769786 29.439370 209 209 209 0
8.559430 7.771061 29.444202 209 209 209 0
8.696802 7.793238 29.528231 209 209 209 0
8.804750 7.788817 29.511480 208 208 208 0
8.917780 7.788947 29.511973 208 208 208 0
-8.016295 7.014258 26.197042 200 200 200 0
-7.914840 7.013149 26.192901 200 200 200 0
-7.951206 7.135698 26.650599 200 200 200 0
-7.898793 7.180721 26.818752 200 200 200 0
-7.807801 7.191396 26.858621 200 200 200 0
-7.672511 7.161010 26.745135 200 200 200 0
-7.573229 7.163865 26.755798 201 201 201 0
-7.494864 7.186856 26.841667 200 200 200 0
-7.503392 7.294965 27.245432 201 201 201 0
-7.443665 7.338825 27.409243 200 200 200 0
-7.297431 7.297431 27.254645 201 201 201 0
-7.200228 7.304579 27.281341 200 200 200 0
-7.215146 7.427356 27.739893 201 201 201 0
-7.172980 7.494158 27.989386 201 201 201 0
-6.992539 7.416329 27.698707 201 201 201 0
-6.835260 7.361049 27.492245 201 201 201 0
-6.736133 7.367645 27.516882 202 202 202 0
-6.728198 7.475775 27.920730 201 201 201 0
-6.631486 7.487161 27.963254 202 202 202 0
-6.490853 7.448520 27.818937 202 202 202 0
-6.328209 7.382911 27.573898 202 202 202 0
-6.215705 7.374565 27.542726 202 202 202 0
-6.222436 7.509836 28.047940 202 202 202 0
-6.159843 7.564719 28.252920 202 202 202 0
-5.997897 7.497372 28.001388 202 202 202 0
-5.862380 7.461210 27.866332 202 202 202 0
-5.779341 7.491739 27.980351 202 202 202 0
-5.718210 7.552353 28.206735 202 202 202 0
-5.633079 7.582991 28.321162 202 202 202 0
-5.511173 7.564355 28.251561 202 202 202 0
-5.370049 7.518069 28.078688 203 203 203 0
-5.280836 7.544052 28.175730 202 202 202 0
-5.239292 7.640635 28.536451 203 203 203 0
-5.135885 7.649190 28.568403 203 203 203 0
-5.000313 7.609172 28.418944 203 203 203 0
-4.877351 7.586991 28.336099 203 203 203 0
-4.777688 7.600867 28.387927 203 203 203 0
-4.698474 7.648679 28.566493 203 203 203 0
-4.609150 7.681917 28.690635 203 203 203 0
-4.464774 7.622784 28.469782 203 203 203 0
-4.340699 7.596223 28.370581 203 203 203 0
-4.245607 7.620321 28.460582 203 203 203 0
-4.157897 7.659284 28.606104 203 203 203 0
-4.051484 7.664969 28.627336 203 203 203 0
-3.936066 7.653461 28.584356 203 203 203 0
-3.824203 7.648405 28.565473 204 204 204 0
-3.724832 7.668771 28.641536 204 204 204 0
-3.614917 7.668006 28.638680 204 204 204 0
-3.504513 7.666122 28.631640 204 204 204 0
-3.405324 7.689442 28.718738 204 204 204 0
-3.301881 7.704390 28.774566 204 204 204 0
-3.191040 7.702511 28.767550 203 203 203 0
-3.084822 7.712055 28.803194 204 204 204 0
-2.985788 7.740933 28.911047 204 204 204 0
-2.885160 7.767738 29.011159 204 204 204 0
-2.767074 7.747808 28.936726 204 204 204 0
-2.646475 7.718886 28.828705 204 204 204 0
-2.537709 7.723463 28.845801 204 204 204 0
-2.445416 7.780869 29.060201 204 204 204 0
-2.328130 7.760434 28.983879 204 204 204 0
-2.207658 7.726802 28.858272 205 205 205 0
-2.093440 7.712676 28.805511 205 205 205 0
-1.985154 7.720044 28.833030 204 204 204 0
-1.886411 7.767577 29.010557 205 205 205 0
-1.776397 7.771736 29.026091 205 205 205 0
-1.659352 7.743641 28.921161 205 205 205 0
-1.545724 7.728621 28.865066 205 205 205 0
-1.439580 7.751583 28.950825 204 204 204 0
-1.334952 7.787222 29.083929 205 205 205 0
-1.224154 7.790070 29.094567 205 205 205 0
-1.108265 7.757853 28.974239 204 204 204 0
-0.995471 7.742555 28.917104 206 206 206 0
-0.891363 7.799427 29.129512 205 205 205 0
-0.784086 7.840860 29.284258 206 206 206 0
-0.668877 7.803566 29.144972 205 205 205 0
-0.555616 7.778627 29.051827 206 206 206 0
-0.445715 7.800013 29.131703 206 206 206 0
-0.336093 7.842159 29.289108 206 206 206 0
-0.223481 7.821841 29.213224 205 205 205 0
-0.111218 7.785246 29.076548 206 206 206 0
0.000000 7.758923 28.978238 206 206 206 0
0.110911 7.763741 28.996230 206 206 206 0
0.223286 7.815003 29.187685 205 205 205 0
0.334838 7.812895 29.179812 206 206 206 0
0.445151 7.790142 29.094835 206 206 206 0
0.556566 7.791928 29.101506 206 206 206 0
0.669931 7.815867 29.190913 206 206 206 0
0.781682 7.816823 29.194483 206 206 206 0
0.892491 7.809296 29.166370 206 206 206 0
1.004204 7.810476 29.170777 206 206 206 0
1.118523 7.829662 29.242436 206 206 206 0
1.232760 7.844834 29.299102 206 206 206 0
1.346428 7.854165 29.333951 206 206 206 0
1.458249 7.852111 29.326278 207 207 207 0
1.568570 7.842852 29.291698 206 206 206 0
1.679612 7.838190 29.274285 207 207 207 0
1.792050 7.840220 29.281869 207 207 207 0
1.908791 7.859729 29.354729 207 207 207 0
2.015727 7.838937 29.277077 207 207 207 0
2.124422 7.826818 29.231815 207 207 207 0
2.235528 7.824347 29.222583 207 207 207 0
2.351271 7.837569 29.271967 207 207 207 0
2.466445 7.847778 29.310097 207 207 207 0
2.578449 7.847453 29.308882 207 207 207 0
2.690179 7.846355 29.304781 207 207 207 0
2.800125 7.840351 29.282355 207 207 207 0
2.912457 7.841232 29.285646 207 207 207 0
3.030478 7.856794 29.343768 207 207 207 0
3.146308 7.865771 29.377294 207 207 207 0
3.255751 7.858710 29.350926 208 208 208 0
3.366843 7.855968 29.340682 207 207 207 0
3.492654 7.886639 29.455234 207 207 207 0
3.607117 7.890568 29.469910 208 208 208 0
3.710147 7.870008 29.393121 207 207 207 0
3.810773 7.845708 29.302365 207 207 207 0
3.850708 7.701415 28.763456 207 207 207 0
4.065844 7.905808 29.526827 207 207 207 0
4.163901 7.877651 29.421666 208 208 208 0
4.257914 7.843526 29.294216 208 208 208 0
4.364898 7.834433 29.260253 207 207 207 0
4.498244 7.871926 29.400285 208 208 208 0
4.620880 7.889307 29.465198 208 208 208 0
4.722026 7.870044 29.393253 207 207 207 0
4.828352 7.860108 29.356146 207 207 207 0
4.949474 7.874162 29.408637 208 208 208 0
5.067190 7.882295 29.439012 208 208 208 0
5.177702 7.879111 29.427119 207 207 207 0
5.277197 7.859655 29.354454 208 208 208 0
5.395805 7.868883 29.388918 208 208 208 0
5.528240 7.897486 29.495747 208 208 208 0
5.647341 7.906277 29.528579 208 208 208 0
5.746415 7.887236 29.457463 207 207 207 0
5.850336 7.875452 29.413455 208 208 208 0
5.974119 7.890346 29.469081 208 208 208 0
6.099258 7.906446 29.529209 207 207 207 0
6.194755 7.884233 29.446250 209 209 209 0
6.293187 7.866484 29.379959 208 208 208 0
6.407490 7.868847 29.388786 209 209 209 0
6.530623 7.881786 29.437109 208 208 208 0
6.650349 7.890245 29.468703 209 209 209 0
6.757167 7.883362 29.442994 208 208 208 0
6.878022 7.892812 29.478290 209 209 209 0
6.991469 7.893594 29.481211 208 208 208 0
7.102316 7.891462 29.473248 209 209 209 0
7.213920 7.890225 29.468627 209 209 209 0
7.328382 7.892104 29.475644 208 208 208 0
7.445609 7.896858 29.493400 208 208 208 0
7.559323 7.897800 29.496918 209 209 209 0
7.690137 7.916318 29.566079 209 209 209 0
7.799765 7.912805 29.552958 209 209 209 0
7.901814 7.901814 29.511911 208 208 208 0
8.015718 7.902821 29.515670 208 208 208 0
8.139888 7.913780 29.556601 208 208 208 0
8.247233 7.908305 29.536154 208 208 208 0
8.352053 7.900590 29.507340 209 209 209 0
8.445380 7.882355 29.439235 209 209 209 0
8.554537 7.879179 29.427373 209 209 209 0
8.696759 7.906145 29.528084 209 209 209 0
8.801653 7.898919 29.501100 209 209 209 0
10.536351 9.336008 34.868376 209 209 209 0
-8.009153 7.108123 26.173702 199 199 199 0
-7.922001 7.119773 26.216598 200 200 200 0
-7.949819 7.236374 26.645949 200 200 200 0
-7.901429 7.285733 26.827702 200 200 200 0
-7.815700 7.301509 26.885794 200 200 200 0
-7.653842 7.245637 26.680058 200 200 200 0
-7.557940 7.251537 26.701783 200 200 200 0
-7.495533 7.290176 26.844060 200 200 200 0
-7.492286 7.388226 27.205105 200 200 200 0
-7.437355 7.437355 27.386006 201 201 201 0
-7.292248 7.396423 27.235288 201 201 201 0
-7.186442 7.394745 27.229108 201 201 201 0
-7.209617 7.527688 27.718634 200 200 200 0
-7.178920 7.607512 28.012565 201 201 201 0
-6.992213 7.521926 27.697418 201 201 201 0
-6.837148 7.468269 27.499841 201 201 201 0
-6.730964 7.467164 27.495769 200 200 200 0
-6.731082 7.585822 27.932697 201 201 201 0
-6.633814 7.596787 27.973072 201 201 201 0
-6.497073 7.562167 27.845594 201 201 201 0
-6.331019 7.491706 27.586139 201 201 201 0
-6.209232 7.472127 27.514046 202 202 202 0
-6.212683 7.605181 28.003980 202 202 202 0
-6.151648 7.662580 28.215335 202 202 202 0
-6.004326 7.612628 28.031402 202 202 202 0
-5.866851 7.573571 27.887585 202 202 202 0
-5.764776 7.579613 27.909832 202 202 202 0
-5.716320 7.657712 28.197412 202 202 202 0
-5.626799 7.682744 28.289585 201 201 201 0
-5.503287 7.661438 28.211133 202 202 202 0
-5.360806 7.612344 28.030356 202 202 202 0
-5.276694 7.645821 28.153627 203 203 203 0
-5.246038 7.759764 28.573191 202 202 202 0
-5.138556 7.762500 28.583264 202 202 202 0
-5.001212 7.719262 28.424053 202 202 202 0
-4.880708 7.700672 28.355601 203 203 203 0
-4.779678 7.712662 28.399748 203 203 203 0
-4.700444 7.761198 28.578469 202 202 202 0
-4.608183 7.790023 28.684612 203 203 203 0
-4.469377 7.739653 28.499135 203 203 203 0
-4.339763 7.703080 28.364465 203 203 203 0
-4.249246 7.735807 28.484975 203 203 203 0
-4.154486 7.762329 28.582636 203 203 203 0
-4.049076 7.769848 28.610322 203 203 203 0
-3.938513 7.767623 28.602129 204 204 204 0
-3.828826 7.767047 28.600009 203 203 203 0
-3.724040 7.776672 28.635447 203 203 203 0
-3.619171 7.786701 28.672376 204 204 204 0
-3.504315 7.775198 28.630021 203 203 203 0
-3.402082 7.791865 28.691394 203 203 203 0
-3.301064 7.812517 28.767440 204 204 204 0
-3.191271 7.813111 28.769626 204 204 204 0
-3.082790 7.817075 28.784223 204 204 204 0
-2.984279 7.847547 28.896428 204 204 204 0
-2.884059 7.875699 29.000088 204 204 204 0
-2.766899 7.857993 28.934892 204 204 204 0
-2.645041 7.824914 28.813085 203 203 203 0
-2.539016 7.837833 28.860656 204 204 204 0
-2.444905 7.890376 29.054131 204 204 204 0
-2.329387 7.875546 28.999523 205 205 205 0
-2.209465 7.843600 28.881894 204 204 204 0
-2.093848 7.824381 28.811123 204 204 204 0
-1.985212 7.830557 28.833866 205 205 205 0
-1.886931 7.880711 29.018542 204 204 204 0
-1.775899 7.880550 29.017952 205 205 205 0
-1.659035 7.852767 28.915646 204 204 204 0
-1.546169 7.841284 28.873365 205 205 205 0
-1.437219 7.849426 28.903347 205 205 205 0
-1.334910 7.898218 29.083009 205 205 205 0
-1.223736 7.898659 29.084631 205 205 205 0
-1.107675 7.864491 28.958818 206 206 206 0
-0.995584 7.854051 28.920377 205 205 205 0
-0.891145 7.908913 29.122388 205 205 205 0
-0.783401 7.945921 29.258661 205 205 205 0
-0.668789 7.914007 29.141147 205 205 205 0
-0.555379 7.886385 29.039435 205 205 205 0
-0.445075 7.900085 29.089883 205 205 205 0
-0.336398 7.961414 29.315711 206 206 206 0
-0.223463 7.932936 29.210848 205 205 205 0
-0.111217 7.896390 29.076278 205 205 205 0
0.000000 7.867968 28.971620 206 206 206 0
0.110895 7.873578 28.992280 206 206 206 0
0.223292 7.926862 29.188482 206 206 206 0
0.334946 7.927062 29.189218 206 206 206 0
0.445354 7.905025 29.108073 206 206 206 0
0.556948 7.908667 29.121484 206 206 206 0
0.669967 7.927941 29.192454 206 206 206 0
0.782117 7.932904 29.210730 206 206 206 0
0.892808 7.923675 29.176747 206 206 206 0
1.003619 7.917441 29.153792 205 205 205 0
1.118007 7.937847 29.228930 206 206 206 0
1.232278 7.953794 29.287653 206 206 206 0
1.346850 7.968863 29.343141 207 207 207 0
1.458078 7.963347 29.322827 206 206 206 0
1.569597 7.960100 29.310872 207 207 207 0
1.680547 7.954588 29.290577 207 207 207 0
1.792219 7.952972 29.284623 206 206 206 0
1.909638 7.975547 29.367752 206 206 206 0
2.016201 7.952794 29.283969 206 206 206 0
2.124891 7.940381 29.238261 207 207 207 0
2.234970 7.934144 29.215296 207 207 207 0
2.350566 7.947152 29.263195 206 206 206 0
2.467970 7.964812 29.328222 207 207 207 0
2.578452 7.959570 29.308919 207 207 207 0
2.689218 7.955604 29.294315 207 207 207 0
2.799518 7.950632 29.276009 207 207 207 0
2.912237 7.952646 29.283425 207 207 207 0
3.031270 7.971117 29.351438 207 207 207 0
3.147482 7.981116 29.388256 207 207 207 0
3.253904 7.966454 29.334269 207 207 207 0
3.366873 7.968265 29.340938 207 207 207 0
3.493366 8.000936 29.461239 207 207 207 0
3.606400 8.001699 29.464050 207 207 207 0
3.710147 7.982438 29.393124 207 207 207 0
3.810185 7.956563 29.297849 208 208 208 0
3.841426 7.792607 28.694126 208 208 208 0
4.066555 8.020150 29.531989 207 207 207 0
4.164868 7.992043 29.428494 207 207 207 0
4.257172 7.954189 29.289107 207 207 207 0
4.367625 7.951318 29.278533 208 208 208 0
4.498016 7.983978 29.398797 207 207 207 0
4.619372 7.999401 29.455587 207 207 207 0
4.720552 7.979981 29.384079 208 208 208 0
4.828611 7.972823 29.357720 208 208 208 0
4.951077 7.989238 29.418163 208 208 208 0
5.068116 7.996361 29.444393 208 208 208 0
5.173965 7.985902 29.405882 208 208 208 0
5.275636 7.969578 29.345771 208 208 208 0
5.396810 7.982782 29.394393 208 208 208 0
5.529154 8.011631 29.500620 207 207 207 0
5.648495 8.020863 29.534614 208 208 208 0
5.747666 8.001653 29.463879 208 208 208 0
5.849591 7.986942 29.409709 208 208 208 0
5.974713 8.003861 29.472009 208 208 208 0
6.097793 8.017468 29.522114 209 209 209 0
6.192214 7.993585 29.434171 208 208 208 0
6.295013 7.981177 29.388481 208 208 208 0
6.409323 7.983542 29.397192 208 208 208 0
6.533677 7.998121 29.450875 208 208 208 0
6.647105 7.999059 29.454326 208 208 208 0
6.754290 7.992576 29.430456 208 208 208 0
6.875417 8.002534 29.467123 208 208 208 0
6.989404 8.003995 29.472503 208 208 208 0
7.100471 8.002118 29.465592 208 208 208 0
7.213354 8.002315 29.466316 208 208 208 0
7.330008 8.006624 29.482182 209 209 209 0
7.445977 8.010067 29.494860 209 209 209 0
7.559344 8.010648 29.497002 208 208 208 0
7.687858 8.027028 29.557317 208 208 208 0
7.801783 8.027922 29.560606 208 208 208 0
7.901155 8.014029 29.509450 209 209 209 0
8.014810 8.014810 29.512326 208 208 208 0
8.139539 8.026489 29.555333 208 208 208 0
8.243471 8.017622 29.522682 208 208 208 0
8.347126 8.008729 29.489936 209 209 209 0
8.446871 7.996371 29.444431 208 208 208 0
8.556216 7.993307 29.433149 209 209 209 0
8.697444 8.019721 29.530409 208 208 208 0
8.802257 8.012311 29.503124 209 209 209 0
10.462129 9.402673 34.622749 209 209 209 0
-8.020063 7.218056 26.209355 200 200 200 0
-7.906673 7.206082 26.165874 200 200 200 0
-7.951029 7.339411 26.650005 200 200 200 0
-7.872793 7.361573 26.730476 200 200 200 0
-7.799349 7.388857 26.829546 200 200 200 0
-7.645074 7.339271 26.649496 200 200 200 0
-7.547077 7.343102 26.663405 200 200 200 0
-7.476505 7.374087 26.775917 200 200 200 0
-7.500761 7.500761 27.235879 201 201 201 0
-7.417600 7.522073 27.313264 200 200 200 0
-7.289206 7.497469 27.223927 200 200 200 0
-7.190945 7.503595 27.246168 200 200 200 0
-7.215820 7.640280 27.742483 201 201 201 0
-7.169084 7.704090 27.974184 200 200 200 0
-6.994835 7.630729 27.707803 201 201 201 0
-6.827157 7.562389 27.459656 201 201 201 0
-6.736597 7.578671 27.518777 201 201 201 0
-6.731038 7.692615 27.932515 201 201 201 0
-6.635840 7.706136 27.981613 201 201 201 0
-6.488873 7.658997 27.810447 202 202 202 0
-6.326715 7.592058 27.567387 201 201 201 0
-6.215859 7.585455 27.543409 202 202 202 0
-6.211193 7.710446 27.997263 202 202 202 0
-6.148336 7.766319 28.200140 202 202 202 0
-5.994382 7.707063 27.984978 202 202 202 0
-5.860202 7.671537 27.855979 202 202 202 0
-5.764328 7.685771 27.907666 202 202 202 0
-5.718428 7.768430 28.207808 202 202 202 0
-5.627256 7.791585 28.291883 202 202 202 0
-5.500246 7.765053 28.195546 202 202 202 0
-5.362054 7.721358 28.036883 202 202 202 0
-5.275224 7.751350 28.145788 203 203 203 0
-5.240574 7.860861 28.543430 202 202 202 0
-5.134217 7.865183 28.559124 202 202 202 0
-5.005321 7.834415 28.447403 202 202 202 0
-4.873632 7.797811 28.314491 203 203 203 0
-4.776647 7.816331 28.381739 203 203 203 0
-4.700054 7.869857 28.576097 203 203 203 0
-4.607649 7.898828 28.681291 203 203 203 0
-4.464982 7.840944 28.471109 203 203 203 0
-4.337832 7.808097 28.351840 203 203 203 0
-4.248770 7.843882 28.481780 203 203 203 0
-4.153121 7.869071 28.573242 203 203 203 0
-4.050778 7.882594 28.622347 203 203 203 0
-3.935290 7.870579 28.578720 203 203 203 0
-3.826594 7.871850 28.583332 203 203 203 0
-3.722194 7.882294 28.621257 203 203 203 0
-3.616532 7.890616 28.651475 204 204 204 0
-3.506423 7.889452 28.647248 203 203 203 0
-3.405089 7.908593 28.716751 204 204 204 0
-3.302903 7.926968 28.783472 204 204 204 0
-3.191337 7.923320 28.770224 203 203 203 0
-3.083975 7.930221 28.795285 204 204 204 0
-2.986762 7.964699 28.920474 203 203 203 0
-2.883649 7.985489 28.995965 204 204 204 0
-2.766987 7.968924 28.935815 204 204 204 0
-2.645101 7.935303 28.813736 204 204 204 0
-2.536704 7.940986 28.834370 204 204 204 0
-2.443485 7.996859 29.037252 204 204 204 0
-2.328113 7.982101 28.983665 204 204 204 0
-2.208656 7.951161 28.871319 204 204 204 0
-2.093564 7.933506 28.807211 204 204 204 0
-1.985150 7.940599 28.832965 205 205 205 0
-1.886338 7.989195 29.009422 205 205 205 0
-1.775959 7.991816 29.018940 204 204 204 0
-1.659838 7.967221 28.929634 205 205 205 0
-1.545472 7.948142 28.860356 205 205 205 0
-1.438709 7.968233 28.933308 205 205 205 0
-1.334440 8.006641 29.072770 205 205 205 0
-1.223085 8.005650 29.069171 205 205 205 0
-1.107786 7.976060 28.961727 204 204 204 0
-0.995829 7.966629 28.927485 206 206 206 0
-0.891393 8.022540 29.130502 205 205 205 0
-0.783305 8.056847 29.255074 205 205 205 0
-0.668977 8.027729 29.149343 205 205 205 0
-0.555895 8.004892 29.066421 206 206 206 0
-0.445198 8.013570 29.097931 205 205 205 0
-0.336136 8.067273 29.292932 205 205 205 0
-0.223498 8.045915 29.215378 206 206 206 0
-0.111216 8.007527 29.075988 206 206 206 0
0.000000 7.974587 28.956379 205 205 205 0
0.110889 7.983982 28.990493 206 206 206 0
0.223120 8.032328 29.166041 206 206 206 0
0.334757 8.034156 29.172681 206 206 206 0
0.445278 8.015007 29.103149 206 206 206 0
0.556403 8.012203 29.092966 206 206 206 0
0.669619 8.035424 29.177285 205 205 205 0
0.781921 8.042611 29.203382 206 206 206 0
0.892871 8.035836 29.178779 206 206 206 0
1.003833 8.030667 29.160012 206 206 206 0
1.118263 8.051493 29.235633 206 206 206 0
1.232983 8.070433 29.304403 206 206 206 0
1.347001 8.082008 29.346436 207 207 207 0
1.458461 8.077632 29.330543 206 206 206 0
1.569393 8.071162 29.307051 207 207 207 0
1.680535 8.066570 29.290377 207 207 207 0
1.791565 8.062043 29.273940 206 206 206 0
1.908582 8.083406 29.351510 207 207 207 0
2.015445 8.061780 29.272984 206 206 206 0
2.124493 8.050709 29.232786 207 207 207 0
2.235441 8.047587 29.221449 207 207 207 0
2.350072 8.057388 29.257037 207 207 207 0
2.467168 8.074367 29.318691 207 207 207 0
2.578063 8.070459 29.304501 207 207 207 0
2.690047 8.070142 29.303348 207 207 207 0
2.800462 8.065330 29.285877 207 207 207 0
2.912248 8.064686 29.283537 207 207 207 0
3.031474 8.083930 29.353412 207 207 207 0
3.147535 8.093662 29.388751 207 207 207 0
3.254407 8.079908 29.338807 207 207 207 0
3.366912 8.080590 29.341284 207 207 207 0
3.493816 8.114670 29.465032 207 207 207 0
3.606556 8.114752 29.465330 207 207 207 0
3.709996 8.094536 29.391924 208 208 208 0
3.810026 8.068290 29.296625 207 207 207 0
3.828477 7.875724 28.597400 207 207 207 0
4.068872 8.137744 29.548814 207 207 207 0
4.166663 8.108101 29.441180 207 207 207 0
4.257129 8.066139 29.288811 207 207 207 0
4.366979 8.062114 29.274199 207 207 207 0
4.499478 8.099060 29.408351 208 208 208 0
4.619516 8.112321 29.456503 208 208 208 0
4.720571 8.092407 29.384192 207 207 207 0
4.826627 8.081794 29.345657 207 207 207 0
4.950392 8.100641 29.414092 208 208 208 0
5.068263 8.109221 29.445247 208 208 208 0
5.176049 8.101642 29.417727 208 208 208 0
5.277054 8.083998 29.353660 208 208 208 0
5.399553 8.099329 29.409330 207 207 207 0
5.527857 8.122565 29.493701 208 208 208 0
5.648790 8.134257 29.536156 208 208 208 0
5.746269 8.112380 29.456718 208 208 208 0
5.850302 8.100419 29.413284 208 208 208 0
5.975686 8.117914 29.476811 208 208 208 0
6.099213 8.132284 29.528990 207 207 207 0
6.194596 8.109290 29.445497 209 209 209 0
6.295995 8.094851 29.393068 208 208 208 0
6.409419 8.096108 29.397631 208 208 208 0
6.532466 8.109268 29.445418 208 208 208 0
6.648294 8.113172 29.459594 209 209 209 0
6.753109 8.103731 29.425312 208 208 208 0
6.873853 8.113401 29.460424 208 208 208 0
6.991118 8.118717 29.479729 208 208 208 0
7.102818 8.117506 29.475330 209 209 209 0
7.212293 8.113829 29.461980 208 208 208 0
7.329355 8.118670 29.479557 209 209 209 0
7.445256 8.122097 29.492001 209 209 209 0
7.560506 8.124723 29.501535 209 209 209 0
7.690657 8.143048 29.568076 208 208 208 0
7.801992 8.141209 29.561398 208 208 208 0
7.901287 8.127038 29.509941 208 208 208 0
8.016041 8.128943 29.516861 209 209 209 0
8.138686 8.138686 29.552238 208 208 208 0
8.247778 8.134794 29.538106 208 208 208 0
8.349175 8.123521 29.497173 208 208 208 0
8.446453 8.108595 29.442973 209 209 209 0
8.554541 8.104302 29.427384 209 209 209 0
8.694775 8.130179 29.521348 208 208 208 0
10.411494 9.610610 34.896915 209 209 209 0
10.510792 9.579456 34.783792 209 209 209 0
-8.004550 7.304152 26.158662 199 199 199 0
-7.913659 7.312621 26.188992 200 200 200 0
-7.941367 7.432305 26.617622 200 200 200 0
-7.892829 7.482812 26.798504 200 200 200 0
-7.790074 7.482572 26.797642 200 200 200 0
-7.643590 7.439761 26.644324 200 200 200 0
-7.543683 7.441741 26.651415 201 201 201 0
-7.472828 7.472828 26.762747 200 200 200 0
-7.496636 7.600755 27.220899 200 200 200 0
-7.429049 7.638318 27.355423 200 200 200 0
-7.301230 7.614140 27.268833 200 200 200 0
-7.182369 7.598738 27.213674 200 200 200 0
-7.204529 7.734274 27.699073 201 201 201 0
-7.172690 7.815020 27.988254 201 201 201 0
-6.995185 7.737098 27.709189 201 201 201 0
-6.836771 7.678219 27.498324 200 200 200 0
-6.739480 7.687220 27.530556 201 201 201 0
-6.729052 7.797156 27.924275 200 200 200 0
-6.634913 7.812075 27.977707 201 201 201 0
-6.489302 7.765886 27.812289 201 201 201 0
-6.332229 7.704212 27.591413 201 201 201 0
-6.209040 7.682371 27.513193 201 201 201 0
-6.204102 7.808611 27.965300 202 202 202 0
-6.145805 7.870943 28.188533 202 202 202 0
-5.991038 7.809746 27.969364 202 202 202 0
-5.867786 7.788152 27.892030 201 201 201 0
-5.761254 7.788362 27.892782 202 202 202 0
-5.714384 7.870755 28.187858 202 202 202 0
-5.630990 7.905044 28.310659 202 202 202 0
-5.502261 7.875785 28.205874 202 202 202 0
-5.368871 7.838552 28.072528 202 202 202 0
-5.277755 7.862778 28.159290 202 202 202 0
-5.238079 7.966245 28.529840 202 202 202 0
-5.139120 7.982037 28.586398 202 202 202 0
-5.000374 7.935375 28.419287 202 202 202 0
-4.876377 7.910567 28.330441 203 203 203 0
-4.778587 7.928111 28.393270 203 203 203 0
-4.704670 7.986998 28.604166 203 203 203 0
-4.608710 8.010377 28.687892 203 203 203 0
-4.466856 7.953182 28.483060 203 203 203 0
-4.341603 7.923425 28.376489 202 202 202 0
-4.245438 7.946589 28.459447 203 203 203 0
-4.148755 7.969976 28.543204 203 203 203 0
-4.047261 7.985136 28.597495 203 203 203 0
-3.934282 7.977849 28.571399 203 203 203 0
-3.822143 7.971899 28.550091 204 204 204 0
-3.722735 7.992932 28.625417 204 204 204 0
-3.614864 7.996517 28.638257 203 203 203 0
-3.508821 8.004497 28.666834 203 203 203 0
-3.405643 8.019740 28.721425 204 204 204 0
-3.300740 8.031801 28.764621 203 203 203 0
-3.192006 8.035051 28.776258 204 204 204 0
-3.085770 8.045042 28.812042 204 204 204 0
-2.985556 8.072060 28.908800 204 204 204 0
-2.880566 8.087744 28.964969 203 203 203 0
-2.766721 8.078825 28.933028 203 203 203 0
-2.645847 8.047784 28.821862 204 204 204 0
-2.537962 8.055271 28.848675 205 205 205 0
-2.443512 8.108017 29.037576 204 204 204 0
-2.329595 8.098115 29.002112 204 204 204 0
-2.207796 8.058457 28.860085 205 205 205 0
-2.093487 8.043399 28.806157 204 204 204 0
-1.985581 8.052632 28.839223 204 204 204 0
-1.885340 8.095873 28.994083 204 204 204 0
-1.776557 8.105543 29.028716 205 205 205 0
-1.660253 8.079899 28.936874 205 205 205 0
-1.545093 8.056555 28.853273 204 204 204 0
-1.438196 8.076024 28.922997 204 204 204 0
-1.334380 8.117477 29.071453 205 205 205 0
-1.223861 8.121985 29.087601 205 205 205 0
-1.107772 8.086739 28.961372 204 204 204 0
-0.996173 8.080069 28.937485 205 205 205 0
-0.891523 8.135144 29.134725 205 205 205 0
-0.783350 8.169225 29.256782 205 205 205 0
-0.669380 8.144118 29.166864 205 205 205 0
-0.555249 8.106635 29.032627 205 205 205 0
-0.445190 8.124714 29.097373 205 205 205 0
-0.335975 8.175387 29.278849 205 205 205 0
-0.223421 8.154884 29.205421 205 205 205 0
-0.111208 8.118201 29.074049 206 206 206 0
0.000000 8.086521 28.960591 205 205 205 0
0.110930 8.097921 29.001418 206 206 206 0
0.223275 8.149553 29.186331 206 206 206 0
0.334810 8.147049 29.177362 205 205 205 0
0.444983 8.120934 29.083837 205 205 205 0
0.556451 8.124188 29.095488 206 206 206 0
0.669427 8.144694 29.168927 205 205 205 0
0.781982 8.154951 29.205663 206 206 206 0
0.893267 8.151064 29.191742 207 207 207 0
1.003844 8.142291 29.160323 206 206 206 0
1.118934 8.168216 29.253168 206 206 206 0
1.232480 8.179188 29.292462 206 206 206 0
1.346885 8.193549 29.343894 206 206 206 0
1.458040 8.187455 29.322072 206 206 206 0
1.568967 8.181042 29.299105 206 206 206 0
1.679799 8.175022 29.277542 206 206 206 0
1.791463 8.173549 29.272269 206 206 206 0
1.909074 8.197788 29.359075 206 206 206 0
2.015758 8.175020 29.277535 206 206 206 0
2.124669 8.163203 29.235217 207 207 207 0
2.234339 8.155336 29.207040 207 207 207 0
2.350859 8.172035 29.266845 207 207 207 0
2.466826 8.185377 29.314627 207 207 207 0
2.578098 8.182660 29.304897 207 207 207 0
2.689719 8.181229 29.299772 206 206 206 0
2.798953 8.172943 29.270098 207 207 207 0
2.912004 8.176011 29.281085 207 207 207 0
3.032198 8.198165 29.360427 207 207 207 0
3.148731 8.209193 29.399920 207 207 207 0
3.255022 8.193675 29.344346 208 208 208 0
3.368005 8.195479 29.350806 207 207 207 0
3.494325 8.228572 29.469323 207 207 207 0
3.608222 8.231257 29.478941 207 207 207 0
3.709803 8.206533 29.390395 207 207 207 0
3.809982 8.180254 29.296282 207 207 207 0
3.814485 7.955926 28.492886 207 207 207 0
4.068843 8.250709 29.548602 208 208 208 0
4.164471 8.216389 29.425692 207 207 207 0
4.260178 8.184025 29.309788 207 207 207 0
4.364654 8.169737 29.258617 207 207 207 0
4.496746 8.206561 29.390494 207 207 207 0
4.618034 8.222354 29.447055 208 208 208 0
4.723067 8.209141 29.399734 208 208 208 0
4.826369 8.193604 29.344091 208 208 208 0
4.951488 8.214969 29.420609 208 208 208 0
5.069263 8.223471 29.451055 208 208 208 0
5.174373 8.211505 29.408201 207 207 207 0
5.277570 8.197076 29.356527 207 207 207 0
5.397128 8.208133 29.396123 208 208 208 0
5.528686 8.236613 29.498123 208 208 208 0
5.646818 8.244355 29.525847 208 208 208 0
5.745870 8.224481 29.454673 207 207 207 0
5.852665 8.216241 29.425164 208 208 208 0
5.976610 8.231935 29.481367 208 208 208 0
6.099962 8.246244 29.532615 207 207 207 0
6.195374 8.222952 29.449195 208 208 208 0
6.293645 8.204216 29.382096 208 208 208 0
6.408994 8.208010 29.395686 208 208 208 0
6.532781 8.222293 29.446836 208 208 208 0
6.650663 8.228786 29.470090 208 208 208 0
6.753518 8.216781 29.427095 208 208 208 0
6.873708 8.225912 29.459799 208 208 208 0
6.988388 8.228263 29.468217 208 208 208 0
7.097904 8.224555 29.454939 209 209 209 0
7.212160 8.226370 29.461438 208 208 208 0
7.329936 8.232082 29.481894 209 209 209 0
7.445710 8.235406 29.493800 209 209 209 0
7.559230 8.236176 29.496558 208 208 208 0
7.689916 8.255351 29.565229 208 208 208 0
7.802184 8.254485 29.562127 209 209 209 0
7.903800 8.242534 29.519326 208 208 208 0
8.015494 8.241282 29.514844 209 209 209 0
8.141576 8.254653 29.562730 209 209 209 0
8.247313 8.247313 29.536442 209 209 209 0
8.348034 8.235223 29.493143 209 209 209 0
8.443916 8.218745 29.434131 209 209 209 0
8.555817 8.218087 29.431773 208 208 208 0
8.697076 8.245280 29.529161 209 209 209 0
10.335673 9.673130 34.642780 209 209 209 0
10.847125 10.023292 35.896830 209 209 209 0
-7.998680 7.398779 26.139477 200 200 200 0
-7.901946 7.401822 26.150229 200 200 200 0
-7.938666 7.531555 26.608568 200 200 200 0
-7.879291 7.572306 26.752538 200 200 200 0
-7.791548 7.586508 26.802712 200 200 200 0
-7.642533 7.540632 26.640636 200 200 200 0
-7.564344 7.564344 26.724408 200 200 200 0
-7.468317 7.570622 26.746591 200 200 200 0
-7.498807 7.707108 27.228785 200 200 200 0
-7.443978 7.758512 27.410396 201 201 201 0
-7.297702 7.714714 27.255658 201 201 201 0
-7.190383 7.711426 27.244041 201 201 201 0
-7.217615 7.854464 27.749386 200 200 200 0
-7.178495 7.928487 28.010905 201 201 201 0
-6.996123 7.844138 27.712904 201 201 201 0
-6.843374 7.790918 27.524884 201 201 201 0
-6.739398 7.792429 27.530222 201 201 201 0
-6.733561 7.909262 27.942986 200 200 200 0
-6.631643 7.915186 27.963916 201 201 201 0
-6.489388 7.872373 27.812658 202 202 202 0
-6.331611 7.808986 27.588717 201 201 201 0
-6.205214 7.782810 27.496238 202 202 202 0
-6.197679 7.907384 27.936350 202 202 202 0
-6.140436 7.971794 28.163906 202 202 202 0
-5.992491 7.918649 27.976151 202 202 202 0
-5.859515 7.883711 27.852714 201 201 201 0
-5.764276 7.899193 27.907411 203 203 203 0
-5.723211 7.990899 28.231403 202 202 202 0
-5.638263 8.023682 28.347223 202 202 202 0
-5.506990 7.990535 28.230118 203 203 203 0
-5.369346 7.946632 28.075012 201 201 201 0
-5.276654 7.968824 28.153416 201 201 201 0
-5.245238 8.086409 28.568837 202 202 202 0
-5.139604 8.092142 28.589091 203 203 203 0
-5.006356 8.053704 28.453289 203 203 203 0
-4.880428 8.025592 28.353974 202 202 202 0
-4.774786 8.030323 28.370686 203 203 203 0
-4.699917 8.088229 28.575264 203 203 203 0
-4.608496 8.119730 28.686558 203 203 203 0
-4.465297 8.059317 28.473121 203 203 203 0
-4.337294 8.023994 28.348325 203 203 203 0
-4.247962 8.060235 28.476366 203 203 203 0
-4.153115 8.087645 28.573203 203 203 203 0
-4.045576 8.091153 28.585595 203 203 203 0
-3.932387 8.083241 28.557643 203 203 203 0
-3.817863 8.072053 28.518116 203 203 203 0
-3.720339 8.097209 28.606993 203 203 203 0
-3.616240 8.109144 28.649158 203 203 203 0
-3.504918 8.105124 28.634955 203 203 203 0
-3.404144 8.126021 28.708783 203 203 203 0
-3.301587 8.143914 28.771997 204 204 204 0
-3.193456 8.148819 28.789328 204 204 204 0
-3.084350 8.151495 28.798783 204 204 204 0
-2.983996 8.178360 28.893694 204 204 204 0
-2.882446 8.203884 28.983867 204 204 204 0
-2.766034 8.187462 28.925849 204 204 204 0
-2.645193 8.156013 28.814741 204 204 204 0
-2.539189 8.169566 28.862624 204 204 204 0
-2.446471 8.229040 29.072743 204 204 204 0
-2.329805 8.209790 29.004735 205 205 205 0
-2.207801 8.168865 28.860149 204 204 204 0
-2.093221 8.152547 28.802496 204 204 204 0
-1.986015 8.164726 28.845527 204 204 204 0
-1.885312 8.206651 28.993645 205 205 205 0
-1.777142 8.219282 29.038268 204 204 204 0
-1.659481 8.186773 28.923416 204 204 204 0
-1.545874 8.171046 28.867854 205 205 205 0
-1.438997 8.191215 28.939108 204 204 204 0
-1.335188 8.233659 29.089063 205 205 205 0
-1.223973 8.233997 29.090256 205 205 205 0
-1.108000 8.199198 28.967314 205 205 205 0
-0.995523 8.185414 28.918613 205 205 205 0
-0.891321 8.244722 29.128148 205 205 205 0
-0.783425 8.281923 29.259577 204 204 204 0
-0.669060 8.251746 29.152961 206 206 206 0
-0.555440 8.220515 29.042624 206 206 206 0
-0.445148 8.235240 29.094649 205 205 205 0
-0.336078 8.289932 29.287870 206 206 206 0
-0.223350 8.263937 29.196031 206 206 206 0
-0.111243 8.231968 29.083087 206 206 206 0
0.000000 8.199828 28.969540 206 206 206 0
0.110887 8.205602 28.989937 205 205 205 0
0.223233 8.259610 29.180747 206 206 206 0
0.334774 8.257768 29.174238 205 205 205 0
0.445265 8.237405 29.102297 206 206 206 0
0.556540 8.236796 29.100146 207 207 207 0
0.669481 8.256934 29.171292 206 206 206 0
0.781905 8.265850 29.202790 206 206 206 0
0.892932 8.259618 29.180774 206 206 206 0
1.003418 8.250330 29.147958 206 206 206 0
1.118883 8.279733 29.251840 207 207 207 0
1.232853 8.293740 29.301326 207 207 207 0
1.346331 8.302377 29.331838 206 206 206 0
1.458102 8.299967 29.323326 206 206 206 0
1.569377 8.295279 29.306762 206 206 206 0
1.679997 8.287985 29.280993 206 206 206 0
1.791963 8.287829 29.280440 206 206 206 0
1.909436 8.311662 29.364642 207 207 207 0
2.015909 8.287626 29.279726 207 207 207 0
2.125059 8.276546 29.240581 206 206 206 0
2.235269 8.270494 29.219196 207 207 207 0
2.349852 8.280430 29.254300 207 207 207 0
2.466161 8.295268 29.306723 207 207 207 0
2.578694 8.296667 29.311666 207 207 207 0
2.689578 8.292865 29.298232 207 207 207 0
2.800002 8.288006 29.281068 207 207 207 0
2.913046 8.290978 29.291566 207 207 207 0
3.032129 8.310280 29.359759 207 207 207 0
3.147979 8.319659 29.392895 207 207 207 0
3.255628 8.307465 29.349816 207 207 207 0
3.367658 8.306889 29.347780 207 207 207 0
3.495054 8.343032 29.475469 207 207 207 0
3.610023 8.348178 29.493651 207 207 207 0
3.708458 8.315937 29.379746 207 207 207 0
3.811081 8.294705 29.304734 207 207 207 0
3.797348 8.028679 28.364878 208 208 208 0
4.067995 8.361989 29.542444 207 207 207 0
4.165639 8.331279 29.433947 208 208 208 0
4.257499 8.290918 29.291355 208 208 208 0
4.366121 8.284435 29.268450 208 208 208 0
4.497714 8.320771 29.396823 208 208 208 0
4.619794 8.338165 29.458276 207 207 207 0
4.719825 8.315883 29.379554 208 208 208 0
4.828009 8.308667 29.354060 208 208 208 0
4.950011 8.325018 29.411829 207 207 207 0
5.067170 8.332679 29.438894 207 207 207 0
5.177423 8.328897 29.425533 208 208 208 0
5.277138 8.308685 29.354126 208 208 208 0
5.395942 8.318744 29.389662 208 208 208 0
5.527893 8.348246 29.493892 208 208 208 0
5.649214 8.360837 29.538376 208 208 208 0
5.750003 8.343142 29.475859 207 207 207 0
5.850244 8.325347 29.412989 208 208 208 0
5.975856 8.343648 29.477648 208 208 208 0
6.099395 8.358431 29.529874 208 208 208 0
6.194534 8.334464 29.445202 208 208 208 0
6.295833 8.319494 29.392311 208 208 208 0
6.408833 8.320240 29.394948 207 207 207 0
6.529781 8.331100 29.433315 209 209 209 0
6.648030 8.338207 29.458425 209 209 209 0
6.749728 8.324665 29.410580 208 208 208 0
6.871477 8.335891 29.450240 209 209 209 0
6.986548 8.338783 29.460460 208 208 208 0
7.099986 8.339666 29.463580 208 208 208 0
7.214750 8.342055 29.472019 208 208 208 0
7.328941 8.343717 29.477891 208 208 208 0
7.445472 8.347954 29.492859 209 209 209 0
7.560858 8.350798 29.502908 208 208 208 0
7.686858 8.365110 29.553472 208 208 208 0
7.804188 8.369709 29.569719 209 209 209 0
7.902727 8.354311 29.515320 208 208 208 0
8.014305 8.352938 29.510467 208 208 208 0
8.141822 8.367984 29.563625 209 209 209 0
8.249896 8.362909 29.545693 208 208 208 0
8.347269 8.347269 29.490439 209 209 209 0
8.448002 8.335362 29.448373 209 209 209 0
10.128919 9.862369 34.843203 209 209 209 0
10.272537 9.872308 34.878318 208 208 208 0
10.651110 10.104900 35.700052 208 208 208 0
10.481116 9.817754 34.685584 208 208 208 0
-8.013820 7.512956 26.188953 199 199 199 0
-7.908648 7.508211 26.172411 200 200 200 0
-7.943326 7.637814 26.624187 200 200 200 0
-7.898454 7.693300 26.817602 199 199 199 0
-7.813752 7.710939 26.879092 200 200 200 0
-7.659329 7.659329 26.699185 200 200 200 0
-7.567089 7.669347 26.734108 200 200 200 0
-7.483068 7.688084 26.799421 200 200 200 0
-7.500270 7.812782 27.234097 200 200 200 0
-7.438979 7.858077 27.391988 200 200 200 0
-7.302288 7.823880 27.272785 200 200 200 0
-7.195229 7.820901 27.262398 201 201 201 0
-7.208375 7.950413 27.713858 201 201 201 0
-7.173396 8.029920 27.991008 200 200 200 0
-7.004023 7.959117 27.744198 201 201 201 0
-6.847189 7.900603 27.540229 201 201 201 0
-6.744525 7.903740 27.551163 201 201 201 0
-6.739736 8.023495 27.968612 201 201 201 0
-6.642041 8.034727 28.007762 201 201 201 0
-6.492478 7.982555 27.825898 201 201 201 0
-6.331418 7.914273 27.587879 201 201 201 0
-6.209407 7.893314 27.514821 202 202 202 0
-6.205687 8.024596 27.972447 201 201 201 0
-6.152578 8.095497 28.219599 202 202 202 0
-5.993506 8.027017 27.980886 202 202 202 0
-5.857559 7.987581 27.843419 202 202 202 0
-5.763670 8.005097 27.904478 202 202 202 0
-5.721441 8.096379 28.222671 203 203 203 0
-5.638597 8.132593 28.348906 203 203 203 0
-5.507486 8.099244 28.232660 202 202 202 0
-5.379271 8.068907 28.126909 202 202 202 0
-5.279211 8.080425 28.167059 202 202 202 0
-5.245998 8.196871 28.572972 202 202 202 0
-5.141039 8.203786 28.597074 202 202 202 0
-5.008371 8.165823 28.464742 203 203 203 0
-4.876618 8.127696 28.331838 203 203 203 0
-4.775592 8.140213 28.375471 202 202 202 0
-4.699286 8.196429 28.571430 203 203 203 0
-4.606267 8.225476 28.672685 203 203 203 0
-4.468391 8.173887 28.492852 202 202 202 0
-4.339671 8.136882 28.363860 203 203 203 0
-4.249645 8.172394 28.487648 203 203 203 0
-4.149764 8.190323 28.550146 203 203 203 0
-4.048330 8.206075 28.605056 203 203 203 0
-3.932321 8.192335 28.557158 203 203 203 0
-3.821225 8.188340 28.543232 204 204 204 0
-3.717371 8.200083 28.584167 203 203 203 0
-3.613446 8.212378 28.627027 203 203 203 0
-3.506415 8.218160 28.647182 204 204 204 0
-3.403292 8.233772 28.701602 203 203 203 0
-3.302055 8.255136 28.776075 203 203 203 0
-3.190191 8.250494 28.759892 204 204 204 0
-3.085114 8.263698 28.805919 204 204 204 0
-2.985199 8.292219 28.905340 203 203 203 0
-2.883868 8.318850 28.998170 204 204 204 0
-2.766994 8.300981 28.935882 204 204 204 0
-2.644441 8.263879 28.806550 204 204 204 0
-2.538675 8.278289 28.856781 204 204 204 0
-2.444337 8.332969 29.047385 205 205 205 0
-2.329184 8.318514 28.996997 204 204 204 0
-2.208221 8.280829 28.865633 205 205 205 0
-2.093114 8.262290 28.801011 204 204 204 0
-1.984967 8.270695 28.830311 204 204 204 0
-1.887252 8.326110 29.023478 204 204 204 0
-1.776325 8.326523 29.024915 205 205 205 0
-1.659557 8.297783 28.924734 205 205 205 0
-1.544904 8.276271 28.849746 204 204 204 0
-1.438685 8.300105 28.932827 204 204 204 0
-1.335206 8.345037 29.089452 204 204 204 0
-1.224466 8.348631 29.101980 205 205 205 0
-1.107975 8.309809 28.966654 205 205 205 0
-0.995960 8.299666 28.931299 205 205 205 0
-0.891329 8.356213 29.128410 205 205 205 0
-0.783720 8.397000 29.270590 205 205 205 0
-0.668910 8.361377 29.146413 206 206 206 0
-0.555820 8.337306 29.062504 206 206 206 0
-0.445183 8.347179 29.096919 205 205 205 0
-0.335952 8.398810 29.276897 205 205 205 0
-0.223368 8.376289 29.198391 205 205 205 0
-0.111167 8.337489 29.063142 206 206 206 0
0.000000 8.310650 28.969585 205 205 205 0
0.110905 8.317883 28.994799 206 206 206 0
0.223317 8.374371 29.191709 205 205 205 0
0.334928 8.373195 29.187608 206 206 206 0
0.445266 8.348740 29.102361 205 205 205 0
0.557048 8.355727 29.126718 206 206 206 0
0.669952 8.374399 29.191806 206 206 206 0
0.782216 8.380891 29.214434 207 207 207 0
0.893894 8.380259 29.212232 206 206 206 0
1.004542 8.371182 29.180591 207 207 207 0
1.118436 8.388267 29.240146 206 206 206 0
1.232869 8.405922 29.301690 206 206 206 0
1.346484 8.415523 29.335157 206 206 206 0
1.457667 8.409617 29.314568 206 206 206 0
1.569249 8.406691 29.304371 206 206 206 0
1.680457 8.402284 29.289009 207 207 207 0
1.791134 8.395943 29.266903 206 206 206 0
1.909192 8.422904 29.360885 206 206 206 0
2.016547 8.402280 29.288994 207 207 207 0
2.124878 8.387677 29.238089 207 207 207 0
2.235627 8.383600 29.223879 206 206 206 0
2.350506 8.394665 29.262450 207 207 207 0
2.466931 8.409992 29.315875 207 207 207 0
2.578284 8.407449 29.307013 206 206 206 0
2.689654 8.405170 29.299067 207 207 207 0
2.799049 8.397148 29.271103 207 207 207 0
2.910455 8.395543 29.265508 207 207 207 0
3.031175 8.419930 29.350519 206 206 206 0
3.147944 8.431993 29.392567 207 207 207 0
3.256828 8.422830 29.360629 207 207 207 0
3.368971 8.422427 29.359222 207 207 207 0
3.495705 8.457352 29.480965 207 207 207 0
3.608447 8.457297 29.480773 208 208 208 0
3.709635 8.430988 29.389065 207 207 207 0
3.808842 8.401858 29.287524 207 207 207 0
3.783699 8.107926 28.262923 207 207 207 0
4.067498 8.473955 29.538840 207 207 207 0
4.167133 8.446892 29.444503 207 207 207 0
4.258061 8.404067 29.295224 208 208 208 0
4.365606 8.395397 29.265000 207 207 207 0
4.498207 8.434138 29.400046 208 208 208 0
4.621104 8.453239 29.466628 208 208 208 0
4.721019 8.430392 29.386986 208 208 208 0
4.829060 8.422778 29.360447 207 207 207 0
4.950318 8.438042 29.413655 208 208 208 0
5.064989 8.441648 29.426224 207 207 207 0
5.176172 8.439411 29.418426 207 207 207 0
5.278070 8.422452 29.359311 208 208 208 0
5.398056 8.434463 29.401177 208 208 208 0
5.528502 8.461993 29.497144 208 208 208 0
5.650525 8.475788 29.545231 208 208 208 0
5.748883 8.454239 29.470115 208 208 208 0
5.852033 8.440433 29.421988 207 207 207 0
5.977529 8.458768 29.485902 208 208 208 0
6.101478 8.474276 29.539958 208 208 208 0
6.199436 8.453776 29.468499 208 208 208 0
6.292686 8.427705 29.377620 208 208 208 0
6.409721 8.433844 29.399020 208 208 208 0
6.529106 8.442809 29.430271 208 208 208 0
6.647395 8.450078 29.455610 209 209 209 0
6.751663 8.439578 29.419009 208 208 208 0
6.869216 8.445758 29.440549 208 208 208 0
6.986378 8.451264 29.459742 208 208 208 0
7.101172 8.453777 29.468502 208 208 208 0
7.213194 8.452961 29.465660 208 208 208 0
7.329605 8.457237 29.480563 208 208 208 0
7.444141 8.459251 29.487586 208 208 208 0
7.558562 8.461076 29.493948 209 209 209 0
7.690411 8.482071 29.567133 208 208 208 0
7.803941 8.482545 29.568784 209 209 209 0
7.902859 8.467348 29.515811 209 209 209 0
8.014015 8.465508 29.509398 209 209 209 0
8.140522 8.479710 29.558903 209 209 209 0
8.247573 8.473533 29.537372 209 209 209 0
8.348721 8.461541 29.495569 209 209 209 0
10.019230 10.019230 34.925420 208 208 208 0
10.150068 10.016515 34.915956 208 208 208 0
10.148408 9.758085 34.015110 208 208 208 0
10.787727 10.241513 35.700262 209 209 209 0
-8.003284 7.603119 26.154522 199 199 199 0
-7.920775 7.619986 26.212542 200 200 200 0
-7.926185 7.722949 26.566733 200 200 200 0
-7.903483 7.800841 26.834678 199 199 199 0
-7.801343 7.801343 26.836404 200 200 200 0
-7.669020 7.771274 26.732968 200 200 200 0
-7.569103 7.773673 26.741221 200 200 200 0
-7.491240 7.799100 26.828688 200 200 200 0
-7.512592 7.929958 27.278838 200 200 200 0
-7.430892 7.954194 27.362209 200 200 200 0
-7.302024 7.927912 27.271798 200 200 200 0
-7.198372 7.928642 27.274311 200 200 200 0
-7.208655 8.056732 27.714938 201 201 201 0
-7.175509 8.139383 27.999255 201 201 201 0
-6.999013 8.059470 27.724354 201 201 201 0
-6.844261 8.002520 27.528450 200 200 200 0
-6.739543 8.003208 27.530815 201 201 201 0
-6.740531 8.131434 27.971910 201 201 201 0
-6.636196 8.134692 27.983115 201 201 201 0
-6.498978 8.097087 27.853757 202 202 202 0
-6.337344 8.027303 27.613701 202 202 202 0
-6.224503 8.018004 27.581714 201 201 201 0
-6.211376 8.139045 27.998090 201 201 201 0
-6.151015 8.201353 28.212430 201 201 201 0
-5.998689 8.141078 28.005083 202 202 202 0
-5.866613 8.106593 27.886455 202 202 202 0
-5.766858 8.116318 27.919911 202 202 202 0
-5.724179 8.208257 28.236177 201 201 201 0
-5.642997 8.247458 28.371028 202 202 202 0
-5.512062 8.214053 28.256115 203 203 203 0
-5.379411 8.176705 28.127640 202 202 202 0
-5.283264 8.194450 28.188683 202 202 202 0
-5.247333 8.308278 28.580247 202 202 202 0
-5.137723 8.307808 28.578630 202 202 202 0
-5.002113 8.264360 28.429170 202 202 202 0
-4.881723 8.244688 28.361498 203 203 203 0
-4.777376 8.251831 28.386072 203 203 203 0
-4.703723 8.313557 28.598407 203 203 203 0
-4.609330 8.340692 28.691750 203 203 203 0
-4.472471 8.290433 28.518863 202 202 202 0
-4.342585 8.250911 28.382906 203 203 203 0
-4.244837 8.271991 28.455420 203 203 203 0
-4.149902 8.299804 28.551096 203 203 203 0
-4.041562 8.301586 28.557228 203 203 203 0
-3.933692 8.304460 28.567114 203 203 203 0
-3.819296 8.293328 28.528821 203 203 203 0
-3.721944 8.319640 28.619332 203 203 203 0
-3.615725 8.327125 28.645079 203 203 203 0
-3.506318 8.327505 28.646387 204 204 204 0
-3.407949 8.354971 28.740869 203 203 203 0
-3.298554 8.356336 28.745566 204 204 204 0
-3.191102 8.362888 28.768103 203 203 203 0
-3.084261 8.371564 28.797951 204 204 204 0
-2.984338 8.400358 28.896999 203 203 203 0
-2.878773 8.414874 28.946935 203 203 203 0
-2.764458 8.403952 28.909362 203 203 203 0
-2.644340 8.373745 28.805451 204 204 204 0
-2.537015 8.383180 28.837907 205 205 205 0
-2.445447 8.447909 29.060573 204 204 204 0
-2.331097 8.436352 29.020818 204 204 204 0
-2.206579 8.385001 28.844171 204 204 204 0
-2.092985 8.371941 28.799247 204 204 204 0
-1.985524 8.383322 28.838398 205 205 205 0
-1.886673 8.434537 29.014575 204 204 204 0
-1.777552 8.443372 29.044967 204 204 204 0
-1.658990 8.405550 28.914862 204 204 204 0
-1.546208 8.393703 28.874107 205 205 205 0
-1.437938 8.406409 28.917816 205 205 205 0
-1.335560 8.458547 29.097169 205 205 205 0
-1.225043 8.463931 29.115691 205 205 205 0
-1.108718 8.426260 28.986101 204 204 204 0
-0.995717 8.408281 28.924254 205 205 205 0
-0.891513 8.469375 29.134416 205 205 205 0
-0.783465 8.506188 29.261052 205 205 205 0
-0.668930 8.473110 29.147265 206 206 206 0
-0.555664 8.446091 29.054321 205 205 205 0
-0.444904 8.453174 29.078686 205 205 205 0
-0.336078 8.513974 29.287838 205 205 205 0
-0.223387 8.488716 29.200950 205 205 205 0
-0.111227 8.453223 29.078854 205 205 205 0
0.000000 8.423137 28.975358 206 206 206 0
0.110903 8.428616 28.994208 205 205 205 0
0.223381 8.488494 29.200187 205 205 205 0
0.334862 8.483170 29.181873 206 206 206 0
0.445190 8.458610 29.097387 205 205 205 0
0.556940 8.465487 29.121044 206 206 206 0
0.670934 8.498503 29.234615 206 206 206 0
0.782512 8.495847 29.225480 205 205 205 0
0.894147 8.494399 29.220500 206 206 206 0
1.003981 8.478064 29.164308 206 206 206 0
1.118574 8.501159 29.243753 205 205 205 0
1.232830 8.517736 29.300779 207 207 207 0
1.346372 8.527023 29.332724 206 206 206 0
1.457009 8.517900 29.301342 206 206 206 0
1.569724 8.521358 29.313238 206 206 206 0
1.679020 8.507037 29.263972 206 206 206 0
1.791358 8.508952 29.270559 206 206 206 0
1.909120 8.534889 29.359782 206 206 206 0
2.017543 8.518515 29.303457 206 206 206 0
2.124976 8.499903 29.239432 207 207 207 0
2.235648 8.495464 29.224162 207 207 207 0
2.350508 8.506601 29.262474 207 207 207 0
2.466519 8.520703 29.310983 207 207 207 0
2.578981 8.521850 29.314929 206 206 206 0
2.688797 8.514524 29.289728 207 207 207 0
2.799455 8.510343 29.275346 206 206 206 0
2.911303 8.509963 29.274038 207 207 207 0
3.033512 8.538776 29.373153 207 207 207 0
3.148526 8.545999 29.398002 207 207 207 0
3.256626 8.534605 29.358807 207 207 207 0
3.368313 8.533060 29.353492 207 207 207 0
3.494927 8.568208 29.474401 207 207 207 0
3.606933 8.566467 29.468410 207 207 207 0
3.707441 8.538349 29.371684 207 207 207 0
3.806111 8.507778 29.266523 207 207 207 0
3.770995 8.188445 28.168027 207 207 207 0
4.065015 8.581698 29.520806 207 207 207 0
4.167520 8.560310 29.447232 207 207 207 0
4.258865 8.517730 29.300756 207 207 207 0
4.366802 8.509665 29.273015 207 207 207 0
4.498647 8.547430 29.402924 207 207 207 0
4.621050 8.565849 29.466283 208 208 208 0
4.720544 8.541937 29.384028 208 208 208 0
