ply
    format ascii 1.0
    element vertex 25597
    property float x
    property float y
    property float z
    property uchar red
    property uchar green
    property uchar blue
    property uchar alpha
    end_header
-7.793115 4.932351 25.790071 201 201 201 0
-7.799407 4.999620 26.141803 201 201 201 0
-7.772027 5.046770 26.388342 201 201 201 0
-7.686132 5.056666 26.440082 201 201 201 0
-7.557510 5.038340 26.344263 201 201 201 0
-7.454233 5.036644 26.335395 201 201 201 0
-7.365130 5.044610 26.377043 202 202 202 0
-7.366512 5.115633 26.748408 201 201 201 0
-7.322435 5.156644 26.962845 201 201 201 0
-7.190451 5.136036 26.855092 201 201 201 0
-7.052482 5.110495 26.721540 202 202 202 0
-7.041046 5.177240 27.070536 202 202 202 0
-7.038608 5.252692 27.465057 202 202 202 0
-6.923834 5.245329 27.426556 202 202 202 0
-6.754733 5.195948 27.168356 202 202 202 0
-6.619386 5.171395 27.039974 202 202 202 0
-6.562845 5.208607 27.234548 202 202 202 0
-6.587284 5.312326 27.776868 202 202 202 0
-6.433722 5.273543 27.574079 203 203 203 0
-6.260666 5.217221 27.279588 202 202 202 0
-6.129843 5.194782 27.162260 202 202 202 0
-6.048288 5.214041 27.262960 202 202 202 0
-6.035223 5.294056 27.681337 203 203 203 0
-5.922793 5.288208 27.650760 203 203 203 0
-5.766963 5.242694 27.412777 203 203 203 0
-5.651903 5.233244 27.363366 203 203 203 0
-5.583935 5.267864 27.544385 204 204 204 0
-5.516899 5.304711 27.737050 203 203 203 0
-5.431508 5.325008 27.843180 203 203 203 0
-5.301199 5.301199 27.718688 204 204 204 0
-5.192832 5.298809 27.706188 204 204 204 0
-5.114021 5.327106 27.854147 204 204 204 0
-5.057122 5.379917 28.130286 203 203 203 0
-4.939007 5.368486 28.070514 204 204 204 0
-4.807024 5.341138 27.927519 204 204 204 0
-4.687309 5.326488 27.850916 204 204 204 0
-4.613253 5.364248 28.048353 203 203 203 0
-4.536801 5.400954 28.240282 204 204 204 0
-4.410479 5.378633 28.123573 204 204 204 0
-4.276931 5.346164 27.953800 204 204 204 0
-4.164509 5.339114 27.916934 204 204 204 0
-4.067659 5.352184 27.985273 205 205 205 0
-3.988980 5.390513 28.185690 204 204 204 0
-3.878791 5.387210 28.168416 204 204 204 0
-3.761753 5.373933 28.098994 204 204 204 0
-3.660331 5.382840 28.145571 205 205 205 0
-3.564969 5.401469 28.242973 205 205 205 0
-3.459025 5.404727 28.260011 205 205 205 0
-3.344484 5.394328 28.205639 205 205 205 0
-3.248192 5.413653 28.306682 205 205 205 0
-3.138689 5.411533 28.295598 204 204 204 0
-3.025993 5.403560 28.253906 205 205 205 0
-2.922498 5.412033 28.298213 204 204 204 0
-2.828462 5.439350 28.441048 206 206 206 0
-2.727263 5.454525 28.520395 205 205 205 0
-2.616442 5.450920 28.501544 205 205 205 0
-2.490498 5.414126 28.309154 205 205 205 0
-2.032422 4.619140 24.152366 205 205 205 0
-2.280440 5.429619 28.390163 206 206 206 0
-2.178944 5.447359 28.482925 205 205 205 0
-2.063573 5.430454 28.394531 206 206 206 0
-1.949745 5.415958 28.318732 206 206 206 0
-1.847738 5.434525 28.415817 206 206 206 0
-1.746739 5.458561 28.541493 206 206 206 0
-1.636501 5.455005 28.522900 206 206 206 0
-1.523336 5.440486 28.446986 206 206 206 0
-1.414505 5.440402 28.446547 206 206 206 0
-1.309486 5.456193 28.529116 206 206 206 0
-1.204128 5.473311 28.618620 206 206 206 0
-1.094819 5.474096 28.622726 206 206 206 0
-0.981209 5.451161 28.502803 206 206 206 0
-0.870469 5.440429 28.446689 206 206 206 0
-0.767562 5.482587 28.667121 206 206 206 0
-0.660356 5.502965 28.773673 206 206 206 0
-0.548638 5.486378 28.686941 206 206 206 0
-0.437225 5.465317 28.576819 206 206 206 0
-0.328554 5.475903 28.632174 206 206 206 0
-0.220525 5.513115 28.826745 206 206 206 0
-0.110046 5.502286 28.770124 207 207 207 0
0.000000 5.474956 28.627221 207 207 207 0
0.109068 5.453425 28.514640 207 207 207 0
0.218453 5.461320 28.555920 207 207 207 0
0.329499 5.491647 28.714495 207 207 207 0
0.439488 5.493604 28.724725 207 207 207 0
0.547322 5.473223 28.618159 207 207 207 0
0.656465 5.470542 28.604144 208 208 208 0
0.768739 5.490990 28.711057 208 208 208 0
0.879181 5.494884 28.731419 207 207 207 0
0.989183 5.495460 28.734429 207 207 207 0
1.098761 5.493803 28.725766 207 207 207 0
1.209778 5.498991 28.752893 207 207 207 0
1.321841 5.507670 28.798275 207 207 207 0
1.434384 5.516863 28.846341 208 208 208 0
1.544946 5.517665 28.850538 207 207 207 0
1.653621 5.512070 28.821282 208 208 208 0
1.762427 5.507583 28.797821 208 208 208 0
1.875072 5.514919 28.836176 207 207 207 0
1.988781 5.524393 28.885714 208 208 208 0
2.093866 5.510174 28.811370 208 208 208 0
2.200423 5.501057 28.763699 208 208 208 0
2.309179 5.498046 28.747953 207 207 207 0
2.421541 5.503502 28.776481 208 208 208 0
2.536135 5.513336 28.827901 208 208 208 0
2.645804 5.512093 28.821400 208 208 208 0
2.759091 5.518181 28.853234 208 208 208 0
2.864489 5.508632 28.803305 209 209 209 0
2.977371 5.513649 28.829539 208 208 208 0
3.092296 5.521958 28.872982 207 207 207 0
3.205424 5.526593 28.897219 208 208 208 0
3.313361 5.522268 28.874602 208 208 208 0
3.416351 5.510243 28.811730 208 208 208 0
3.542450 5.535079 28.941588 208 208 208 0
3.661591 5.547865 29.008446 208 208 208 0
3.762782 5.533502 28.933345 209 209 209 0
3.864255 5.520365 28.864651 208 208 208 0
3.977001 5.523613 28.881636 208 208 208 0
4.112262 5.557111 29.056790 208 208 208 0
4.206363 5.534688 28.939543 209 209 209 0
4.304824 5.519005 28.857543 209 209 209 0
4.408770 5.510963 28.815493 208 208 208 0
4.530993 5.525601 28.892030 209 209 209 0
4.652057 5.538163 28.957713 208 208 208 0
4.753458 5.527276 28.900791 209 209 209 0
4.857467 5.519849 28.861957 208 208 208 0
4.971718 5.524131 28.884344 209 209 209 0
5.092639 5.535477 28.943673 210 210 210 0
5.202709 5.534797 28.940115 209 209 209 0
5.311880 5.533208 28.931806 209 209 209 0
5.417440 5.528000 28.904577 209 209 209 0
5.534860 5.534860 28.940446 209 209 209 0
5.666253 5.555150 29.046536 209 209 209 0
5.770465 5.548524 29.011889 209 209 209 0
5.870375 5.538089 28.957330 209 209 209 0
5.980735 5.537717 28.955384 209 209 209 0
6.101627 5.546934 29.003574 209 209 209 0
6.216794 5.550709 29.023313 209 209 209 0
6.309475 5.534627 28.939225 209 209 209 0
6.408871 5.524889 28.888308 209 209 209 0
6.523819 5.528660 28.908027 209 209 209 0
6.649411 5.541176 28.973468 209 209 209 0
6.762205 5.542791 28.981914 209 209 209 0
6.870129 5.540426 28.969550 209 209 209 0
6.985117 5.543743 28.986893 210 210 210 0
7.094306 5.542427 28.980010 210 210 210 0
7.200354 5.538734 28.960700 209 209 209 0
7.312400 5.539697 28.965737 209 209 209 0
7.426012 5.541800 28.976730 210 210 210 0
7.541818 5.545454 28.995839 210 210 210 0
7.661594 5.551879 29.029435 209 209 209 0
7.789378 5.563841 29.091981 210 210 210 0
7.890952 5.557008 29.056252 210 210 210 0
7.989975 5.548594 29.012255 209 209 209 0
8.092219 5.542616 28.980997 209 209 209 0
8.213901 5.549933 29.019259 209 209 209 0
8.324155 5.549437 29.016663 210 210 210 0
8.423096 5.541511 28.975220 210 210 210 0
8.516993 5.530515 28.917727 210 210 210 0
8.633522 5.534309 28.937564 209 209 209 0
8.765487 5.547777 29.007984 210 210 210 0
-7.889524 5.029571 25.782758 201 201 201 0
-7.778582 5.021616 25.741978 201 201 201 0
-7.809768 5.106387 26.176531 201 201 201 0
-7.781320 5.153861 26.419897 201 201 201 0
-7.690156 5.160499 26.453924 201 201 201 0
-7.558891 5.140046 26.349076 201 201 201 0
-7.450721 5.134956 26.322986 201 201 201 0
-7.357254 5.140000 26.348838 202 202 202 0
-7.366635 5.218033 26.748858 201 201 201 0
-7.332956 5.267335 27.001588 201 201 201 0
-7.197495 5.243889 26.881400 201 201 201 0
-7.042874 5.205602 26.685133 201 201 201 0
-7.041379 5.281034 27.071813 202 202 202 0
-7.057711 5.372288 27.539602 201 201 201 0
-6.925180 5.351276 27.431888 202 202 202 0
-6.765086 5.307990 27.209998 202 202 202 0
-6.613197 5.269892 27.014694 202 202 202 0
-6.564549 5.314158 27.241617 202 202 202 0
-6.588201 5.419327 27.780735 202 202 202 0
-6.438214 5.382769 27.593330 202 202 202 0
-6.266295 5.326350 27.304116 203 203 203 0
-6.130754 5.299465 27.166297 202 202 202 0
-6.046348 5.316616 27.254216 202 202 202 0
-6.031033 5.396188 27.662117 203 203 203 0
-5.927910 5.398632 27.674650 202 202 202 0
-5.773708 5.353802 27.444840 202 202 202 0
-5.655988 5.341767 27.383143 203 203 203 0
-5.584961 5.374208 27.549444 204 204 204 0
-5.515963 5.409887 27.732342 203 203 203 0
-5.431183 5.431183 27.841514 203 203 203 0
-5.298207 5.404171 27.703042 203 203 203 0
-5.189790 5.401618 27.689956 203 203 203 0
-5.116571 5.436356 27.868032 204 204 204 0
-5.057413 5.487831 28.131905 204 204 204 0
-4.941012 5.478078 28.081908 203 203 203 0
-4.808902 5.450089 27.938429 204 204 204 0
-4.689676 5.435761 27.864981 204 204 204 0
-4.616498 5.475381 28.068083 204 204 204 0
-4.534421 5.506083 28.225465 204 204 204 0
-4.406759 5.481578 28.099849 204 204 204 0
-4.278793 5.455461 27.965966 204 204 204 0
-4.165192 5.446790 27.921518 204 204 204 0
-4.067025 5.458376 27.980910 205 205 205 0
-3.987001 5.495596 28.171711 204 204 204 0
-3.876666 5.491944 28.152987 204 204 204 0
-3.764503 5.485419 28.119537 204 204 204 0
-3.661895 5.492842 28.157590 204 204 204 0
-3.562761 5.506085 28.225477 205 205 205 0
-3.456636 5.509014 28.240494 205 205 205 0
-3.346504 5.505539 28.222678 205 205 205 0
-3.248931 5.523183 28.313124 205 205 205 0
-3.140069 5.522190 28.308038 205 205 205 0
-3.026650 5.512826 28.260033 204 204 204 0
-2.922794 5.520832 28.301076 205 205 205 0
-2.830222 5.551590 28.458746 205 205 205 0
-2.727352 5.563798 28.521326 205 205 205 0
-2.614761 5.556366 28.483231 206 206 206 0
-2.489133 5.519382 28.293639 206 206 206 0
-2.073397 4.806512 24.639304 205 205 205 0
-2.280156 5.537521 28.386625 205 205 205 0
-2.176045 5.548916 28.445039 205 205 205 0
-2.063354 5.538477 28.391529 205 205 205 0
-1.950315 5.525891 28.327010 206 206 206 0
-1.847321 5.541964 28.409403 206 206 206 0
-1.748151 5.572231 28.564558 205 205 205 0
-1.636254 5.563262 28.518580 205 205 205 0
-1.523361 5.549386 28.447447 207 207 207 0
-1.413835 5.546585 28.433091 206 206 206 0
-1.309736 5.566380 28.534563 206 206 206 0
-1.204847 5.586108 28.635695 205 205 205 0
-1.094720 5.583074 28.620139 206 206 206 0
-0.981060 5.559341 28.498478 206 206 206 0
-0.870247 5.547826 28.439451 206 206 206 0
-0.767264 5.590066 28.655983 207 207 207 0
-0.660605 5.615140 28.784519 206 206 206 0
-0.548650 5.596231 28.687586 206 206 206 0
-0.437280 5.575318 28.580381 206 206 206 0
-0.328403 5.582847 28.618975 206 206 206 0
-0.220496 5.622651 28.823023 206 206 206 0
-0.109988 5.609412 28.755154 206 206 206 0
0.000000 5.587192 28.641253 207 207 207 0
0.109176 5.567985 28.542793 206 206 206 0
0.218584 5.573888 28.573054 207 207 207 0
0.329433 5.600366 28.708785 206 206 206 0
0.439361 5.601857 28.716425 206 206 206 0
0.546814 5.577508 28.591607 207 207 207 0
0.656345 5.578932 28.598908 207 207 207 0
0.769007 5.602765 28.721083 208 208 208 0
0.879287 5.605456 28.734878 207 207 207 0
0.989515 5.607252 28.744083 207 207 207 0
1.098313 5.601397 28.714068 207 207 207 0
1.209508 5.607719 28.746479 207 207 207 0
1.322197 5.619335 28.806025 207 207 207 0
1.434059 5.625924 28.839798 207 207 207 0
1.544350 5.625847 28.839407 208 208 208 0
1.654398 5.624954 28.834827 207 207 207 0
1.762699 5.618604 28.802275 208 208 208 0
1.873874 5.621621 28.817743 208 208 208 0
1.988881 5.635163 28.887160 207 207 207 0
2.093633 5.619753 28.808166 208 208 208 0
2.199597 5.608973 28.752904 208 208 208 0
2.308981 5.607524 28.745478 208 208 208 0
2.421640 5.613802 28.777659 208 208 208 0
2.536456 5.624316 28.831558 208 208 208 0
2.646533 5.623883 28.829338 208 208 208 0
2.760550 5.631522 28.868495 208 208 208 0
2.865198 5.620195 28.810434 208 208 208 0
2.976078 5.621481 28.817022 208 208 208 0
3.092266 5.632341 28.872697 208 208 208 0
3.205565 5.637374 28.898493 208 208 208 0
3.311370 5.629329 28.857257 208 208 208 0
3.417541 5.622407 28.821769 209 209 209 0
3.542402 5.645704 28.941196 208 208 208 0
3.663218 5.661338 29.021338 208 208 208 0
3.763751 5.645626 28.940796 209 209 209 0
3.864283 5.630813 28.864862 208 208 208 0
3.975980 5.632638 28.874218 208 208 208 0
4.110716 5.666122 29.045863 208 208 208 0
4.207135 5.646418 28.944859 208 208 208 0
4.306224 5.631216 28.866928 208 208 208 0
4.409402 5.621988 28.819622 209 209 209 0
4.530386 5.635358 28.888163 209 209 209 0
4.654325 5.651680 28.971832 208 208 208 0
4.756088 5.640941 28.916783 208 208 208 0
4.858369 5.631292 28.867316 208 208 208 0
4.972599 5.635612 28.889464 208 208 208 0
5.095803 5.649695 28.961655 209 209 209 0
5.204038 5.646935 28.947506 209 209 209 0
5.310757 5.642679 28.925691 208 208 208 0
5.416195 5.637264 28.897933 209 209 209 0
5.535333 5.646039 28.942916 210 210 210 0
5.667612 5.667612 29.053501 209 209 209 0
5.771163 5.660180 29.015402 209 209 209 0
5.871126 5.649574 28.961037 208 208 208 0
5.984263 5.651803 28.972464 209 209 209 0
6.102005 5.658223 29.005370 209 209 209 0
6.215270 5.660335 29.016201 209 209 209 0
6.310190 5.645960 28.942508 209 209 209 0
6.408776 5.635303 28.887879 209 209 209 0
6.522801 5.638354 28.903518 209 209 209 0
6.649220 5.651837 28.972638 209 209 209 0
6.761417 5.652988 28.978535 209 209 209 0
6.867901 5.649403 28.960158 209 209 209 0
6.983957 5.653679 28.982079 209 209 209 0
7.098488 5.656607 28.997089 210 210 210 0
7.200538 5.649653 28.961440 209 209 209 0
7.309910 5.648567 28.955874 209 209 209 0
7.425886 5.652540 28.976240 209 209 209 0
7.541850 5.656388 28.995965 209 209 209 0
7.661051 5.662516 29.027377 209 209 209 0
7.783635 5.670934 29.070531 210 210 210 0
7.891721 5.668701 29.059085 210 210 210 0
7.986737 5.657272 29.000497 209 209 209 0
8.090186 5.652048 28.973717 210 210 210 0
8.214353 5.661243 29.020856 210 210 210 0
8.325167 5.661113 29.020189 209 209 209 0
8.423097 5.652342 28.975223 209 209 209 0
8.520643 5.643543 28.930118 209 209 209 0
8.631746 5.643834 28.931610 210 210 210 0
8.765506 5.658744 29.008044 210 210 210 0
-7.878800 5.121220 25.747712 201 201 201 0
-7.792199 5.129043 25.787042 201 201 201 0
-7.819378 5.212919 26.208742 201 201 201 0
-7.776929 5.251952 26.404989 200 200 200 0
-7.688138 5.260305 26.446983 201 201 201 0
-7.557257 5.239698 26.343380 201 201 201 0
-7.453670 5.237714 26.333406 202 202 202 0
-7.379479 5.256615 26.428433 201 201 201 0
-7.380174 5.330126 26.798017 202 202 202 0
-7.311542 5.354932 26.922735 202 202 202 0
-7.194097 5.344186 26.868710 202 202 202 0
-7.046797 5.310630 26.700000 202 202 202 0
-7.036030 5.380494 27.051250 202 202 202 0
-7.034929 5.459945 27.450703 202 202 202 0
-6.923222 5.454660 27.424133 203 203 203 0
-6.765805 5.412644 27.212892 203 203 203 0
-6.612620 5.372754 27.012337 202 202 202 0
-6.559708 5.414362 27.221530 202 202 202 0
-6.580708 5.519304 27.749139 202 202 202 0
-6.436376 5.486747 27.585455 203 203 203 0
-6.266942 5.431350 27.306937 203 203 203 0
-6.134077 5.406305 27.181022 202 202 202 0
-6.052235 5.426142 27.280754 203 203 203 0
-6.033917 5.504626 27.675347 202 202 202 0
-5.931069 5.507421 27.689397 203 203 203 0
-5.768111 5.453487 27.418234 203 203 203 0
-5.646403 5.437277 27.336735 203 203 203 0
-5.578124 5.472876 27.515719 203 203 203 0
-5.519380 5.519380 27.749523 203 203 203 0
-5.427546 5.533968 27.822867 203 203 203 0
-5.299806 5.511798 27.711404 204 204 204 0
-5.194277 5.512293 27.713894 203 203 203 0
-5.113072 5.539161 27.848973 203 203 203 0
-5.057133 5.595126 28.130348 203 203 203 0
-4.943971 5.588836 28.098725 204 204 204 0
-4.806010 5.553611 27.921625 204 204 204 0
-4.690706 5.543561 27.871097 204 204 204 0
-4.614500 5.580325 28.055934 204 204 204 0
-4.537484 5.617838 28.244533 204 204 204 0
-4.409795 5.592910 28.119207 203 203 203 0
-4.278153 5.561600 27.961787 204 204 204 0
-4.162449 5.549931 27.903124 204 204 204 0
-4.070410 5.570035 28.004198 204 204 204 0
-3.990241 5.607906 28.194603 204 204 204 0
-3.879217 5.603314 28.171512 204 204 204 0
-3.763137 5.590947 28.109336 205 205 205 0
-3.662436 5.601372 28.161750 205 205 205 0
-3.563494 5.615202 28.231284 204 204 204 0
-3.458981 5.620844 28.259649 205 205 205 0
-3.346171 5.612933 28.219873 205 205 205 0
-3.249054 5.631693 28.314193 205 205 205 0
-3.141707 5.633406 28.322806 205 205 205 0
-3.025077 5.618001 28.245353 205 205 205 0
-2.923281 5.630022 28.305790 205 205 205 0
-2.830088 5.660177 28.457400 205 205 205 0
-2.726058 5.670201 28.507799 206 206 206 0
-2.614838 5.665482 28.484070 205 205 205 0
-2.489532 5.628507 28.298174 205 205 205 0
-2.086085 4.930747 24.790078 205 205 205 0
-2.280718 5.647492 28.393624 205 205 205 0
-2.175127 5.655330 28.433031 205 205 205 0
-2.063413 5.647234 28.392329 206 206 206 0
-1.949508 5.631913 28.315300 206 206 206 0
-1.846977 5.649578 28.404114 206 206 206 0
-1.747307 5.678747 28.550762 205 205 205 0
-1.636572 5.673450 28.524134 206 206 206 0
-1.523610 5.659122 28.452095 206 206 206 0
-1.413328 5.653313 28.422891 205 205 205 0
-1.308025 5.668109 28.497282 206 206 206 0
-1.204104 5.692130 28.618048 206 206 206 0
-1.093826 5.687898 28.596771 205 205 205 0
-0.981516 5.670980 28.511717 206 206 206 0
-0.870235 5.656528 28.439055 206 206 206 0
-0.767297 5.699918 28.657205 206 206 206 0
-0.660683 5.725917 28.787916 206 206 206 0
-0.548707 5.706551 28.690554 206 206 206 0
-0.437299 5.684889 28.581643 206 206 206 0
-0.328592 5.695593 28.635461 207 207 207 0
-0.220492 5.732805 28.822547 206 206 206 0
-0.109989 5.719452 28.755416 206 206 206 0
0.000000 5.696922 28.642141 206 206 206 0
0.109086 5.672450 28.519106 207 207 207 0
0.218430 5.679177 28.552926 206 206 206 0
0.329726 5.715255 28.734316 207 207 207 0
0.439395 5.712134 28.718623 207 207 207 0
0.547025 5.689065 28.602640 207 207 207 0
0.656849 5.692694 28.620884 207 207 207 0
0.768877 5.711659 28.716233 207 207 207 0
0.879148 5.714463 28.730332 207 207 207 0
0.989747 5.718538 28.750820 207 207 207 0
1.098520 5.712302 28.719466 208 208 208 0
1.210042 5.720199 28.759172 207 207 207 0
1.321969 5.728534 28.801074 207 207 207 0
1.434161 5.736642 28.841841 208 208 208 0
1.544431 5.736459 28.840922 207 207 207 0
1.653527 5.732227 28.819643 208 208 208 0
1.762562 5.728327 28.800033 207 207 207 0
1.873992 5.732210 28.819557 208 208 208 0
1.987651 5.742101 28.869288 208 208 208 0
2.093735 5.730222 28.809565 208 208 208 0
2.199855 5.719623 28.756273 208 208 208 0
2.308116 5.715336 28.734719 208 208 208 0
2.421060 5.722506 28.770767 208 208 208 0
2.535809 5.733133 28.824198 207 207 207 0
2.645896 5.732775 28.822399 208 208 208 0
2.758414 5.737501 28.846156 208 208 208 0
2.864810 5.729621 28.806540 208 208 208 0
2.974566 5.728794 28.802385 208 208 208 0
3.093069 5.744271 28.880198 208 208 208 0
3.205309 5.747451 28.896184 208 208 208 0
3.315127 5.746220 28.889994 208 208 208 0
3.417582 5.732719 28.822116 207 207 207 0
3.542404 5.756406 28.941208 208 208 208 0
3.663038 5.772061 29.019912 209 209 209 0
3.761618 5.753062 28.924395 208 208 208 0
3.864711 5.741856 28.868053 208 208 208 0
3.976776 5.744232 28.880001 209 209 209 0
4.108602 5.774252 29.030928 209 209 209 0
4.207300 5.757358 28.945993 208 208 208 0
4.305354 5.740473 28.861099 209 209 209 0
4.408369 5.730880 28.812872 208 208 208 0
4.529491 5.744720 28.882454 208 208 208 0
4.651208 5.758638 28.952428 208 208 208 0
4.754405 5.749513 28.906550 209 209 209 0
4.857537 5.740726 28.862372 209 209 209 0
4.971732 5.745113 28.884428 209 209 209 0
5.094414 5.758903 28.953759 209 209 209 0
5.201619 5.754983 28.934052 209 209 209 0
5.310535 5.753079 28.924482 209 209 209 0
5.415194 5.746736 28.892591 209 209 209 0
5.536244 5.757694 28.947681 209 209 209 0
5.665172 5.776254 29.040994 209 209 209 0
5.771415 5.771415 29.016664 209 209 209 0
5.871669 5.760883 28.963713 209 209 209 0
5.983328 5.761724 28.967941 209 209 209 0
6.102626 5.769755 29.008321 209 209 209 0
6.215475 5.771513 29.017158 209 209 209 0
6.310984 5.757389 28.946147 209 209 209 0
6.408682 5.745715 28.887456 209 209 209 0
6.522867 5.748967 28.903807 209 209 209 0
6.649122 5.762573 28.972211 209 209 209 0
6.758983 5.761756 28.968105 209 209 209 0
6.868956 5.761060 28.964604 209 209 209 0
6.986902 5.766967 28.994304 209 209 209 0
7.096676 5.766049 28.989690 209 209 209 0
7.200886 5.760709 28.962841 209 209 209 0
7.314256 5.762747 28.973087 209 209 209 0
7.428574 5.765461 28.986730 209 209 209 0
7.542145 5.767522 28.997096 209 209 209 0
7.662074 5.774317 29.031255 210 210 210 0
7.786046 5.783920 29.079536 209 209 209 0
7.890025 5.778610 29.052839 209 209 209 0
7.986273 5.767864 28.998811 210 210 210 0
8.089313 5.762251 28.970591 210 210 210 0
8.213098 5.771366 29.016421 210 210 210 0
8.321856 5.769820 29.008647 210 210 210 0
8.423051 5.763140 28.975064 210 210 210 0
8.518877 5.753008 28.924122 210 210 210 0
8.636400 5.757600 28.947210 209 209 209 0
8.766940 5.770644 29.012789 210 210 210 0
-7.894352 5.230008 25.798534 200 200 200 0
-7.792226 5.227696 25.787131 201 201 201 0
-7.791821 5.294443 26.116378 201 201 201 0
-7.781025 5.355771 26.418896 202 202 202 0
-7.690808 5.363327 26.456168 201 201 201 0
-7.557185 5.340411 26.343130 201 201 201 0
-7.458375 5.341809 26.350026 201 201 201 0
-7.382990 5.360253 26.441008 201 201 201 0
-7.386148 5.437026 26.819711 201 201 201 0
-7.319878 5.464134 26.953429 201 201 201 0
-7.198244 5.450099 26.884199 201 201 201 0
-7.053692 5.418053 26.726121 202 202 202 0
-7.036922 5.484660 27.054678 201 201 201 0
-7.048417 5.575613 27.503333 202 202 202 0
-6.908302 5.547576 27.365032 201 201 201 0
-6.757919 5.510303 27.181171 202 202 202 0
-6.614379 5.477533 27.019523 202 202 202 0
-6.564202 5.522265 27.240178 202 202 202 0
-6.581168 5.625838 27.751079 203 203 203 0
-6.434227 5.590394 27.576245 202 202 202 0
-6.267537 5.536324 27.309529 202 202 202 0
-6.134696 5.510828 27.183763 202 202 202 0
-6.049547 5.528034 27.268635 202 202 202 0
-6.038409 5.614661 27.695946 202 202 202 0
-5.926191 5.608716 27.666623 203 203 203 0
-5.774328 5.564352 27.447786 203 203 203 0
-5.646271 5.541711 27.336099 204 204 204 0
-5.582464 5.582464 27.537128 203 203 203 0
-5.525832 5.632098 27.781961 203 203 203 0
-5.432235 5.645264 27.846907 203 203 203 0
-5.296398 5.614182 27.693583 203 203 203 0
-5.187344 5.610801 27.676908 204 204 204 0
-5.112567 5.645126 27.846225 203 203 203 0
-5.056029 5.701479 28.124204 203 203 203 0
-4.945164 5.697689 28.105510 204 204 204 0
-4.806696 5.661220 27.925612 203 203 203 0
-4.687181 5.645923 27.850154 203 203 203 0
-4.614176 5.687240 28.053963 204 204 204 0
-4.539572 5.728507 28.257526 204 204 204 0
-4.407954 5.698086 28.107468 205 205 205 0
-4.279587 5.670453 27.971160 204 204 204 0
-4.165895 5.661344 27.926227 204 204 204 0
-4.070680 5.677528 28.006055 205 205 205 0
-3.987376 5.711646 28.174356 204 204 204 0
-3.879842 5.711990 28.176049 204 204 204 0
-3.764150 5.699999 28.116903 204 204 204 0
-3.661041 5.706917 28.151026 205 205 205 0
-3.561262 5.719603 28.213606 204 204 204 0
-3.457860 5.727080 28.250488 205 205 205 0
-3.350486 5.728250 28.256258 205 205 205 0
-3.248905 5.739732 28.312895 205 205 205 0
-3.140277 5.739127 28.309914 205 205 205 0
-3.025505 5.726848 28.249342 205 205 205 0
-2.923384 5.738494 28.306791 205 205 205 0
-2.830370 5.769601 28.460232 206 206 206 0
-2.726740 5.780689 28.514931 206 206 206 0
-2.614500 5.773689 28.480397 205 205 205 0
-2.488695 5.734820 28.288666 205 205 205 0
-2.069678 4.986043 24.595106 205 205 205 0
-2.283004 5.761866 28.422081 205 205 205 0
-2.178075 5.771899 28.471571 205 205 205 0
-2.063205 5.755256 28.389472 205 205 205 0
-1.949459 5.740072 28.314576 205 205 205 0
-1.847547 5.759998 28.412866 206 206 206 0
-1.747932 5.790026 28.560987 206 206 206 0
-1.637368 5.785366 28.538001 206 206 206 0
-1.523653 5.768116 28.452908 206 206 206 0
-1.414300 5.765992 28.442432 206 206 206 0
-1.309416 5.783256 28.527590 206 206 206 0
-1.204807 5.804981 28.634755 206 206 206 0
-1.094674 5.801773 28.618930 206 206 206 0
-0.981672 5.780960 28.516266 206 206 206 0
-0.870559 5.767456 28.449653 206 206 206 0
-0.767581 5.811686 28.667829 206 206 206 0
-0.660644 5.835687 28.786225 206 206 206 0
-0.548576 5.814905 28.683708 206 206 206 0
-0.437332 5.794648 28.583784 206 206 206 0
-0.328628 5.805762 28.638610 206 206 206 0
-0.220449 5.841907 28.816907 207 207 207 0
-0.109948 5.827230 28.744508 206 206 206 0
0.000000 5.807966 28.649479 207 207 207 0
0.109099 5.782261 28.522682 207 207 207 0
0.218398 5.787549 28.548767 207 207 207 0
0.329529 5.821687 28.717165 207 207 207 0
0.439621 5.824983 28.733421 206 206 206 0
0.547238 5.800718 28.613726 208 208 208 0
0.656642 5.800341 28.611869 206 206 206 0
0.768576 5.819216 28.704973 207 207 207 0
0.879138 5.824292 28.730012 207 207 207 0
0.989303 5.825896 28.737924 207 207 207 0
1.099138 5.825431 28.735633 207 207 207 0
1.210083 5.830398 28.760133 207 207 207 0
1.321710 5.837551 28.795415 208 208 208 0
1.433865 5.845757 28.835895 207 207 207 0
1.545489 5.850780 28.860672 207 207 207 0
1.653065 5.840830 28.811590 208 208 208 0
1.761698 5.835626 28.785922 207 207 207 0
1.873056 5.839528 28.805172 207 207 207 0
1.987690 5.852644 28.869869 208 208 208 0
2.091708 5.834764 28.781671 207 207 207 0
2.199646 5.829061 28.753538 207 207 207 0
2.308544 5.826326 28.740047 208 208 208 0
2.421419 5.833419 28.775035 208 208 208 0
2.536057 5.843958 28.827024 208 208 208 0
2.646241 5.843783 28.826158 208 208 208 0
2.758826 5.848712 28.850472 208 208 208 0
2.863956 5.838065 28.797953 209 209 209 0
2.976131 5.842036 28.817540 208 208 208 0
3.093498 5.855550 28.884203 208 208 208 0
3.207935 5.862777 28.919854 208 208 208 0
3.313806 5.854391 28.878483 209 209 209 0
3.418038 5.843743 28.825962 208 208 208 0
3.543660 5.869187 28.951472 209 209 209 0
3.662246 5.881790 29.013638 208 208 208 0
3.762435 5.864972 28.930680 209 209 209 0
3.863831 5.850945 28.861485 208 208 208 0
3.975750 5.853187 28.872549 209 209 209 0
4.109597 5.886720 29.037957 208 208 208 0
4.207064 5.867748 28.944371 209 209 209 0
4.304937 5.850298 28.858298 209 209 209 0
4.409196 5.842185 28.818275 208 208 208 0
4.529832 5.855637 28.884630 208 208 208 0
4.652834 5.871433 28.962552 209 209 209 0
4.756104 5.862175 28.916881 209 209 209 0
4.858653 5.852468 28.868999 209 209 209 0
4.971823 5.855702 28.884954 208 208 208 0
5.095158 5.870508 28.957990 208 208 208 0
5.204649 5.869072 28.950906 209 209 209 0
5.312590 5.865984 28.935673 209 209 209 0
5.415929 5.858046 28.896513 209 209 209 0
5.537693 5.869955 28.955258 209 209 209 0
5.664677 5.886822 29.038459 209 209 209 0
5.771592 5.882584 29.017556 209 209 209 0
5.871820 5.871820 28.964461 209 209 209 0
5.981354 5.870588 28.958383 209 209 209 0
6.098976 5.877195 28.990973 209 209 209 0
6.218938 5.885781 29.033326 209 209 209 0
6.309035 5.866296 28.937208 209 209 209 0
6.407915 5.855509 28.884000 209 209 209 0
6.524222 5.860742 28.909813 209 209 209 0
6.648782 5.873090 28.970726 209 209 209 0
6.761896 5.875090 28.980589 209 209 209 0
6.868657 5.871594 28.963343 210 210 210 0
6.984889 5.876177 28.985950 209 209 209 0
7.096636 5.876902 28.989528 210 210 210 0
7.202729 5.872994 28.970251 210 210 210 0
7.317649 5.876294 28.986527 209 209 209 0
7.427529 5.875508 28.982651 209 209 209 0
7.543424 5.879433 29.002015 209 209 209 0
7.662552 5.885728 29.033065 210 210 210 0
7.784766 5.894180 29.074757 209 209 209 0
7.891197 5.890612 29.057155 209 209 209 0
7.987231 5.879489 29.002290 209 209 209 0
8.088915 5.872774 28.969165 209 209 209 0
8.211626 5.881299 29.011219 209 209 209 0
8.322805 5.881449 29.011957 210 210 210 0
8.425781 5.875873 28.984453 210 210 210 0
8.518548 5.863416 28.923004 210 210 210 0
8.634591 5.867094 28.941147 209 209 209 0
8.768587 5.882723 29.018240 210 210 210 0
-7.899347 5.332059 25.814859 201 201 201 0
-7.789270 5.324311 25.777348 201 201 201 0
-7.792983 5.395142 26.120271 201 201 201 0
-7.760895 5.442706 26.350548 201 201 201 0
-7.684128 5.459775 26.433189 201 201 201 0
-7.564589 5.446504 26.368937 201 201 201 0
-7.451219 5.437376 26.324746 202 202 202 0
-7.371232 5.452692 26.398898 202 202 202 0
-7.363436 5.522577 26.737242 201 201 201 0
-7.327020 5.572663 26.979730 202 202 202 0
-7.203819 5.557232 26.905018 201 201 201 0
-7.054127 5.520621 26.727772 202 202 202 0
-7.036247 5.587608 27.052083 202 202 202 0
-7.035958 5.670772 27.454719 202 202 202 0
-6.907961 5.651968 27.363680 202 202 202 0
-6.769280 5.623710 27.226868 202 202 202 0
-6.610000 5.577188 27.001636 202 202 202 0
-6.556470 5.619831 27.208092 202 202 202 0
-6.581441 5.732223 27.752227 202 202 202 0
-6.437939 5.699159 27.592153 203 203 203 0
-6.266299 5.639669 27.304135 202 202 202 0
-6.136985 5.616901 27.193905 203 203 203 0
-6.054084 5.636561 27.289089 203 203 203 0
-6.034603 5.716992 27.678491 203 203 203 0
-5.926509 5.714848 27.668107 202 202 202 0
-5.774493 5.669502 27.448571 202 202 202 0
-5.649701 5.649701 27.352704 203 203 203 0
-5.580813 5.686111 27.528981 203 203 203 0
-5.517678 5.729896 27.740966 202 202 202 0
-5.429526 5.748910 27.833018 203 203 203 0
-5.305103 5.729512 27.739103 204 204 204 0
-5.189899 5.719480 27.690537 203 203 203 0
-5.111985 5.750983 27.843055 203 203 203 0
-5.052030 5.804460 28.101962 204 204 204 0
-4.942699 5.802299 28.091498 203 203 203 0
-4.807675 5.769210 27.931301 204 204 204 0
-4.688410 5.753958 27.857459 203 203 203 0
-4.614974 5.795549 28.058819 204 204 204 0
-4.535255 5.831042 28.230658 204 204 204 0
-4.407540 5.805052 28.104829 204 204 204 0
-4.283101 5.782187 27.994127 204 204 204 0
-4.164720 5.766536 27.918352 204 204 204 0
-4.068726 5.781873 27.992609 205 205 205 0
-3.987663 5.819832 28.176382 204 204 204 0
-3.879730 5.819595 28.175234 204 204 204 0
-3.762822 5.805497 28.106981 205 205 205 0
-3.663541 5.818565 28.170250 204 204 204 0
-3.565404 5.834297 28.246415 205 205 205 0
-3.457676 5.834828 28.248988 204 204 204 0
-3.347566 5.831244 28.231633 204 204 204 0
-3.245111 5.841199 28.279831 204 204 204 0
-3.140645 5.848098 28.313234 205 205 205 0
-3.026685 5.837178 28.260362 205 205 205 0
-2.922782 5.845563 28.300959 205 205 205 0
-2.830821 5.879396 28.464761 205 205 205 0
-2.726640 5.889543 28.513886 205 205 205 0
-2.614083 5.881688 28.475854 204 204 204 0
-2.490667 5.847652 28.311075 205 205 205 0
-2.058281 5.052144 24.459666 205 205 205 0
-2.288502 5.884719 28.490531 205 205 205 0
-2.178574 5.882149 28.478089 205 205 205 0
-2.062853 5.862845 28.384629 206 206 206 0
-1.949400 5.848200 28.313724 205 205 205 0
-1.846277 5.864645 28.393344 205 205 205 0
-1.747191 5.896769 28.548870 206 206 206 0
-1.638550 5.898782 28.558614 206 206 206 0
-1.523801 5.877519 28.455673 205 205 205 0
-1.413884 5.873056 28.434064 206 206 206 0
-1.309415 5.892368 28.527561 206 206 206 0
-1.205385 5.917345 28.648486 206 206 206 0
-1.094777 5.911798 28.621631 206 206 206 0
-0.981352 5.888112 28.506959 206 206 206 0
-0.870382 5.875078 28.443854 206 206 206 0
-0.767937 5.924084 28.681112 206 206 206 0
-0.660674 5.946066 28.787539 207 207 207 0
-0.548842 5.927492 28.697615 206 206 206 0
-0.437373 5.904542 28.586501 206 206 206 0
-0.328469 5.912439 28.624733 206 206 206 0
-0.220418 5.951273 28.812749 206 206 206 0
-0.109960 5.937816 28.747595 207 207 207 0
0.000000 5.912041 28.622807 207 207 207 0
0.109081 5.890364 28.517861 206 206 206 0
0.218475 5.898821 28.558806 207 207 207 0
0.329497 5.930938 28.714296 206 206 206 0
0.439691 5.935824 28.737951 207 207 207 0
0.546833 5.905798 28.592585 207 207 207 0
0.656695 5.910254 28.614155 206 206 206 0
0.768749 5.930350 28.711452 207 207 207 0
0.879144 5.934219 28.730183 207 207 207 0
0.989281 5.935684 28.737273 206 206 206 0
1.098830 5.933685 28.727594 207 207 207 0
1.209507 5.937578 28.746444 207 207 207 0
1.321702 5.947659 28.795249 207 207 207 0
1.433733 5.955506 28.833241 208 208 208 0
1.544123 5.955903 28.835162 208 208 208 0
1.653620 5.953033 28.821269 207 207 207 0
1.761648 5.945562 28.785099 207 207 207 0
1.873710 5.951783 28.815219 208 208 208 0
1.988223 5.964669 28.877602 207 207 207 0
2.092778 5.947895 28.796393 208 208 208 0
2.198999 5.937298 28.745091 207 207 207 0
2.309276 5.938138 28.749157 208 208 208 0
2.421584 5.943889 28.776998 208 208 208 0
2.535203 5.952216 28.817312 208 208 208 0
2.647912 5.957802 28.844358 208 208 208 0
2.758780 5.958964 28.849985 207 207 207 0
2.865217 5.950836 28.810633 208 208 208 0
2.976387 5.952774 28.820017 208 208 208 0
3.091768 5.962696 28.868053 207 207 207 0
3.207161 5.971954 28.912875 209 209 209 0
3.314509 5.966116 28.884611 208 208 208 0
3.419641 5.956793 28.839473 208 208 208 0
3.543039 5.978879 28.946400 208 208 208 0
3.661794 5.992026 29.010051 208 208 208 0
3.762385 5.975553 28.930300 208 208 208 0
3.861772 5.958163 28.846106 209 209 209 0
3.976347 5.964521 28.876885 208 208 208 0
4.109148 5.997135 29.034783 208 208 208 0
4.206178 5.977200 28.938272 209 209 209 0
4.304499 5.960076 28.855367 208 208 208 0
4.411669 5.955753 28.834436 208 208 208 0
4.528464 5.964318 28.875904 209 209 209 0
4.654125 5.983875 28.970587 209 209 209 0
4.753117 5.969031 28.898720 209 209 209 0
4.858856 5.963142 28.870210 209 209 209 0
4.972547 5.967057 28.889165 209 209 209 0
5.095475 5.981644 28.959787 208 208 208 0
5.205010 5.980224 28.952911 209 209 209 0
5.310218 5.973995 28.922755 209 209 209 0
5.416245 5.968923 28.898198 209 209 209 0
5.536509 5.979430 28.949067 208 208 208 0
5.666165 5.999469 29.046085 209 209 209 0
5.773180 5.995226 29.025542 209 209 209 0
5.870966 5.981739 28.960246 209 209 209 0
5.981304 5.981304 28.958139 209 209 209 0
6.102058 5.991112 29.005625 209 209 209 0
6.215111 5.993142 29.015455 209 209 209 0
6.311427 5.979246 28.948179 209 209 209 0
6.406792 5.964944 28.878934 209 209 209 0
6.523747 5.970887 28.907709 209 209 209 0
6.648677 5.983809 28.970268 209 209 209 0
6.760812 5.984981 28.975942 209 209 209 0
6.867195 5.981105 28.957178 209 209 209 0
6.985028 5.987167 28.986524 209 209 209 0
7.096877 5.987990 28.990509 210 210 210 0
7.200249 5.981745 28.960277 209 209 209 0
7.313619 5.983870 28.970565 210 210 210 0
7.426653 5.985661 28.979235 209 209 209 0
7.541991 5.989228 28.996506 210 210 210 0
7.662891 5.997045 29.034351 210 210 210 0
7.782529 6.003665 29.066401 209 209 209 0
7.888771 5.999910 29.048221 210 210 210 0
7.989281 5.991961 29.009736 210 210 210 0
8.089176 5.983774 28.970100 209 209 209 0
8.209960 5.991052 29.005335 210 210 210 0
8.324303 5.993498 29.017179 210 210 210 0
8.423550 5.985154 28.976780 210 210 210 0
8.520038 5.975092 28.928065 210 210 210 0
8.633668 5.977155 28.938052 210 210 210 0
8.766370 5.992202 29.010905 209 209 209 0
-7.868363 5.409500 25.713606 201 201 201 0
-7.774624 5.412713 25.728878 201 201 201 0
-7.803144 5.502217 26.154329 201 201 201 0
-7.765538 5.546813 26.366313 201 201 201 0
-7.674306 5.553774 26.399402 201 201 201 0
-7.555551 5.540737 26.337432 200 200 200 0
-7.452590 5.539087 26.329589 201 201 201 0
-7.360927 5.545904 26.361992 201 201 201 0
-7.382054 5.639069 26.804845 201 201 201 0
-7.323125 5.672843 26.965386 201 201 201 0
-7.207249 5.662839 26.917831 202 202 202 0
-7.060164 5.627667 26.750645 202 202 202 0
-7.049416 5.701734 27.102716 202 202 202 0
-7.048550 5.786123 27.503853 202 202 202 0
-6.914969 5.762474 27.391439 202 202 202 0
-6.768022 5.726788 27.221808 202 202 202 0
-6.610926 5.681265 27.005417 202 202 202 0
-6.553818 5.721588 27.197089 201 201 201 0
-6.578191 5.835492 27.738524 203 203 203 0
-6.435408 5.802417 27.581304 202 202 202 0
-6.260574 5.738860 27.279191 202 202 202 0
-6.134373 5.718483 27.182333 203 203 203 0
-6.045966 5.733244 27.252495 202 202 202 0
-6.030634 5.819033 27.660286 203 203 203 0
-5.924151 5.818362 27.657099 203 203 203 0
-5.768059 5.768059 27.417988 203 203 203 0
-5.650555 5.755195 27.356841 203 203 203 0
-5.580011 5.790577 27.525026 202 202 202 0
-5.517309 5.835616 27.739111 203 203 203 0
-5.430649 5.856582 27.838776 203 203 203 0
-5.303888 5.834277 27.732749 203 203 203 0
-5.191826 5.827560 27.700820 204 204 204 0
-5.108183 5.853127 27.822349 203 203 203 0
-5.054918 5.915329 28.118023 204 204 204 0
-4.938867 5.905167 28.069716 204 204 204 0
-4.807074 5.875313 27.927811 204 204 204 0
-4.694817 5.868521 27.895525 204 204 204 0
-4.617865 5.906572 28.076395 204 204 204 0
-4.539251 5.944258 28.255533 204 204 204 0
-4.408139 5.913358 28.108653 204 204 204 0
-4.283486 5.889793 27.996639 204 204 204 0
-4.168559 5.878737 27.944085 204 204 204 0
-4.071750 5.893322 28.013415 204 204 204 0
-3.990097 5.931225 28.193582 204 204 204 0
-3.878285 5.925158 28.164742 204 204 204 0
-3.760104 5.908734 28.086676 204 204 204 0
-3.661185 5.922506 28.152137 205 205 205 0
-3.564152 5.940253 28.236495 204 204 204 0
-3.462347 5.950909 28.287147 204 204 204 0
-3.345835 5.936159 28.217035 205 205 205 0
-3.245465 5.950019 28.282921 205 205 205 0
-3.139915 5.955012 28.306651 204 204 204 0
-3.026828 5.945555 28.261700 205 205 205 0
-2.923273 5.954815 28.305717 205 205 205 0
-2.829790 5.986095 28.454402 205 205 205 0
-2.726986 5.999368 28.517495 205 205 205 0
-2.613820 5.990004 28.472983 205 205 205 0
-2.489225 5.952494 28.294686 205 205 205 0
-2.060174 5.150436 24.482168 205 205 205 0
-2.285521 5.985889 28.453426 205 205 205 0
-2.178720 5.991479 28.479995 205 205 205 0
-2.062917 5.971602 28.385509 206 206 206 0
-1.949320 5.956256 28.312567 206 206 206 0
-1.846857 5.975127 28.402266 206 206 206 0
-1.747488 6.006991 28.553729 205 205 205 0
-1.637372 6.003697 28.538075 206 206 206 0
-1.524224 5.988023 28.463568 206 206 206 0
-1.414610 5.984890 28.448676 205 205 205 0
-1.308750 5.998435 28.513062 206 206 206 0
-1.204688 6.023440 28.631920 206 206 206 0
-1.094714 6.020929 28.619983 206 206 206 0
-0.980713 5.993248 28.488405 206 206 206 0
-0.870603 5.985398 28.451089 206 206 206 0
-0.767002 6.026443 28.646192 206 206 206 0
-0.660723 6.056625 28.789664 207 207 207 0
-0.548633 6.034963 28.686691 207 207 207 0
-0.437129 6.010525 28.570531 206 206 206 0
-0.328413 6.020903 28.619859 206 206 206 0
-0.220402 6.061067 28.810775 206 206 206 0
-0.109951 6.047287 28.745272 207 207 207 0
0.000000 6.024014 28.634649 207 207 207 0
0.109107 6.000887 28.524718 207 207 207 0
0.218430 6.006827 28.552950 207 207 207 0
0.329565 6.042033 28.720301 207 207 207 0
0.439309 6.040494 28.712982 207 207 207 0
0.547245 6.019692 28.614105 207 207 207 0
0.656529 6.018183 28.606931 207 207 207 0
0.768750 6.040177 28.711476 206 206 206 0
0.879626 6.047426 28.745933 207 207 207 0
0.988622 6.041579 28.718143 207 207 207 0
1.098722 6.042968 28.724746 207 207 207 0
1.209738 6.048692 28.751952 207 207 207 0
1.322282 6.060457 28.807876 207 207 207 0
1.433683 6.065582 28.832238 207 207 207 0
1.544029 6.065826 28.833400 207 207 207 0
1.653641 6.063351 28.821631 208 208 208 0
1.762202 6.057569 28.794149 207 207 207 0
1.874085 6.063216 28.820989 208 208 208 0
1.987674 6.073447 28.869625 208 208 208 0
2.093272 6.059471 28.803191 208 208 208 0
2.199849 6.049586 28.756201 208 208 208 0
2.309014 6.047418 28.745896 208 208 208 0
2.420697 6.051742 28.766452 207 207 207 0
2.535788 6.063840 28.823959 208 208 208 0
2.647474 6.067129 28.839590 208 208 208 0
2.759976 6.071947 28.862491 208 208 208 0
2.864704 6.059952 28.805474 207 207 207 0
2.976292 6.062817 28.819094 207 207 207 0
3.092648 6.074844 28.876266 208 208 208 0
3.206110 6.080553 28.903401 208 208 208 0
3.313592 6.074919 28.876621 208 208 208 0
3.420147 6.068003 28.843748 208 208 208 0
3.544112 6.091442 28.955163 208 208 208 0
3.662486 6.104143 29.015533 208 208 208 0
3.762501 6.086399 28.931190 208 208 208 0
3.862197 6.069167 28.849277 208 208 208 0
3.976746 6.075584 28.879782 208 208 208 0
4.111855 6.112217 29.053915 208 208 208 0
4.207622 6.089980 28.948211 208 208 208 0
4.305206 6.071444 28.860104 209 209 209 0
4.409181 6.062625 28.818179 208 208 208 0
4.530527 6.077537 28.889064 209 209 209 0
4.652066 6.091991 28.957772 208 208 208 0
4.755569 6.082705 28.913629 209 209 209 0
4.859314 6.074142 28.872927 209 209 209 0
4.972962 6.078065 28.891572 209 209 209 0
5.094238 6.090936 28.952757 209 209 209 0
5.205377 6.091398 28.954953 209 209 209 0
5.311165 6.085710 28.927916 208 208 208 0
5.416825 6.080110 28.901295 209 209 209 0
5.537617 6.091379 28.954863 209 209 209 0
5.664080 6.108322 29.035397 208 208 208 0
5.770930 6.103868 29.014228 209 209 209 0
5.871751 6.093326 28.964118 209 209 209 0
5.980528 6.091278 28.954382 209 209 209 0
6.100907 6.100907 29.000153 209 209 209 0
6.213330 6.102378 29.007142 209 209 209 0
6.309176 6.087802 28.937857 209 209 209 0
6.407672 6.076241 28.882902 210 210 210 0
6.521163 6.079050 28.896258 209 209 209 0
6.650417 6.096216 28.977852 209 209 209 0
6.758779 6.093981 28.967229 209 209 209 0
6.866519 6.091267 28.954329 209 209 209 0
6.983433 6.096648 28.979909 209 209 209 0
7.093347 6.095845 28.976091 210 210 210 0
7.199165 6.091601 28.955916 209 209 209 0
7.312853 6.094044 28.967528 209 209 209 0
7.424544 6.094775 28.971005 210 210 210 0
7.541722 6.099922 28.995470 209 209 209 0
7.662429 6.107733 29.032599 209 209 209 0
7.784796 6.116625 29.074868 209 209 209 0
7.889372 6.111485 29.050436 209 209 209 0
7.989716 6.103256 29.011316 210 210 210 0
8.091786 6.096551 28.979448 209 209 209 0
8.213498 6.104627 29.017835 209 209 209 0
8.326435 6.106052 29.024609 209 209 209 0
8.422400 6.095158 28.972823 210 210 210 0
8.516224 6.083017 28.915114 210 210 210 0
8.633140 6.087470 28.936282 209 209 209 0
8.766773 6.103449 29.012237 210 210 210 0
-7.895907 5.527135 25.803617 201 201 201 0
-7.773651 5.510436 25.725658 201 201 201 0
-7.800769 5.600552 26.146367 201 201 201 0
-7.765654 5.647749 26.366707 201 201 201 0
-7.673466 5.654133 26.396511 201 201 201 0
-7.564137 5.647889 26.367363 201 201 201 0
-7.453010 5.640116 26.331072 201 201 201 0
-7.367921 5.652104 26.387040 201 201 201 0
-7.363352 5.727051 26.736934 201 201 201 0
-7.318968 5.772707 26.950081 201 201 201 0
-7.194061 5.755249 26.868574 202 202 202 0
-7.054988 5.725788 26.731034 201 201 201 0
-7.039638 5.797349 27.065120 202 202 202 0
-7.035061 5.880051 27.451218 201 201 201 0
-6.916912 5.868895 27.399138 201 201 201 0
-6.757488 5.821836 27.179441 202 202 202 0
-6.617867 5.790634 27.033772 203 203 203 0
-6.548866 5.821214 27.176538 202 202 202 0
-6.582076 5.945101 27.754908 203 203 203 0
-6.429937 5.902893 27.557858 203 203 203 0
-6.264195 5.846582 27.294967 202 202 202 0
-6.130457 5.818739 27.164980 203 203 203 0
-6.049205 5.840612 27.267097 203 203 203 0
-6.027270 5.921528 27.644857 203 203 203 0
-5.927288 5.927288 27.671744 202 202 202 0
-5.766607 5.871454 27.411084 203 203 203 0
-5.645344 5.854430 27.331607 203 203 203 0
-5.580804 5.896698 27.528937 203 203 203 0
-5.519333 5.943897 27.749287 203 203 203 0
-5.430520 5.962924 27.838112 203 203 203 0
-5.302403 5.938692 27.724985 203 203 203 0
-5.184271 5.924881 27.660509 203 203 203 0
-5.107816 5.959118 27.820347 203 203 203 0
-5.054161 6.021979 28.113814 204 204 204 0
-4.940862 6.014962 28.081056 203 203 203 0
-4.803864 5.978141 27.909156 204 204 204 0
-4.691469 5.970961 27.875634 203 203 203 0
-4.619005 6.015448 28.083326 204 204 204 0
-4.536640 6.048854 28.239281 204 204 204 0
-4.409265 6.022411 28.115831 204 204 204 0
-4.282219 5.995106 27.988358 204 204 204 0
-4.166692 5.982942 27.931568 204 204 204 0
-4.071208 5.999676 28.009690 203 203 203 0
-3.986749 6.033998 28.169926 204 204 204 0
-3.878480 6.033192 28.166161 204 204 204 0
-3.761256 6.018009 28.095281 204 204 204 0
-3.661423 6.030578 28.153960 204 204 204 0
-3.561401 6.043590 28.214704 205 205 205 0
-3.459626 6.054346 28.264920 205 205 205 0
-3.350645 6.052777 28.257596 205 205 205 0
-3.250780 6.068122 28.329235 205 205 205 0
-3.139283 6.062064 28.300952 205 205 205 0
-3.027097 6.054194 28.264211 204 204 204 0
-2.924560 6.065753 28.318175 205 205 205 0
-2.828767 6.092729 28.444115 205 205 205 0
-2.727742 6.110142 28.525407 204 204 204 0
-2.613928 6.099166 28.474163 205 205 205 0
-2.490619 6.064117 28.310535 206 206 206 0
-2.059284 5.241814 24.471586 205 205 205 0
-2.283430 6.089146 28.427387 205 205 205 0
-2.178888 6.100887 28.482201 205 205 205 0
-2.063831 6.082870 28.398084 205 205 205 0
-1.949464 6.065000 28.314661 205 205 205 0
-1.847082 6.084505 28.405717 205 205 205 0
-1.747373 6.115806 28.551850 206 206 206 0
-1.638322 6.116403 28.554635 206 206 206 0
-1.523294 6.093177 28.446205 205 205 205 0
-1.414406 6.092825 28.444563 205 205 205 0
-1.309163 6.109425 28.522060 205 205 205 0
-1.203899 6.128939 28.613162 206 206 206 0
-1.094484 6.129113 28.613973 206 206 206 0
-0.981251 6.105559 28.504011 206 206 206 0
-0.870535 6.093744 28.448850 206 206 206 0
-0.767777 6.142219 28.675157 206 206 206 0
-0.660759 6.167083 28.791238 206 206 206 0
-0.548826 6.146852 28.696786 206 206 206 0
-0.437321 6.122497 28.583087 207 207 207 0
-0.328398 6.130099 28.618575 206 206 206 0
-0.220283 6.167924 28.795163 206 206 206 0
-0.110030 6.161653 28.765885 206 206 206 0
0.000000 6.133877 28.636212 207 207 207 0
0.109083 6.108672 28.518542 206 206 206 0
0.218444 6.116438 28.554802 207 207 207 0
0.329577 6.152105 28.721312 207 207 207 0
0.439475 6.152652 28.723864 207 207 207 0
0.546959 6.125941 28.599163 207 207 207 0
0.656346 6.125892 28.598935 207 207 207 0
0.768870 6.150964 28.715985 207 207 207 0
0.878917 6.152419 28.722779 207 207 207 0
0.988982 6.153669 28.728612 207 207 207 0
1.098507 6.151640 28.719140 207 207 207 0
1.209575 6.157835 28.748063 207 207 207 0
1.321715 6.168003 28.795532 207 207 207 0
1.433551 6.175297 28.829583 208 208 208 0
1.544019 6.176075 28.833217 208 208 208 0
1.653622 6.173524 28.821306 207 207 207 0
1.761629 6.165702 28.784792 207 207 207 0
1.873012 6.169921 28.804485 208 208 208 0
1.987026 6.181857 28.860211 207 207 207 0
2.092493 6.167348 28.792475 208 208 208 0
2.199615 6.158923 28.753141 207 207 207 0
2.309006 6.157348 28.745790 208 208 208 0
2.420949 6.162417 28.769452 208 208 208 0
2.535809 6.174143 28.824195 207 207 207 0
2.646676 6.175577 28.830893 208 208 208 0
2.759463 6.181196 28.857126 208 208 208 0
2.864895 6.170543 28.807391 207 207 207 0
2.977174 6.174880 28.827639 208 208 208 0
3.093347 6.186694 28.882791 208 208 208 0
3.207180 6.193175 28.913047 208 208 208 0
3.314045 6.186217 28.880567 208 208 208 0
3.419683 6.177492 28.839830 208 208 208 0
3.543821 6.201687 28.952788 208 208 208 0
3.664163 6.217974 29.028822 208 208 208 0
3.763758 6.199130 28.940851 208 208 208 0
3.864272 6.182835 28.864774 208 208 208 0
3.977969 6.187952 28.888665 208 208 208 0
4.111372 6.222618 29.050503 209 209 209 0
4.208311 6.201722 28.952951 208 208 208 0
4.304738 6.181162 28.856966 208 208 208 0
4.408297 6.171616 28.812399 208 208 208 0
4.528697 6.185537 28.877389 209 209 209 0
4.651383 6.201844 28.953521 209 209 209 0
4.754481 6.191882 28.907010 208 208 208 0
4.856552 6.181066 28.856516 209 209 209 0
4.971309 6.186518 28.881969 208 208 208 0
5.094154 6.201579 28.952282 209 209 209 0
5.205494 6.202291 28.955606 209 209 209 0
5.313010 6.198512 28.937965 209 209 209 0
5.417973 6.191969 28.907419 209 209 209 0
5.538091 6.202661 28.957336 208 208 208 0
5.666183 6.221691 29.046175 209 209 209 0
5.770759 6.214664 29.013370 208 208 208 0
5.872519 6.204926 28.967907 209 209 209 0
5.979268 6.200723 28.948285 209 209 209 0
6.101635 6.212574 29.003612 209 209 209 0
6.217450 6.217450 29.026375 209 209 209 0
6.309255 6.198566 28.938219 209 209 209 0
6.408421 6.187441 28.886280 209 209 209 0
6.522984 6.191307 28.904326 209 209 209 0
6.647958 6.204761 28.967138 209 209 209 0
6.759872 6.205784 28.971914 209 209 209 0
6.866194 6.201723 28.952956 209 209 209 0
6.984850 6.208756 28.985788 209 209 209 0
7.092692 6.206105 28.973415 209 209 209 0
7.199963 6.203045 28.959128 209 209 209 0
7.315034 6.206695 28.976169 209 209 209 0
7.427682 6.208212 28.983248 210 210 210 0
7.542211 6.211232 28.997349 209 209 209 0
7.662604 6.218925 29.033262 209 209 209 0
7.786702 6.229362 29.081988 209 209 209 0
7.889974 6.223078 29.052653 210 210 210 0
7.986473 6.211702 28.999541 210 210 210 0
8.092814 6.208186 28.983127 209 209 209 0
8.212034 6.214512 29.012663 210 210 210 0
8.323664 6.215003 29.014952 210 210 210 0
8.423338 6.206670 28.976051 210 210 210 0
8.517920 6.194851 28.920872 210 210 210 0
8.633127 6.198143 28.936241 210 210 210 0
8.765468 6.213497 29.007921 209 209 209 0
-7.869377 5.606931 25.716920 201 201 201 0
-7.788471 5.619530 25.774703 201 201 201 0
-7.804575 5.703343 26.159124 201 201 201 0
-7.770494 5.752184 26.383138 201 201 201 0
-7.683780 5.762835 26.431992 201 201 201 0
