ply
    format ascii 1.0
    element vertex 25597
    property float x
    property float y
    property float z
    property uchar red
    property uchar green
    property uchar blue
    property uchar alpha
    end_header
6.322192 -4.796146 28.497597 209 209 209 0
6.421110 -4.788625 28.452909 210 210 210 0
6.525476 -4.785349 28.433446 210 210 210 0
6.641455 -4.790557 28.464394 210 210 210 0
6.752852 -4.792346 28.475023 210 210 210 0
6.858127 -4.789803 28.459911 210 210 210 0
6.969982 -4.791863 28.472150 210 210 210 0
7.073313 -4.788089 28.449726 211 211 211 0
7.188000 -4.792000 28.472965 210 210 210 0
7.299389 -4.793629 28.482642 210 210 210 0
7.410881 -4.795276 28.492430 210 210 210 0
7.517502 -4.793769 28.483477 210 210 210 0
7.626490 -4.793794 28.483622 209 209 209 0
7.753253 -4.804833 28.549213 210 210 210 0
7.880546 -4.815889 28.614908 210 210 210 0
7.982287 -4.811242 28.587294 210 210 210 0
8.075287 -4.801522 28.529544 210 210 210 0
8.185427 -4.802117 28.533078 210 210 210 0
8.311835 -4.812115 28.592484 210 210 210 0
8.414053 -4.808030 28.568214 211 211 211 0
8.509815 -4.800408 28.522925 211 211 211 0
8.611025 -4.796014 28.496816 211 211 211 0
-7.782883 -4.183300 25.434258 202 202 202 0
-7.696983 -4.189497 25.471938 201 201 201 0
-7.661441 -4.223615 25.679375 202 202 202 0
-7.627351 -4.259430 25.897125 202 202 202 0
-7.554831 -4.274444 25.988412 201 201 201 0
-7.477265 -4.286965 26.064539 202 202 202 0
-7.365058 -4.279696 26.020342 202 202 202 0
-7.260856 -4.276942 26.003601 202 202 202 0
-7.224604 -4.314694 26.233130 202 202 202 0
-7.207103 -4.364865 26.538169 203 203 203 0
-7.091186 -4.356015 26.484356 202 202 202 0
-6.971782 -4.344734 26.415771 202 202 202 0
-6.878891 -4.349887 26.447103 203 203 203 0
-6.875219 -4.412454 26.827507 202 202 202 0
-6.835473 -4.453414 27.076540 203 203 203 0
-6.673695 -4.414906 26.842413 203 203 203 0
-6.514416 -4.376873 26.611177 203 203 203 0
-6.430853 -4.389313 26.686808 203 203 203 0
-6.427944 -4.458090 27.104970 203 203 203 0
-6.324754 -4.458433 27.107057 203 203 203 0
-6.188526 -4.435110 26.965254 202 202 202 0
-6.030118 -4.394832 26.720363 203 203 203 0
-5.914574 -4.384942 26.660237 204 204 204 0
-5.921737 -4.467276 27.160818 203 203 203 0
-5.850843 -4.492611 27.314859 203 203 203 0
-5.707321 -4.462087 27.129274 203 203 203 0
-5.578406 -4.442064 27.007533 204 204 204 0
-5.482705 -4.448232 27.045037 203 203 203 0
-5.427005 -4.487716 27.285093 204 204 204 0
-5.346970 -4.508230 27.409818 204 204 204 0
-5.230351 -4.498102 27.348243 204 204 204 0
-5.100627 -4.476061 27.214232 204 204 204 0
-5.009835 -4.487977 27.286681 204 204 204 0
-4.958415 -4.536422 27.581225 204 204 204 0
-4.869155 -4.551601 27.673513 204 204 204 0
-4.753824 -4.542543 27.618439 204 204 204 0
-4.618737 -4.513766 27.443477 205 205 205 0
-4.507190 -4.507190 27.403497 205 205 205 0
-4.432243 -4.537773 27.589439 204 204 204 0
-4.348992 -4.561138 27.731500 205 205 205 0
-4.218210 -4.534576 27.570002 205 205 205 0
-4.102136 -4.522868 27.498819 204 204 204 0
-3.993953 -4.519473 27.478176 205 205 205 0
-3.900588 -4.533116 27.561125 205 205 205 0
-3.809308 -4.550007 27.663820 204 204 204 0
-3.702539 -4.548833 27.656684 205 205 205 0
-3.597479 -4.549753 27.662276 206 206 206 0
-3.496387 -4.555898 27.699641 205 205 205 0
-3.394113 -4.560839 27.729680 205 205 205 0
-3.288781 -4.561857 27.735870 205 205 205 0
-3.186169 -4.566842 27.766180 205 205 205 0
-3.087299 -4.577719 27.832311 206 206 206 0
-2.984807 -4.583811 27.869347 205 205 205 0
-2.871150 -4.572573 27.801020 206 206 206 0
-2.775745 -4.590655 27.910960 205 205 205 0
-2.679234 -4.608283 28.018135 205 205 205 0
-2.571307 -4.606925 28.009883 206 206 206 0
-2.459841 -4.598832 27.960676 206 206 206 0
-2.350991 -4.595119 27.938098 206 206 206 0
-2.250973 -4.609136 28.023320 206 206 206 0
-2.143355 -4.608213 28.017714 205 205 205 0
-2.034561 -4.604534 27.995342 207 207 207 0
-1.922802 -4.593361 27.927411 206 206 206 0
-1.810602 -4.579757 27.844703 206 206 206 0
-1.710879 -4.597988 27.955543 206 206 206 0
-1.610157 -4.615782 28.063732 207 207 207 0
-1.502531 -4.614918 28.058475 207 207 207 0
-1.391710 -4.603348 27.988129 206 206 206 0
-1.282753 -4.596533 27.946694 207 207 207 0
-1.178744 -4.607817 28.015305 207 207 207 0
-1.077204 -4.631975 28.162185 207 207 207 0
-0.969214 -4.630689 28.154367 206 206 206 0
-0.857969 -4.611586 28.038216 207 207 207 0
-0.749110 -4.601675 27.977962 206 206 206 0
-0.646459 -4.632959 28.168167 207 207 207 0
-0.541454 -4.656504 28.311319 206 206 206 0
-0.431722 -4.641010 28.217118 208 208 208 0
-0.322698 -4.625339 28.121834 207 207 207 0
-0.215297 -4.628895 28.143457 207 207 207 0
-0.108371 -4.659958 28.332318 207 207 207 0
0.000000 -4.650838 28.276868 207 207 207 0
0.107701 -4.631130 28.157048 207 207 207 0
0.214612 -4.614167 28.053910 208 208 208 0
0.322173 -4.617814 28.076085 207 207 207 0
0.432273 -4.646939 28.253166 207 207 207 0
0.540514 -4.648420 28.262169 208 208 208 0
0.646775 -4.635222 28.181924 208 208 208 0
0.754741 -4.636263 28.188255 207 207 207 0
0.863878 -4.643342 28.231296 207 207 207 0
0.972617 -4.646948 28.253217 208 208 208 0
1.080716 -4.647077 28.254003 208 208 208 0
1.187417 -4.641721 28.221436 208 208 208 0
1.298290 -4.652205 28.285180 208 208 208 0
1.407173 -4.654495 28.299102 208 208 208 0
1.518929 -4.665280 28.364678 208 208 208 0
1.628019 -4.666987 28.375053 208 208 208 0
1.732411 -4.655853 28.307362 208 208 208 0
1.840721 -4.655941 28.307898 208 208 208 0
1.950953 -4.660611 28.336287 208 208 208 0
2.064116 -4.671421 28.402011 208 208 208 0
2.166117 -4.657152 28.315260 209 209 209 0
2.273706 -4.655683 28.306326 209 209 209 0
2.380454 -4.652705 28.288219 208 208 208 0
2.488607 -4.652613 28.287660 209 209 209 0
2.598654 -4.655922 28.307781 209 209 209 0
2.708264 -4.658215 28.321719 208 208 208 0
2.820375 -4.664467 28.359730 209 209 209 0
2.923651 -4.656184 28.309374 209 209 209 0
3.033924 -4.659241 28.327957 208 208 208 0
3.145389 -4.663853 28.356000 209 209 209 0
3.258346 -4.670296 28.395173 209 209 209 0
3.365515 -4.668295 28.383004 208 208 208 0
3.470262 -4.663165 28.351816 209 209 209 0
3.586088 -4.672782 28.410287 209 209 209 0
3.708942 -4.690721 28.519353 209 209 209 0
3.813799 -4.685524 28.487761 210 210 210 0
3.911572 -4.672155 28.406475 209 209 209 0
4.020675 -4.672676 28.409641 209 209 209 0
4.147609 -4.693347 28.535324 209 209 209 0
4.250828 -4.686810 28.495579 209 209 209 0
4.346700 -4.672703 28.409805 209 209 209 0
4.444991 -4.661820 28.343641 210 210 210 0
4.553808 -4.662232 28.346143 210 210 210 0
4.677055 -4.677055 28.436264 209 209 209 0
4.790224 -4.681355 28.462412 209 209 209 0
4.886463 -4.669287 28.389038 210 210 210 0
4.991818 -4.666265 28.370664 209 209 209 0
5.111577 -4.676549 28.433192 209 209 209 0
5.224948 -4.680682 28.458321 209 209 209 0
5.333515 -4.680431 28.456794 210 210 210 0
5.434353 -4.673544 28.414918 210 210 210 0
5.550330 -4.679690 28.452287 209 209 209 0
5.675036 -4.692818 28.532108 210 210 210 0
5.790190 -4.697701 28.561796 210 210 210 0
5.886005 -4.687004 28.496755 210 210 210 0
5.988501 -4.681919 28.465837 209 209 209 0
6.109350 -4.691108 28.521711 210 210 210 0
6.229170 -4.699199 28.570899 209 209 209 0
6.322282 -4.687209 28.498005 209 209 209 0
6.419915 -4.678921 28.447611 209 209 209 0
6.526850 -4.677576 28.439435 210 210 210 0
6.640205 -4.680800 28.459036 210 210 210 0
6.754101 -4.684296 28.480291 210 210 210 0
6.859158 -4.681647 28.464188 210 210 210 0
6.973868 -4.685568 28.488023 210 210 210 0
7.079015 -4.683041 28.472662 210 210 210 0
7.190832 -4.684936 28.484181 210 210 210 0
7.298225 -4.683936 28.478101 210 210 210 0
7.413413 -4.687894 28.502165 210 210 210 0
7.518208 -4.685260 28.486154 210 210 210 0
7.625964 -4.684520 28.481657 210 210 210 0
7.751165 -4.694368 28.541526 210 210 210 0
7.877174 -4.704424 28.602666 210 210 210 0
7.979740 -4.700395 28.578171 211 211 211 0
8.075331 -4.692422 28.529699 210 210 210 0
8.185932 -4.693267 28.534838 211 211 211 0
8.313738 -4.703825 28.599030 211 211 211 0
8.414087 -4.698776 28.568330 210 210 210 0
8.508227 -4.690433 28.517605 210 210 210 0
8.610080 -4.686500 28.493689 211 211 211 0
-7.774825 -4.081783 25.407924 202 202 202 0
-7.697865 -4.092536 25.474858 201 201 201 0
-7.662198 -4.125799 25.681912 202 202 202 0
-7.623091 -4.158050 25.882663 202 202 202 0
-7.549466 -4.172073 25.969954 202 202 202 0
-7.462537 -4.179021 26.013200 201 201 201 0
-7.365306 -4.180309 26.021218 202 202 202 0
-7.274723 -4.185457 26.053266 202 202 202 0
-7.222752 -4.213272 26.226406 202 202 202 0
-7.212664 -4.266646 26.558644 202 202 202 0
-7.110215 -4.266129 26.555423 202 202 202 0
-6.970434 -4.242873 26.410663 203 203 203 0
-6.883920 -4.251833 26.466438 202 202 202 0
-6.876928 -4.310910 26.834175 202 202 202 0
-6.836995 -4.350815 27.082570 202 202 202 0
-6.671441 -4.310777 26.833349 203 203 203 0
-6.516125 -4.276207 26.618158 202 202 202 0
-6.438353 -4.292235 26.717928 202 202 202 0
-6.431153 -4.356588 27.118505 203 203 203 0
-6.329572 -4.358066 27.127704 203 203 203 0
-6.186951 -4.330866 26.958393 203 203 203 0
-6.035343 -4.296346 26.743517 203 203 203 0
-5.911605 -4.280817 26.646856 203 203 203 0
-5.927580 -4.367691 27.187618 203 203 203 0
-5.852386 -4.389290 27.322063 203 203 203 0
-5.707653 -4.358572 27.130853 204 204 204 0
-5.578949 -4.339182 27.010161 203 203 203 0
-5.484316 -4.346062 27.052983 204 204 204 0
-5.432687 -4.387940 27.313663 204 204 204 0
-5.339634 -4.397345 27.372209 204 204 204 0
-5.222583 -4.386970 27.307623 203 203 203 0
-5.098303 -4.369974 27.201829 204 204 204 0
-5.007383 -4.381460 27.273328 204 204 204 0
-4.952692 -4.425810 27.549393 204 204 204 0
-4.870035 -4.446554 27.678517 204 204 204 0
-4.749606 -4.432965 27.593934 204 204 204 0
-4.613508 -4.403803 27.412408 204 204 204 0
-4.504098 -4.399352 27.384699 205 205 205 0
-4.430181 -4.430181 27.576604 205 205 205 0
-4.352368 -4.458524 27.753025 205 205 205 0
-4.220576 -4.431605 27.585465 205 205 205 0
-4.100493 -4.415916 27.487805 205 205 205 0
-3.998888 -4.419823 27.512127 205 205 205 0
-3.900014 -4.427043 27.557067 204 204 204 0
-3.811105 -4.446289 27.676871 204 204 204 0
-3.705757 -4.446908 27.680725 205 205 205 0
-3.595937 -4.442040 27.650421 205 205 205 0
-3.493966 -4.446865 27.680456 205 205 205 0
-3.396114 -4.457400 27.746030 205 205 205 0
-3.288209 -4.454993 27.731046 205 205 205 0
-3.186775 -4.461485 27.771461 206 206 206 0
-3.089937 -4.475082 27.856095 206 206 206 0
-2.986298 -4.479447 27.883267 205 205 205 0
-2.874244 -4.471046 27.830972 205 205 205 0
-2.777689 -4.487036 27.930506 206 206 206 0
-2.681385 -4.504726 28.040623 206 206 206 0
-2.570402 -4.498204 28.000027 205 205 205 0
-2.460061 -4.492285 27.963181 206 206 206 0
-2.350138 -4.486627 27.927964 206 206 206 0
-2.250316 -4.500631 28.015135 206 206 206 0
-2.144072 -4.502551 28.027081 206 206 206 0
-2.033755 -4.495670 27.984249 206 206 206 0
-1.921340 -4.483126 27.906170 206 206 206 0
-1.810457 -4.472894 27.842480 206 206 206 0
-1.712289 -4.494760 27.978585 206 206 206 0
-1.611921 -4.513379 28.094485 206 206 206 0
-1.502434 -4.507301 28.056650 206 206 206 0
-1.392035 -4.497343 27.994668 206 206 206 0
-1.282648 -4.489267 27.944394 206 206 206 0
-1.178495 -4.499710 28.009399 207 207 207 0
-1.076311 -4.520507 28.138857 207 207 207 0
-0.968163 -4.518093 28.123831 207 207 207 0
-0.857769 -4.503289 28.031679 206 206 206 0
-0.749250 -4.495500 27.983192 207 207 207 0
-0.646754 -4.527276 28.180989 207 207 207 0
-0.541158 -4.545724 28.295823 207 207 207 0
-0.431544 -4.531216 28.205513 208 208 208 0
-0.322813 -4.519380 28.131842 207 207 207 0
-0.215489 -4.525265 28.168473 208 208 208 0
-0.108376 -4.551794 28.333606 206 206 206 0
0.000000 -4.542250 28.274201 207 207 207 0
0.107653 -4.521429 28.144595 207 207 207 0
0.214826 -4.511336 28.081766 207 207 207 0
0.322034 -4.508470 28.063929 208 208 208 0
0.432261 -4.538736 28.252326 207 207 207 0
0.540511 -4.540290 28.261998 207 207 207 0
0.646435 -4.525045 28.167101 208 208 208 0
0.754398 -4.526391 28.175480 208 208 208 0
0.863773 -4.534811 28.227890 207 207 207 0
0.972469 -4.538188 28.248916 208 208 208 0
1.080359 -4.537509 28.244690 208 208 208 0
1.187595 -4.534453 28.225664 208 208 208 0
1.296685 -4.538399 28.250226 207 207 207 0
1.406799 -4.545043 28.291586 207 207 207 0
1.519139 -4.557418 28.368617 207 207 207 0
1.628302 -4.559246 28.379993 208 208 208 0
1.734328 -4.552611 28.338692 208 208 208 0
1.842069 -4.550994 28.328628 208 208 208 0
1.950587 -4.551369 28.330959 208 208 208 0
2.064496 -4.563623 28.407240 208 208 208 0
2.167322 -4.551375 28.331002 208 208 208 0
2.272474 -4.544947 28.290987 208 208 208 0
2.380301 -4.544211 28.286405 208 208 208 0
2.488820 -4.544801 28.290080 208 208 208 0
2.599166 -4.548541 28.313360 209 209 209 0
2.708565 -4.550389 28.324861 209 209 209 0
2.820912 -4.556858 28.365132 209 209 209 0
2.924146 -4.548671 28.314167 208 208 208 0
3.034226 -4.551339 28.330772 208 208 208 0
3.143953 -4.553311 28.343053 209 209 209 0
3.257325 -4.560256 28.386279 208 208 208 0
3.363464 -4.556951 28.365708 209 209 209 0
3.470687 -4.555276 28.355283 209 209 209 0
3.585850 -4.563809 28.408399 209 209 209 0
3.708955 -4.581651 28.519457 209 209 209 0
3.813820 -4.576584 28.487917 209 209 209 0
3.911550 -4.563475 28.406320 209 209 209 0
4.019980 -4.563220 28.404731 209 209 209 0
4.145363 -4.581717 28.519868 209 209 209 0
4.249668 -4.576565 28.487802 210 210 210 0
4.348274 -4.565688 28.420091 209 209 209 0
4.444144 -4.552537 28.338235 209 209 209 0
4.553473 -4.553473 28.344060 209 209 209 0
4.679258 -4.570438 28.449660 209 209 209 0
4.791285 -4.573499 28.468717 209 209 209 0
4.885653 -4.559943 28.384330 209 209 209 0
4.992536 -4.558403 28.374743 209 209 209 0
5.111268 -4.567516 28.431474 210 210 210 0
5.226526 -4.573210 28.466914 210 210 210 0
5.333256 -4.571362 28.455412 209 209 209 0
5.434149 -4.564685 28.413851 210 210 210 0
5.547565 -4.568583 28.438112 209 209 209 0
5.673037 -4.582069 28.522059 209 209 209 0
5.786313 -4.585380 28.542669 210 210 210 0
5.885097 -4.577297 28.492358 210 210 210 0
5.986200 -4.571280 28.454904 210 210 210 0
6.105202 -4.578901 28.502343 209 209 209 0
6.231333 -4.591509 28.580820 210 210 210 0
6.321991 -4.577993 28.496690 210 210 210 0
6.420733 -4.570691 28.451236 210 210 210 0
6.523400 -4.566380 28.424399 211 211 211 0
6.640325 -4.572027 28.459550 210 210 210 0
6.755620 -4.576388 28.486696 211 211 211 0
6.859785 -4.573190 28.466790 209 209 209 0
6.973889 -4.576614 28.488107 210 210 210 0
7.080009 -4.574775 28.476657 210 210 210 0
7.188285 -4.574363 28.474094 210 210 210 0
7.297685 -4.574668 28.475993 210 210 210 0
7.411460 -4.577666 28.494655 210 210 210 0
7.521822 -4.578500 28.499846 210 210 210 0
7.628556 -4.577134 28.491340 210 210 210 0
7.753527 -4.586593 28.550222 211 211 211 0
7.875400 -4.593984 28.596225 210 210 210 0
7.978595 -4.590425 28.574072 211 211 211 0
8.073221 -4.582098 28.522242 210 210 210 0
8.184957 -4.583576 28.531442 210 210 210 0
8.312930 -4.593988 28.596251 210 210 210 0
8.412748 -4.588771 28.563781 210 210 210 0
8.504151 -4.579158 28.503940 210 210 210 0
8.607310 -4.576038 28.484522 211 211 211 0
-7.786362 -3.990510 25.445627 201 201 201 0
-7.691077 -3.991572 25.452394 201 201 201 0
-7.664012 -4.028519 25.687990 202 202 202 0
-7.628540 -4.061950 25.901163 201 201 201 0
-7.560081 -4.078465 26.006469 202 202 202 0
-7.483331 -4.090887 26.085684 202 202 202 0
-7.364015 -4.080062 26.016657 202 202 202 0
-7.270082 -4.083197 26.036643 202 202 202 0
-7.238617 -4.121990 26.284014 202 202 202 0
-7.214665 -4.166215 26.566013 202 202 202 0
-7.095167 -4.155740 26.499222 202 202 202 0
-6.963425 -4.137687 26.384105 202 202 202 0
-6.887823 -4.152952 26.481441 202 202 202 0
-6.878581 -4.209281 26.840623 202 202 202 0
-6.838694 -4.248279 27.089300 202 202 202 0
-6.669003 -4.206602 26.823542 203 203 203 0
-6.517450 -4.175242 26.623571 203 203 203 0
-6.439322 -4.190670 26.721950 203 203 203 0
-6.429177 -4.251553 27.110173 204 204 204 0
-6.332622 -4.256352 27.140776 203 203 203 0
-6.186886 -4.227706 26.958111 202 202 202 0
-6.035669 -4.194279 26.744962 203 203 203 0
-5.915339 -4.181533 26.663687 203 203 203 0
-5.917838 -4.256691 27.142934 203 203 203 0
-5.851923 -4.284444 27.319902 204 204 204 0
-5.710015 -4.256557 27.142082 203 203 203 0
-5.577942 -4.235104 27.005285 203 203 203 0
-5.484693 -4.242876 27.054845 203 203 203 0
-5.432843 -4.283588 27.314443 204 204 204 0
-5.342358 -4.294837 27.386174 204 204 204 0
-5.231756 -4.290040 27.355584 204 204 204 0
-5.102125 -4.269125 27.222224 204 204 204 0
-5.001855 -4.272418 27.243219 204 204 204 0
-4.953943 -4.321524 27.556349 204 204 204 0
-4.869376 -4.340096 27.674773 205 205 205 0
-4.750305 -4.328056 27.597995 204 204 204 0
-4.613881 -4.299298 27.414624 204 204 204 0
-4.506817 -4.297198 27.401228 205 205 205 0
-4.433221 -4.327669 27.595527 205 205 205 0
-4.349841 -4.349841 27.736910 204 204 204 0
-4.217547 -4.322986 27.565669 205 205 205 0
-4.101288 -4.311611 27.493135 205 205 205 0
-3.998827 -4.314524 27.511710 205 205 205 0
-3.900384 -4.322047 27.559684 205 205 205 0
-3.810920 -4.340214 27.675526 205 205 205 0
-3.699488 -4.333686 27.633900 205 205 205 0
-3.595210 -4.335401 27.644831 205 205 205 0
-3.496030 -4.343552 27.696809 205 205 205 0
-3.399175 -4.355193 27.771039 205 205 205 0
-3.287586 -4.348098 27.725797 205 205 205 0
-3.187470 -4.356208 27.777512 206 206 206 0
-3.088625 -4.366677 27.844265 205 205 205 0
-2.985430 -4.371523 27.875166 206 206 206 0
-2.875656 -4.366737 27.844647 205 205 205 0
-2.776352 -4.378094 27.917067 206 206 206 0
-2.680657 -4.396278 28.033018 205 205 205 0
-2.572019 -4.393865 28.017632 206 206 206 0
-2.458711 -4.382919 27.947832 206 206 206 0
-2.350967 -4.381347 27.937808 206 206 206 0
-2.250570 -4.393969 28.018295 206 206 206 0
-2.146227 -4.399766 28.055261 206 206 206 0
-2.034814 -4.390914 27.998815 206 206 206 0
-1.921081 -4.375796 27.902415 206 206 206 0
-1.809319 -4.363653 27.824982 206 206 206 0
-1.711272 -4.385136 27.961969 206 206 206 0
-1.610651 -4.402446 28.072345 207 207 207 0
-1.502994 -4.401625 28.067110 207 207 207 0
-1.391593 -4.388870 27.985781 206 206 206 0
-1.282520 -4.381942 27.941607 207 207 207 0
-1.179615 -4.396746 28.036004 207 207 207 0
-1.076381 -4.413161 28.140673 207 207 207 0
-0.968554 -4.412302 28.135197 206 206 206 0
-0.857898 -4.396728 28.035885 207 207 207 0
-0.748911 -4.386479 27.970531 206 206 206 0
-0.646442 -4.417353 28.167401 206 206 206 0
-0.541062 -4.436712 28.290846 207 207 207 0
-0.431720 -4.425126 28.216965 207 207 207 0
-0.322575 -4.408530 28.111145 207 207 207 0
-0.215339 -4.414458 28.148940 208 208 208 0
-0.108390 -4.443974 28.337155 207 207 207 0
0.000000 -4.434519 28.276860 207 207 207 0
0.107753 -4.417877 28.170748 208 208 208 0
0.214683 -4.400993 28.063085 207 207 207 0
0.322119 -4.402300 28.071415 207 207 207 0
0.432386 -4.431954 28.260504 207 207 207 0
0.540462 -4.431788 28.259450 207 207 207 0
0.646403 -4.417087 28.165709 208 208 208 0
0.754286 -4.417962 28.171290 207 207 207 0
0.864019 -4.428098 28.235917 207 207 207 0
0.972708 -4.431227 28.255869 208 208 208 0
1.080631 -4.430586 28.251787 208 208 208 0
1.186926 -4.423997 28.209771 208 208 208 0
1.297478 -4.433050 28.267498 208 208 208 0
1.406688 -4.436479 28.289359 208 208 208 0
1.519284 -4.449332 28.371316 208 208 208 0
1.628391 -4.450936 28.381543 208 208 208 0
1.733164 -4.441234 28.319681 208 208 208 0
1.841466 -4.441183 28.319358 208 208 208 0
1.950963 -4.443859 28.336421 209 209 209 0
2.065290 -4.456678 28.418162 208 208 208 0
2.166849 -4.442041 28.324826 208 208 208 0
2.273801 -4.439326 28.307512 209 209 209 0
2.379865 -4.435203 28.281225 209 209 209 0
2.488149 -4.435396 28.282458 208 208 208 0
2.598726 -4.439490 28.308562 209 209 209 0
2.709389 -4.443397 28.333475 209 209 209 0
2.820288 -4.447378 28.358857 208 208 208 0
2.924149 -4.440375 28.314201 209 209 209 0
3.033509 -4.441925 28.324084 209 209 209 0
3.143255 -4.443912 28.336760 209 209 209 0
3.259062 -4.454052 28.401414 208 208 208 0
3.363433 -4.448411 28.365448 209 209 209 0
3.471966 -4.448457 28.365737 208 208 208 0
3.585532 -4.454752 28.405880 209 209 209 0
3.708059 -4.471483 28.512563 209 209 209 0
3.812517 -4.466091 28.478183 209 209 209 0
3.912934 -4.456397 28.416367 209 209 209 0
4.022076 -4.456896 28.419548 209 209 209 0
4.146107 -4.473431 28.524986 210 210 210 0
4.250940 -4.468936 28.496327 209 209 209 0
4.348875 -4.457597 28.424023 209 209 209 0
4.443923 -4.443923 28.336827 209 209 209 0
4.551666 -4.443293 28.332809 209 209 209 0
4.679300 -4.461658 28.449919 209 209 209 0
4.790082 -4.463486 28.461572 209 209 209 0
4.887579 -4.453127 28.395520 209 209 209 0
4.994641 -4.451746 28.386709 210 210 210 0
5.111524 -4.458989 28.432899 209 209 209 0
5.226773 -4.464535 28.468264 210 210 210 0
5.333967 -4.463115 28.459208 210 210 210 0
5.434275 -4.456105 28.414509 210 210 210 0
5.550064 -4.461816 28.450922 209 209 209 0
5.674570 -4.474181 28.529766 210 210 210 0
5.789050 -4.478321 28.556170 210 210 210 0
5.884953 -4.468205 28.491665 210 210 210 0
5.988028 -4.463803 28.463590 209 209 209 0
6.108597 -4.472366 28.518193 210 210 210 0
6.227676 -4.479556 28.564046 209 209 209 0
6.321934 -4.468954 28.496436 209 209 209 0
6.420787 -4.461903 28.451478 210 210 210 0
6.525518 -4.459104 28.433629 210 210 210 0
6.640905 -4.463559 28.462037 210 210 210 0
6.754996 -4.467013 28.484064 210 210 210 0
6.860897 -4.465028 28.471406 210 210 210 0
6.975143 -4.468451 28.493232 210 210 210 0
7.077623 -4.464347 28.467060 210 210 210 0
7.189493 -4.466200 28.478880 210 210 210 0
7.298460 -4.466222 28.479017 210 210 210 0
7.410848 -4.468305 28.492301 210 210 210 0
7.518059 -4.467253 28.485590 210 210 210 0
7.627997 -4.467827 28.489253 210 210 210 0
7.754169 -4.477759 28.552587 210 210 210 0
7.873819 -4.483702 28.590482 210 210 210 0
7.980448 -4.482169 28.580707 210 210 210 0
8.073513 -4.473163 28.523277 210 210 210 0
8.185589 -4.474788 28.533642 210 210 210 0
8.314361 -4.485379 28.601173 210 210 210 0
8.413268 -4.479792 28.565549 210 210 210 0
8.505788 -4.470991 28.509429 210 210 210 0
8.608407 -4.467654 28.488150 211 211 211 0
-7.767263 -3.883631 25.383211 201 201 201 0
-7.689007 -3.893168 25.445544 202 202 202 0
-7.657850 -3.927103 25.667338 202 202 202 0
-7.623045 -3.960023 25.882505 202 202 202 0
-7.561677 -3.979830 26.011959 201 201 201 0
-7.478307 -3.988431 26.068174 202 202 202 0
-7.371740 -3.984724 26.043950 202 202 202 0
-7.275974 -3.986835 26.057747 203 203 203 0
-7.227542 -4.015301 26.243799 202 202 202 0
-7.223162 -4.069387 26.597300 202 202 202 0
-7.107977 -4.061701 26.547065 202 202 202 0
-6.966512 -4.038558 26.395804 202 202 202 0
-6.894502 -4.055590 26.507122 202 202 202 0
-6.873025 -4.103298 26.818944 202 202 202 0
-6.836168 -4.143132 27.079296 203 203 203 0
-6.670222 -4.104752 26.828443 203 203 203 0
-6.517498 -4.073437 26.623768 202 202 202 0
-6.431308 -4.083370 26.688693 203 203 203 0
-6.423590 -4.144251 27.086611 203 203 203 0
-6.327489 -4.149173 27.118778 203 203 203 0
-6.183954 -4.122636 26.945334 203 203 203 0
-6.023088 -4.083450 26.689212 203 203 203 0
-5.909757 -4.075694 26.638524 203 203 203 0
-5.919568 -4.154083 27.150869 203 203 203 0
-5.850401 -4.178858 27.312795 203 203 203 0
-5.706929 -4.150494 27.127410 203 203 203 0
-5.571240 -4.126845 26.972840 204 204 204 0
-5.476119 -4.132920 27.012547 204 204 204 0
-5.426697 -4.174383 27.283547 204 204 204 0
-5.344459 -4.191733 27.396945 204 204 204 0
-5.233943 -4.187155 27.367024 204 204 204 0
-5.108003 -4.169798 27.253582 204 204 204 0
-5.007811 -4.173175 27.275657 204 204 204 0
-4.955231 -4.217218 27.563515 204 204 204 0
-4.865372 -4.230758 27.652014 204 204 204 0
-4.750377 -4.222557 27.598414 204 204 204 0
-4.613569 -4.194154 27.412770 205 205 205 0
-4.502011 -4.187917 27.372008 205 205 205 0
-4.435595 -4.224376 27.610301 205 205 205 0
-4.350492 -4.244382 27.741059 204 204 204 0
-4.220871 -4.220871 27.587395 205 205 205 0
-4.095720 -4.200738 27.455804 204 204 204 0
-3.993772 -4.203971 27.476934 205 205 205 0
-3.900213 -4.216446 27.558471 205 205 205 0
-3.812984 -4.236648 27.690512 205 205 205 0
-3.707045 -4.236623 27.690345 205 205 205 0
-3.597386 -4.232218 27.661558 205 205 205 0
-3.495179 -4.236581 27.690070 206 206 206 0
-3.392377 -4.240471 27.715497 205 205 205 0
-3.290649 -4.245999 27.751627 205 205 205 0
-3.186610 -4.248814 27.770026 205 205 205 0
-3.086850 -4.257724 27.828261 206 206 206 0
-2.986046 -4.265780 27.880913 205 205 205 0
-2.876190 -4.261022 27.849814 205 205 205 0
-2.777630 -4.273276 27.929911 205 205 205 0
-2.682044 -4.291270 28.047518 206 206 206 0
-2.572473 -4.287456 28.022586 206 206 206 0
-2.459015 -4.276547 27.951289 206 206 206 0
-2.350771 -4.274130 27.935487 206 206 206 0
-2.250263 -4.286216 28.014482 206 206 206 0
-2.143855 -4.287710 28.024249 206 206 206 0
-2.034047 -4.282204 27.988261 206 206 206 0
-1.920752 -4.268337 27.897626 207 207 207 0
-1.809482 -4.257605 27.827482 207 207 207 0
-1.710701 -4.276753 27.952635 207 207 207 0
-1.611387 -4.297032 28.085175 206 206 206 0
-1.502930 -4.294086 28.065924 206 206 206 0
-1.392343 -4.284133 28.000868 207 207 207 0
-1.282414 -4.274715 27.939311 207 207 207 0
-1.178993 -4.287249 28.021234 207 207 207 0
-1.077417 -4.309666 28.167752 206 206 206 0
-0.968720 -4.305423 28.140021 207 207 207 0
-0.858003 -4.290015 28.039311 207 207 207 0
-0.749085 -4.280483 27.977014 207 207 207 0
-0.647030 -4.313533 28.193028 206 206 206 0
-0.541280 -4.330244 28.302245 207 207 207 0
-0.431462 -4.314620 28.200133 207 207 207 0
-0.322620 -4.301603 28.115049 207 207 207 0
-0.215352 -4.307043 28.150606 207 207 207 0
-0.108384 -4.335346 28.335593 207 207 207 0
0.000000 -4.324433 28.264270 207 207 207 0
0.107742 -4.309672 28.167791 207 207 207 0
0.214670 -4.293409 28.061498 207 207 207 0
0.321995 -4.293270 28.060585 207 207 207 0
0.432444 -4.324437 28.264294 207 207 207 0
0.540252 -4.322016 28.248472 208 208 208 0
0.646405 -4.309367 28.165795 207 207 207 0
0.754021 -4.308690 28.161372 208 208 208 0
0.863973 -4.319866 28.234416 207 207 207 0
0.972672 -4.322986 28.254808 208 208 208 0
1.081545 -4.326181 28.275691 208 208 208 0
1.188725 -4.322638 28.252533 208 208 208 0
1.297786 -4.325954 28.274209 208 208 208 0
1.407110 -4.329571 28.297846 208 208 208 0
1.519168 -4.340480 28.369151 208 208 208 0
1.628724 -4.343264 28.387347 208 208 208 0
1.733367 -4.333418 28.322992 208 208 208 0
1.840903 -4.331536 28.310696 208 208 208 0
1.951422 -4.336494 28.343098 208 208 208 0
2.063827 -4.344900 28.398036 208 208 208 0
2.168297 -4.336594 28.343751 209 209 209 0
2.273248 -4.329997 28.300632 209 209 209 0
2.380840 -4.328801 28.292814 209 209 209 0
2.489558 -4.329666 28.298471 208 208 208 0
2.599805 -4.333008 28.320315 209 209 209 0
2.708762 -4.334019 28.326920 208 208 208 0
2.819253 -4.337312 28.348442 208 208 208 0
2.924952 -4.333263 28.321979 208 208 208 0
3.034226 -4.334609 28.330776 209 209 209 0
3.144639 -4.337433 28.349237 209 209 209 0
3.258785 -4.345047 28.398999 209 209 209 0
3.364116 -4.340795 28.371211 209 209 209 0
3.469757 -4.337196 28.347685 209 209 209 0
3.585380 -4.345916 28.404677 208 208 208 0
3.708528 -4.362974 28.516168 209 209 209 0
3.812378 -4.357003 28.477144 209 209 209 0
3.911930 -4.346589 28.409080 209 209 209 0
4.021538 -4.347609 28.415745 209 209 209 0
4.148096 -4.366417 28.538671 209 209 209 0
4.250021 -4.358996 28.490170 209 209 209 0
4.348792 -4.348792 28.423478 209 209 209 0
4.446586 -4.338133 28.353811 209 209 209 0
4.551898 -4.335141 28.334257 209 209 209 0
4.680241 -4.353713 28.455640 209 209 209 0
4.788771 -4.353429 28.453781 209 209 209 0
4.887370 -4.344329 28.394309 209 209 209 0
4.991137 -4.340119 28.366792 210 210 210 0
5.111068 -4.349845 28.430361 210 210 210 0
5.224943 -4.354120 28.458298 210 210 210 0
5.332644 -4.353179 28.452147 209 209 209 0
5.436002 -4.348802 28.423540 210 210 210 0
5.549219 -4.352329 28.446593 210 210 210 0
5.672789 -4.363684 28.520812 210 210 210 0
5.786914 -4.367482 28.545636 210 210 210 0
5.884862 -4.359157 28.491221 209 209 209 0
5.988938 -4.355591 28.467915 210 210 210 0
6.107999 -4.362857 28.515402 210 210 210 0
6.229820 -4.371804 28.573880 210 210 210 0
6.322581 -4.360401 28.499351 209 209 209 0
6.421206 -4.353360 28.453335 210 210 210 0
6.525624 -4.350416 28.434092 210 210 210 0
6.640526 -4.354444 28.460415 210 210 210 0
6.754772 -4.357917 28.483119 210 210 210 0
6.858313 -4.354484 28.460682 210 210 210 0
6.973466 -4.358416 28.486380 210 210 210 0
7.075717 -4.354288 28.459396 210 210 210 0
7.187019 -4.355769 28.469081 210 210 210 0
7.298265 -4.357173 28.478257 210 210 210 0
7.410450 -4.359088 28.490773 210 210 210 0
7.517288 -4.357848 28.482667 210 210 210 0
7.627417 -4.358524 28.487085 210 210 210 0
7.753244 -4.368025 28.549181 211 211 211 0
7.880181 -4.377878 28.613583 210 210 210 0
7.981306 -4.373318 28.583781 210 210 210 0
8.074220 -4.364443 28.525773 211 211 211 0
8.184931 -4.365296 28.531349 210 210 210 0
8.313651 -4.375606 28.598729 211 211 211 0
8.410752 -4.369222 28.557004 210 210 210 0
8.507759 -4.362953 28.516035 211 211 211 0
8.608626 -4.358798 28.488874 211 211 211 0
-7.763755 -3.784830 25.371747 201 201 201 0
-7.686987 -3.794842 25.438860 202 202 202 0
-7.667997 -3.833998 25.701347 201 201 201 0
-7.618867 -3.858907 25.868321 201 201 201 0
-7.553554 -3.876166 25.984016 202 202 202 0
-7.471941 -3.885410 26.045983 202 202 202 0
-7.366605 -3.882400 26.025809 201 201 201 0
-7.273608 -3.885900 26.049272 202 202 202 0
-7.235324 -3.919134 26.272055 202 202 202 0
-7.233237 -3.973187 26.634401 203 203 203 0
-7.116228 -3.964756 26.577882 203 203 203 0
-6.967870 -3.938361 26.400947 202 202 202 0
-6.890494 -3.951901 26.491712 202 202 202 0
-6.880038 -4.004798 26.846309 203 203 203 0
-6.844382 -4.044408 27.111832 203 203 203 0
-6.672101 -4.003261 26.836002 203 203 203 0
-6.518645 -3.972299 26.628452 203 203 203 0
-6.431176 -3.981204 26.688147 203 203 203 0
-6.431949 -4.045904 27.121860 204 204 204 0
-6.330169 -4.047157 27.130266 203 203 203 0
-6.184335 -4.019818 26.946994 204 204 204 0
-6.034715 -3.989049 26.740732 203 203 203 0
-5.911811 -3.975183 26.647783 204 204 204 0
-5.922403 -4.052171 27.163872 204 204 204 0
-5.850325 -4.074333 27.312442 203 203 203 0
-5.704851 -4.045258 27.117534 204 204 204 0
-5.578107 -4.028633 27.006086 204 204 204 0
-5.475888 -4.029427 27.011409 203 203 203 0
-5.425506 -4.069129 27.277555 204 204 204 0
-5.345018 -4.087367 27.399812 204 204 204 0
-5.229037 -4.078649 27.341370 204 204 204 0
-5.103494 -4.061965 27.229527 204 204 204 0
-5.007768 -4.068811 27.275424 204 204 204 0
-4.953395 -4.110264 27.553303 204 204 204 0
-4.865214 -4.124855 27.651118 204 204 204 0
-4.746930 -4.114006 27.578386 204 204 204 0
-4.615034 -4.090599 27.421475 204 204 204 0
-4.507099 -4.087834 27.402940 204 204 204 0
-4.434290 -4.117555 27.602182 205 205 205 0
-4.353037 -4.140694 27.757292 204 204 204 0
-4.218080 -4.112628 27.569148 204 204 204 0
-4.101440 -4.101440 27.494148 205 205 205 0
-3.995572 -4.100719 27.489315 205 205 205 0
-3.902416 -4.113357 27.574039 205 205 205 0
-3.810783 -4.128348 27.674529 205 205 205 0
-3.706691 -4.130313 27.687703 205 205 205 0
-3.593899 -4.122413 27.634746 205 205 205 0
-3.492908 -4.127983 27.672081 205 205 205 0
-3.394204 -4.136687 27.730428 205 205 205 0
-3.286468 -4.134588 27.716363 205 205 205 0
-3.186979 -4.143073 27.773241 205 205 205 0
-3.085191 -4.149050 27.813304 206 206 206 0
-2.985227 -4.157995 27.873269 206 206 206 0
-2.874475 -4.152020 27.833216 206 206 206 0
-2.777089 -4.165633 27.924471 206 206 206 0
-2.680497 -4.181575 28.031337 205 205 205 0
-2.572352 -4.180073 28.021269 205 205 205 0
-2.458997 -4.169603 27.951087 206 206 206 0
-2.350210 -4.166281 27.928815 206 206 206 0
-2.250406 -4.179325 28.016258 206 206 206 0
-2.145228 -4.183195 28.042200 206 206 206 0
-2.034132 -4.175323 27.989430 206 206 206 0
-1.920988 -4.162141 27.901066 206 206 206 0
-1.809534 -4.151284 27.828284 206 206 206 0
-1.711556 -4.171917 27.966595 206 206 206 0
-1.611000 -4.188599 28.078424 207 207 207 0
-1.502589 -4.185783 28.059548 206 206 206 0
-1.391928 -4.175783 27.992515 206 206 206 0
-1.282739 -4.168901 27.946381 207 207 207 0
-1.179267 -4.181037 28.027735 207 207 207 0
-1.076757 -4.199352 28.150509 206 206 206 0
-0.968500 -4.196835 28.133633 206 206 206 0
-0.858038 -4.182937 28.040466 207 207 207 0
-0.748820 -4.171998 27.967142 207 207 207 0
-0.646503 -4.202272 28.170084 207 207 207 0
-0.541172 -4.221141 28.296571 207 207 207 0
-0.431441 -4.206554 28.198785 208 208 208 0
-0.322650 -4.194446 28.117619 208 208 208 0
-0.215460 -4.201465 28.164670 207 207 207 0
-0.108358 -4.225950 28.328812 208 208 208 0
0.000000 -4.219102 28.282902 207 207 207 0
0.107685 -4.199718 28.152960 207 207 207 0
0.214575 -4.184215 28.049034 207 207 207 0
0.322049 -4.186635 28.065260 208 208 208 0
0.432139 -4.213358 28.244401 208 208 208 0
0.540224 -4.213746 28.247000 208 208 208 0
0.646344 -4.201238 28.163148 207 207 207 0
0.753953 -4.200594 28.158833 207 207 207 0
0.863925 -4.211632 28.232829 208 208 208 0
0.972564 -4.214444 28.251676 208 208 208 0
1.080754 -4.214939 28.254996 208 208 208 0
1.188099 -4.212351 28.237646 208 208 208 0
1.298143 -4.218964 28.281980 208 208 208 0
1.407187 -4.221562 28.299393 208 208 208 0
1.519134 -4.231873 28.368513 209 209 209 0
1.628660 -4.234515 28.386227 208 208 208 0
1.733846 -4.226250 28.330817 208 208 208 0
1.841801 -4.225307 28.324499 208 208 208 0
1.951513 -4.228278 28.344417 208 208 208 0
2.064047 -4.236728 28.401058 208 208 208 0
2.166591 -4.224853 28.321457 208 208 208 0
2.273267 -4.221782 28.300866 208 208 208 0
2.380184 -4.219417 28.285012 209 209 209 0
2.489119 -4.220680 28.293477 208 208 208 0
2.599756 -4.224604 28.319784 208 208 208 0
2.708304 -4.224954 28.322129 209 209 209 0
2.821074 -4.231611 28.366755 208 208 208 0
2.924628 -4.224463 28.318842 209 209 209 0
3.034947 -4.227248 28.337510 209 209 209 0
3.145058 -4.229561 28.353017 208 208 208 0
3.257347 -4.234551 28.386468 209 209 209 0
3.363644 -4.231681 28.367227 209 209 209 0
3.471126 -4.230435 28.358871 209 209 209 0
3.585887 -4.237867 28.408695 209 209 209 0
3.707538 -4.252765 28.508562 209 209 209 0
3.813146 -4.248934 28.482880 210 210 210 0
3.912686 -4.238743 28.414569 209 209 209 0
4.020355 -4.237672 28.407386 210 210 210 0
4.146180 -4.255290 28.525493 210 210 210 0
4.251302 -4.251302 28.498755 209 209 209 0
4.349433 -4.240697 28.427666 209 209 209 0
4.444722 -4.227906 28.341920 209 209 209 0
4.551965 -4.226825 28.334675 209 209 209 0
4.680315 -4.244937 28.456088 209 209 209 0
4.789899 -4.245593 28.460484 210 210 210 0
4.886491 -4.234959 28.389199 210 210 210 0
4.992082 -4.232417 28.372160 209 209 209 0
5.111215 -4.241221 28.431176 210 210 210 0
5.226049 -4.246165 28.464320 209 209 209 0
5.332574 -4.244293 28.451773 210 210 210 0
5.434554 -4.238952 28.415970 209 209 209 0
5.550154 -4.244235 28.451385 209 209 209 0
5.674950 -4.256213 28.531676 210 210 210 0
5.788107 -4.259173 28.551520 210 210 210 0
5.881257 -4.247575 28.473771 209 209 209 0
5.989192 -4.246882 28.469125 209 209 209 0
6.109777 -4.255023 28.523702 210 210 210 0
6.230707 -4.263115 28.577946 210 210 210 0
6.323308 -4.251879 28.502627 210 210 210 0
6.423121 -4.245792 28.461819 210 210 210 0
6.524574 -4.240973 28.429518 210 210 210 0
6.644169 -4.247911 28.476027 210 210 210 0
6.756131 -4.249824 28.488849 210 210 210 0
6.855969 -4.244171 28.450956 210 210 210 0
6.973610 -4.249543 28.486967 210 210 210 0
7.079567 -4.247740 28.474878 210 210 210 0
7.192065 -4.249857 28.489068 210 210 210 0
7.297417 -4.247750 28.474948 210 210 210 0
7.411805 -4.250888 28.495982 211 211 211 0
7.517934 -4.249267 28.485114 210 210 210 0
7.626371 -4.248978 28.483179 210 210 210 0
7.754543 -4.259538 28.553964 210 210 210 0
7.880921 -4.268832 28.616270 211 211 211 0
7.981065 -4.263857 28.582918 210 210 210 0
8.074826 -4.255651 28.527913 210 210 210 0
8.184092 -4.255728 28.528424 210 210 210 0
8.313114 -4.265940 28.596883 210 210 210 0
8.413799 -4.261534 28.567350 210 210 210 0
8.508246 -4.254123 28.517666 211 211 211 0
8.608984 -4.250005 28.490062 211 211 211 0
-7.795998 -3.703099 25.477118 201 201 201 0
-7.692617 -3.700246 25.457490 202 202 202 0
-7.652938 -3.728355 25.650874 202 202 202 0
-7.634820 -3.767833 25.922485 201 201 201 0
-7.556735 -3.778367 25.994960 202 202 202 0
-7.472649 -3.786142 26.048451 202 202 202 0
-7.355361 -3.777077 25.986082 202 202 202 0
-7.259573 -3.778956 25.999008 203 203 203 0
-7.217731 -3.809358 26.208174 202 202 202 0
-7.202080 -3.854634 26.519671 202 202 202 0
-7.095648 -3.851923 26.501020 202 202 202 0
-6.967207 -3.837012 26.398433 202 202 202 0
-6.887253 -3.848759 26.479252 203 203 203 0
-6.881897 -3.903166 26.853565 202 202 202 0
-6.842662 -3.939715 27.105019 203 203 203 0
-6.677482 -3.903759 26.857646 203 203 203 0
-6.517062 -3.869506 26.621986 203 203 203 0
-6.428594 -3.877564 26.677430 203 203 203 0
-6.432804 -3.942686 27.125465 203 203 203 0
-6.324297 -3.939726 27.105099 203 203 203 0
-6.185947 -3.917767 26.954019 203 203 203 0
-6.029990 -3.883722 26.719796 204 204 204 0
-5.912957 -3.874006 26.652951 204 204 204 0
-5.926365 -3.950910 27.182044 204 204 204 0
-5.854448 -3.972661 27.331691 204 204 204 0
-5.708595 -3.944120 27.135331 203 203 203 0
-5.577275 -3.924749 27.002056 204 204 204 0
-5.480012 -3.929065 27.031752 204 204 204 0
-5.425721 -3.964950 27.278639 204 204 204 0
-5.337400 -3.976886 27.360759 204 204 204 0
-5.227828 -3.973149 27.335050 205 205 205 0
-5.101262 -3.956081 27.217620 204 204 204 0
-5.009992 -3.966244 27.287540 205 205 205 0
-4.954234 -4.005551 27.557971 204 204 204 0
-4.868682 -4.021955 27.670830 204 204 204 0
-4.747887 -4.009327 27.583948 204 204 204 0
-4.613177 -3.984107 27.410437 204 204 204 0
-4.510286 -3.985834 27.422319 205 205 205 0
-4.435118 -4.012726 27.607331 204 204 204 0
-4.353556 -4.035003 27.760597 204 204 204 0
-4.217904 -4.007009 27.568003 204 204 204 0
-4.100203 -3.995069 27.485857 205 205 205 0
-3.995703 -3.995703 27.490215 204 204 204 0
-3.899882 -4.005284 27.556136 205 205 205 0
-3.812879 -4.024705 27.689751 205 205 205 0
-3.705274 -4.022869 27.677118 205 205 205 0
-3.594206 -4.017054 27.637111 205 205 205 0
-3.496337 -4.026085 27.699244 206 206 206 0
-3.393099 -4.029305 27.721395 206 206 206 0
-3.288089 -4.030561 27.730038 205 205 205 0
-3.186568 -4.036320 27.769657 205 205 205 0
-3.085724 -4.043363 27.818113 205 205 205 0
-2.984434 -4.050304 27.865867 205 205 205 0
-2.873311 -4.043919 27.821937 206 206 206 0
-2.777528 -4.059465 27.928893 206 206 206 0
-2.681388 -4.075710 28.040658 206 206 206 0
-2.573808 -4.075196 28.037121 206 206 206 0
-2.458570 -4.061986 27.946239 206 206 206 0
-2.349844 -4.058821 27.924466 205 205 205 0
-2.251235 -4.073663 28.026580 206 206 206 0
-2.143526 -4.072700 28.019954 206 206 206 0
-2.034471 -4.068943 27.994102 207 207 207 0
-1.922234 -4.058049 27.919153 206 206 206 0
-1.809400 -4.044542 27.826225 207 207 207 0
-1.710364 -4.062115 27.947129 207 207 207 0
-1.612375 -4.084684 28.102398 207 207 207 0
-1.502990 -4.079546 28.067049 207 207 207 0
-1.392093 -4.069195 27.995834 207 207 207 0
-1.282795 -4.062183 27.947596 207 207 207 0
-1.180498 -4.078083 28.056987 207 207 207 0
-1.076819 -4.091914 28.152142 207 207 207 0
-0.968762 -4.090327 28.141228 207 207 207 0
-0.857651 -4.073844 28.027823 206 206 206 0
-0.748793 -4.064875 27.966116 207 207 207 0
-0.646926 -4.097196 28.188486 207 207 207 0
-0.540898 -4.110823 28.282235 208 208 208 0
-0.431424 -4.098530 28.197661 207 207 207 0
-0.322649 -4.086892 28.117591 208 208 208 0
-0.215370 -4.092027 28.152919 207 207 207 0
-0.108389 -4.118792 28.337061 208 208 208 0
0.000000 -4.110112 28.277346 208 208 208 0
0.107634 -4.090105 28.139695 207 207 207 0
0.214569 -4.076815 28.048261 207 207 207 0
0.322228 -4.081549 28.080830 207 207 207 0
0.431993 -4.103936 28.234855 207 207 207 0
0.540194 -4.105477 28.245455 208 208 208 0
0.646523 -4.094643 28.170920 208 208 208 0
0.753702 -4.091526 28.149475 208 208 208 0
0.863648 -4.102328 28.223793 208 208 208 0
0.972807 -4.107408 28.258742 208 208 208 0
1.081107 -4.108207 28.264235 208 208 208 0
1.188145 -4.104499 28.238730 208 208 208 0
1.297879 -4.109950 28.276228 208 208 208 0
1.407208 -4.113377 28.299808 209 209 209 0
1.519697 -4.124892 28.379031 207 207 207 0
1.629021 -4.126852 28.392516 208 208 208 0
1.733987 -4.118219 28.333122 209 209 209 0
1.840250 -4.113500 28.300652 208 208 208 0
1.950765 -4.118281 28.333546 208 208 208 0
2.063682 -4.127364 28.396038 208 208 208 0
2.167414 -4.118086 28.332205 208 208 208 0
2.273548 -4.114039 28.304362 209 209 209 0
2.380655 -4.112041 28.290614 208 208 208 0
2.489063 -4.112365 28.292847 208 208 208 0
2.599096 -4.115235 28.312592 208 208 208 0
2.710521 -4.119992 28.345318 209 209 209 0
2.819932 -4.121439 28.355273 208 208 208 0
2.923704 -4.114843 28.309894 208 208 208 0
3.034034 -4.117618 28.328983 209 209 209 0
3.146347 -4.122799 28.364633 209 209 209 0
3.258793 -4.127805 28.399069 209 209 209 0
3.365817 -4.125840 28.385555 209 209 209 0
3.468766 -4.119160 28.339593 209 209 209 0
3.584852 -4.128011 28.400491 209 209 209 0
3.707867 -4.144086 28.511086 209 209 209 0
3.813140 -4.139980 28.482836 209 209 209 0
3.911178 -4.128466 28.403619 209 209 209 0
4.020734 -4.129402 28.410062 209 209 209 0
4.148588 -4.148588 28.542056 209 209 209 0
4.250568 -4.141579 28.493839 209 209 209 0
4.347965 -4.130567 28.418070 209 209 209 0
4.446392 -4.121046 28.352573 210 210 210 0
4.551680 -4.118187 28.332900 209 209 209 0
4.679457 -4.135334 28.450873 209 209 209 0
4.789051 -4.135998 28.455441 209 209 209 0
4.887996 -4.127641 28.397946 210 210 210 0
4.994157 -4.125608 28.383957 210 210 210 0
5.112535 -4.133539 28.438522 210 210 210 0
5.225231 -4.136641 28.459866 210 210 210 0
5.334492 -4.136953 28.462008 210 210 210 0
5.436484 -4.131728 28.426060 210 210 210 0
5.546226 -4.132482 28.431251 210 210 210 0
5.672570 -4.145340 28.519709 210 210 210 0
5.788094 -4.149955 28.551459 210 210 210 0
5.885456 -4.141617 28.494098 210 210 210 0
5.987912 -4.137103 28.463039 210 210 210 0
6.108208 -4.144855 28.516377 209 209 209 0
6.230654 -4.153770 28.577706 210 210 210 0
6.323619 -4.143061 28.504029 209 209 209 0
6.420004 -4.134918 28.448007 211 211 211 0
6.524844 -4.132401 28.430693 210 210 210 0
6.642729 -4.138093 28.469854 210 210 210 0
6.755353 -4.140378 28.485569 210 210 210 0
6.857364 -4.136188 28.456746 210 210 210 0
6.971131 -4.139109 28.476840 211 211 211 0
7.079601 -4.138844 28.475018 210 210 210 0
7.189954 -4.139670 28.480704 210 210 210 0
7.299235 -4.139865 28.482041 210 210 210 0
7.413151 -4.142643 28.501156 210 210 210 0
7.519630 -4.141246 28.491542 210 210 210 0
7.629198 -4.141564 28.493735 210 210 210 0
7.754002 -4.150029 28.551974 211 211 211 0
7.877908 -4.157785 28.605330 210 210 210 0
7.982244 -4.155141 28.587140 210 210 210 0
8.075193 -4.146721 28.529210 210 210 210 0
8.185785 -4.147464 28.534326 210 210 210 0
8.310096 -4.155048 28.586502 210 210 210 0
8.410953 -4.150860 28.557687 211 211 211 0
8.507851 -4.144850 28.516343 210 210 210 0
8.609213 -4.141140 28.490817 210 210 210 0
-7.759962 -3.588982 25.359353 202 202 202 0
-7.680358 -3.597130 25.416922 202 202 202 0
-7.661042 -3.634084 25.678036 202 202 202 0
-7.625520 -3.664211 25.890908 202 202 202 0
-7.558698 -3.679892 26.001712 202 202 202 0
-7.467550 -3.683991 26.030674 201 201 201 0
-7.372014 -3.686007 26.044916 202 202 202 0
-7.264585 -3.682050 26.016956 202 202 202 0
-7.208277 -3.704254 26.173846 202 202 202 0
-7.210833 -3.757758 26.551902 202 202 202 0
-7.097023 -3.751284 26.506156 203 203 203 0
-6.964297 -3.734478 26.387409 202 202 202 0
-6.883436 -3.745399 26.464574 203 203 203 0
-6.873067 -3.795574 26.819109 202 202 202 0
-6.835426 -3.831981 27.076355 203 203 203 0
-6.675015 -3.799624 26.847722 203 203 203 0
-6.516893 -3.767579 26.621294 203 203 203 0
-6.433000 -3.778111 26.695717 202 202 202 0
-6.426029 -3.834888 27.096897 203 203 203 0
-6.333263 -3.841487 27.143526 203 203 203 0
-6.186503 -3.815010 26.956438 203 203 203 0
-6.026637 -3.779416 26.704936 203 203 203 0
-5.912857 -3.771995 26.652500 203 203 203 0
-5.924507 -3.845733 27.173522 203 203 203 0
-5.849273 -3.864698 27.307529 203 203 203 0
-5.705921 -3.838528 27.122617 204 204 204 0
-5.579559 -3.823031 27.013117 204 204 204 0
-5.478011 -3.824272 27.021880 204 204 204 0
-5.428390 -3.862508 27.292054 205 205 205 0
-5.342537 -3.875958 27.387092 203 203 203 0
-5.228687 -3.869228 27.339541 204 204 204 0
-5.093339 -3.845990 27.175343 204 204 204 0
-5.009716 -3.861656 27.286037 204 204 204 0
-4.954968 -3.900719 27.562050 205 205 205 0
-4.866166 -3.914090 27.656526 204 204 204 0
-4.750625 -3.906070 27.599857 205 205 205 0
-4.613094 -3.879192 27.409945 204 204 204 0
-4.504594 -3.876046 27.387711 205 205 205 0
-4.432084 -3.904455 27.588444 205 205 205 0
-4.353240 -3.928533 27.758582 205 205 205 0
-4.216800 -3.900540 27.560782 205 205 205 0
-4.097442 -3.887317 27.467352 205 205 205 0
-3.996936 -3.891754 27.498702 206 206 206 0
-3.898781 -3.898781 27.548358 204 204 204 0
-3.809796 -3.915624 27.667364 205 205 205 0
-3.705144 -3.916866 27.676144 205 205 205 0
-3.593464 -3.910534 27.631402 205 205 205 0
-3.496333 -3.920131 27.699211 205 205 205 0
-3.393739 -3.924011 27.726625 205 205 205 0
-3.287329 -3.923586 27.723624 205 205 205 0
-3.185333 -3.928578 27.758897 205 205 205 0
-3.088177 -3.940088 27.840229 205 205 205 0
-2.983941 -3.943065 27.861264 206 206 206 0
-2.871913 -3.935585 27.808406 206 206 206 0
-2.778303 -3.953739 27.936680 206 206 206 0
-2.680424 -3.967027 28.030577 205 205 205 0
-2.571902 -3.965015 28.016361 206 206 206 0
-2.460148 -3.957630 27.964175 206 206 206 0
-2.350790 -3.953601 27.935711 206 206 206 0
-2.249779 -3.963897 28.008456 206 206 206 0
-2.143906 -3.966226 28.024916 206 206 206 0
-2.034414 -3.961754 27.993313 206 206 206 0
-1.922405 -3.951611 27.921643 206 206 206 0
-1.810356 -3.940186 27.840920 206 206 206 0
-1.711061 -3.956828 27.958512 207 207 207 0
-1.611170 -3.974219 28.081392 206 206 206 0
-1.502287 -3.970330 28.053911 206 206 206 0
-1.391636 -3.960811 27.986650 206 206 206 0
-1.283002 -3.955922 27.952110 206 206 206 0
-1.179578 -3.967673 28.035135 207 207 207 0
-1.076593 -3.983393 28.146218 206 206 206 0
-0.968598 -3.982016 28.136484 206 206 206 0
-0.857756 -3.967121 28.031237 207 207 207 0
-0.748838 -3.958146 27.967818 207 207 207 0
-0.646731 -3.988176 28.180010 207 207 207 0
-0.540893 -4.002610 28.282001 207 207 207 0
-0.431370 -3.990176 28.194139 208 208 208 0
-0.322662 -3.979496 28.118676 207 207 207 0
-0.215435 -3.985540 28.161384 207 207 207 0
-0.108394 -4.010583 28.338335 207 207 207 0
0.000000 -4.001030 28.270832 207 207 207 0
0.107682 -3.984221 28.152068 207 207 207 0
0.214636 -3.970764 28.056980 207 207 207 0
0.322160 -3.973311 28.074974 208 208 208 0
0.432107 -3.996987 28.242266 208 208 208 0
0.540365 -3.998704 28.254403 208 208 208 0
0.646496 -3.986728 28.169780 208 208 208 0
0.754318 -3.987110 28.172478 208 208 208 0
0.864129 -3.996598 28.239522 208 208 208 0
0.972283 -3.997164 28.243518 209 209 209 0
1.080931 -3.999444 28.259631 208 208 208 0
1.187007 -3.992659 28.211689 207 207 207 0
1.297607 -4.000956 28.270315 208 208 208 0
1.407133 -4.004918 28.298310 208 208 208 0
1.519529 -4.015899 28.375898 208 208 208 0
1.629078 -4.018392 28.393512 208 208 208 0
1.733929 -4.009712 28.332178 208 208 208 0
1.840491 -4.005774 28.304356 209 209 209 0
1.950480 -4.009320 28.329415 208 208 208 0
2.063425 -4.018248 28.392499 209 209 209 0
2.166860 -4.008690 28.324962 208 208 208 0
2.271888 -4.002850 28.283694 209 209 209 0
2.379908 -4.002573 28.281740 209 209 209 0
2.488545 -4.003311 28.286952 209 209 209 0
2.599412 -4.007427 28.316039 209 209 209 0
2.709859 -4.010592 28.338398 209 209 209 0
2.818804 -4.011375 28.343931 209 209 209 0
2.924306 -4.007382 28.315721 208 208 208 0
3.035517 -4.011219 28.342828 209 209 209 0
3.145326 -4.013002 28.355427 209 209 209 0
3.258832 -4.019226 28.399405 209 209 209 0
3.363487 -4.014484 28.365903 209 209 209 0
3.468888 -4.010902 28.340588 208 208 208 0
3.585770 -4.020409 28.407766 209 209 209 0
3.710151 -4.037517 28.528649 209 209 209 0
3.811509 -4.029310 28.470659 209 209 209 0
