ply
    format ascii 1.0
    element vertex 25597
    property float x
    property float y
    property float z
    property uchar red
    property uchar green
    property uchar blue
    property uchar alpha
    end_header
6.958038 -1.926841 27.986074 210 210 210 0
7.064842 -1.926775 27.985114 211 211 211 0
7.173792 -1.927287 27.992555 210 210 210 0
7.283152 -1.927893 28.001354 211 211 211 0
7.394291 -1.928946 28.016639 211 211 211 0
7.504525 -1.929735 28.028103 211 211 211 0
7.608138 -1.928824 28.014870 211 211 211 0
7.716899 -1.929225 28.020695 211 211 211 0
7.839344 -1.932989 28.075365 211 211 211 0
7.957024 -1.935492 28.111726 211 211 211 0
8.053125 -1.932750 28.071896 211 211 211 0
8.144928 -1.929062 28.018329 212 212 212 0
8.251426 -1.928905 28.016048 211 211 211 0
8.386754 -1.935405 28.110456 211 211 211 0
8.476237 -1.931294 28.050755 212 212 212 0
-7.629143 -1.621193 24.931841 202 202 202 0
-7.568917 -1.628754 25.048123 203 203 203 0
-7.491970 -1.632865 25.111346 203 203 203 0
-7.474499 -1.650214 25.378149 203 203 203 0
-7.394875 -1.654117 25.438166 203 203 203 0
-7.305975 -1.656021 25.467451 202 202 202 0
-7.233791 -1.661817 25.556585 203 203 203 0
-7.137963 -1.662265 25.563480 202 202 202 0
-7.052910 -1.665270 25.609694 203 203 203 0
-7.054342 -1.689068 25.975669 203 203 203 0
-6.997506 -1.699394 26.134477 203 203 203 0
-6.862969 -1.690876 26.003482 203 203 203 0
-6.724409 -1.681102 25.853167 203 203 203 0
-6.709509 -1.702413 26.180895 204 204 204 0
-6.690591 -1.723334 26.502637 204 204 204 0
-6.585589 -1.722385 26.488041 203 203 203 0
-6.428374 -1.707537 26.259699 203 203 203 0
-6.297051 -1.699204 26.131554 204 204 204 0
-6.228123 -1.707711 26.262376 204 204 204 0
-6.259208 -1.744369 26.826135 204 204 204 0
-6.115281 -1.732663 26.646106 204 204 204 0
-5.959922 -1.717266 26.409314 205 205 205 0
-5.822154 -1.706494 26.243653 204 204 204 0
-5.738142 -1.711376 26.318734 204 204 204 0
-5.720816 -1.736676 26.707824 204 204 204 0
-5.636921 -1.742321 26.794634 204 204 204 0
-5.498019 -1.730858 26.618344 205 205 205 0
-5.381393 -1.726107 26.545285 204 204 204 0
-5.293147 -1.730452 26.612101 205 205 205 0
-5.239423 -1.746474 26.858508 205 205 205 0
-5.155459 -1.752856 26.956647 204 204 204 0
-5.027288 -1.744161 26.822930 205 205 205 0
-4.915365 -1.740859 26.772143 204 204 204 0
-4.823575 -1.744697 26.831179 205 205 205 0
-4.779155 -1.766210 27.162009 205 205 205 0
-4.682548 -1.768963 27.204345 205 205 205 0
-4.555682 -1.760150 27.068817 206 206 206 0
-4.437557 -1.754383 26.980129 205 205 205 0
-4.344732 -1.758582 27.044709 205 205 205 0
-4.266006 -1.768832 27.202331 206 206 206 0
-4.177237 -1.775326 27.302201 205 205 205 0
-4.047067 -1.764106 27.129662 206 206 206 0
-3.921076 -1.754165 26.976785 206 206 206 0
-3.830218 -1.759830 27.063896 205 205 205 0
-3.736233 -1.764332 27.133136 206 206 206 0
-3.638869 -1.767451 27.181096 206 206 206 0
-3.534937 -1.767468 27.181365 205 205 205 0
-3.430362 -1.767156 27.176564 205 205 205 0
-3.328065 -1.768034 27.190072 206 206 206 0
-3.232826 -1.772840 27.263980 206 206 206 0
-3.129056 -1.773132 27.268463 206 206 206 0
-3.027435 -1.774703 27.292628 206 206 206 0
-2.934938 -1.781927 27.403714 206 206 206 0
-2.830131 -1.781935 27.403839 207 207 207 0
-2.722474 -1.780079 27.375308 206 206 206 0
-2.625868 -1.785590 27.460059 206 206 206 0
-2.533855 -1.794814 27.601909 206 206 206 0
-2.422872 -1.790819 27.540463 206 206 206 0
-2.311885 -1.786457 27.473381 207 207 207 0
-2.204855 -1.784883 27.449180 207 207 207 0
-2.107844 -1.791668 27.553520 207 207 207 0
-2.002853 -1.792026 27.559031 207 207 207 0
-1.894567 -1.789314 27.517317 207 207 207 0
-1.783792 -1.783792 27.432406 207 207 207 0
-1.674801 -1.779477 27.366037 206 206 206 0
-1.577688 -1.788047 27.497838 207 207 207 0
-1.478752 -1.795627 27.614411 208 208 208 0
-1.372078 -1.794256 27.593332 208 208 208 0
-1.262721 -1.788855 27.510267 207 207 207 0
-1.157479 -1.788831 27.509901 208 208 208 0
-1.054977 -1.793462 27.581109 208 208 208 0
-0.952393 -1.798965 27.665741 207 207 207 0
-0.846143 -1.798054 27.651734 207 207 207 0
-0.738447 -1.793371 27.579712 208 208 208 0
-0.631848 -1.790237 27.531514 208 208 208 0
-0.530333 -1.803134 27.729852 208 208 208 0
-0.426149 -1.811135 27.852905 208 208 208 0
-0.318560 -1.805173 27.761217 208 208 208 0
-0.211615 -1.798731 27.662140 208 208 208 0
-0.105970 -1.801488 27.704545 208 208 208 0
0.000000 -1.832991 28.189021 208 208 208 0
0.106468 -1.809964 27.834894 208 208 208 0
0.211899 -1.801145 27.699272 208 208 208 0
0.316747 -1.794900 27.603224 208 208 208 0
0.422391 -1.795161 27.607247 208 208 208 0
0.531076 -1.805659 27.768688 209 209 209 0
0.637522 -1.806312 27.778729 208 208 208 0
0.741727 -1.801337 27.702225 208 208 208 0
0.847356 -1.800632 27.691385 209 209 209 0
0.955716 -1.805241 27.762267 209 209 209 0
1.063358 -1.807708 27.800202 209 209 209 0
1.168640 -1.806080 27.775170 209 209 209 0
1.272844 -1.803196 27.730811 208 208 208 0
1.379505 -1.803968 27.742677 208 208 208 0
1.486665 -1.805237 27.762193 208 208 208 0
1.599897 -1.813216 27.884913 209 209 209 0
1.706512 -1.813169 27.884183 209 209 209 0
1.811492 -1.811492 27.858390 209 209 209 0
1.917284 -1.810768 27.847256 209 209 209 0
2.026674 -1.813340 27.886811 209 209 209 0
2.137479 -1.816857 27.940906 210 210 210 0
2.238821 -1.812379 27.872036 209 209 209 0
2.341561 -1.809388 27.826035 209 209 209 0
2.445205 -1.807325 27.794311 209 209 209 0
2.551425 -1.807259 27.793302 209 209 209 0
2.660573 -1.809189 27.822981 210 210 210 0
2.771834 -1.812353 27.871637 210 210 210 0
2.875689 -1.810619 27.844968 209 209 209 0
2.981850 -1.810409 27.841737 209 209 209 0
3.087053 -1.809652 27.830097 210 210 210 0
3.193005 -1.809370 27.825754 209 209 209 0
3.308573 -1.814379 27.902785 209 209 209 0
3.417434 -1.815512 27.920212 210 210 210 0
3.524113 -1.815452 27.919293 210 210 210 0
3.628961 -1.814480 27.904352 210 210 210 0
3.747156 -1.820047 27.989958 210 210 210 0
3.859625 -1.822601 28.029233 210 210 210 0
3.957687 -1.818397 27.964577 210 210 210 0
4.056160 -1.814598 27.906156 210 210 210 0
4.171502 -1.818347 27.963812 210 210 210 0
4.291123 -1.823727 28.046557 209 209 209 0
4.386544 -1.818811 27.970951 209 209 209 0
4.479332 -1.813063 27.882555 210 210 210 0
4.581068 -1.811120 27.852672 210 210 210 0
4.702182 -1.816752 27.939287 210 210 210 0
4.819276 -1.820615 27.998699 211 211 211 0
4.917353 -1.817283 27.947445 210 210 210 0
5.019212 -1.815459 27.919408 210 210 210 0
5.125051 -1.815122 27.914222 210 210 210 0
5.241375 -1.818436 27.965186 210 210 210 0
5.354203 -1.820429 27.995834 211 211 211 0
5.456524 -1.818841 27.971416 211 211 211 0
5.561111 -1.818056 27.959332 210 210 210 0
5.674713 -1.820191 27.992171 211 211 211 0
5.799350 -1.825721 28.077221 211 211 211 0
5.905355 -1.825292 28.070613 210 210 210 0
5.998165 -1.820872 28.002639 210 210 210 0
6.100095 -1.819326 27.978876 211 211 211 0
6.216267 -1.822009 28.020135 211 211 211 0
6.337899 -1.826174 28.084187 211 211 211 0
6.423675 -1.820041 27.989870 211 211 211 0
6.522140 -1.817645 27.953026 211 211 211 0
6.626963 -1.817071 27.944185 211 211 211 0
6.747723 -1.820814 28.001754 210 210 210 0
6.859965 -1.822178 28.022733 211 211 211 0
6.959352 -1.820138 27.991359 211 211 211 0
7.064956 -1.819761 27.985565 211 211 211 0
7.174778 -1.820466 27.996403 211 211 211 0
7.286013 -1.821503 28.012354 210 210 210 0
7.390544 -1.820859 28.002441 211 211 211 0
7.501674 -1.821835 28.017456 210 210 210 0
7.607452 -1.821503 28.012342 211 211 211 0
7.716812 -1.822025 28.020379 211 211 211 0
7.841602 -1.826127 28.083453 211 211 211 0
7.957252 -1.828017 28.112531 211 211 211 0
8.053249 -1.825403 28.072327 211 211 211 0
8.145233 -1.821960 28.019376 211 211 211 0
8.252937 -1.822077 28.021175 210 210 210 0
8.391355 -1.828885 28.125875 211 211 211 0
8.479612 -1.824727 28.061926 211 211 211 0
-7.632956 -1.526591 24.944302 202 202 202 0
-7.556215 -1.530373 25.006089 203 203 203 0
-7.503783 -1.539237 25.150939 202 202 202 0
-7.476262 -1.553509 25.384133 203 203 203 0
-7.412618 -1.560551 25.499202 202 202 202 0
-7.310406 -1.559553 25.482898 202 202 202 0
-7.236565 -1.564663 25.566383 202 202 202 0
-7.132557 -1.563300 25.544120 203 203 203 0
-7.054157 -1.567590 25.614223 203 203 203 0
-7.050983 -1.588954 25.963297 203 203 203 0
-7.000811 -1.600185 26.146819 202 202 202 0
-6.858249 -1.590319 25.985599 203 203 203 0
-6.722599 -1.581788 25.846209 203 203 203 0
-6.714474 -1.603457 26.200271 203 203 203 0
-6.691917 -1.622283 26.507889 204 204 204 0
-6.585160 -1.620962 26.486313 203 203 203 0
-6.420634 -1.605159 26.228081 203 203 203 0
-6.295478 -1.598852 26.125027 204 204 204 0
-6.235501 -1.609162 26.293489 204 204 204 0
-6.250379 -1.639444 26.788296 205 205 205 0
-6.109754 -1.629268 26.622020 203 203 203 0
-5.963217 -1.617144 26.423917 205 205 205 0
-5.818677 -1.605152 26.227979 204 204 204 0
-5.739884 -1.611195 26.326722 204 204 204 0
-5.722594 -1.635027 26.716124 204 204 204 0
-5.632662 -1.638593 26.774391 204 204 204 0
-5.497381 -1.628853 26.615253 204 204 204 0
-5.371966 -1.621726 26.498784 204 204 204 0
-5.298440 -1.630289 26.638712 205 205 205 0
-5.239658 -1.643814 26.859709 205 205 205 0
-5.157756 -1.650482 26.968658 205 205 205 0
-5.034586 -1.643947 26.861872 205 205 205 0
-4.912209 -1.637403 26.754953 205 205 205 0
-4.820724 -1.641097 26.815317 205 205 205 0
-4.773731 -1.660428 27.131180 205 205 205 0
-4.678014 -1.663294 27.178002 206 206 206 0
-4.555343 -1.656488 27.066801 205 205 205 0
-4.440258 -1.652189 26.996555 205 205 205 0
-4.344563 -1.655072 27.043656 205 205 205 0
-4.264949 -1.664370 27.195595 206 206 206 0
-4.178471 -1.671388 27.310266 205 205 205 0
-4.045115 -1.659534 27.116573 205 205 205 0
-3.921008 -1.650951 26.976318 206 206 206 0
-3.830054 -1.656240 27.062738 205 205 205 0
-3.734404 -1.659735 27.119852 206 206 206 0
-3.638992 -1.663539 27.182009 205 205 205 0
-3.537425 -1.664670 27.200498 206 206 206 0
-3.429855 -1.662960 27.172549 206 206 206 0
-3.328526 -1.664263 27.193841 205 205 205 0
-3.229717 -1.666950 27.237753 207 207 207 0
-3.125692 -1.667035 27.239142 206 206 206 0
-3.026820 -1.669970 27.287086 206 206 206 0
-2.932723 -1.675842 27.383032 206 206 206 0
-2.829865 -1.676957 27.401256 206 206 206 0
-2.725541 -1.677256 27.406148 206 206 206 0
-2.626627 -1.681041 27.467996 206 206 206 0
-2.532684 -1.688456 27.589153 207 207 207 0
-2.422250 -1.685043 27.533388 206 206 206 0
-2.310264 -1.680192 27.454114 207 207 207 0
-2.204105 -1.679318 27.439841 207 207 207 0
-2.109290 -1.687432 27.572420 207 207 207 0
-2.005141 -1.688540 27.590525 207 207 207 0
-1.895689 -1.685057 27.533606 207 207 207 0
-1.784162 -1.679212 27.438098 207 207 207 0
-1.673818 -1.673818 27.349971 207 207 207 0
-1.577360 -1.682518 27.492120 207 207 207 0
-1.479448 -1.690798 27.627420 207 207 207 0
-1.371147 -1.687565 27.574592 207 207 207 0
-1.262545 -1.683393 27.506422 208 208 208 0
-1.157471 -1.683595 27.509719 208 208 208 0
-1.054983 -1.687973 27.581264 208 208 208 0
-0.952878 -1.694005 27.679822 208 208 208 0
-0.845799 -1.691598 27.640491 207 207 207 0
-0.738050 -1.686971 27.564885 207 207 207 0
-0.631587 -1.684233 27.520152 207 207 207 0
-0.530438 -1.697402 27.735322 208 208 208 0
-0.426120 -1.704481 27.850999 208 208 208 0
-0.318436 -1.698325 27.750401 208 208 208 0
-0.211600 -1.692796 27.660070 208 208 208 0
-0.105958 -1.695332 27.701510 208 208 208 0
0.000000 -1.725251 28.190379 208 208 208 0
0.106423 -1.702770 27.823036 208 208 208 0
0.211962 -1.695692 27.707387 208 208 208 0
0.316736 -1.689259 27.602274 208 208 208 0
0.422180 -1.688722 27.593490 207 207 207 0
0.531311 -1.700195 27.780958 208 208 208 0
0.637800 -1.700800 27.790843 209 209 209 0
0.741719 -1.695358 27.701925 208 208 208 0
0.847440 -1.694880 27.694114 208 208 208 0
0.955964 -1.699491 27.769468 209 209 209 0
1.063576 -1.701721 27.805906 208 208 208 0
1.168899 -1.700216 27.781312 209 209 209 0
1.274037 -1.698716 27.756801 209 209 209 0
1.380220 -1.698733 27.757068 209 209 209 0
1.487310 -1.699783 27.774231 209 209 209 0
1.599404 -1.706031 27.876328 209 209 209 0
1.707472 -1.707472 27.899864 209 209 209 0
1.812135 -1.705539 27.868277 209 209 209 0
1.918852 -1.705646 27.870033 209 209 209 0
2.026313 -1.706369 27.881840 210 210 210 0
2.137790 -1.710232 27.944973 209 209 209 0
2.237871 -1.705045 27.860209 209 209 209 0
2.342252 -1.703456 27.834252 209 209 209 0
2.447027 -1.702280 27.815032 210 210 210 0
2.552368 -1.701579 27.803572 209 209 209 0
2.660997 -1.703038 27.827425 209 209 209 0
2.771344 -1.705443 27.866709 210 210 210 0
2.876195 -1.704412 27.849866 209 209 209 0
2.984085 -1.705191 27.862605 209 209 209 0
3.087536 -1.703468 27.834443 209 209 209 0
3.195332 -1.704177 27.846026 209 209 209 0
3.311090 -1.708950 27.924012 209 209 209 0
3.419292 -1.709646 27.935395 209 209 209 0
3.523771 -1.708495 27.916583 210 210 210 0
3.629317 -1.707914 27.907090 210 210 210 0
3.749299 -1.713965 28.005966 210 210 210 0
3.859303 -1.715246 28.026890 210 210 210 0
3.957746 -1.711458 27.964993 209 209 209 0
4.055062 -1.707395 27.898603 210 210 210 0
4.169006 -1.710362 27.947084 210 210 210 0
4.290906 -1.716362 28.045135 210 210 210 0
4.386916 -1.711967 27.973323 210 210 210 0
4.480311 -1.706785 27.888644 210 210 210 0
4.580696 -1.704445 27.850407 210 210 210 0
4.700645 -1.709326 27.930156 211 211 211 0
4.819805 -1.713708 28.001770 210 210 210 0
4.917292 -1.710362 27.947097 210 210 210 0
5.018251 -1.708341 27.914066 210 210 210 0
5.127242 -1.709081 27.926154 210 210 210 0
5.242831 -1.711945 27.972957 210 210 210 0
5.352278 -1.712729 27.985768 210 210 210 0
5.454671 -1.711269 27.961918 211 211 211 0
5.561475 -1.711223 27.961164 211 211 211 0
5.676259 -1.713588 27.999799 211 211 211 0
5.799584 -1.718395 28.078356 211 211 211 0
5.904959 -1.717806 28.068728 211 211 211 0
5.999299 -1.714085 28.007930 210 210 210 0
6.097655 -1.711623 27.967689 210 210 210 0
6.217292 -1.715115 28.024757 210 210 210 0
6.337430 -1.718625 28.082107 211 211 211 0
6.421809 -1.712482 27.981738 211 211 211 0
6.521629 -1.710591 27.950837 211 211 211 0
6.629626 -1.710871 27.955411 211 211 211 0
6.750040 -1.714296 28.011371 211 211 211 0
6.857805 -1.714451 28.013909 211 211 211 0
6.956957 -1.712482 27.981729 210 210 210 0
7.063532 -1.712371 27.979925 211 211 211 0
7.175255 -1.713494 27.998262 211 211 211 0
7.286765 -1.714533 28.015244 210 210 210 0
7.390525 -1.713745 28.002370 210 210 210 0
7.501192 -1.714558 28.015655 211 211 211 0
7.607016 -1.714257 28.010739 211 211 211 0
7.716897 -1.714866 28.020685 211 211 211 0
7.841520 -1.718689 28.083158 211 211 211 0
7.954153 -1.719817 28.101584 210 210 210 0
8.051186 -1.717586 28.065136 211 211 211 0
8.145816 -1.714909 28.021382 211 211 211 0
8.253567 -1.715027 28.023317 211 211 211 0
8.391317 -1.721296 28.125748 211 211 211 0
8.477621 -1.716986 28.055334 211 211 211 0
-7.628063 -1.430262 24.928309 202 202 202 0
-7.572121 -1.437744 25.058726 202 202 202 0
-7.499550 -1.442221 25.136753 203 203 203 0
-7.469442 -1.455086 25.360977 203 203 203 0
-7.419760 -1.464426 25.523770 202 202 202 0
-7.322080 -1.464416 25.523592 203 203 203 0
-7.238669 -1.467298 25.573816 203 203 203 0
-7.138309 -1.466776 25.564720 203 203 203 0
-7.051657 -1.469095 25.605147 202 202 202 0
-7.059556 -1.491456 25.994868 203 203 203 0
-6.998935 -1.499772 26.139813 203 203 203 0
-6.861958 -1.491730 25.999651 203 203 203 0
-6.725065 -1.483470 25.855689 203 203 203 0
-6.711060 -1.502476 26.186948 203 203 203 0
-6.684044 -1.519101 26.476704 203 203 203 0
-6.584101 -1.519408 26.482054 203 203 203 0
-6.421801 -1.505110 26.232849 203 203 203 0
-6.294657 -1.498728 26.121618 204 204 204 0
-6.237344 -1.509035 26.301262 204 204 204 0
-6.253533 -1.537754 26.801812 204 204 204 0
-6.108636 -1.527159 26.617151 204 204 204 0
-5.961552 -1.515649 26.416538 204 204 204 0
-5.822267 -1.505759 26.244159 204 204 204 0
-5.738122 -1.510032 26.318643 205 205 205 0
-5.720553 -1.532291 26.706596 204 204 204 0
-5.637456 -1.537488 26.797177 205 205 205 0
-5.496383 -1.526773 26.610422 204 204 204 0
-5.376467 -1.521642 26.520989 204 204 204 0
-5.302828 -1.529662 26.660773 205 205 205 0
-5.243386 -1.542172 26.878820 205 205 205 0
-5.152527 -1.545758 26.941318 205 205 205 0
-5.031571 -1.540277 26.845783 204 204 204 0
-4.915238 -1.536012 26.771448 205 205 205 0
-4.821226 -1.538689 26.818110 205 205 205 0
-4.773652 -1.556626 27.130731 205 205 205 0
-4.676938 -1.558979 27.171756 204 204 204 0
-4.551561 -1.551669 27.044333 205 205 205 0
-4.435356 -1.547217 26.966749 206 206 206 0
-4.347599 -1.552714 27.062555 206 206 206 0
-4.262558 -1.559472 27.180348 205 205 205 0
-4.178465 -1.566924 27.310230 206 206 206 0
-4.046290 -1.556265 27.124448 205 205 205 0
-3.921253 -1.547863 26.978001 206 206 206 0
-3.829995 -1.552701 27.062318 206 206 206 0
-3.735800 -1.556583 27.129996 206 206 206 0
-3.636204 -1.558373 27.161185 206 206 206 0
-3.537766 -1.560779 27.203122 205 205 205 0
-3.426270 -1.557395 27.144144 206 206 206 0
-3.329234 -1.560578 27.199622 206 206 206 0
-3.231742 -1.563746 27.254836 206 206 206 0
-3.126620 -1.563310 27.247236 206 206 206 0
-3.026914 -1.565645 27.287930 206 206 206 0
-2.936414 -1.573079 27.417495 207 207 207 0
-2.829786 -1.572103 27.400491 206 206 206 0
-2.724113 -1.571604 27.391786 206 206 206 0
-2.626123 -1.575674 27.462723 207 207 207 0
-2.532149 -1.582593 27.583319 206 206 206 0
-2.423219 -1.580360 27.544403 207 207 207 0
-2.311227 -1.575837 27.465566 207 207 207 0
-2.203844 -1.574174 27.436584 206 206 206 0
-2.109476 -1.582107 27.574854 207 207 207 0
-2.004447 -1.582458 27.580967 206 206 206 0
-1.895194 -1.579329 27.526423 206 206 206 0
-1.783957 -1.574080 27.434942 207 207 207 0
-1.674482 -1.569827 27.360816 207 207 207 0
-1.577108 -1.577108 27.487717 207 207 207 0
-1.478922 -1.584560 27.617596 207 207 207 0
-1.370564 -1.581420 27.562872 207 207 207 0
-1.262491 -1.578113 27.505241 208 208 208 0
-1.156685 -1.577298 27.491034 207 207 207 0
-1.055005 -1.582507 27.581817 208 208 208 0
-0.952222 -1.587037 27.660768 208 208 208 0
-0.846213 -1.586649 27.654021 207 207 207 0
-0.737868 -1.581147 27.558114 207 207 207 0
-0.631845 -1.579612 27.531357 208 208 208 0
-0.530424 -1.591272 27.734585 208 208 208 0
-0.426188 -1.598204 27.855402 208 208 208 0
-0.318415 -1.592075 27.748582 208 208 208 0
-0.211574 -1.586802 27.656682 208 208 208 0
-0.106027 -1.590412 27.719598 209 209 209 0
0.000000 -1.617939 28.199380 208 208 208 0
0.106471 -1.597058 27.835430 208 208 208 0
0.211874 -1.589053 27.695906 208 208 208 0
0.316804 -1.584022 27.608219 209 209 209 0
0.422461 -1.584229 27.611843 208 208 208 0
0.531277 -1.593831 27.779191 208 208 208 0
0.637488 -1.593720 27.777258 208 208 208 0
0.742018 -1.590038 27.713079 208 208 208 0
0.847164 -1.588433 27.685114 209 209 209 0
0.955383 -1.592304 27.752584 209 209 209 0
1.062973 -1.594459 27.790136 208 208 208 0
1.168735 -1.593729 27.777413 209 209 209 0
1.273542 -1.591928 27.746020 208 208 208 0
1.379829 -1.592110 27.749197 209 209 209 0
1.486653 -1.592842 27.761955 209 209 209 0
1.598848 -1.598848 27.866629 208 208 208 0
1.707686 -1.600956 27.903366 209 209 209 0
1.812793 -1.599523 27.878400 209 209 209 0
1.918829 -1.599024 27.869706 209 209 209 0
2.025992 -1.599468 27.877430 208 208 208 0
2.137550 -1.603162 27.941826 209 209 209 0
2.239421 -1.599586 27.879499 210 210 210 0
2.341757 -1.596653 27.828370 210 210 210 0
2.447437 -1.596154 27.819686 209 209 209 0
2.551645 -1.594778 27.795701 210 210 210 0
2.660094 -1.596056 27.817977 209 209 209 0
2.772567 -1.599558 27.879000 210 210 210 0
2.875985 -1.597770 27.847837 210 210 210 0
2.983206 -1.598146 27.854397 210 210 210 0
3.088490 -1.597495 27.843046 210 210 210 0
3.194096 -1.597048 27.835259 209 209 209 0
3.311553 -1.602364 27.927916 210 210 210 0
3.418701 -1.602516 27.930565 210 210 210 0
3.524266 -1.601939 27.920509 209 209 209 0
3.629578 -1.601284 27.909097 210 210 210 0
3.748251 -1.606393 27.998137 209 209 209 0
3.859519 -1.608133 28.028461 210 210 210 0
3.957490 -1.604388 27.963185 210 210 210 0
4.056111 -1.601096 27.905817 210 210 210 0
4.170195 -1.603921 27.955054 210 210 210 0
4.290662 -1.608998 28.043540 210 210 210 0
4.384766 -1.604183 27.959614 210 210 210 0
4.480736 -1.600263 27.891294 210 210 210 0
4.582772 -1.598641 27.863029 210 210 210 0
4.701589 -1.602815 27.935766 210 210 210 0
4.820487 -1.606829 28.005734 210 210 210 0
4.916918 -1.603343 27.944972 210 210 210 0
5.022470 -1.602916 27.937535 210 210 210 0
5.128614 -1.602692 27.933628 210 210 210 0
5.244326 -1.605406 27.980933 210 210 210 0
5.354048 -1.606214 27.995023 210 210 210 0
5.456941 -1.604983 27.973554 210 210 210 0
5.561167 -1.604183 27.959611 211 211 211 0
5.676033 -1.606424 27.998683 211 211 211 0
5.799624 -1.611007 28.078549 211 211 211 0
5.904440 -1.610302 28.066261 211 211 211 0
6.000030 -1.607151 28.011344 210 210 210 0
6.099088 -1.605023 27.974258 210 210 210 0
6.215864 -1.607551 28.018319 211 211 211 0
6.336826 -1.611057 28.079433 211 211 211 0
6.423172 -1.605793 27.987677 211 211 211 0
6.520810 -1.603478 27.947328 211 211 211 0
6.630377 -1.604124 27.958580 211 211 211 0
6.745617 -1.606099 27.993017 211 211 211 0
6.858285 -1.607411 28.015870 210 210 210 0
6.958188 -1.605736 27.986677 211 211 211 0
7.061606 -1.604910 27.972294 211 211 211 0
7.174345 -1.606197 27.994714 212 212 212 0
7.287241 -1.607480 28.017074 211 211 211 0
7.390971 -1.606733 28.004059 211 211 211 0
7.501608 -1.607488 28.017212 211 211 211 0
7.608237 -1.607374 28.015232 211 211 211 0
7.718345 -1.607988 28.025943 211 211 211 0
7.838811 -1.610715 28.073459 212 212 212 0
7.955359 -1.612573 28.105844 211 211 211 0
8.055199 -1.611040 28.079126 211 211 211 0
8.145682 -1.607700 28.020923 211 211 211 0
8.256647 -1.608438 28.033772 211 211 211 0
8.394246 -1.614278 28.135566 211 211 211 0
8.481025 -1.610321 28.066601 211 211 211 0
-7.660099 -1.340517 25.033002 202 202 202 0
-7.562299 -1.340154 25.026224 202 202 202 0
-7.521939 -1.350092 25.211795 203 203 203 0
-7.461740 -1.356680 25.334828 203 203 203 0
-7.409502 -1.364908 25.488482 203 203 203 0
-7.309343 -1.364411 25.479190 202 202 202 0
-7.227176 -1.367304 25.533212 203 203 203 0
-7.134120 -1.368187 25.549719 203 203 203 0
-7.049721 -1.370779 25.598116 202 202 202 0
-7.063235 -1.392751 26.008414 203 203 203 0
-7.000977 -1.400195 26.147438 203 203 203 0
-6.868206 -1.393549 26.023324 203 203 203 0
-6.723519 -1.384254 25.849748 203 203 203 0
-6.719035 -1.403977 26.218067 203 203 203 0
-6.686580 -1.418365 26.486751 203 203 203 0
-6.586944 -1.418726 26.493491 203 203 203 0
-6.430439 -1.406659 26.268133 203 203 203 0
-6.295274 -1.398950 26.124179 204 204 204 0
-6.233546 -1.407575 26.285244 204 204 204 0
-6.244831 -1.433240 26.764516 204 204 204 0
-6.112475 -1.426244 26.633878 204 204 204 0
-5.961671 -1.414634 26.417065 204 204 204 0
-5.822607 -1.405457 26.245691 204 204 204 0
-5.739318 -1.409657 26.324126 204 204 204 0
-5.722288 -1.430572 26.714695 204 204 204 0
-5.633370 -1.433949 26.777753 204 204 204 0
-5.496298 -1.424966 26.610013 204 204 204 0
-5.373818 -1.419499 26.507917 205 205 205 0
-5.289410 -1.424072 26.593316 205 205 205 0
-5.233658 -1.436691 26.828954 205 205 205 0
-5.152661 -1.442745 26.942016 205 205 205 0
-5.030561 -1.437303 26.840395 205 205 205 0
-4.910158 -1.432130 26.743782 205 205 205 0
-4.822243 -1.436413 26.823771 205 205 205 0
-4.776022 -1.453572 27.144202 205 205 205 0
-4.676227 -1.454826 27.167624 205 205 205 0
-4.554637 -1.449203 27.062608 205 205 205 0
-4.439098 -1.445288 26.989500 206 206 206 0
-4.347439 -1.449146 27.061556 205 205 205 0
-4.265718 -1.456587 27.200500 206 206 206 0
-4.179960 -1.462986 27.320002 205 205 205 0
-4.042734 -1.451238 27.100614 206 206 206 0
-3.920350 -1.444339 26.971789 205 205 205 0
-3.829957 -1.449173 27.062052 205 205 205 0
-3.734713 -1.452389 27.122101 206 206 206 0
-3.642252 -1.456901 27.206363 206 206 206 0
-3.535691 -1.455873 27.187167 205 205 205 0
-3.426901 -1.453837 27.149150 206 206 206 0
-3.330662 -1.457165 27.211289 206 206 206 0
-3.231702 -1.459479 27.254501 206 206 206 0
-3.127141 -1.459333 27.251778 206 206 206 0
-3.027155 -1.461385 27.290108 206 206 206 0
-2.932079 -1.466039 27.377018 206 206 206 0
-2.831736 -1.468307 27.419371 206 206 206 0
-2.724728 -1.467161 27.397969 207 207 207 0
-2.627711 -1.471518 27.479327 206 206 206 0
-2.533217 -1.477710 27.594955 207 207 207 0
-2.422288 -1.474436 27.533827 207 207 207 0
-2.310502 -1.470320 27.456948 207 207 207 0
-2.206045 -1.470697 27.463990 206 206 206 0
-2.108100 -1.475670 27.556861 207 207 207 0
-2.004851 -1.477259 27.586529 206 206 206 0
-1.895030 -1.473912 27.524038 207 207 207 0
-1.783948 -1.469134 27.434807 206 206 206 0
-1.674627 -1.465299 27.363189 207 207 207 0
-1.576092 -1.471019 27.470017 207 207 207 0
-1.478085 -1.478085 27.601967 207 207 207 0
-1.371247 -1.476728 27.576619 207 207 207 0
-1.262571 -1.472999 27.506985 207 207 207 0
-1.157219 -1.472824 27.503709 208 208 208 0
-1.054712 -1.476597 27.574178 207 207 207 0
-0.952555 -1.481752 27.670434 207 207 207 0
-0.846435 -1.481262 27.661279 208 208 208 0
-0.737990 -1.475980 27.562645 208 208 208 0
-0.631580 -1.473686 27.519811 208 208 208 0
-0.530206 -1.484578 27.723205 208 208 208 0
-0.426104 -1.491363 27.849914 208 208 208 0
-0.318399 -1.485863 27.747206 208 208 208 0
-0.211594 -1.481160 27.659383 208 208 208 0
-0.105971 -1.483595 27.704855 208 208 208 0
0.000000 -1.513775 28.268432 208 208 208 0
0.106429 -1.490010 27.824658 208 208 208 0
0.212064 -1.484447 27.720757 208 208 208 0
0.316672 -1.477801 27.596662 208 208 208 0
0.422622 -1.479175 27.622324 208 208 208 0
0.531038 -1.486907 27.766706 208 208 208 0
0.637484 -1.487462 27.777077 208 208 208 0
0.741562 -1.483123 27.696046 209 209 209 0
0.847354 -1.482870 27.691321 209 209 209 0
0.955986 -1.487089 27.770108 209 209 209 0
1.062633 -1.487686 27.781243 209 209 209 0
1.169462 -1.488406 27.794698 209 209 209 0
1.274122 -1.486475 27.758645 209 209 209 0
1.380888 -1.487110 27.770490 209 209 209 0
1.486824 -1.486824 27.765156 209 209 209 0
1.598251 -1.491701 27.856226 209 209 209 0
1.706930 -1.493564 27.891019 209 209 209 0
1.813204 -1.493227 27.884724 209 209 209 0
1.918937 -1.492506 27.871270 209 209 209 0
2.026395 -1.493133 27.882973 209 209 209 0
2.137487 -1.496241 27.941005 208 208 208 0
2.239152 -1.492768 27.876152 210 210 210 0
2.342428 -1.490636 27.836339 209 209 209 0
2.445398 -1.488503 27.796512 210 210 210 0
2.551596 -1.488431 27.795168 209 209 209 0
2.660981 -1.490149 27.827253 210 210 210 0
2.771842 -1.492530 27.871716 209 209 209 0
2.876927 -1.491740 27.856951 209 209 209 0
2.984259 -1.492130 27.864232 209 209 209 0
3.087481 -1.490508 27.833953 210 210 210 0
3.195601 -1.491280 27.848370 209 209 209 0
3.309746 -1.494724 27.912683 210 210 210 0
3.418783 -1.495718 27.931234 210 210 210 0
3.522977 -1.494596 27.910298 209 209 209 0
3.628121 -1.493932 27.897893 210 210 210 0
3.748327 -1.499331 27.998707 210 210 210 0
3.861188 -1.501573 28.040583 209 209 209 0
3.958155 -1.497680 27.967885 210 210 210 0
4.054718 -1.493844 27.896237 210 210 210 0
4.169343 -1.496687 27.949340 210 210 210 0
4.292005 -1.502202 28.052322 210 210 210 0
4.387593 -1.498202 27.977637 210 210 210 0
4.481073 -1.493691 27.893387 210 210 210 0
4.582908 -1.492110 27.863856 210 210 210 0
4.702244 -1.496169 27.939657 210 210 210 0
4.817577 -1.498802 27.988827 210 210 210 0
4.918066 -1.496803 27.951500 210 210 210 0
5.019965 -1.495309 27.923598 210 210 210 0
5.128420 -1.495789 27.932573 210 210 210 0
5.242289 -1.497797 27.970063 210 210 210 0
5.352384 -1.498668 27.986322 210 210 210 0
5.454298 -1.497258 27.960004 210 210 210 0
5.561095 -1.497218 27.959253 210 210 210 0
5.673164 -1.498572 27.984531 211 211 211 0
5.799386 -1.503545 28.077395 210 210 210 0
5.904868 -1.503057 28.068299 210 210 210 0
6.000427 -1.500107 28.013197 210 210 210 0
6.101035 -1.498500 27.983190 211 211 211 0
6.219420 -1.501239 28.034347 211 211 211 0
6.338741 -1.504108 28.087918 211 211 211 0
6.422857 -1.498667 27.986303 211 211 211 0
6.520312 -1.496465 27.945191 210 210 210 0
6.632439 -1.497648 27.967275 211 211 211 0
6.745795 -1.499065 27.993753 211 211 211 0
6.857520 -1.500082 28.012744 211 211 211 0
6.953975 -1.497779 27.969732 211 211 211 0
7.063849 -1.498392 27.981179 211 211 211 0
7.172969 -1.498829 27.989342 211 211 211 0
7.282125 -1.499261 27.997405 211 211 211 0
7.388940 -1.499205 27.996363 211 211 211 0
7.500797 -1.500159 28.014180 211 211 211 0
7.609819 -1.500528 28.021058 211 211 211 0
7.714735 -1.500087 28.012837 211 211 211 0
7.837393 -1.503062 28.068377 211 211 211 0
7.954466 -1.504899 28.102690 211 211 211 0
8.053004 -1.503227 28.071473 211 211 211 0
8.142470 -1.499929 28.009873 211 211 211 0
8.250690 -1.500125 28.013548 212 212 212 0
8.393181 -1.506468 28.131996 212 212 212 0
8.481893 -1.503120 28.069474 211 211 211 0
-7.649045 -1.242970 24.996878 202 202 202 0
-7.566691 -1.245152 25.040756 203 203 203 0
-7.495162 -1.249194 25.122045 203 203 203 0
-7.475819 -1.262151 25.382630 202 202 202 0
-7.411427 -1.267744 25.495105 202 202 202 0
-7.318403 -1.268523 25.510772 203 203 203 0
-7.226678 -1.269552 25.531454 203 203 203 0
-7.135287 -1.270668 25.553899 202 202 202 0
-7.057112 -1.274201 25.624951 203 203 203 0
-7.067885 -1.294120 26.025536 203 203 203 0
-7.004533 -1.300842 26.160719 204 204 204 0
-6.875244 -1.295336 26.049991 204 204 204 0
-6.724910 -1.285645 25.855094 204 204 204 0
-6.710157 -1.301971 26.183424 204 204 204 0
-6.689128 -1.317556 26.496844 203 203 203 0
-6.587895 -1.317579 26.497314 203 203 203 0
-6.424163 -1.304908 26.242495 203 203 203 0
-6.289161 -1.297763 26.098809 204 204 204 0
-6.227114 -1.305685 26.258126 204 204 204 0
-6.250754 -1.332128 26.789901 204 204 204 0
-6.105533 -1.322865 26.603628 204 204 204 0
-5.953580 -1.311806 26.381212 204 204 204 0
-5.822112 -1.304956 26.243463 204 204 204 0
-5.737773 -1.308615 26.317043 203 203 203 0
-5.718860 -1.327592 26.698691 204 204 204 0
-5.631985 -1.331196 26.771168 204 204 204 0
-5.500324 -1.324152 26.629502 204 204 204 0
-5.372842 -1.317867 26.503104 204 204 204 0
-5.293978 -1.323495 26.616281 205 205 205 0
-5.243829 -1.336662 26.881094 204 204 204 0
-5.156889 -1.340791 26.964128 205 205 205 0
-5.026864 -1.333658 26.820670 205 205 205 0
-4.904305 -1.328249 26.711900 205 205 205 0
-4.818977 -1.332908 26.805600 205 205 205 0
-4.771763 -1.348542 27.119994 205 205 205 0
-4.673001 -1.349978 27.148879 206 206 206 0
-4.554883 -1.345761 27.064072 205 205 205 0
-4.438358 -1.341829 26.985003 205 205 205 0
-4.346242 -1.345265 27.054104 206 206 206 0
-4.266423 -1.352768 27.204993 205 205 205 0
-4.174684 -1.356772 27.285519 206 206 206 0
-4.047110 -1.349037 27.129949 205 205 205 0
-3.925563 -1.342956 27.007659 206 206 206 0
-3.828640 -1.345198 27.052748 206 206 206 0
-3.733392 -1.348169 27.112506 206 206 206 0
-3.639795 -1.351924 27.188008 206 206 206 0
-3.535349 -1.351751 27.184535 207 207 207 0
-3.426138 -1.349691 27.143105 205 205 205 0
-3.329810 -1.352735 27.204331 206 206 206 0
-3.231004 -1.354937 27.248614 206 206 206 0
-3.126085 -1.354637 27.242569 206 206 206 0
-3.027918 -1.357342 27.296982 206 206 206 0
-2.932479 -1.361508 27.380758 206 206 206 0
-2.831145 -1.363144 27.413651 207 207 207 0
-2.724068 -1.362034 27.391332 207 207 207 0
-2.627348 -1.366221 27.475537 207 207 207 0
-2.533873 -1.372514 27.602101 207 207 207 0
-2.423207 -1.369638 27.544263 207 207 207 0
-2.311647 -1.365973 27.470553 206 206 206 0
-2.204899 -1.364937 27.449721 207 207 207 0
-2.107031 -1.369570 27.542892 207 207 207 0
-2.003646 -1.370916 27.569949 207 207 207 0
-1.895434 -1.368925 27.529910 207 207 207 0
-1.785084 -1.365064 27.452272 206 206 206 0
-1.673871 -1.360020 27.350827 207 207 207 0
-1.575505 -1.365437 27.459775 207 207 207 0
-1.478706 -1.373084 27.613550 208 208 208 0
-1.370655 -1.370655 27.564699 208 208 208 0
-1.262339 -1.367534 27.501943 207 207 207 0
-1.157334 -1.367758 27.506442 207 207 207 0
-1.055096 -1.371625 27.584210 207 207 207 0
-0.951925 -1.375002 27.652135 208 208 208 0
-0.846413 -1.375421 27.660547 208 208 208 0
-0.738339 -1.371200 27.575673 208 208 208 0
-0.631745 -1.368780 27.526996 208 208 208 0
-0.530454 -1.379181 27.736179 208 208 208 0
-0.425844 -1.383993 27.832947 208 208 208 0
-0.318393 -1.379705 27.746710 208 208 208 0
-0.211628 -1.375583 27.663819 208 208 208 0
-0.106045 -1.378590 27.724288 207 207 207 0
0.000000 -1.410612 28.368271 208 208 208 0
0.106456 -1.383926 27.831585 208 208 208 0
0.211990 -1.377938 27.711164 208 208 208 0
0.316654 -1.372169 27.595151 208 208 208 0
0.422226 -1.372236 27.596491 208 208 208 0
0.530986 -1.380563 27.763960 208 208 208 0
0.637753 -1.381799 27.788821 209 209 209 0
0.741473 -1.377021 27.692736 208 208 208 0
0.847603 -1.377355 27.699440 208 208 208 0
0.955787 -1.380581 27.764323 209 209 209 0
1.063258 -1.382235 27.797589 208 208 208 0
1.169047 -1.381601 27.784834 208 208 208 0
1.274182 -1.380364 27.759964 208 208 208 0
1.380966 -1.380966 27.772071 209 209 209 0
1.488113 -1.381819 27.789228 209 209 209 0
1.599508 -1.386240 27.878136 209 209 209 0
1.707723 -1.387525 27.903979 209 209 209 0
1.811743 -1.385450 27.862250 209 209 209 0
1.918011 -1.385230 27.857820 209 209 209 0
2.025619 -1.385950 27.872298 210 210 210 0
2.136262 -1.388570 27.924991 209 209 209 0
2.238356 -1.385649 27.866238 209 209 209 0
2.341866 -1.383830 27.829658 210 210 210 0
2.446590 -1.382855 27.810058 209 209 209 0
2.551384 -1.382000 27.792857 209 209 209 0
2.661097 -1.383770 27.828465 209 209 209 0
2.773260 -1.386630 27.885972 210 210 210 0
2.877271 -1.385353 27.860290 209 209 209 0
2.985425 -1.386090 27.875117 209 209 209 0
3.086929 -1.383796 27.828971 210 210 210 0
3.195301 -1.384631 27.845762 210 210 210 0
3.310669 -1.388345 27.920465 209 209 209 0
3.418943 -1.388946 27.932540 210 210 210 0
3.523952 -1.388223 27.918018 210 210 210 0
3.629705 -1.387829 27.910076 210 210 210 0
3.747948 -1.392095 27.995874 210 210 210 0
3.861096 -1.394285 28.039912 209 209 209 0
3.958491 -1.390821 27.970258 210 210 210 0
4.056591 -1.387781 27.909122 210 210 210 0
4.174249 -1.391416 27.982228 211 211 211 0
4.292368 -1.395020 28.054693 210 210 210 0
4.385938 -1.390663 27.967081 210 210 210 0
4.479779 -1.386598 27.885336 210 210 210 0
4.581800 -1.385195 27.857121 210 210 210 0
4.703378 -1.389634 27.946392 210 210 210 0
4.819463 -1.392289 27.999786 210 210 210 0
4.918475 -1.390004 27.953820 210 210 210 0
5.020464 -1.388639 27.926376 210 210 210 0
5.128565 -1.388986 27.933361 210 210 210 0
5.242045 -1.390747 27.968763 210 210 210 0
5.354826 -1.392255 27.999088 211 211 211 0
5.455898 -1.390719 27.968205 211 211 211 0
5.560469 -1.390117 27.956105 210 210 210 0
5.672839 -1.391451 27.982927 210 210 210 0
5.796132 -1.395365 28.061642 210 210 210 0
5.905375 -1.395816 28.070707 211 211 211 0
5.998254 -1.392452 28.003051 211 211 211 0
6.101220 -1.391506 27.984038 211 211 211 0
6.214308 -1.392862 28.011305 211 211 211 0
6.336965 -1.396281 28.080050 211 211 211 0
6.424041 -1.391876 27.991463 211 211 211 0
6.522551 -1.390052 27.954788 211 211 211 0
6.630113 -1.390185 27.957465 211 211 211 0
6.747906 -1.392425 28.002514 210 210 210 0
6.857199 -1.392869 28.011435 211 211 211 0
6.955787 -1.391157 27.977022 211 211 211 0
7.063119 -1.391220 27.978290 211 211 211 0
7.173611 -1.391895 27.991847 211 211 211 0
7.284239 -1.392575 28.005531 211 211 211 0
7.389743 -1.392270 27.999405 211 211 211 0
7.501222 -1.393084 28.015768 212 212 212 0
7.607178 -1.392864 28.011333 210 210 210 0
7.715449 -1.393067 28.015428 211 211 211 0
7.838129 -1.395831 28.071015 211 211 211 0
7.952019 -1.396976 28.094043 211 211 211 0
8.051012 -1.395509 28.064530 211 211 211 0
8.142931 -1.392870 28.011459 211 211 211 0
8.239309 -1.391052 27.974906 211 211 211 0
8.390515 -1.398419 28.123062 211 211 211 0
8.481257 -1.395650 28.067369 211 211 211 0
-7.659216 -1.148882 25.030116 203 203 203 0
-7.565799 -1.149235 25.037806 202 202 202 0
-7.511691 -1.155645 25.177447 202 202 202 0
-7.476501 -1.165169 25.384944 202 202 202 0
-7.411009 -1.170159 25.493666 202 202 202 0
-7.311578 -1.169852 25.486981 202 202 202 0
-7.239899 -1.174038 25.578163 202 202 202 0
-7.137944 -1.173361 25.563411 203 203 203 0
-7.057517 -1.176253 25.626424 203 203 203 0
-7.059211 -1.193106 25.993596 203 203 203 0
-6.999897 -1.199982 26.143405 203 203 203 0
-6.846173 -1.190639 25.939844 203 203 203 0
-6.730143 -1.187672 25.875214 203 203 203 0
-6.717111 -1.203065 26.210559 203 203 203 0
-6.702454 -1.218628 26.549631 204 204 204 0
-6.581711 -1.215085 26.472441 203 203 203 0
-6.431432 -1.205893 26.272189 204 204 204 0
-6.294557 -1.198963 26.121203 203 203 203 0
-6.226770 -1.205181 26.256672 204 204 204 0
-6.248780 -1.229268 26.781442 204 204 204 0
-6.111730 -1.222346 26.630633 204 204 204 0
-5.961742 -1.212558 26.417377 204 204 204 0
-5.816336 -1.203380 26.217427 204 204 204 0
-5.724939 -1.205250 26.258177 205 205 205 0
-5.717707 -1.225223 26.693310 204 204 204 0
-5.636859 -1.229860 26.794339 204 204 204 0
-5.499488 -1.222108 26.625455 204 204 204 0
-5.375064 -1.216996 26.514066 204 204 204 0
-5.288714 -1.220472 26.589815 205 205 205 0
-5.243511 -1.233767 26.879460 204 204 204 0
-5.159152 -1.238197 26.975961 205 205 205 0
-5.028977 -1.231586 26.831944 205 205 205 0
-4.909740 -1.227435 26.741504 204 204 204 0
-4.822008 -1.231151 26.822459 205 205 205 0
-4.778600 -1.246591 27.158853 205 205 205 0
-4.679877 -1.247967 27.188829 205 205 205 0
-4.553778 -1.241939 27.057504 205 205 205 0
-4.438936 -1.238773 26.988514 205 205 205 0
-4.343042 -1.240869 27.034188 205 205 205 0
-4.261587 -1.247294 27.174156 205 205 205 0
-4.180301 -1.254090 27.322228 205 205 205 0
-4.048411 -1.245665 27.138672 205 205 205 0
-3.923797 -1.239094 26.995510 206 206 206 0
-3.832579 -1.242999 27.080580 205 205 205 0
-3.738317 -1.246106 27.148268 205 205 205 0
-3.638359 -1.247437 27.177281 205 205 205 0
-3.533550 -1.247135 27.170704 206 206 206 0
-3.424792 -1.245379 27.132438 206 206 206 0
-3.330552 -1.248957 27.210389 206 206 206 0
-3.230193 -1.250397 27.241771 206 206 206 0
-3.125932 -1.250373 27.241239 206 206 206 0
-3.028915 -1.253344 27.305975 206 206 206 0
-2.933498 -1.257213 27.390270 206 206 206 0
-2.830018 -1.257786 27.402738 206 206 206 0
-2.723274 -1.256896 27.383351 206 206 206 0
-2.627496 -1.261198 27.477085 206 206 206 0
-2.533003 -1.266501 27.592622 207 207 207 0
-2.423693 -1.264536 27.549796 207 207 207 0
-2.312084 -1.261137 27.475751 207 207 207 0
-2.204658 -1.259805 27.446726 207 207 207 0
-2.107582 -1.264549 27.550087 207 207 207 0
-2.003424 -1.265320 27.566890 207 207 207 0
-1.895348 -1.263565 27.528658 207 207 207 0
-1.783845 -1.259185 27.433220 206 206 206 0
-1.674169 -1.255627 27.355709 208 208 208 0
-1.575333 -1.260267 27.456788 207 207 207 0
-1.477780 -1.266668 27.596262 207 207 207 0
-1.370830 -1.265381 27.568222 207 207 207 0
-1.263055 -1.263055 27.517544 208 208 208 0
-1.157210 -1.262411 27.503517 207 207 207 0
-1.054930 -1.265917 27.579882 208 208 208 0
-0.952007 -1.269343 27.654523 207 207 207 0
-0.845702 -1.268553 27.637314 207 207 207 0
-0.737562 -1.264392 27.546671 207 207 207 0
-0.631741 -1.263482 27.526837 208 208 208 0
-0.530092 -1.272221 27.717240 208 208 208 0
-0.426242 -1.278725 27.858926 207 207 207 0
-0.318656 -1.274626 27.769623 208 208 208 0
-0.211514 -1.269085 27.648908 208 208 208 0
-0.106005 -1.272063 27.713782 209 209 209 0
0.000000 -1.302931 28.386292 208 208 208 0
0.106426 -1.277109 27.823728 208 208 208 0
0.212065 -1.272389 27.720894 208 208 208 0
0.316701 -1.266805 27.599235 208 208 208 0
0.422428 -1.267284 27.609671 208 208 208 0
0.530854 -1.274050 27.757088 208 208 208 0
0.637454 -1.274907 27.775756 208 208 208 0
0.741880 -1.271795 27.707947 208 208 208 0
0.847253 -1.270880 27.688012 208 208 208 0
0.956587 -1.275449 27.787556 209 209 209 0
1.063099 -1.275718 27.793429 208 208 208 0
1.169525 -1.275845 27.796197 208 208 208 0
1.273844 -1.273844 27.752596 208 208 208 0
1.380227 -1.274056 27.757207 209 209 209 0
1.486912 -1.274496 27.766800 209 209 209 0
1.599989 -1.279992 27.886525 209 209 209 0
1.707280 -1.280460 27.896735 208 208 208 0
1.811614 -1.278786 27.860265 209 209 209 0
1.917753 -1.278502 27.854074 209 209 209 0
2.025656 -1.279362 27.872808 209 209 209 0
2.137064 -1.282238 27.935477 209 209 209 0
2.239025 -1.279443 27.874568 209 209 209 0
2.341813 -1.277353 27.829035 209 209 209 0
2.445134 -1.275722 27.793513 209 209 209 0
2.551995 -1.275998 27.799513 209 209 209 0
2.661154 -1.277354 27.829057 209 209 209 0
2.771262 -1.279044 27.865887 209 209 209 0
2.877265 -1.278785 27.860231 209 209 209 0
2.984504 -1.279073 27.866522 209 209 209 0
3.088710 -1.278087 27.845028 209 209 209 0
3.194479 -1.277791 27.838593 210 210 210 0
3.308842 -1.280842 27.905056 210 210 210 0
3.418842 -1.282066 27.931715 209 209 209 0
3.523423 -1.281245 27.913832 210 210 210 0
3.628835 -1.280765 27.903387 210 210 210 0
3.747518 -1.284863 27.992667 210 210 210 0
3.859617 -1.286539 28.029171 210 210 210 0
3.958358 -1.283792 27.969317 210 210 210 0
4.055764 -1.280768 27.903433 210 210 210 0
4.172668 -1.283898 27.971628 210 210 210 0
4.290944 -1.287283 28.045383 210 210 210 0
4.386102 -1.283737 27.968131 210 210 210 0
4.480697 -1.280199 27.891048 210 210 210 0
4.584192 -1.279309 27.871663 210 210 210 0
4.699976 -1.281812 27.926181 210 210 210 0
4.818512 -1.284937 27.994260 211 211 211 0
4.917015 -1.282699 27.945523 210 210 210 0
5.020741 -1.281891 27.927918 210 210 210 0
5.125818 -1.281454 27.918397 211 211 211 0
5.240559 -1.283402 27.960834 211 211 211 0
5.353290 -1.284790 27.991060 210 210 210 0
5.455700 -1.283694 27.967190 210 210 210 0
5.560773 -1.283255 27.957631 211 211 211 0
5.673864 -1.284648 27.987983 210 210 210 0
5.799475 -1.288772 28.077828 211 211 211 0
5.905284 -1.288426 28.070276 210 210 210 0
5.996959 -1.285063 27.997006 210 210 210 0
6.098583 -1.283912 27.971943 210 210 210 0
6.214178 -1.285692 28.010719 211 211 211 0
6.338047 -1.289094 28.084845 211 211 211 0
6.423597 -1.284719 27.989531 210 210 210 0
6.526097 -1.283822 27.969987 211 211 211 0
6.627820 -1.282804 27.947796 211 211 211 0
6.747685 -1.285273 28.001599 211 211 211 0
6.858389 -1.285948 28.016296 211 211 211 0
6.955049 -1.284009 27.974052 211 211 211 0
7.064263 -1.284411 27.982820 211 211 211 0
7.174167 -1.284925 27.994018 211 211 211 0
7.283158 -1.285263 28.001377 211 211 211 0
7.389501 -1.285131 27.998487 211 211 211 0
7.503390 -1.286295 28.023866 211 211 211 0
7.605763 -1.285481 28.006124 210 210 210 0
7.716312 -1.286052 28.018563 211 211 211 0
7.835509 -1.288029 28.061633 211 211 211 0
7.954628 -1.289940 28.103263 211 211 211 0
8.052738 -1.288438 28.070547 211 211 211 0
8.142746 -1.285697 28.010822 211 211 211 0
8.244490 -1.284856 27.992498 212 212 212 0
8.394409 -1.291448 28.136112 211 211 211 0
8.475416 -1.287405 28.048039 212 212 212 0
-7.633984 -1.049673 24.947660 202 202 202 0
-7.578768 -1.055272 25.080726 202 202 202 0
-7.512005 -1.059385 25.178500 202 202 202 0
-7.480949 -1.068707 25.400048 203 203 203 0
-7.395777 -1.070441 25.441269 203 203 203 0
-7.314524 -1.072797 25.497251 202 202 202 0
-7.235807 -1.075593 25.563706 203 203 203 0
-7.127367 -1.073987 25.525534 203 203 203 0
-7.064519 -1.079301 25.651847 203 203 203 0
-7.048882 -1.092080 25.955563 203 203 203 0
-6.985321 -1.097693 26.088968 203 203 203 0
-6.867853 -1.094875 26.021989 203 203 203 0
-6.724628 -1.087807 25.854009 203 203 203 0
-6.702277 -1.100374 26.152675 203 203 203 0
-6.696864 -1.116144 26.527485 203 203 203 0
-6.579708 -1.113489 26.464386 203 203 203 0
-6.430266 -1.105202 26.267426 203 203 203 0
-6.292972 -1.098773 26.114627 204 204 204 0
-6.223949 -1.104249 26.244778 204 204 204 0
-6.245688 -1.126272 26.768192 204 204 204 0
-6.109771 -1.120125 26.622098 204 204 204 0
-5.960683 -1.111314 26.412687 204 204 204 0
-5.816213 -1.103075 26.216872 204 204 204 0
-5.736353 -1.107015 26.310528 204 204 204 0
-5.720489 -1.123668 26.706298 204 204 204 0
-5.631273 -1.126255 26.767787 204 204 204 0
-5.497889 -1.119940 26.617713 204 204 204 0
-5.362359 -1.112942 26.451395 205 205 205 0
-5.291099 -1.119271 26.601807 205 205 205 0
-5.242401 -1.130714 26.873772 205 205 205 0
-5.155174 -1.134138 26.955159 204 204 204 0
-5.027005 -1.128511 26.821422 205 205 205 0
-4.911149 -1.125472 26.749178 204 204 204 0
-4.819190 -1.127896 26.806787 205 205 205 0
-4.774173 -1.141650 27.133693 205 205 205 0
-4.677012 -1.143270 27.172184 205 205 205 0
-4.554396 -1.138599 27.061177 205 205 205 0
-4.437925 -1.135283 26.982367 205 205 205 0
-4.345237 -1.138038 27.047851 205 205 205 0
-4.265130 -1.144303 27.196745 206 206 206 0
-4.177756 -1.148883 27.305593 205 205 205 0
-4.044831 -1.140850 27.114674 206 206 206 0
-3.924348 -1.135995 26.999298 206 206 206 0
-3.827001 -1.137757 27.041163 205 205 205 0
-3.735057 -1.141267 27.124597 206 206 206 0
-3.635996 -1.142742 27.159632 206 206 206 0
-3.532032 -1.142716 27.159033 206 206 206 0
-3.424541 -1.141514 27.130449 206 206 206 0
-3.331646 -1.145253 27.219330 206 206 206 0
-3.229507 -1.145954 27.235982 206 206 206 0
-3.124832 -1.145772 27.231652 206 206 206 0
-3.023642 -1.146899 27.258437 206 206 206 0
-2.933247 -1.152347 27.387925 207 207 207 0
-2.830770 -1.153277 27.410023 207 207 207 0
-2.722459 -1.151809 27.375150 206 206 206 0
-2.626527 -1.155672 27.466944 206 206 206 0
-2.532572 -1.160762 27.587933 207 207 207 0
-2.422765 -1.158714 27.539244 207 207 207 0
-2.311936 -1.155968 27.473984 207 207 207 0
-2.203574 -1.154253 27.433224 207 207 207 0
-2.106733 -1.158703 27.538988 206 206 206 0
-2.004056 -1.160243 27.575588 207 207 207 0
-1.894380 -1.157677 27.514598 207 207 207 0
-1.783896 -1.154286 27.434008 207 207 207 0
-1.674447 -1.151182 27.360238 207 207 207 0
-1.576317 -1.155965 27.473927 207 207 207 0
-1.477679 -1.161034 27.594386 207 207 207 0
-1.370988 -1.160067 27.571409 208 208 208 0
-1.262962 -1.157715 27.515519 207 207 207 0
-1.157223 -1.157223 27.503812 208 208 208 0
-1.054562 -1.160019 27.570258 207 207 207 0
-0.951725 -1.163220 27.646339 208 208 208 0
-0.845754 -1.162912 27.639022 208 208 208 0
-0.738040 -1.159777 27.564524 207 207 207 0
-0.631694 -1.158105 27.524786 207 207 207 0
-0.530340 -1.166748 27.730185 207 207 207 0
-0.426048 -1.171632 27.846283 208 208 208 0
-0.318364 -1.167334 27.744131 208 208 208 0
-0.211549 -1.163520 27.653471 208 208 208 0
-0.106108 -1.167184 27.740559 208 208 208 0
0.000000 -1.193707 28.370942 208 208 208 0
0.106388 -1.170268 27.813853 208 208 208 0
0.211970 -1.165837 27.708534 208 208 208 0
0.316658 -1.161080 27.595488 208 208 208 0
0.422165 -1.160955 27.592514 208 208 208 0
0.530982 -1.168161 27.763774 208 208 208 0
0.637630 -1.168989 27.783455 208 208 208 0
0.741511 -1.165231 27.694146 209 209 209 0
0.847053 -1.164698 27.681480 208 208 208 0
0.955988 -1.168429 27.770156 209 209 209 0
1.063752 -1.170127 27.810517 209 209 209 0
1.169442 -1.169442 27.794226 209 209 209 0
1.274025 -1.167856 27.756536 208 208 208 0
1.380851 -1.168413 27.769757 208 208 208 0
1.487531 -1.168774 27.778354 208 208 208 0
1.599056 -1.172641 27.870256 209 209 209 0
1.707906 -1.174186 27.906965 209 209 209 0
1.812145 -1.172565 27.868440 209 209 209 0
1.918564 -1.172456 27.865849 209 209 209 0
2.025635 -1.172736 27.872513 209 209 209 0
2.136170 -1.174894 27.923794 209 209 209 0
2.238047 -1.172310 27.862394 209 209 209 0
2.343200 -1.171600 27.845512 209 209 209 0
2.445907 -1.169782 27.802299 209 209 209 0
2.550700 -1.169071 27.785403 209 209 209 0
2.660795 -1.170750 27.825302 210 210 210 0
2.771694 -1.172640 27.870227 209 209 209 0
2.877522 -1.172324 27.862712 209 209 209 0
2.983937 -1.172261 27.861227 210 210 210 0
3.087209 -1.171010 27.831498 210 210 210 0
3.195363 -1.171633 27.846297 210 210 210 0
3.309762 -1.174432 27.912812 210 210 210 0
3.420801 -1.175900 27.947722 210 210 210 0
3.524267 -1.174756 27.920518 210 210 210 0
3.628708 -1.173994 27.902405 210 210 210 0
3.749917 -1.178545 28.010582 209 209 209 0
3.859988 -1.179441 28.031863 210 210 210 0
3.958215 -1.176767 27.968310 210 210 210 0
4.055848 -1.174061 27.904008 210 210 210 0
4.170254 -1.176226 27.955449 209 209 209 0
4.292113 -1.180331 28.053027 211 211 211 0
4.387337 -1.177091 27.976008 210 210 210 0
4.479500 -1.173202 27.883601 210 210 210 0
