ply
    format ascii 1.0
    element vertex 25597
    property float x
    property float y
    property float z
    property uchar red
    property uchar green
    property uchar blue
    property uchar alpha
    end_header
6.429995 0.527049 27.558108 211 211 211 0
6.522246 0.525988 27.502616 211 211 211 0
6.614927 0.524994 27.450677 211 211 211 0
6.724467 0.525349 27.469229 212 212 212 0
6.841357 0.526258 27.516770 211 211 211 0
6.948996 0.526439 27.526226 211 211 211 0
7.042775 0.525580 27.481318 211 211 211 0
7.151398 0.525838 27.494802 212 212 212 0
7.265929 0.526517 27.530281 211 211 211 0
7.368060 0.526290 27.518433 211 211 211 0
7.476987 0.526548 27.531941 212 212 212 0
7.589615 0.527057 27.558513 212 212 212 0
7.697774 0.527245 27.568357 211 211 211 0
7.808334 0.527590 27.586414 211 211 211 0
7.924664 0.528311 27.624100 212 212 212 0
8.023386 0.527854 27.600225 212 212 212 0
8.130355 0.527945 27.604973 212 212 212 0
8.248428 0.528745 27.646818 211 211 211 0
8.517017 0.539052 28.185709 211 211 211 0
-7.502101 0.562658 24.516668 203 203 203 0
-7.406336 0.562507 24.510089 203 203 203 0
-7.328778 0.563752 24.564365 202 202 202 0
-7.295059 0.568446 24.768895 204 204 204 0
-7.258159 0.573013 24.967866 204 204 204 0
-7.192894 0.575432 25.073268 203 203 203 0
-7.119401 0.577249 25.152448 203 203 203 0
-7.029096 0.577734 25.173590 203 203 203 0
-6.945059 0.578755 25.218079 203 203 203 0
-6.906158 0.583619 25.430021 203 203 203 0
-6.862341 0.588201 25.629660 203 203 203 0
-6.757904 0.587644 25.605396 204 204 204 0
-6.625062 0.584564 25.471212 204 204 204 0
-6.564744 0.587888 25.616014 203 203 203 0
-6.564446 0.596768 26.002956 204 204 204 0
-6.496959 0.599719 26.131561 204 204 204 0
-6.346183 0.594955 25.923950 204 204 204 0
-6.198613 0.590344 25.723054 204 204 204 0
-6.106667 0.590968 25.750229 204 204 204 0
-6.100779 0.600077 26.147129 204 204 204 0
-6.011541 0.601154 26.194077 205 205 205 0
-5.881901 0.598159 26.063591 204 204 204 0
-5.743891 0.594196 25.890878 205 205 205 0
-5.612662 0.590807 25.743206 205 205 205 0
-5.585423 0.598438 26.075737 205 205 205 0
-5.534735 0.603789 26.308902 204 204 204 0
-5.424730 0.602748 26.263522 205 205 205 0
-5.291104 0.598993 26.099909 205 205 205 0
-5.184874 0.598255 26.067744 205 205 205 0
-5.126446 0.603111 26.279360 205 205 205 0
-5.052372 0.606285 26.417630 205 205 205 0
-4.958960 0.607220 26.458370 206 206 206 0
-4.846161 0.605770 26.395210 205 205 205 0
-4.743584 0.605564 26.386226 205 205 205 0
-4.679285 0.610341 26.594399 206 206 206 0
-4.604835 0.613978 26.752854 206 206 206 0
-4.493883 0.612802 26.701620 206 206 206 0
-4.376878 0.610727 26.611207 205 205 205 0
-4.263549 0.609078 26.539367 206 206 206 0
-4.186420 0.612647 26.694852 206 206 206 0
-4.109774 0.616466 26.861267 206 206 206 0
-3.996847 0.614900 26.793010 206 206 206 0
-3.872981 0.611523 26.645893 206 206 206 0
-3.757958 0.609399 26.553315 206 206 206 0
-3.666429 0.611071 26.626207 206 206 206 0
-3.579589 0.613644 26.738293 206 206 206 0
-3.475978 0.613408 26.728015 207 207 207 0
-3.368562 0.612466 26.686963 207 207 207 0
-3.271505 0.613407 26.727983 207 207 207 0
-3.175373 0.614588 26.779446 207 207 207 0
-3.077051 0.615410 26.815262 207 207 207 0
-2.974058 0.615322 26.811435 207 207 207 0
-2.879055 0.616940 26.881931 207 207 207 0
-2.779913 0.617758 26.917581 206 206 206 0
-2.682957 0.619144 26.977947 207 207 207 0
-2.578311 0.618795 26.962735 207 207 207 0
-2.482507 0.620627 27.042562 206 206 206 0
-2.383925 0.621893 27.097753 207 207 207 0
-2.274707 0.620375 27.031579 207 207 207 0
-2.167005 0.619144 26.977968 207 207 207 0
-2.061876 0.618563 26.952625 207 207 207 0
-1.966417 0.620974 27.057683 208 208 208 0
-1.863489 0.621163 27.065924 207 207 207 0
-1.756835 0.620059 27.017834 207 207 207 0
-1.649049 0.618393 26.945247 208 208 208 0
-1.542490 0.616996 26.884364 208 208 208 0
-1.447917 0.620536 27.038606 207 207 207 0
-1.350335 0.623232 27.156059 208 208 208 0
-1.244292 0.622146 27.108765 208 208 208 0
-1.137393 0.620396 27.032518 208 208 208 0
-1.032311 0.619387 26.988531 208 208 208 0
-0.931176 0.620784 27.049401 208 208 208 0
-0.830802 0.623101 27.150384 208 208 208 0
-0.727235 0.623345 27.160985 208 208 208 0
-0.621528 0.621528 27.081818 208 208 208 0
-0.517266 0.620720 27.046613 208 208 208 0
-0.416357 0.624535 27.212844 208 208 208 0
-0.313759 0.627518 27.342853 209 209 209 0
-0.208632 0.625895 27.272120 209 209 209 0
-0.104010 0.624059 27.192099 209 209 209 0
0.000000 0.622935 27.143120 208 208 208 0
0.104285 0.625711 27.264092 208 208 208 0
0.209200 0.627600 27.346424 208 208 208 0
0.312579 0.625159 27.240027 208 208 208 0
0.415108 0.622662 27.131221 209 209 209 0
0.518762 0.622514 27.124807 209 209 209 0
0.626275 0.626275 27.288653 209 209 209 0
0.731311 0.626838 27.313199 209 209 209 0
0.833945 0.625459 27.253109 209 209 209 0
0.937132 0.624755 27.222426 209 209 209 0
1.043324 0.625995 27.276455 209 209 209 0
1.148451 0.626428 27.295328 209 209 209 0
1.253494 0.626747 27.309230 209 209 209 0
1.356361 0.626013 27.277241 209 209 209 0
1.460758 0.626039 27.278399 209 209 209 0
1.567440 0.626976 27.319214 210 210 210 0
1.675384 0.628269 27.375555 209 209 209 0
1.781556 0.628785 27.398021 209 209 209 0
1.886794 0.628931 27.404410 210 210 210 0
1.990143 0.628466 27.384153 210 210 210 0
2.093222 0.627967 27.362376 210 210 210 0
2.198371 0.628106 27.368448 209 209 209 0
2.307089 0.629206 27.416388 210 210 210 0
2.406404 0.627758 27.353270 210 210 210 0
2.508106 0.627027 27.321419 209 209 209 0
2.612767 0.627064 27.323053 210 210 210 0
2.722238 0.628209 27.372932 209 209 209 0
2.831276 0.629172 27.414923 210 210 210 0
2.935332 0.629000 27.407395 210 210 210 0
3.041202 0.629214 27.416742 210 210 210 0
3.140243 0.628049 27.365952 211 211 211 0
3.247241 0.628498 27.385545 210 210 210 0
3.358863 0.629787 27.441695 210 210 210 0
3.467210 0.630402 27.468485 210 210 210 0
3.567154 0.629498 27.429097 210 210 210 0
3.664820 0.628255 27.374939 210 210 210 0
3.782009 0.630335 27.465567 210 210 210 0
3.899961 0.632426 27.556695 210 210 210 0
3.997726 0.631220 27.504133 210 210 210 0
4.094034 0.629851 27.444502 210 210 210 0
4.196503 0.629475 27.428124 210 210 210 0
4.318617 0.631993 27.537808 211 211 211 0
4.420531 0.631504 27.516536 211 211 211 0
4.515655 0.630091 27.454963 210 210 210 0
4.609558 0.628576 27.388934 210 210 210 0
4.712882 0.628384 27.380576 211 211 211 0
4.833988 0.630520 27.473643 211 211 211 0
4.945922 0.631394 27.511736 210 210 210 0
5.043900 0.630488 27.472224 211 211 211 0
5.142297 0.629669 27.436556 211 211 211 0
5.255556 0.630667 27.480030 210 210 210 0
5.363103 0.630953 27.492516 211 211 211 0
5.469045 0.631044 27.496454 211 211 211 0
5.562245 0.629688 27.437391 211 211 211 0
5.675076 0.630564 27.475558 211 211 211 0
5.794406 0.632117 27.543227 211 211 211 0
5.908762 0.633082 27.585256 211 211 211 0
6.010664 0.632701 27.568692 211 211 211 0
6.109808 0.632049 27.540265 211 211 211 0
6.208253 0.631348 27.509708 211 211 211 0
5.721222 0.572122 24.929073 211 211 211 0
6.425789 0.632045 27.540079 212 212 212 0
6.524083 0.631363 27.510363 212 212 212 0
6.614798 0.629981 27.450142 211 211 211 0
6.724700 0.630441 27.470180 210 210 210 0
6.840976 0.631475 27.515240 211 211 211 0
6.948583 0.631689 27.524591 211 211 211 0
7.044824 0.630880 27.489314 211 211 211 0
7.153291 0.631173 27.502081 211 211 211 0
7.264343 0.631682 27.524269 211 211 211 0
7.373174 0.631986 27.537532 212 212 212 0
7.480721 0.632174 27.545693 212 212 212 0
7.587332 0.632278 27.550226 211 211 211 0
7.696748 0.632609 27.564680 212 212 212 0
7.804088 0.632764 27.571410 212 212 212 0
7.921180 0.633694 27.611956 211 211 211 0
8.022351 0.633344 27.596667 211 211 211 0
8.134146 0.633830 27.617847 211 211 211 0
8.253579 0.634891 27.664082 211 211 211 0
8.575633 0.651314 28.379690 212 212 212 0
-7.510974 0.657210 24.545666 203 203 203 0
-7.407936 0.656399 24.515384 203 203 203 0
-7.317442 0.656693 24.526368 203 203 203 0
-7.293453 0.663041 24.763443 203 203 203 0
-7.251115 0.667866 24.943637 204 204 204 0
-7.190991 0.671159 25.066634 203 203 203 0
-7.121883 0.673692 25.161218 203 203 203 0
-7.025971 0.673723 25.162401 204 204 204 0
-6.941365 0.674855 25.204666 204 204 204 0
-6.907693 0.681040 25.435674 204 204 204 0
-6.874253 0.687425 25.674147 204 204 204 0
-6.764255 0.686229 25.629459 204 204 204 0
-6.624210 0.681904 25.467937 203 203 203 0
-6.566104 0.686011 25.621320 204 204 204 0
-6.560077 0.695766 25.985648 204 204 204 0
-6.500256 0.700028 26.144820 204 204 204 0
-6.345836 0.694076 25.922533 204 204 204 0
-6.207748 0.689750 25.760965 205 205 205 0
-6.107423 0.689548 25.753416 204 204 204 0
-6.093739 0.699281 26.116956 204 204 204 0
-6.009774 0.701140 26.186378 204 204 204 0
-5.879370 0.697552 26.052376 205 205 205 0
-5.733465 0.691970 25.843879 205 205 205 0
-5.623831 0.690646 25.794430 204 204 204 0
-5.587174 0.698397 26.083913 204 204 204 0
-5.538848 0.704944 26.328452 204 204 204 0
-5.419284 0.702500 26.237153 205 205 205 0
-5.287071 0.698292 26.080013 205 205 205 0
-5.188792 0.698491 26.087442 205 205 205 0
-5.131733 0.704355 26.306459 205 205 205 0
-5.053031 0.707424 26.421075 205 205 205 0
-4.955286 0.707898 26.438769 205 205 205 0
-4.842511 0.706200 26.375334 205 205 205 0
-4.745300 0.706747 26.395774 206 206 206 0
-4.683601 0.712722 26.618931 206 206 206 0
-4.605754 0.716451 26.758190 205 205 205 0
-4.496290 0.715319 26.715924 205 205 205 0
-4.377151 0.712559 26.612865 206 206 206 0
-4.267105 0.711184 26.561499 206 206 206 0
-4.190657 0.715478 26.721867 206 206 206 0
-4.110639 0.719362 26.866922 206 206 206 0
-3.995063 0.717063 26.781052 207 207 207 0
-3.867389 0.712414 26.607424 206 206 206 0
-3.759573 0.711271 26.564728 206 206 206 0
-3.666255 0.712883 26.624948 207 207 207 0
-3.581692 0.716338 26.754000 206 206 206 0
-3.478725 0.716208 26.749135 206 206 206 0
-3.365229 0.713836 26.660555 207 207 207 0
-3.272197 0.715793 26.733636 207 207 207 0
-3.176276 0.717224 26.787059 207 207 207 0
-3.076964 0.717958 26.814501 207 207 207 0
-2.971162 0.717177 26.785326 207 207 207 0
-2.877042 0.719261 26.863142 206 206 206 0
-2.782398 0.721362 26.941641 207 207 207 0
-2.682524 0.722218 26.973596 207 207 207 0
-2.577862 0.721801 26.958035 207 207 207 0
-2.481276 0.723705 27.029146 207 207 207 0
-2.384934 0.725849 27.109223 207 207 207 0
-2.277769 0.724745 27.067957 207 207 207 0
-2.167448 0.722483 26.983484 207 207 207 0
-2.061210 0.721423 26.943920 207 207 207 0
-1.965840 0.724257 27.049746 207 207 207 0
-1.863235 0.724591 27.062230 208 208 208 0
-1.758523 0.724098 27.043795 207 207 207 0
-1.650054 0.721899 26.961666 207 207 207 0
-1.542798 0.719972 26.889721 207 207 207 0
-1.446074 0.723037 27.004191 208 208 208 0
-1.349750 0.726788 27.144288 208 208 208 0
-1.244742 0.726100 27.118569 208 208 208 0
-1.137471 0.723845 27.034364 208 208 208 0
-1.032448 0.722714 26.992105 208 208 208 0
-0.931147 0.724225 27.048558 208 208 208 0
-0.831054 0.727172 27.158627 208 208 208 0
-0.727260 0.727260 27.161901 208 208 208 0
-0.621205 0.724739 27.067751 208 208 208 0
-0.517378 0.724329 27.052455 208 208 208 0
-0.416196 0.728344 27.202373 208 208 208 0
-0.313691 0.731946 27.336913 209 209 209 0
-0.208442 0.729546 27.247280 208 208 208 0
-0.104030 0.728212 27.197453 208 208 208 0
0.000000 0.726684 27.140391 208 208 208 0
0.104263 0.729839 27.258216 208 208 208 0
0.209251 0.732380 27.353119 209 209 209 0
0.312512 0.729194 27.234153 208 208 208 0
0.414931 0.726129 27.119655 209 209 209 0
0.518984 0.726577 27.136404 209 209 209 0
0.626046 0.730387 27.278687 209 209 209 0
0.731966 0.731966 27.337653 209 209 209 0
0.833940 0.729698 27.252941 209 209 209 0
0.936950 0.728739 27.217137 209 209 209 0
1.042210 0.729547 27.247328 209 209 209 0
1.148578 0.730913 27.298356 209 209 209 0
1.252640 0.730707 27.290630 208 208 208 0
1.355974 0.730140 27.269460 209 209 209 0
1.460496 0.730248 27.273508 209 209 209 0
1.567623 0.731557 27.322404 209 209 209 0
1.676074 0.733282 27.386832 209 209 209 0
1.781625 0.733610 27.399080 210 210 210 0
1.885783 0.733360 27.389734 210 210 210 0
1.989055 0.732810 27.369178 209 209 209 0
2.092595 0.732408 27.354185 209 209 209 0
2.198425 0.732808 27.369125 210 210 210 0
2.306808 0.733984 27.413046 210 210 210 0
2.407720 0.732784 27.368226 210 210 210 0
2.508174 0.731551 27.322160 210 210 210 0
2.611854 0.731319 27.313509 210 210 210 0
2.722425 0.732961 27.374816 210 210 210 0
2.830013 0.733707 27.402692 209 209 209 0
2.935651 0.733913 27.410376 210 210 210 0
3.041981 0.734271 27.423762 209 209 209 0
3.141801 0.733087 27.379529 210 210 210 0
3.247119 0.733220 27.384516 211 211 211 0
3.358907 0.734761 27.442048 211 211 211 0
3.467053 0.735436 27.467247 210 210 210 0
3.565992 0.734175 27.420165 210 210 210 0
3.665748 0.733150 27.381873 210 210 210 0
3.784683 0.735911 27.484986 210 210 210 0
3.901155 0.738056 27.565130 211 211 211 0
3.996775 0.736248 27.497594 211 211 211 0
4.093880 0.734799 27.443472 210 210 210 0
4.197745 0.734605 27.436245 210 210 210 0
4.319441 0.737466 27.543063 210 210 210 0
4.420470 0.736745 27.516152 210 210 210 0
4.514165 0.734864 27.445906 211 211 211 0
4.609585 0.733343 27.389095 211 211 211 0
4.712244 0.733016 27.376873 210 210 210 0
4.832710 0.735412 27.466380 211 211 211 0
4.944110 0.736357 27.501652 211 211 211 0
5.044674 0.735682 27.476436 210 210 210 0
5.142917 0.734702 27.439865 211 211 211 0
5.254834 0.735677 27.476256 211 211 211 0
5.362615 0.736045 27.490018 211 211 211 0
5.468203 0.736104 27.492224 211 211 211 0
5.564306 0.734908 27.447557 211 211 211 0
5.674929 0.735639 27.474842 211 211 211 0
5.793582 0.737365 27.539308 211 211 211 0
5.908342 0.738543 27.583295 211 211 211 0
6.012189 0.738339 27.575688 210 210 210 0
6.105392 0.736858 27.520360 211 211 211 0
6.212998 0.737135 27.530734 211 211 211 0
5.680968 0.662780 24.753675 211 211 211 0
6.429074 0.737763 27.554160 211 211 211 0
6.523568 0.736532 27.508193 211 211 211 0
6.615533 0.735059 27.453193 211 211 211 0
6.724501 0.735492 27.469367 211 211 211 0
6.838484 0.736452 27.505215 211 211 211 0
6.950313 0.737154 27.531442 212 212 212 0
7.043112 0.735848 27.482636 211 211 211 0
7.151234 0.736156 27.494170 212 212 212 0
7.264846 0.737013 27.526174 212 212 212 0
7.371407 0.737141 27.530934 212 212 212 0
7.476660 0.737136 27.530738 211 211 211 0
7.588653 0.737786 27.555021 211 211 211 0
7.695467 0.737922 27.560094 211 211 211 0
7.805209 0.738331 27.575372 211 211 211 0
7.922373 0.739421 27.616115 211 211 211 0
8.024667 0.739114 27.604633 211 211 211 0
8.134132 0.739467 27.617798 211 211 211 0
8.254235 0.740765 27.666280 212 212 212 0
8.609204 0.762841 28.490789 211 211 211 0
-7.511833 0.751183 24.548474 203 203 203 0
-7.408786 0.750257 24.518196 203 203 203 0
-7.325096 0.751292 24.552024 203 203 203 0
-7.294149 0.757834 24.765807 203 203 203 0
-7.256236 0.763814 24.961251 203 203 203 0
-7.192100 0.767157 25.070503 203 203 203 0
-7.119859 0.769715 25.154069 203 203 203 0
-7.026462 0.770023 25.164158 203 203 203 0
-6.959358 0.773262 25.269998 203 203 203 0
-6.914701 0.779121 25.461477 204 204 204 0
-6.874776 0.785689 25.676102 204 204 204 0
-6.756207 0.783328 25.598964 204 204 204 0
-6.625317 0.779449 25.472192 204 204 204 0
-6.566440 0.784053 25.622631 204 204 204 0
-6.564829 0.795737 26.004474 203 203 203 0
-6.496044 0.799513 26.127880 204 204 204 0
-6.347143 0.793393 25.927873 204 204 204 0
-6.201643 0.787510 25.735630 203 203 203 0
-6.107957 0.788123 25.755668 204 204 204 0
-6.092601 0.799030 26.112080 204 204 204 0
-6.007652 0.801020 26.177135 204 204 204 0
-5.876871 0.796864 26.041305 205 205 205 0
-5.738590 0.791530 25.866983 204 204 204 0
-5.623524 0.789266 25.793022 205 205 205 0
-5.581685 0.797384 26.058286 205 205 205 0
-5.537443 0.805446 26.321773 205 205 205 0
-5.415246 0.802259 26.217604 205 205 205 0
-5.294268 0.799135 26.115517 205 205 205 0
-5.194147 0.799100 26.114366 205 205 205 0
-5.128731 0.804507 26.291071 205 205 205 0
-5.054911 0.808786 26.430908 205 205 205 0
-4.959706 0.809748 26.462350 205 205 205 0
-4.847681 0.807947 26.403493 206 206 206 0
-4.745745 0.807786 26.398250 206 206 206 0
-4.679462 0.813819 26.595408 206 206 206 0
-4.606003 0.818845 26.759640 206 206 206 0
-4.496735 0.817588 26.718567 206 206 206 0
-4.375866 0.814115 26.605051 206 206 206 0
-4.270432 0.813416 26.582209 206 206 206 0
-4.189865 0.817535 26.716817 206 206 206 0
-4.112500 0.822500 26.879082 206 206 206 0
-3.994813 0.819449 26.779374 206 206 206 0
-3.869619 0.814657 26.622766 206 206 206 0
-3.761673 0.813335 26.579565 206 206 206 0
-3.668345 0.815188 26.640124 207 207 207 0
-3.580590 0.818420 26.745768 206 206 206 0
-3.477136 0.818150 26.736913 206 206 206 0
-3.367650 0.816400 26.679742 206 206 206 0
-3.268689 0.817172 26.704972 206 206 206 0
-3.175351 0.819445 26.779260 207 207 207 0
-3.077190 0.820584 26.816468 207 207 207 0
-2.972242 0.819929 26.795056 207 207 207 0
-2.877392 0.822112 26.866405 207 207 207 0
-2.778701 0.823319 26.905847 207 207 207 0
-2.681928 0.825209 26.967600 207 207 207 0
-2.577949 0.824944 26.958946 207 207 207 0
-2.479399 0.826466 27.008708 207 207 207 0
-2.384800 0.829496 27.107705 208 208 208 0
-2.276182 0.827703 27.049106 207 207 207 0
-2.167151 0.825582 26.979788 207 207 207 0
-2.061560 0.824624 26.948492 207 207 207 0
-1.965016 0.827375 27.038405 207 207 207 0
-1.862980 0.827991 27.058533 208 208 208 0
-1.758169 0.827373 27.038348 208 208 208 0
-1.650125 0.825063 26.962835 208 208 208 0
-1.542854 0.822856 26.890704 208 208 208 0
-1.447594 0.827197 27.032574 208 208 208 0
-1.349768 0.830627 27.144664 207 207 207 0
-1.244885 0.829923 27.121678 208 208 208 0
-1.137736 0.827444 27.040668 208 208 208 0
-1.032377 0.825902 26.990249 208 208 208 0
-0.931675 0.828155 27.063898 208 208 208 0
-0.831185 0.831185 27.162914 208 208 208 0
-0.727382 0.831294 27.166477 208 208 208 0
-0.621760 0.829013 27.091921 209 209 209 0
-0.517395 0.827831 27.053308 209 209 209 0
-0.416092 0.832183 27.195531 209 209 209 0
-0.313545 0.836119 27.324158 208 208 208 0
-0.208434 0.833735 27.246229 208 208 208 0
-0.103964 0.831713 27.180174 209 209 209 0
0.000000 0.830828 27.151257 208 208 208 0
0.104244 0.833954 27.253384 209 209 209 0
0.209324 0.837295 27.362594 208 208 208 0
0.312404 0.833077 27.224739 209 209 209 0
0.415124 0.830248 27.132278 209 209 209 0
0.518828 0.830124 27.128247 209 209 209 0
0.626350 0.835133 27.291942 208 208 208 0
0.731778 0.836317 27.330628 209 209 209 0
0.833893 0.833893 27.251416 209 209 209 0
0.937137 0.833011 27.222566 209 209 209 0
1.042550 0.834040 27.256220 209 209 209 0
1.149439 0.835956 27.318814 209 209 209 0
1.251576 0.834384 27.267441 209 209 209 0
1.356188 0.834577 27.273756 209 209 209 0
1.460777 0.834730 27.278744 209 209 209 0
1.567028 0.835748 27.312036 209 209 209 0
1.675933 0.837967 27.384532 210 210 210 0
1.782225 0.838694 27.408308 210 210 210 0
1.886803 0.838579 27.404552 210 210 210 0
1.990320 0.838029 27.386579 210 210 210 0
2.093440 0.837376 27.365227 209 209 209 0
2.198753 0.837620 27.373213 210 210 210 0
2.307973 0.839263 27.426898 210 210 210 0
2.408579 0.837766 27.377989 210 210 210 0
2.508639 0.836213 27.327221 210 210 210 0
2.611931 0.835818 27.314315 210 210 210 0
2.721500 0.837385 27.365509 210 210 210 0
2.830906 0.838787 27.411334 210 210 210 0
2.935660 0.838760 27.410458 210 210 210 0
3.040600 0.838786 27.411317 210 210 210 0
3.141677 0.837780 27.378447 210 210 210 0
3.246288 0.837752 27.377508 210 210 210 0
3.357641 0.839410 27.431704 210 210 210 0
3.465096 0.840023 27.451743 210 210 210 0
3.568409 0.839626 27.438750 210 210 210 0
3.666215 0.837992 27.385359 210 210 210 0
3.784442 0.840987 27.483241 210 210 210 0
3.899857 0.843212 27.555960 211 211 211 0
3.997571 0.841594 27.503065 210 210 210 0
4.094120 0.839820 27.445084 210 210 210 0
4.198096 0.839619 27.438534 210 210 210 0
4.318049 0.842546 27.534191 211 211 211 0
4.420428 0.841986 27.515889 211 211 211 0
4.515159 0.840030 27.451948 210 210 210 0
4.608816 0.837966 27.384526 211 211 211 0
4.710404 0.837405 27.366179 210 210 210 0
4.832643 0.840460 27.466000 211 211 211 0
4.943184 0.841393 27.496503 211 211 211 0
5.043185 0.840531 27.468327 211 211 211 0
5.140330 0.839238 27.426064 211 211 211 0
5.254214 0.840674 27.473016 211 211 211 0
5.362089 0.841112 27.487319 210 210 210 0
5.470123 0.841557 27.501873 211 211 211 0
5.562028 0.839551 27.436322 211 211 211 0
5.676388 0.840946 27.481907 211 211 211 0
5.794412 0.842824 27.543253 211 211 211 0
5.909748 0.844250 27.589860 211 211 211 0
6.010693 0.843606 27.568824 211 211 211 0
6.109607 0.842704 27.539362 212 212 212 0
6.211792 0.842277 27.525390 212 212 212 0
5.675816 0.756775 24.731225 212 212 212 0
6.430563 0.843353 27.560540 211 211 211 0
6.526221 0.842093 27.519380 211 211 211 0
6.614723 0.839965 27.449831 211 211 211 0
6.724474 0.840559 27.469255 211 211 211 0
6.841634 0.842047 27.517886 211 211 211 0
6.949125 0.842318 27.526737 211 211 211 0
7.044350 0.841116 27.487465 211 211 211 0
7.152700 0.841494 27.499808 211 211 211 0
7.264099 0.842214 27.523345 212 212 212 0
7.367698 0.842023 27.517081 211 211 211 0
7.476366 0.842407 27.529656 212 212 212 0
7.591519 0.843502 27.565427 211 211 211 0
7.698076 0.843625 27.569435 211 211 211 0
7.805065 0.843791 27.574863 211 211 211 0
7.922808 0.845100 27.617631 212 212 212 0
8.022867 0.844512 27.598443 211 211 211 0
8.130813 0.844760 27.606529 212 212 212 0
8.253662 0.846529 27.664360 211 211 211 0
8.620214 0.872933 28.527223 212 212 212 0
-7.522876 0.846324 24.584561 203 203 203 0
-7.422215 0.845569 24.562639 202 202 202 0
-7.316099 0.844165 24.521866 203 203 203 0
-7.305291 0.853865 24.803637 203 203 203 0
-7.259907 0.859726 24.973880 203 203 203 0
-7.197782 0.863734 25.090309 203 203 203 0
-7.126555 0.866743 25.177725 203 203 203 0
-7.039106 0.867835 25.209442 203 203 203 0
-6.940638 0.867580 25.202025 204 204 204 0
-6.911884 0.876154 25.451104 204 204 204 0
-6.879310 0.884483 25.693036 203 203 203 0
-6.766559 0.882595 25.638187 203 203 203 0
-6.618786 0.876016 25.447080 204 204 204 0
-6.559284 0.881098 25.594710 204 204 204 0
-6.555900 0.893986 25.969104 203 203 203 0
-6.492645 0.898982 26.114209 204 204 204 0
-6.352178 0.893275 25.948439 204 204 204 0
-6.203756 0.886251 25.744399 204 204 204 0
-6.112855 0.887350 25.776323 204 204 204 0
-6.097227 0.899591 26.131908 204 204 204 0
-6.012882 0.901932 26.199924 205 205 205 0
-5.883597 0.897498 26.071105 204 204 204 0
-5.739110 0.890552 25.869325 204 204 204 0
-5.626044 0.888323 25.804580 205 205 205 0
-5.581566 0.897037 26.057731 205 205 205 0
-5.538402 0.906284 26.326330 205 205 205 0
-5.416898 0.902816 26.225603 205 205 205 0
-5.292241 0.898682 26.105519 205 205 205 0
-5.194387 0.899029 26.115573 205 205 205 0
-5.127677 0.904884 26.285672 204 204 204 0
-5.053161 0.909569 26.421755 205 205 205 0
-4.961921 0.911373 26.474170 205 205 205 0
-4.843382 0.908134 26.380078 205 205 205 0
-4.745011 0.908619 26.394164 206 206 206 0
-4.679543 0.915563 26.595869 206 206 206 0
-4.606121 0.921224 26.760326 205 205 205 0
-4.498639 0.920176 26.729879 206 206 206 0
-4.376951 0.916106 26.611648 206 206 206 0
-4.271037 0.915222 26.585979 206 206 206 0
-4.191785 0.920148 26.729061 206 206 206 0
-4.114343 0.925727 26.891128 206 206 206 0
-3.992757 0.921406 26.765594 206 206 206 0
-3.868354 0.916189 26.614061 206 206 206 0
-3.756118 0.913650 26.540313 206 206 206 0
-3.661981 0.915495 26.593907 206 206 206 0
-3.579553 0.920457 26.738025 206 206 206 0
-3.476716 0.920307 26.733689 207 207 207 0
-3.365120 0.917760 26.659697 206 206 206 0
-3.273068 0.920550 26.740752 207 207 207 0
-3.173075 0.921215 26.760064 207 207 207 0
-3.076847 0.923054 26.813485 207 207 207 0
-2.972923 0.922631 26.801200 207 207 207 0
-2.877771 0.924998 26.869945 207 207 207 0
-2.776843 0.925614 26.887853 207 207 207 0
-2.681481 0.928205 26.963104 207 207 207 0
-2.577033 0.927732 26.949370 206 206 206 0
-2.481913 0.930717 27.036085 207 207 207 0
-2.384177 0.932939 27.100616 207 207 207 0
-2.275962 0.931075 27.046486 207 207 207 0
-2.167197 0.928799 26.980352 207 207 207 0
-2.061301 0.927585 26.945110 208 208 208 0
-1.966169 0.931343 27.054267 207 207 207 0
-1.862694 0.931347 27.054382 208 208 208 0
-1.758344 0.930888 27.041053 208 208 208 0
-1.649247 0.927701 26.948480 207 207 207 0
-1.543584 0.926151 26.903430 208 208 208 0
-1.448445 0.931143 27.048460 208 208 208 0
-1.350734 0.935124 27.164083 207 207 207 0
-1.245619 0.934214 27.137675 208 208 208 0
-1.137453 0.930643 27.033930 208 208 208 0
-1.033360 0.930024 27.015960 208 208 208 0
-0.931572 0.931572 27.060909 208 208 208 0
-0.831641 0.935596 27.177801 208 208 208 0
-0.727930 0.935910 27.186936 208 208 208 0
-0.621758 0.932637 27.091859 208 208 208 0
-0.517580 0.931644 27.063005 208 208 208 0
-0.416151 0.936339 27.199386 208 208 208 0
-0.313436 0.940309 27.314724 208 208 208 0
-0.208513 0.938308 27.256587 208 208 208 0
-0.103980 0.935821 27.184356 209 209 209 0
0.000000 0.934309 27.140435 209 209 209 0
0.104209 0.937883 27.244246 208 208 208 0
0.209310 0.941897 27.360847 209 209 209 0
0.312488 0.937465 27.232097 209 209 209 0
0.415063 0.933891 27.128271 209 209 209 0
0.518863 0.933954 27.130103 209 209 209 0
0.626148 0.939222 27.283129 208 208 208 0
0.731724 0.940788 27.328634 209 209 209 0
0.833962 0.938207 27.253651 209 209 209 0
0.937033 0.937033 27.219542 209 209 209 0
1.042730 0.938457 27.260920 209 209 209 0
1.149346 0.940374 27.316606 208 208 208 0
1.252602 0.939451 27.289804 209 209 209 0
1.356163 0.938882 27.273272 209 209 209 0
1.460395 0.938825 27.271613 209 209 209 0
1.567859 0.940716 27.326526 209 209 209 0
1.675314 0.942364 27.374411 209 209 209 0
1.781525 0.943160 27.397533 210 210 210 0
1.885381 0.942691 27.383898 210 210 210 0
1.991370 0.943280 27.401031 209 209 209 0
2.093637 0.942136 27.367798 210 210 210 0
2.199663 0.942713 27.384540 210 210 210 0
2.308688 0.944463 27.435387 210 210 210 0
2.407632 0.942117 27.367229 210 210 210 0
2.507610 0.940354 27.316011 210 210 210 0
2.612269 0.940417 27.317851 210 210 210 0
2.721619 0.942099 27.366710 210 210 210 0
2.830213 0.943404 27.404624 210 210 210 0
2.934887 0.943356 27.403237 210 210 210 0
3.041499 0.943913 27.419415 210 210 210 0
3.141345 0.942403 27.375555 210 210 210 0
3.246207 0.942447 27.376821 210 210 210 0
3.355451 0.943721 27.413818 210 210 210 0
3.465824 0.945225 27.457508 211 211 211 0
3.565585 0.943831 27.417032 210 210 210 0
3.665200 0.942480 27.377775 211 211 211 0
3.782397 0.945599 27.468390 210 210 210 0
3.901260 0.948955 27.565875 210 210 210 0
3.996828 0.946617 27.497955 211 211 211 0
4.094104 0.944793 27.444975 210 210 210 0
4.198474 0.944657 27.441004 210 210 210 0
4.317891 0.947830 27.533180 210 210 210 0
4.419465 0.947028 27.509896 210 210 210 0
4.513651 0.944718 27.442778 211 211 211 0
4.608723 0.942693 27.383976 211 211 211 0
4.709979 0.941996 27.363712 210 210 210 0
4.832225 0.945435 27.463627 211 211 211 0
4.943962 0.946716 27.500831 211 211 211 0
5.045120 0.945960 27.478869 211 211 211 0
5.141998 0.944449 27.434961 211 211 211 0
5.256807 0.946225 27.486574 211 211 211 0
5.362790 0.946375 27.490911 210 210 210 0
5.469189 0.946590 27.497180 211 211 211 0
5.566568 0.945266 27.458715 211 211 211 0
5.675627 0.945938 27.478223 211 211 211 0
5.794890 0.948255 27.545527 211 211 211 0
5.912498 0.950223 27.602697 211 211 211 0
6.010683 0.949055 27.568779 211 211 211 0
6.108071 0.947804 27.532434 211 211 211 0
6.214274 0.947940 27.536386 210 210 210 0
5.675810 0.851371 24.731196 211 211 211 0
6.431380 0.948892 27.564043 211 211 211 0
6.526558 0.947404 27.520801 211 211 211 0
6.616474 0.945211 27.457099 212 212 212 0
6.724224 0.945594 27.468237 211 211 211 0
6.840850 0.947195 27.514733 211 211 211 0
6.948795 0.947563 27.525430 212 212 212 0
7.043568 0.946151 27.484415 212 212 212 0
7.155377 0.947035 27.510100 211 211 211 0
7.264549 0.947550 27.525049 211 211 211 0
7.369218 0.947471 27.522757 211 211 211 0
7.479685 0.948129 27.541878 211 211 211 0
7.588219 0.948527 27.553447 211 211 211 0
7.697526 0.949010 27.567467 211 211 211 0
7.804034 0.949139 27.571222 211 211 211 0
7.923268 0.950792 27.619236 211 211 211 0
8.025667 0.950408 27.608073 211 211 211 0
8.131980 0.950491 27.610490 212 212 212 0
8.254280 0.952417 27.666432 211 211 211 0
8.607461 0.980597 28.485019 211 211 211 0
-7.529527 0.941191 24.606299 203 203 203 0
-7.413102 0.938367 24.532479 203 203 203 0
-7.321179 0.938613 24.538894 203 203 203 0
-7.299695 0.948012 24.784637 203 203 203 0
-7.269302 0.956487 25.006198 203 203 203 0
-7.193512 0.959135 25.075423 204 204 204 0
-7.116226 0.961652 25.141232 203 203 203 0
-7.030657 0.963104 25.179181 203 203 203 0
-6.941263 0.964064 25.204295 204 204 204 0
-6.902515 0.972185 25.416605 204 204 204 0
-6.877661 0.982523 25.686877 204 204 204 0
-6.752355 0.978602 25.584370 203 203 203 0
-6.627292 0.974602 25.479784 204 204 204 0
-6.562768 0.979518 25.608303 204 204 204 0
-6.557599 0.993576 25.975834 203 203 203 0
-6.503735 1.000575 26.158812 204 204 204 0
-6.346541 0.991647 25.925412 204 204 204 0
-6.203675 0.984710 25.744062 204 204 204 0
-6.106384 0.984901 25.749035 204 204 204 0
-6.092506 0.998771 26.111671 204 204 204 0
-6.017214 1.002869 26.218797 204 204 204 0
-5.879120 0.996461 26.051270 204 204 204 0
-5.735600 0.988897 25.853505 204 204 204 0
-5.625958 0.987010 25.804190 204 204 204 0
-5.583164 0.996994 26.065192 205 205 205 0
-5.541589 1.007562 26.341483 205 205 205 0
-5.421912 1.004058 26.249878 205 205 205 0
-5.292759 0.998634 26.108071 206 206 206 0
-5.192257 0.998511 26.104861 205 205 205 0
-5.128219 1.005533 26.288447 205 205 205 0
-5.052128 1.010426 26.416355 205 205 205 0
-4.958748 1.011989 26.457241 206 206 206 0
-4.843852 1.009136 26.382635 205 205 205 0
-4.747491 1.010104 26.407957 206 206 206 0
-4.679224 1.017223 26.594054 205 205 205 0
-4.604994 1.023332 26.753776 205 205 205 0
-4.495702 1.021750 26.712427 206 206 206 0
-4.374642 1.017359 26.597612 206 206 206 0
-4.267276 1.016018 26.562565 205 205 205 0
-4.191944 1.022425 26.730074 206 206 206 0
-4.112785 1.028196 26.880948 206 206 206 0
-3.993080 1.023867 26.767755 206 206 206 0
-3.865118 1.017136 26.591801 206 206 206 0
-3.755625 1.015034 26.536828 207 207 207 0
-3.662824 1.017451 26.600031 206 206 206 0
-3.578277 1.022365 26.728495 206 206 206 0
-3.475152 1.022103 26.721660 206 206 206 0
-3.365722 1.019916 26.664468 206 206 206 0
-3.266508 1.020784 26.687158 207 207 207 0
-3.171416 1.023037 26.746078 207 207 207 0
-3.076324 1.025441 26.808921 207 207 207 0
-2.971788 1.024755 26.790967 207 207 207 0
-2.876022 1.027151 26.853610 206 206 206 0
-2.777115 1.028561 26.890483 207 207 207 0
-2.685045 1.032710 26.998947 207 207 207 0
-2.577368 1.030947 26.952871 207 207 207 0
-2.480266 1.033444 27.018151 207 207 207 0
-2.385899 1.037347 27.120192 207 207 207 0
-2.275491 1.034314 27.040885 207 207 207 0
-2.166400 1.031619 26.970433 207 207 207 0
-2.061274 1.030637 26.944754 207 207 207 0
-1.966133 1.034807 27.053773 207 207 207 0
-1.863762 1.035423 27.069892 207 207 207 0
-1.757948 1.034087 27.034959 208 208 208 0
-1.649332 1.030832 26.949864 207 207 207 0
-1.543972 1.029314 26.910180 207 207 207 0
-1.447796 1.034140 27.036336 208 208 208 0
-1.350263 1.038664 27.154608 208 208 208 0
-1.244896 1.037414 27.121928 208 208 208 0
-1.138015 1.034559 27.047302 208 208 208 0
-1.032759 1.032759 27.000226 208 208 208 0
-0.932620 1.036244 27.091352 207 207 207 0
-0.831830 1.039788 27.183995 208 208 208 0
-0.727841 1.039773 27.183596 208 208 208 0
-0.621923 1.036539 27.099056 208 208 208 0
-0.517344 1.034688 27.050656 208 208 208 0
-0.416401 1.041003 27.215772 208 208 208 0
-0.313581 1.045268 27.327281 208 208 208 0
-0.208497 1.042484 27.254477 208 208 208 0
-0.103951 1.039514 27.176839 208 208 208 0
0.000000 1.037809 27.132256 208 208 208 0
0.104226 1.042264 27.248737 208 208 208 0
0.209239 1.046197 27.351553 208 208 208 0
0.312454 1.041514 27.229122 209 209 209 0
0.415080 1.037700 27.129410 209 209 209 0
0.518772 1.037545 27.125359 209 209 209 0
0.626245 1.043741 27.287352 209 209 209 0
0.731600 1.045143 27.323989 210 210 210 0
0.833537 1.041921 27.239777 209 209 209 0
0.937105 1.041228 27.221634 209 209 209 0
1.042999 1.042999 27.267935 209 209 209 0
1.148597 1.044180 27.298811 209 209 209 0
1.252474 1.043728 27.287017 209 209 209 0
1.356256 1.043274 27.275129 209 209 209 0
1.460587 1.043277 27.275208 210 210 210 0
1.567581 1.045054 27.321673 210 210 210 0
1.676914 1.048071 27.400553 209 209 209 0
1.782343 1.048437 27.410121 210 210 210 0
1.886150 1.047861 27.395067 209 209 209 0
1.990077 1.047409 27.383245 209 209 209 0
2.092444 1.046222 27.352207 210 210 210 0
2.198650 1.046976 27.371922 210 210 210 0
2.307775 1.048989 27.424536 209 209 209 0
2.407709 1.046830 27.368107 210 210 210 0
2.507844 1.044935 27.318566 210 210 210 0
2.613403 1.045361 27.329709 210 210 210 0
2.721468 1.046719 27.365190 209 209 209 0
2.830277 1.048251 27.405244 210 210 210 0
2.936921 1.048900 27.422234 210 210 210 0
3.041789 1.048893 27.422037 210 210 210 0
3.142551 1.047517 27.386067 210 210 210 0
3.245047 1.046789 27.367043 210 210 210 0
3.356476 1.048899 27.422190 210 210 210 0
3.465546 1.050165 27.455307 210 210 210 0
3.568466 1.049549 27.439182 211 211 211 0
3.663638 1.046754 27.366111 211 211 211 0
3.781457 1.050405 27.461562 210 210 210 0
3.901364 1.054423 27.566606 210 210 210 0
3.997127 1.051875 27.500013 211 211 211 0
4.092999 1.049487 27.437570 210 210 210 0
4.195402 1.048850 27.420928 210 210 210 0
4.316746 1.052865 27.525877 210 210 210 0
4.418811 1.052098 27.505828 210 210 210 0
4.513294 1.049603 27.440608 210 210 210 0
4.608354 1.047353 27.381784 210 210 210 0
4.708920 1.046427 27.357559 210 210 210 0
4.833351 1.050729 27.470028 211 211 211 0
4.943230 1.051751 27.496758 211 211 211 0
5.043485 1.050726 27.469962 211 211 211 0
5.141367 1.049258 27.431595 211 211 211 0
5.255063 1.051013 27.477452 211 211 211 0
5.364112 1.051787 27.497689 211 211 211 0
5.468247 1.051586 27.492441 211 211 211 0
5.566716 1.050324 27.459444 211 211 211 0
5.675965 1.051105 27.479860 211 211 211 0
5.793972 1.053449 27.541161 210 210 210 0
5.910814 1.055502 27.594835 211 211 211 0
6.011302 1.054614 27.571619 211 211 211 0
6.112200 1.053828 27.551047 211 211 211 0
6.217783 1.053862 27.551935 211 211 211 0
5.687733 0.947956 24.783152 211 211 211 0
6.431573 1.054356 27.564870 211 211 211 0
6.525425 1.052488 27.516025 211 211 211 0
6.614250 1.049881 27.447867 211 211 211 0
6.724790 1.050748 27.470547 211 211 211 0
6.839749 1.052269 27.510302 211 211 211 0
6.949208 1.052910 27.527066 211 211 211 0
7.043274 1.051235 27.483265 212 212 212 0
7.153481 1.051982 27.502809 211 211 211 0
7.265658 1.052994 27.529251 212 212 212 0
7.369489 1.052784 27.523769 211 211 211 0
7.477271 1.053137 27.532988 212 212 212 0
7.588492 1.053957 27.554438 211 211 211 0
7.698282 1.054559 27.570174 212 212 212 0
7.804369 1.054644 27.572403 211 211 211 0
7.924697 1.056626 27.624215 212 212 212 0
8.025477 1.055984 27.607419 212 212 212 0
8.130938 1.055966 27.606955 211 211 211 0
8.252191 1.057973 27.659430 212 212 212 0
8.592173 1.087617 28.434426 212 212 212 0
-7.537242 1.036371 24.631510 203 203 203 0
-7.434244 1.035148 24.602447 203 203 203 0
-7.316317 1.031788 24.522597 203 203 203 0
-7.302092 1.043156 24.792776 203 203 203 0
-7.265171 1.051538 24.991990 203 203 203 0
-7.206468 1.056949 25.120587 203 203 203 0
-7.115771 1.057750 25.139624 204 204 204 0
-7.029912 1.059302 25.176515 203 203 203 0
-6.943317 1.060785 25.211754 204 204 204 0
-6.897539 1.068633 25.398284 204 204 204 0
-6.857094 1.077543 25.610062 204 204 204 0
-6.771525 1.079519 25.657006 204 204 204 0
-6.633101 1.073002 25.502120 204 204 204 0
-6.567132 1.078186 25.625331 204 204 204 0
-6.549967 1.091661 25.945602 204 204 204 0
-6.496632 1.099430 26.130243 203 203 203 0
-6.337747 1.089300 25.889488 204 204 204 0
-6.201304 1.082767 25.734221 204 204 204 0
-6.111433 1.084286 25.770326 204 204 204 0
-6.086620 1.097587 26.086448 205 205 205 0
-6.014582 1.102673 26.207331 204 204 204 0
-5.885479 1.097293 26.079447 204 204 204 0
-5.735327 1.087734 25.852275 204 204 204 0
-5.621511 1.084853 25.783791 204 204 204 0
-5.583221 1.096704 26.065458 205 205 205 0
-5.540110 1.108022 26.334453 204 204 204 0
-5.419352 1.103942 26.237484 204 204 204 0
-5.292414 1.098426 26.106373 205 205 205 0
-5.188753 1.097621 26.087244 205 205 205 0
-5.126008 1.105610 26.277113 206 206 206 0
-5.048976 1.110775 26.399873 205 205 205 0
-4.957881 1.112994 26.452611 204 204 204 0
-4.843041 1.109864 26.378219 205 205 205 0
-4.745516 1.110653 26.396975 205 205 205 0
-4.679916 1.119110 26.597986 205 205 205 0
-4.603578 1.125319 26.745551 205 205 205 0
-4.500056 1.125014 26.738302 205 205 205 0
-4.376948 1.119684 26.611632 205 205 205 0
-4.267825 1.117764 26.565983 205 205 205 0
-4.189355 1.123973 26.713566 206 206 206 0
-4.110956 1.130513 26.868995 205 205 205 0
-3.994690 1.126707 26.778549 206 206 206 0
-3.866218 1.119168 26.599368 206 206 206 0
-3.761414 1.118258 26.577735 206 206 206 0
-3.662261 1.119024 26.595941 206 206 206 0
-3.576877 1.124161 26.718032 207 207 207 0
-3.474555 1.124121 26.717070 207 207 207 0
-3.366409 1.122136 26.669905 206 206 206 0
-3.271130 1.124451 26.724921 206 206 206 0
-3.174895 1.126576 26.775419 207 207 207 0
-3.076030 1.127878 26.806358 207 207 207 0
-2.969363 1.126310 26.769106 207 207 207 0
-2.877536 1.130461 26.867749 207 207 207 0
-2.779119 1.132233 26.909887 207 207 207 0
-2.685663 1.136242 27.005161 207 207 207 0
-2.577647 1.134164 26.955781 207 207 207 0
-2.481038 1.137143 27.026561 207 207 207 0
-2.385638 1.140957 27.117230 208 208 208 0
-2.276300 1.138150 27.050505 207 207 207 0
-2.166801 1.134991 26.975431 207 207 207 0
-2.061385 1.133762 26.946215 207 207 207 0
-1.966570 1.138541 27.059791 207 207 207 0
-1.864744 1.139566 27.084149 207 207 207 0
-1.758256 1.137695 27.039697 207 207 207 0
-1.649253 1.133861 26.948574 207 207 207 0
-1.542344 1.131052 26.881807 208 208 208 0
-1.448408 1.138035 27.047774 207 207 207 0
-1.350403 1.142648 27.157421 207 207 207 0
-1.245292 1.141518 27.130549 208 208 208 0
-1.137792 1.137792 27.042003 208 208 208 0
-1.033495 1.136844 27.019470 208 208 208 0
-0.932375 1.139569 27.084239 208 208 208 0
-0.832161 1.144222 27.194810 208 208 208 0
-0.727982 1.143972 27.188872 208 208 208 0
-0.622047 1.140420 27.104453 208 208 208 0
-0.517339 1.138147 27.050424 208 208 208 0
-0.416360 1.144989 27.213059 208 208 208 0
-0.313676 1.150144 27.335578 208 208 208 0
-0.208513 1.146820 27.256571 209 209 209 0
-0.104006 1.144071 27.191223 208 208 208 0
0.000000 1.141863 27.138750 208 208 208 0
0.104193 1.146125 27.240057 208 208 208 0
0.209378 1.151577 27.369624 208 208 208 0
0.312482 1.145767 27.231547 208 208 208 0
0.414797 1.140691 27.110895 209 209 209 0
0.518967 1.141728 27.135543 208 208 208 0
0.626212 1.148054 27.285905 209 209 209 0
0.731250 1.149108 27.310934 208 208 208 0
0.833817 1.146498 27.248908 210 210 210 0
0.936810 1.144990 27.213071 209 209 209 0
1.043182 1.147500 27.272733 210 210 210 0
1.148746 1.148746 27.302330 210 210 210 0
1.252740 1.148345 27.292810 209 209 209 0
1.357190 1.148392 27.293919 209 209 209 0
1.461562 1.148370 27.293408 209 209 209 0
1.568014 1.149877 27.329225 209 209 209 0
1.675666 1.152021 27.380169 209 209 209 0
1.781492 1.152730 27.397031 209 209 209 0
1.885955 1.152528 27.392233 209 209 209 0
1.989950 1.152076 27.381491 209 209 209 0
2.093448 1.151397 27.365338 209 209 209 0
2.199278 1.152003 27.379743 209 209 209 0
2.308650 1.154325 27.434940 209 209 209 0
2.407677 1.151498 27.367745 210 210 210 0
2.507631 1.149331 27.316247 209 209 209 0
2.612259 1.149394 27.317743 209 209 209 0
2.722195 1.151698 27.372497 210 210 210 0
2.830573 1.153196 27.408116 210 210 210 0
2.934894 1.152994 27.403305 210 210 210 0
3.041117 1.153527 27.415972 210 210 210 0
3.140943 1.151679 27.372050 210 210 210 0
3.245513 1.151634 27.370969 210 210 210 0
3.354980 1.153274 27.409967 209 209 209 0
3.464709 1.154903 27.448675 210 210 210 0
3.564932 1.153360 27.412012 210 210 210 0
3.663816 1.151485 27.367441 210 210 210 0
3.780944 1.155288 27.457837 210 210 210 0
3.899191 1.159219 27.551252 210 210 210 0
3.997815 1.157262 27.504748 211 211 211 0
4.094597 1.154886 27.448277 210 210 210 0
4.196939 1.154158 27.430974 210 210 210 0
4.317448 1.158340 27.530356 211 211 211 0
4.418996 1.157356 27.506975 210 210 210 0
4.513438 1.154601 27.441486 211 211 211 0
4.608239 1.152060 27.381101 211 211 211 0
4.708870 1.151057 27.357270 210 210 210 0
4.832703 1.155646 27.466344 211 211 211 0
4.944750 1.157282 27.505215 210 210 210 0
5.043906 1.155895 27.472253 210 210 210 0
5.143060 1.154564 27.440629 211 211 211 0
5.256751 1.156485 27.486282 210 210 210 0
5.364391 1.157025 27.499119 210 210 210 0
5.469538 1.157018 27.498935 211 211 211 0
5.564996 1.154999 27.450959 211 211 211 0
5.677696 1.156568 27.488241 211 211 211 0
5.795560 1.159112 27.548710 211 211 211 0
5.910637 1.161018 27.594012 211 211 211 0
6.012126 1.160235 27.575395 211 211 211 0
6.112304 1.159230 27.551518 211 211 211 0
6.220112 1.159682 27.562255 211 211 211 0
5.705835 1.046070 24.862028 211 211 211 0
6.429636 1.159443 27.556568 211 211 211 0
6.525895 1.157820 27.518006 212 212 212 0
6.616811 1.155316 27.458494 211 211 211 0
6.725824 1.156001 27.474770 211 211 211 0
6.841317 1.157761 27.516608 211 211 211 0
6.948899 1.158150 27.525842 211 211 211 0
7.043776 1.156441 27.485226 211 211 211 0
7.152060 1.156951 27.497346 211 211 211 0
7.263437 1.157939 27.520838 211 211 211 0
7.370748 1.158260 27.528471 212 212 212 0
7.478014 1.158566 27.535723 211 211 211 0
7.589746 1.159545 27.558990 212 212 212 0
7.698895 1.160107 27.572369 211 211 211 0
7.806526 1.160430 27.580026 212 212 212 0
7.924783 1.162301 27.624515 212 212 212 0
8.023179 1.161250 27.599516 211 211 211 0
8.132066 1.161724 27.610783 212 212 212 0
8.251587 1.163685 27.657404 211 211 211 0
8.562802 1.192289 28.337227 211 211 211 0
-7.524909 1.128736 24.591205 203 203 203 0
-7.419257 1.126976 24.552848 202 202 202 0
-7.328413 1.127448 24.563141 202 202 202 0
-7.300487 1.137738 24.787325 202 202 202 0
-7.277538 1.149085 25.034532 203 203 203 0
-7.199360 1.151898 25.095807 203 203 203 0
-7.117626 1.154210 25.146181 204 204 204 0
-7.029754 1.155576 25.175949 203 203 203 0
-6.938969 1.156495 25.195965 203 203 203 0
-6.908951 1.167710 25.440306 203 203 203 0
-6.870824 1.177855 25.661340 204 204 204 0
-6.763535 1.176267 25.626729 204 204 204 0
-6.620667 1.168353 25.454312 203 203 203 0
-6.565434 1.175899 25.618705 204 204 204 0
-6.568505 1.194274 26.019035 204 204 204 0
-6.497179 1.199479 26.132443 204 204 204 0
-6.348328 1.190311 25.932712 204 204 204 0
-6.206879 1.182263 25.757355 204 204 204 0
-6.103391 1.181301 25.736415 205 205 205 0
-6.095745 1.199163 26.125553 205 205 205 0
-6.014885 1.202977 26.208651 205 205 205 0
-5.885646 1.197081 26.080185 204 204 204 0
-5.740106 1.187608 25.873815 204 204 204 0
-5.626940 1.184619 25.808693 205 205 205 0
-5.586217 1.197046 26.079444 205 205 205 0
-5.539092 1.208529 26.329613 205 205 205 0
-5.423938 1.205320 26.259687 204 204 204 0
-5.286147 1.196863 26.075456 205 205 205 0
-5.192483 1.198265 26.105998 206 206 206 0
-5.132219 1.207581 26.308952 205 205 205 0
-5.053178 1.212763 26.421844 205 205 205 0
-4.960218 1.214747 26.465082 206 206 206 0
-4.843978 1.210995 26.383324 205 205 205 0
-4.748683 1.212430 26.414592 205 205 205 0
-4.676699 1.220009 26.579707 205 205 205 0
-4.603526 1.227607 26.745247 205 205 205 0
-4.502010 1.227821 26.749909 206 206 206 0
-4.376571 1.221369 26.609336 205 205 205 0
-4.265683 1.218767 26.552650 206 206 206 0
-4.188487 1.225899 26.708032 205 205 205 0
-4.112377 1.233713 26.878280 205 205 205 0
-3.993734 1.228841 26.772137 206 206 206 0
-3.870351 1.222216 26.627800 206 206 206 0
-3.757508 1.218651 26.550135 206 206 206 0
-3.661983 1.220661 26.593924 207 207 207 0
-3.576328 1.226170 26.713936 207 207 207 0
-3.473626 1.225986 26.709925 207 207 207 0
-3.367776 1.224646 26.680741 206 206 206 0
-3.270144 1.226304 26.716865 207 207 207 0
-3.172603 1.228104 26.756083 207 207 207 0
-3.077480 1.230992 26.818994 207 207 207 0
-2.971475 1.229576 26.788148 207 207 207 0
-2.875837 1.232502 26.851888 206 206 206 0
-2.778585 1.234927 26.904722 207 207 207 0
-2.683984 1.238762 26.988279 207 207 207 0
-2.579188 1.238010 26.971900 207 207 207 0
-2.482643 1.241321 27.044040 207 207 207 0
-2.383811 1.243727 27.096457 207 207 207 0
-2.277456 1.242249 27.064245 207 207 207 0
-2.168146 1.238940 26.992167 208 208 208 0
-2.060988 1.236593 26.941026 207 207 207 0
-1.967952 1.242917 27.078807 207 207 207 0
-1.863764 1.242509 27.069917 207 207 207 0
-1.758591 1.241359 27.044848 208 208 208 0
-1.650982 1.238237 26.976837 208 208 208 0
-1.542894 1.234315 26.891401 207 207 207 0
-1.448409 1.241494 27.047790 208 208 208 0
-1.351230 1.247290 27.174067 207 207 207 0
-1.245461 1.245461 27.134233 207 207 207 0
-1.138021 1.241478 27.047442 209 209 209 0
-1.032827 1.239392 27.002008 209 209 209 0
-0.931810 1.242413 27.067832 209 209 209 0
-0.831769 1.247653 27.181992 208 208 208 0
-0.728273 1.248468 27.199729 208 208 208 0
-0.621878 1.243756 27.097081 209 209 209 0
-0.517562 1.242150 27.062085 208 208 208 0
-0.416368 1.249103 27.213573 208 208 208 0
-0.313714 1.254855 27.338890 208 208 208 0
-0.208550 1.251300 27.261443 209 209 209 0
-0.103943 1.247310 27.174517 209 209 209 0
0.000000 1.245534 27.135807 208 208 208 0
0.104285 1.251423 27.264121 209 209 209 0
0.209281 1.255685 27.356963 209 209 209 0
0.312420 1.249681 27.226158 209 209 209 0
0.415097 1.245291 27.130530 209 209 209 0
0.518952 1.245484 27.134725 208 208 208 0
0.625965 1.251930 27.275153 209 209 209 0
0.731574 1.254127 27.323032 209 209 209 0
0.833579 1.250369 27.241145 208 208 208 0
0.937276 1.249702 27.226622 210 210 210 0
1.042065 1.250477 27.243517 209 209 209 0
1.148509 1.252919 27.296699 209 209 209 0
1.252794 1.252794 27.293984 209 209 209 0
1.356208 1.251885 27.274174 209 209 209 0
1.460587 1.251931 27.275193 209 209 209 0
1.567959 1.254367 27.328266 210 210 210 0
1.676355 1.257266 27.391424 209 209 209 0
1.782206 1.258028 27.408018 209 209 209 0
1.886224 1.257482 27.396130 209 209 209 0
1.989997 1.256840 27.382136 209 209 209 0
2.094606 1.256764 27.380472 210 210 210 0
2.198276 1.256157 27.367265 209 209 209 0
2.308168 1.259001 27.429207 209 209 209 0
2.407543 1.256109 27.366220 209 209 209 0
2.508556 1.254278 27.326315 209 209 209 0
2.612306 1.253907 27.318235 210 210 210 0
2.721026 1.255858 27.360746 210 210 210 0
2.828893 1.257286 27.391848 209 209 209 0
2.936436 1.258473 27.417703 210 210 210 0
3.040249 1.258034 27.408146 211 211 211 0
3.140812 1.256325 27.370913 210 210 210 0
3.246420 1.256679 27.378621 210 210 210 0
3.356626 1.258735 27.423419 210 210 210 0
3.463845 1.259580 27.441831 210 210 210 0
3.566011 1.258592 27.420307 210 210 210 0
3.663388 1.256019 27.364240 210 210 210 0
3.781721 1.260574 27.463478 210 210 210 0
3.900584 1.265054 27.561097 210 210 210 0
3.998366 1.262642 27.508536 210 210 210 0
4.094203 1.259755 27.445635 210 210 210 0
4.196489 1.258947 27.428036 210 210 210 0
4.319450 1.264229 27.543122 210 210 210 0
4.419199 1.262628 27.508244 211 211 211 0
4.515033 1.260009 27.451182 211 211 211 0
4.608100 1.256755 27.380275 210 210 210 0
4.708301 1.255547 27.353965 210 210 210 0
4.831948 1.260508 27.462053 210 210 210 0
4.945322 1.262636 27.508399 211 211 211 0
5.044422 1.261105 27.475064 211 211 211 0
5.143235 1.259568 27.441563 210 210 210 0
5.256531 1.261568 27.485131 211 211 211 0
5.363867 1.262086 27.496434 210 210 210 0
5.467064 1.261630 27.486495 210 210 210 0
5.565339 1.260077 27.452653 212 212 212 0
5.677566 1.261681 27.487609 212 212 212 0
5.795584 1.264491 27.548825 212 212 212 0
5.911380 1.266724 27.597480 211 211 211 0
6.012810 1.265855 27.578533 211 211 211 0
6.113838 1.264932 27.558432 212 212 212 0
6.223161 1.265728 27.575765 211 211 211 0
5.717860 1.143572 24.914422 211 211 211 0
6.432030 1.265317 27.566826 211 211 211 0
6.524574 1.262821 27.512434 211 211 211 0
6.617207 1.260420 27.460139 212 212 212 0
6.724549 1.260853 27.469563 211 211 211 0
