ply
    format ascii 1.0
    element vertex 25597
    property float x
    property float y
    property float z
    property uchar red
    property uchar green
    property uchar blue
    property uchar alpha
    end_header
3.608480 -5.567369 26.954100 210 210 210 0
3.710777 -5.566165 26.948270 210 210 210 0
3.815485 -5.568545 26.959794 210 210 210 0
3.932212 -5.587880 27.053403 210 210 210 0
4.037455 -5.590323 27.065229 210 210 210 0
4.129700 -5.575095 26.991504 211 211 211 0
4.225611 -5.565440 26.944757 211 211 211 0
4.332514 -5.570375 26.968652 210 210 210 0
4.455201 -5.594903 27.087404 211 211 211 0
4.545410 -5.578457 27.007782 210 210 210 0
4.637268 -5.564721 26.941279 211 211 211 0
4.732586 -5.555644 26.897335 211 211 211 0
4.845023 -5.566622 26.950483 211 211 211 0
4.961814 -5.582041 27.025131 210 210 210 0
5.059172 -5.575414 26.993048 210 210 210 0
5.153603 -5.565892 26.946945 210 210 210 0
5.256946 -5.566178 26.948334 211 211 211 0
5.369424 -5.575940 26.995597 210 210 210 0
5.479714 -5.583105 27.030285 211 211 211 0
5.575511 -5.575511 26.993516 210 210 210 0
5.672874 -5.569731 26.965532 211 211 211 0
5.782629 -5.576107 26.996401 210 210 210 0
5.908969 -5.597970 27.102253 210 210 210 0
6.019258 -5.604137 27.132109 211 211 211 0
6.107487 -5.589903 27.063196 210 210 210 0
6.203193 -5.582874 27.029164 211 211 211 0
6.313186 -5.588722 27.057480 210 210 210 0
6.430396 -5.600668 27.115312 211 211 211 0
6.516568 -5.585629 27.042505 211 211 211 0
6.608396 -5.575834 26.995080 211 211 211 0
6.707569 -5.572442 26.978657 211 211 211 0
6.819140 -5.579297 27.011845 211 211 211 0
6.931282 -5.586406 27.046267 211 211 211 0
7.035292 -5.586849 27.048411 212 212 212 0
7.129103 -5.579298 27.011851 211 211 211 0
7.239936 -5.585094 27.039911 211 211 211 0
7.347293 -5.588082 27.054380 212 212 212 0
7.440762 -5.580572 27.018018 211 211 211 0
7.554682 -5.588395 27.055892 211 211 211 0
7.658283 -5.588477 27.056291 211 211 211 0
7.763794 -5.589932 27.063334 211 211 211 0
7.873518 -5.594342 27.084685 212 212 212 0
7.982063 -5.597810 27.101478 211 211 211 0
8.108505 -5.613581 27.177829 211 211 211 0
8.186535 -5.595859 27.092033 211 211 211 0
-7.418285 -4.914614 24.242762 203 203 203 0
-7.322626 -4.912648 24.233064 203 203 203 0
-7.233425 -4.915019 24.244761 203 203 203 0
-7.181625 -4.943196 24.383752 203 203 203 0
-7.121338 -4.966196 24.497207 203 203 203 0
-7.060801 -4.989633 24.612813 203 203 203 0
-6.996614 -5.011089 24.718651 203 203 203 0
-6.895019 -5.005973 24.693417 204 204 204 0
-6.795307 -5.002101 24.674318 203 203 203 0
-6.713969 -5.011836 24.722337 204 204 204 0
-6.722673 -5.090024 25.108024 203 203 203 0
-6.640981 -5.101043 25.162378 204 204 204 0
-6.526612 -5.086918 25.092703 203 203 203 0
-6.408255 -5.069216 25.005384 203 203 203 0
-6.395736 -5.135970 25.334663 204 204 204 0
-6.372672 -5.196179 25.631661 203 203 203 0
-6.265405 -5.188539 25.593976 204 204 204 0
-6.126381 -5.153940 25.423305 205 205 205 0
-5.991540 -5.121800 25.264768 204 204 204 0
-5.932468 -5.154439 25.425770 204 204 204 0
-5.944174 -5.250687 25.900542 205 205 205 0
-5.815286 -5.223901 25.768410 204 204 204 0
-5.668858 -5.180163 25.552661 205 205 205 0
-5.535214 -5.146778 25.387978 204 204 204 0
-5.433246 -5.142179 25.365292 204 204 204 0
-5.426831 -5.229492 25.795988 205 205 205 0
-5.350788 -5.251699 25.905533 205 205 205 0
-5.213279 -5.213279 25.716015 205 205 205 0
-5.101660 -5.199769 25.649371 206 206 206 0
-5.021787 -5.218720 25.742854 205 205 205 0
-4.966043 -5.264005 25.966236 205 205 205 0
-4.886724 -5.285641 26.072959 205 205 205 0
-4.772021 -5.269106 25.991398 205 205 205 0
-4.659843 -5.254717 25.920417 205 205 205 0
-4.563094 -5.257478 25.934036 205 205 205 0
-4.511234 -5.313231 26.209056 206 206 206 0
-4.429879 -5.335990 26.321322 206 206 206 0
-4.317286 -5.321306 26.248887 205 205 205 0
-4.190578 -5.288110 26.085140 206 206 206 0
-4.089106 -5.285917 26.074323 206 206 206 0
-4.011535 -5.315284 26.219183 206 206 206 0
-3.924577 -5.333399 26.308541 206 206 206 0
-3.808930 -5.312455 26.205228 206 206 206 0
-3.695548 -5.293622 26.112332 206 206 206 0
-3.592792 -5.289388 26.091446 206 206 206 0
-3.504914 -5.307441 26.180494 206 206 206 0
-3.423104 -5.336015 26.321443 206 206 206 0
-3.320943 -5.333635 26.309705 207 207 207 0
-3.211997 -5.319870 26.241807 206 206 206 0
-3.117425 -5.329792 26.290747 206 206 206 0
-3.022786 -5.340255 26.342362 207 207 207 0
-2.922589 -5.341284 26.347437 207 207 207 0
-2.820575 -5.338945 26.335899 207 207 207 0
-2.728210 -5.355376 26.416950 207 207 207 0
-2.630395 -5.361960 26.449425 207 207 207 0
-2.532204 -5.368272 26.480562 207 207 207 0
-2.430511 -5.367379 26.476156 207 207 207 0
-2.333759 -5.377791 26.527520 206 206 206 0
-2.242304 -5.401915 26.646518 208 208 208 0
-2.135794 -5.390338 26.589409 207 207 207 0
-2.027143 -5.371928 26.498598 207 207 207 0
-1.923764 -5.366288 26.470776 207 207 207 0
-1.830662 -5.390282 26.589135 207 207 207 0
-1.729663 -5.392478 26.599966 207 207 207 0
-1.626110 -5.386489 26.570425 207 207 207 0
-1.518313 -5.364707 26.462977 207 207 207 0
-1.415663 -5.359295 26.436280 207 207 207 0
-1.321598 -5.388054 26.578142 208 208 208 0
-1.224086 -5.406380 26.668540 208 208 208 0
-1.121021 -5.401283 26.643399 208 208 208 0
-1.016677 -5.388388 26.579790 207 207 207 0
-0.915294 -5.390064 26.588059 208 208 208 0
-0.814742 -5.397664 26.625545 208 208 208 0
-0.716087 -5.421799 26.744599 208 208 208 0
-0.613599 -5.420125 26.736344 209 209 209 0
-0.509782 -5.403691 26.655279 208 208 208 0
-0.407035 -5.393208 26.603565 209 209 209 0
-0.306925 -5.422350 26.747317 208 208 208 0
-0.205456 -5.444580 26.856972 208 208 208 0
-0.102550 -5.435172 26.810565 208 208 208 0
0.000000 -5.414902 26.710577 208 208 208 0
0.101999 -5.405928 26.666313 208 208 208 0
0.204819 -5.427710 26.773759 208 208 208 0
0.308760 -5.454769 26.907233 209 209 209 0
0.409618 -5.427443 26.772441 209 209 209 0
0.510223 -5.408361 26.678311 209 209 209 0
0.611120 -5.398225 26.628316 208 208 208 0
0.715749 -5.419242 26.731987 208 208 208 0
0.819700 -5.430512 26.787581 209 209 209 0
0.921377 -5.425886 26.764762 209 209 209 0
1.022515 -5.419328 26.732410 209 209 209 0
1.125129 -5.421075 26.741027 209 209 209 0
1.230726 -5.435706 26.813202 209 209 209 0
1.332965 -5.434398 26.806747 209 209 209 0
1.435525 -5.434489 26.807199 208 208 208 0
1.537162 -5.431305 26.791492 209 209 209 0
1.643046 -5.442590 26.847156 209 209 209 0
1.749053 -5.452929 26.898160 209 209 209 0
1.855131 -5.462330 26.944529 209 209 209 0
1.957633 -5.460766 26.936817 209 209 209 0
2.058169 -5.454147 26.904168 209 209 209 0
2.159026 -5.448970 26.878629 209 209 209 0
2.263706 -5.453474 26.900844 210 210 210 0
2.372184 -5.466338 26.964301 209 209 209 0
2.468447 -5.451155 26.889405 209 209 209 0
2.570046 -5.448498 26.876302 210 210 210 0
2.670747 -5.444216 26.855176 210 210 210 0
2.772087 -5.441505 26.841805 209 209 209 0
2.878136 -5.447900 26.873351 210 210 210 0
2.986025 -5.457218 26.919316 210 210 210 0
3.089951 -5.458914 26.927679 210 210 210 0
3.189015 -5.452188 26.894501 210 210 210 0
3.292176 -5.452666 26.896863 210 210 210 0
3.394626 -5.451975 26.893453 210 210 210 0
3.506252 -5.465628 26.960800 210 210 210 0
3.609868 -5.466372 26.964468 211 211 211 0
3.710751 -5.463050 26.948082 210 210 210 0
3.815599 -5.465588 26.960602 210 210 210 0
3.933158 -5.485720 27.059910 210 210 210 0
4.040364 -5.490750 27.084723 210 210 210 0
4.132479 -5.475534 27.009666 211 211 211 0
4.224528 -5.460976 26.937851 210 210 210 0
4.332351 -5.467014 26.967638 211 211 211 0
4.456445 -5.492828 27.094972 210 210 210 0
4.547155 -5.477255 27.018151 210 210 210 0
4.638133 -5.462690 26.946306 210 210 210 0
4.732624 -5.452806 26.897549 210 210 210 0
4.844237 -5.462651 26.946113 210 210 210 0
4.961806 -5.478661 27.025087 211 211 211 0
5.058429 -5.471362 26.989082 210 210 210 0
5.154335 -5.463595 26.950769 210 210 210 0
5.254369 -5.460423 26.935123 211 211 211 0
5.369378 -5.472635 26.995363 211 211 211 0
5.478169 -5.478169 27.022662 211 211 211 0
5.576052 -5.472791 26.996135 210 210 210 0
5.672056 -5.465800 26.961646 211 211 211 0
5.782119 -5.472363 26.994021 211 211 211 0
5.907806 -5.493224 27.096922 211 211 211 0
6.018109 -5.499307 27.126930 212 212 212 0
6.107770 -5.486641 27.064453 211 211 211 0
6.203360 -5.479635 27.029893 211 211 211 0
6.314504 -5.486372 27.063125 211 211 211 0
6.430477 -5.497020 27.115651 211 211 211 0
6.518268 -5.483623 27.049562 211 211 211 0
6.608150 -5.472374 26.994076 211 211 211 0
6.705794 -5.467801 26.971518 211 211 211 0
6.817055 -5.474302 27.003584 211 211 211 0
6.930768 -5.482548 27.044263 212 212 212 0
7.033242 -5.481792 27.040531 211 211 211 0
7.127152 -5.474479 27.004458 211 211 211 0
7.238764 -5.480778 27.035532 211 211 211 0
7.345468 -5.483237 27.047658 211 211 211 0
7.444734 -5.480152 27.032441 211 211 211 0
7.550822 -5.482103 27.042068 212 212 212 0
7.659265 -5.485690 27.059760 211 211 211 0
7.763658 -5.486318 27.062859 212 212 212 0
7.875260 -5.491958 27.090678 212 212 212 0
7.983484 -5.495125 27.106302 211 211 211 0
8.105521 -5.507597 27.167825 211 211 211 0
8.189381 -5.494141 27.101450 211 211 211 0
-7.415203 -4.819882 24.232689 203 203 203 0
-7.306315 -4.809220 24.179084 203 203 203 0
-7.216171 -4.810781 24.186931 203 203 203 0
-7.181395 -4.849773 24.382971 203 203 203 0
-7.125983 -4.875673 24.513187 203 203 203 0
-7.064794 -4.898257 24.626734 203 203 203 0
-7.017473 -4.931197 24.792345 202 202 202 0
-6.900431 -4.915376 24.712799 204 204 204 0
-6.801496 -4.912192 24.696791 203 203 203 0
-6.724188 -4.924758 24.759969 203 203 203 0
-6.725588 -4.996151 25.118908 204 204 204 0
-6.645553 -5.008243 25.179703 204 204 204 0
-6.528748 -4.992572 25.100915 203 203 203 0
-6.417651 -4.980864 25.042050 204 204 204 0
-6.396885 -5.039970 25.339217 204 204 204 0
-6.372832 -5.098266 25.632306 204 204 204 0
-6.266098 -5.091205 25.596806 204 204 204 0
-6.131304 -5.060759 25.443735 204 204 204 0
-5.989816 -5.023717 25.257499 204 204 204 0
-5.934346 -5.058786 25.433818 204 204 204 0
-5.941926 -5.149669 25.890744 205 205 205 0
-5.813933 -5.124145 25.762416 204 204 204 0
-5.672117 -5.085346 25.567353 204 204 204 0
-5.536351 -5.050706 25.393193 205 205 205 0
-5.440872 -5.052239 25.400898 205 205 205 0
-5.420628 -5.124958 25.766505 205 205 205 0
-5.343887 -5.145965 25.872122 205 205 205 0
-5.212566 -5.114215 25.712495 204 204 204 0
-5.101164 -5.101164 25.646877 205 205 205 0
-5.015704 -5.114052 25.711672 204 204 204 0
-4.965625 -5.164250 25.964051 205 205 205 0
-4.880102 -5.178883 26.037624 205 205 205 0
-4.770256 -5.167778 25.981788 205 205 205 0
-4.654203 -5.149331 25.889043 205 205 205 0
-4.568355 -5.164227 25.963937 205 205 205 0
-4.509991 -5.211545 26.201834 206 206 206 0
-4.429196 -5.234504 26.317266 205 205 205 0
-4.317046 -5.220614 26.247430 206 206 206 0
-4.191571 -5.189564 26.091321 206 206 206 0
-4.088751 -5.185733 26.072059 205 205 205 0
-4.011019 -5.214325 26.215811 206 206 206 0
-3.929457 -5.239276 26.341259 206 206 206 0
-3.808465 -5.211583 26.202027 205 205 205 0
-3.694296 -5.191984 26.103490 206 206 206 0
-3.591580 -5.187838 26.082647 206 206 206 0
-3.500691 -5.201027 26.148953 205 205 205 0
-3.423282 -5.235608 26.322817 206 206 206 0
-3.321230 -5.233453 26.311979 207 207 207 0
-3.213070 -5.221239 26.250575 206 206 206 0
-3.119123 -5.232078 26.305065 207 207 207 0
-3.020187 -5.234990 26.319711 206 206 206 0
-2.921118 -5.237867 26.334173 206 206 206 0
-2.820438 -5.237956 26.334619 206 206 206 0
-2.728205 -5.254320 26.416892 207 207 207 0
-2.630592 -5.261184 26.451401 207 207 207 0
-2.530615 -5.263680 26.463950 207 207 207 0
-2.430862 -5.266867 26.479974 207 207 207 0
-2.333661 -5.276103 26.526408 207 207 207 0
-2.241989 -5.299248 26.642773 207 207 207 0
-2.134604 -5.285687 26.574595 207 207 207 0
-2.025485 -5.266261 26.476927 207 207 207 0
-1.923818 -5.265186 26.471524 207 207 207 0
-1.830130 -5.287041 26.581404 208 208 208 0
-1.729090 -5.288981 26.591158 208 208 208 0
-1.626565 -5.286335 26.577852 207 207 207 0
-1.520511 -5.271106 26.501288 207 207 207 0
-1.414524 -5.253945 26.415008 207 207 207 0
-1.320421 -5.281686 26.554479 208 208 208 0
-1.224628 -5.306722 26.680351 207 207 207 0
-1.121626 -5.302231 26.657772 207 207 207 0
-1.017640 -5.291727 26.604962 208 208 208 0
-0.915249 -5.288108 26.586768 207 207 207 0
-0.815280 -5.299319 26.643130 208 208 208 0
-0.716246 -5.320686 26.750556 209 209 209 0
-0.613677 -5.318531 26.739725 208 208 208 0
-0.509815 -5.302076 26.656993 208 208 208 0
-0.406819 -5.288653 26.589508 208 208 208 0
-0.307044 -5.322093 26.757633 208 208 208 0
-0.205537 -5.343964 26.867594 208 208 208 0
-0.102557 -5.332984 26.812386 209 209 209 0
0.000000 -5.311982 26.706795 208 208 208 0
0.102024 -5.305236 26.672882 209 209 209 0
0.204841 -5.325867 26.776604 208 208 208 0
0.308772 -5.352050 26.908247 209 209 209 0
0.409374 -5.321863 26.756477 209 209 209 0
0.510027 -5.304286 26.668104 208 208 208 0
0.611084 -5.296064 26.626765 209 209 209 0
0.715786 -5.317267 26.733367 208 208 208 0
0.819702 -5.328061 26.787635 209 209 209 0
0.921658 -5.325135 26.772924 209 209 209 0
1.022683 -5.317954 26.736822 209 209 209 0
1.124988 -5.318124 26.737677 208 208 208 0
1.230304 -5.331319 26.804019 209 209 209 0
1.333054 -5.332215 26.808522 209 209 209 0
1.435042 -5.330157 26.798175 209 209 209 0
1.537634 -5.330463 26.799712 209 209 209 0
1.643298 -5.340720 26.851281 209 209 209 0
1.749987 -5.352902 26.912528 209 209 209 0
1.855086 -5.359139 26.943884 209 209 209 0
1.959151 -5.361888 26.957706 209 209 209 0
2.057699 -5.350017 26.898023 209 209 209 0
2.158424 -5.344670 26.871140 209 209 209 0
2.262316 -5.347292 26.884323 209 209 209 0
2.372179 -5.363187 26.964237 209 209 209 0
2.469043 -5.349593 26.895891 210 210 210 0
2.570631 -5.346913 26.882417 210 210 210 0
2.670283 -5.340566 26.850506 209 209 209 0
2.772751 -5.340112 26.848227 210 210 210 0
2.878245 -5.345312 26.874371 210 210 210 0
2.985998 -5.354203 26.919071 209 209 209 0
3.089562 -5.355241 26.924288 210 210 210 0
3.187951 -5.347530 26.885521 210 210 210 0
3.290974 -5.347833 26.887046 210 210 210 0
3.394100 -5.348279 26.889288 210 210 210 0
3.506720 -5.363219 26.964402 210 210 210 0
3.607068 -5.359073 26.943553 210 210 210 0
3.711843 -5.361552 26.956016 209 209 209 0
3.814160 -5.360441 26.950434 211 211 211 0
3.931403 -5.379815 27.047839 210 210 210 0
4.039183 -5.385578 27.076811 210 210 210 0
4.132761 -5.372589 27.011509 210 210 210 0
4.224912 -5.358425 26.940296 210 210 210 0
4.332847 -5.364478 26.970728 210 210 210 0
4.455714 -5.388305 27.090523 211 211 211 0
4.546843 -5.373542 27.016297 210 210 210 0
4.636368 -5.357581 26.936053 210 210 210 0
4.733966 -5.351440 26.905176 211 211 211 0
4.843745 -5.359037 26.943372 211 211 211 0
4.959160 -5.372423 27.010674 210 210 210 0
5.058207 -5.367893 26.987897 210 210 210 0
5.153676 -5.359823 26.947325 210 210 210 0
5.254557 -5.357587 26.936085 211 211 211 0
5.371574 -5.371574 27.006404 211 211 211 0
5.478922 -5.375546 27.026376 210 210 210 0
5.576308 -5.369778 26.997378 211 211 211 0
5.672488 -5.363080 26.963700 210 210 210 0
5.781136 -5.368198 26.989431 211 211 211 0
5.909716 -5.391320 27.105681 212 212 212 0
6.020589 -5.397769 27.138106 211 211 211 0
6.107689 -5.383048 27.064093 211 211 211 0
6.204422 -5.377166 27.034520 211 211 211 0
6.312444 -5.381100 27.054298 210 210 210 0
6.428267 -5.391450 27.106334 211 211 211 0
6.518570 -5.380407 27.050816 211 211 211 0
6.608861 -5.369700 26.996981 211 211 211 0
6.706768 -5.365415 26.975438 212 212 212 0
6.820690 -5.373877 27.017986 211 211 211 0
6.930342 -5.378773 27.042597 212 212 212 0
7.032808 -5.378030 27.038862 211 211 211 0
7.126838 -5.370950 27.003270 211 211 211 0
7.239439 -5.377869 27.038055 212 212 212 0
7.348263 -5.381827 27.057952 211 211 211 0
7.442040 -5.374807 27.022659 211 211 211 0
7.552867 -5.380124 27.049393 211 211 211 0
7.660459 -5.383025 27.063978 212 212 212 0
7.762850 -5.382242 27.060042 211 211 211 0
7.875923 -5.388790 27.092960 212 212 212 0
7.983934 -5.391748 27.107831 211 211 211 0
8.110423 -5.406948 27.184255 211 211 211 0
8.189795 -5.390751 27.102820 211 211 211 0
-7.407853 -4.722506 24.208671 202 202 202 0
-7.312043 -4.720433 24.198041 203 203 203 0
-7.226622 -4.725099 24.221961 202 202 202 0
-7.183508 -4.757908 24.390146 204 204 204 0
-7.121911 -4.779177 24.499177 203 203 203 0
-7.066958 -4.805532 24.634278 203 203 203 0
-7.013935 -4.833928 24.779843 203 203 203 0
-6.904682 -4.823819 24.728022 203 203 203 0
-6.808421 -4.822631 24.721935 203 203 203 0
-6.722370 -4.828745 24.753273 203 203 203 0
-6.711534 -4.889832 25.066419 203 203 203 0
-6.650919 -4.915897 25.200036 204 204 204 0
-6.531857 -4.898892 25.112866 204 204 204 0
-6.422324 -4.888635 25.060283 204 204 204 0
-6.401003 -4.946230 25.355528 204 204 204 0
-6.375072 -5.001980 25.641316 204 204 204 0
-6.258336 -4.987111 25.565098 204 204 204 0
-6.131464 -4.963566 25.444397 204 204 204 0
-5.992214 -4.929080 25.267613 204 204 204 0
-5.932544 -4.959996 25.426096 204 204 204 0
-5.938840 -5.048014 25.877299 204 204 204 0
-5.811295 -5.023323 25.750726 205 205 205 0
-5.671450 -4.986965 25.564345 205 205 205 0
-5.536005 -4.953267 25.391604 204 204 204 0
-5.436652 -4.951236 25.381193 204 204 204 0
-5.425359 -5.030787 25.788991 205 205 205 0
-5.349808 -5.052596 25.900787 205 205 205 0
-5.211346 -5.014692 25.706480 205 205 205 0
-5.098590 -5.000541 25.633939 205 205 205 0
-5.017479 -5.017479 25.720771 205 205 205 0
-4.968825 -5.068201 25.980782 205 205 205 0
-4.881786 -5.081042 26.046609 205 205 205 0
-4.771471 -5.069687 25.988402 205 205 205 0
-4.648285 -5.043884 25.856128 205 205 205 0
-4.567124 -5.063550 25.956940 206 206 206 0
-4.508719 -5.109881 26.194445 206 206 206 0
-4.425815 -5.129921 26.297175 205 205 205 0
-4.314089 -5.116711 26.229454 205 205 205 0
-4.191840 -5.090092 26.092999 206 206 206 0
-4.091624 -5.089581 26.090382 206 206 206 0
-4.012107 -5.115436 26.222919 206 206 206 0
-3.927094 -5.135430 26.325414 206 206 206 0
-3.808800 -5.111810 26.204332 206 206 206 0
-3.694428 -5.092320 26.104422 206 206 206 0
-3.595509 -5.093638 26.111178 206 206 206 0
-3.501434 -5.102089 26.154502 206 206 206 0
-3.422178 -5.133267 26.314328 206 206 206 0
-3.321594 -5.133373 26.314868 206 206 206 0
-3.213858 -5.122087 26.257014 206 206 206 0
-3.119548 -5.132159 26.308647 207 207 207 0
-3.021488 -5.136529 26.331048 207 207 207 0
-2.922403 -5.139398 26.345756 206 206 206 0
-2.817996 -5.132778 26.311821 207 207 207 0
-2.726884 -5.150781 26.404104 206 206 206 0
-2.631672 -5.162126 26.462261 206 206 206 0
-2.532129 -5.165543 26.479780 207 207 207 0
-2.431439 -5.166807 26.486259 207 207 207 0
-2.332191 -5.171379 26.509698 207 207 207 0
-2.242377 -5.198236 26.647374 206 206 206 0
-2.135730 -5.186772 26.588605 207 207 207 0
-2.024715 -5.163022 26.466857 208 208 208 0
-1.923460 -5.162972 26.466599 207 207 207 0
-1.828742 -5.181435 26.561245 207 207 207 0
-1.730371 -5.191112 26.610854 207 207 207 0
-1.625812 -5.182274 26.565549 207 207 207 0
-1.518930 -5.164364 26.473734 208 208 208 0
-1.415208 -5.155399 26.427779 208 208 208 0
-1.320895 -5.181974 26.564011 208 208 208 0
-1.224574 -5.204438 26.679165 207 207 207 0
-1.121502 -5.199689 26.654821 208 208 208 0
-1.017002 -5.186711 26.588289 207 207 207 0
-0.915261 -5.186480 26.587107 207 207 207 0
-0.815759 -5.200465 26.658800 208 208 208 0
-0.716045 -5.216902 26.743056 208 208 208 0
-0.613746 -5.216840 26.742738 208 208 208 0
-0.510044 -5.202447 26.668959 208 208 208 0
-0.406901 -5.187986 26.594828 208 208 208 0
-0.307055 -5.219927 26.758564 208 208 208 0
-0.205417 -5.238139 26.851924 208 208 208 0
-0.102536 -5.229325 26.806740 208 208 208 0
0.000000 -5.210069 26.708028 208 208 208 0
0.102001 -5.202054 26.666945 208 208 208 0
0.204677 -5.219258 26.755133 208 208 208 0
0.308897 -5.251245 26.919110 209 209 209 0
0.409490 -5.220999 26.764062 209 209 209 0
0.510014 -5.202139 26.667379 209 209 209 0
0.611263 -5.195740 26.634574 209 209 209 0
0.715730 -5.214605 26.731281 209 209 209 0
0.820255 -5.229126 26.805719 209 209 209 0
0.921753 -5.223270 26.775699 209 209 209 0
1.022586 -5.215190 26.734283 208 208 208 0
1.124675 -5.214403 26.730245 208 208 208 0
1.230843 -5.231083 26.815754 209 209 209 0
1.333030 -5.229581 26.808052 209 209 209 0
1.435507 -5.229347 26.806856 210 210 210 0
1.537135 -5.226260 26.791031 209 209 209 0
1.643583 -5.238922 26.855935 209 209 209 0
1.749449 -5.248347 26.904252 209 209 209 0
1.854295 -5.253835 26.932383 209 209 209 0
1.957745 -5.255001 26.938360 210 210 210 0
2.058049 -5.248025 26.902599 209 209 209 0
2.159231 -5.243847 26.881185 209 209 209 0
2.263015 -5.246080 26.892632 210 210 210 0
2.372115 -5.259908 26.963518 210 210 210 0
2.469493 -5.247672 26.900791 209 209 209 0
2.569732 -5.242253 26.873014 209 209 209 0
2.670121 -5.237546 26.848881 210 210 210 0
2.771891 -5.235794 26.839903 210 210 210 0
2.877967 -5.242011 26.871771 209 209 209 0
2.986464 -5.252058 26.923274 210 210 210 0
3.089835 -5.252720 26.926668 210 210 210 0
3.186819 -5.242831 26.875978 210 210 210 0
3.291436 -5.245726 26.890815 210 210 210 0
3.394921 -5.246696 26.895789 210 210 210 0
3.506602 -5.259902 26.963488 210 210 210 0
3.608331 -5.257854 26.952987 210 210 210 0
3.711688 -5.258225 26.954890 211 211 211 0
3.814595 -5.257955 26.953507 210 210 210 0
3.931809 -5.276902 27.050632 210 210 210 0
4.039312 -5.282177 27.077673 211 211 211 0
4.130397 -5.266256 26.996060 210 210 210 0
4.224045 -5.254300 26.934770 211 211 211 0
4.332903 -5.261382 26.971072 210 210 210 0
4.456676 -5.285826 27.096376 211 211 211 0
4.546414 -5.269707 27.013747 211 211 211 0
4.634368 -5.252283 26.924430 210 210 210 0
4.732943 -5.247393 26.899363 210 210 210 0
4.844057 -5.256317 26.945109 210 210 210 0
4.960524 -5.270557 27.018105 210 210 210 0
5.055592 -5.261943 26.973946 211 211 211 0
5.152877 -5.255934 26.943146 211 211 211 0
5.252914 -5.252914 26.927665 211 211 211 0
5.370706 -5.267423 27.002041 210 210 210 0
5.478720 -5.271976 27.025378 211 211 211 0
5.577524 -5.267661 27.003262 210 210 210 0
5.672880 -5.260307 26.965560 210 210 210 0
5.779898 -5.263836 26.983652 211 211 211 0
5.907632 -5.285776 27.096121 211 211 211 0
6.018780 -5.292376 27.129954 211 211 211 0
6.108954 -5.280621 27.069697 211 211 211 0
6.204950 -5.274207 27.036818 211 211 211 0
6.314348 -5.279209 27.062460 211 211 211 0
6.428670 -5.288099 27.108032 211 211 211 0
6.518750 -5.277084 27.051562 211 211 211 0
6.608802 -5.266389 26.996738 211 211 211 0
6.705632 -5.261342 26.970867 211 211 211 0
6.815935 -5.266859 26.999150 210 210 210 0
6.930265 -5.275276 27.042298 211 211 211 0
7.032160 -5.274120 27.036370 211 211 211 0
7.126446 -5.267373 27.001785 211 211 211 0
7.238807 -5.273988 27.035692 211 211 211 0
7.347468 -5.277759 27.055025 211 211 211 0
7.445566 -5.273943 27.035461 211 211 211 0
7.555263 -5.278334 27.057974 212 212 212 0
7.661778 -5.280414 27.068637 211 211 211 0
7.764101 -5.279589 27.064404 211 211 211 0
7.874534 -5.284227 27.088181 211 211 211 0
7.986304 -5.289630 27.115879 211 211 211 0
8.113321 -5.304864 27.193969 212 212 212 0
8.191852 -5.288411 27.109629 211 211 211 0
-7.393215 -4.620759 24.160833 202 202 202 0
-7.303470 -4.622450 24.169671 202 202 202 0
-7.207860 -4.620423 24.159076 203 203 203 0
-7.179636 -4.662101 24.377000 203 203 203 0
-7.139525 -4.697056 24.559769 203 203 203 0
-7.074661 -4.716440 24.661127 203 203 203 0
-7.015365 -4.740111 24.784896 203 203 203 0
-6.896071 -4.723336 24.697184 203 203 203 0
-6.804524 -4.725364 24.707786 203 203 203 0
-6.718773 -4.731530 24.740028 203 203 203 0
-6.711790 -4.794136 25.067377 203 203 203 0
-6.637199 -4.809564 25.148048 204 204 204 0
-6.538305 -4.807577 25.137660 203 203 203 0
-6.425575 -4.795205 25.072970 203 203 203 0
-6.400770 -4.849068 25.354606 204 204 204 0
-6.384880 -4.911446 25.680764 205 205 205 0
-6.267543 -4.896518 25.602709 204 204 204 0
-6.125535 -4.861535 25.419793 204 204 204 0
-5.998829 -4.837765 25.295504 204 204 204 0
-5.925679 -4.857114 25.396675 204 204 204 0
-5.952659 -4.960549 25.937511 204 204 204 0
-5.814082 -4.927188 25.763076 204 204 204 0
-5.668738 -4.886843 25.552119 204 204 204 0
-5.543033 -4.862309 25.423839 204 204 204 0
-5.433304 -4.851164 25.365565 204 204 204 0
-5.421488 -4.928626 25.770591 205 205 205 0
-5.348328 -4.952156 25.893626 205 205 205 0
-5.220992 -4.925464 25.754062 205 205 205 0
-5.095137 -4.899170 25.616575 205 205 205 0
-5.016375 -4.918015 25.715111 205 205 205 0
-4.968548 -4.968548 25.979337 205 205 205 0
-4.881867 -4.981496 26.047040 205 205 205 0
-4.775509 -4.974488 26.010396 206 206 206 0
-4.658141 -4.955469 25.910948 205 205 205 0
-4.566000 -4.963044 25.950556 206 206 206 0
-4.510372 -5.011524 26.204049 205 205 205 0
-4.429088 -5.033055 26.316626 205 205 205 0
-4.317229 -5.020033 26.248541 205 205 205 0
-4.193925 -4.992768 26.105976 205 205 205 0
-4.088727 -4.986252 26.071905 206 206 206 0
-4.010994 -5.013742 26.215645 206 206 206 0
-3.929841 -5.038257 26.343828 205 205 205 0
-3.807147 -5.009404 26.192961 206 206 206 0
-3.692576 -4.989968 26.091335 206 206 206 0
-3.594057 -4.991746 26.100630 207 207 207 0
-3.502719 -5.003885 26.164104 206 206 206 0
-3.421241 -5.031237 26.307121 207 207 207 0
-3.321329 -5.032317 26.312769 206 206 206 0
-3.214760 -5.023062 26.264377 207 207 207 0
-3.117039 -5.027483 26.287491 207 207 207 0
-3.023148 -5.038580 26.345515 206 206 206 0
-2.921755 -5.037509 26.339915 206 206 206 0
-2.818409 -5.032873 26.315676 207 207 207 0
-2.724582 -5.045522 26.381815 206 206 206 0
-2.628906 -5.055588 26.434447 207 207 207 0
-2.533920 -5.067839 26.498506 207 207 207 0
-2.431434 -5.065487 26.486207 208 208 208 0
-2.334612 -5.075244 26.537221 207 207 207 0
-2.242201 -5.095912 26.645289 207 207 207 0
-2.135727 -5.085064 26.588568 207 207 207 0
-2.026234 -5.065586 26.486725 207 207 207 0
-1.922386 -5.058911 26.451820 208 208 208 0
-1.829116 -5.080878 26.566683 207 207 207 0
-1.728673 -5.084331 26.584737 208 208 208 0
-1.625327 -5.079147 26.557632 207 207 207 0
-1.519801 -5.066002 26.488900 207 207 207 0
-1.415232 -5.054402 26.428244 208 208 208 0
-1.320465 -5.078712 26.555355 207 207 207 0
-1.225277 -5.105320 26.694486 208 208 208 0
-1.120993 -5.095423 26.642736 208 208 208 0
-1.017337 -5.086683 26.597036 208 208 208 0
-0.915100 -5.083889 26.582425 208 208 208 0
-0.816036 -5.100225 26.667845 208 208 208 0
-0.715968 -5.114058 26.740171 208 208 208 0
-0.613741 -5.114510 26.742534 208 208 208 0
-0.509672 -5.096717 26.649500 208 208 208 0
-0.406829 -5.085364 26.590138 208 208 208 0
-0.306828 -5.113801 26.738831 208 208 208 0
-0.205517 -5.137913 26.864906 208 208 208 0
-0.102586 -5.129292 26.819830 208 208 208 0
0.000000 -5.108675 26.712026 208 208 208 0
0.101984 -5.099208 26.662527 208 208 208 0
0.204827 -5.120663 26.774708 209 209 209 0
0.308884 -5.148065 26.917989 209 209 209 0
0.409540 -5.119249 26.767316 209 209 209 0
0.509799 -5.097992 26.656170 208 208 208 0
0.611577 -5.096474 26.648231 209 209 209 0
0.715744 -5.112456 26.731798 209 209 209 0
0.819979 -5.124868 26.796696 209 209 209 0
0.921911 -5.121726 26.780268 209 209 209 0
1.022125 -5.110624 26.722219 209 209 209 0
1.124803 -5.112739 26.733276 209 209 209 0
1.230828 -5.128452 26.815434 209 209 209 0
1.333525 -5.128944 26.818009 209 209 209 0
1.435976 -5.128487 26.815621 209 209 209 0
1.537158 -5.123860 26.791423 209 209 209 0
1.643553 -5.136102 26.855434 210 210 210 0
1.749197 -5.144697 26.900376 209 209 209 0
1.855121 -5.153113 26.944381 210 210 210 0
1.957125 -5.150330 26.929830 209 209 209 0
2.057976 -5.144941 26.901653 209 209 209 0
2.159377 -5.141374 26.883003 209 209 209 0
2.263049 -5.143292 26.893032 209 209 209 0
2.372666 -5.157970 26.969778 210 210 210 0
2.469596 -5.144991 26.901915 209 209 209 0
2.569204 -5.138407 26.867489 209 209 209 0
2.670142 -5.134889 26.849093 210 210 210 0
2.772607 -5.134458 26.846840 209 209 209 0
2.878778 -5.140674 26.879342 210 210 210 0
2.987029 -5.150050 26.928369 209 209 209 0
3.091333 -5.152222 26.939721 210 210 210 0
3.189393 -5.144183 26.897687 210 210 210 0
3.292251 -5.144143 26.897479 210 210 210 0
3.393745 -5.142039 26.886476 210 210 210 0
3.505677 -5.155408 26.956382 210 210 210 0
3.608012 -5.154302 26.950600 210 210 210 0
3.710455 -5.153409 26.945932 210 210 210 0
3.814017 -5.154077 26.949423 210 210 210 0
3.932476 -5.174310 27.055215 210 210 210 0
4.040192 -5.179733 27.083573 210 210 210 0
4.132346 -5.165433 27.008799 211 211 211 0
4.225931 -5.153574 26.946793 210 210 210 0
4.333736 -5.159210 26.976262 210 210 210 0
4.455281 -5.180560 27.087894 210 210 210 0
4.547035 -5.167085 27.017438 211 211 211 0
4.635978 -5.151086 26.933784 211 211 211 0
4.732340 -5.143847 26.895934 210 210 210 0
4.843350 -5.152500 26.941177 211 211 211 0
4.959252 -5.165888 27.011177 210 210 210 0
5.055240 -5.158408 26.972070 210 210 210 0
5.154483 -5.154483 26.951545 211 211 211 0
5.254589 -5.151557 26.936248 210 210 210 0
5.370165 -5.163620 26.999322 211 211 211 0
5.477181 -5.167152 27.017789 211 211 211 0
5.576125 -5.163079 26.996491 211 211 211 0
5.674015 -5.158195 26.970957 211 211 211 0
5.783331 -5.163688 26.999676 211 211 211 0
5.906363 -5.181020 27.090302 210 210 210 0
6.016744 -5.186849 27.120777 211 211 211 0
6.107970 -5.176245 27.065335 211 211 211 0
6.201821 -5.168184 27.023183 211 211 211 0
6.312289 -5.174008 27.053635 210 210 210 0
6.429084 -5.184745 27.109779 211 211 211 0
6.519358 -5.174094 27.054084 211 211 211 0
6.608750 -5.163086 26.996529 211 211 211 0
6.706897 -5.159152 26.975957 211 211 211 0
6.819031 -5.165932 27.011411 211 211 211 0
6.932080 -5.173194 27.049381 212 212 212 0
7.033880 -5.171971 27.042984 211 211 211 0
7.127502 -5.164856 27.005785 211 211 211 0
7.238631 -5.170451 27.035038 211 211 211 0
7.346313 -5.173460 27.050772 211 211 211 0
7.444418 -5.169734 27.031291 211 211 211 0
7.551581 -5.172316 27.044790 211 211 211 0
7.659348 -5.175235 27.060053 211 211 211 0
7.762399 -5.174933 27.058473 211 211 211 0
7.875156 -5.181024 27.090321 212 212 212 0
7.987196 -5.186491 27.118908 211 211 211 0
8.117403 -5.203464 27.207653 211 211 211 0
8.194953 -5.186679 27.119890 211 211 211 0
-7.403408 -4.534587 24.194143 202 202 202 0
-7.293633 -4.523899 24.137117 203 203 203 0
-7.221656 -4.536681 24.205315 203 203 203 0
-7.175239 -4.566061 24.362071 203 203 203 0
-7.133455 -4.599201 24.538889 204 204 204 0
-7.080324 -4.625812 24.680869 203 203 203 0
-7.013439 -4.644034 24.778090 203 203 203 0
-6.894270 -4.627661 24.690732 203 203 203 0
-6.806956 -4.632512 24.716615 203 203 203 0
-6.729311 -4.644172 24.778831 204 204 204 0
-6.721692 -4.705184 25.104358 203 203 203 0
-6.652965 -4.724569 25.207787 204 204 204 0
-6.533934 -4.708276 25.120853 203 203 203 0
-6.416710 -4.692818 25.038378 204 204 204 0
-6.402004 -4.753003 25.359491 204 204 204 0
-6.381139 -4.810397 25.665717 205 205 205 0
-6.264696 -4.796408 25.591077 204 204 204 0
-6.118948 -4.759182 25.392459 204 204 204 0
-5.983939 -4.729242 25.232717 205 205 205 0
-5.939728 -4.771257 25.456885 204 204 204 0
-5.941487 -4.852214 25.888830 204 204 204 0
-5.818604 -4.832400 25.783113 204 204 204 0
-5.668788 -4.789148 25.552346 205 205 205 0
-5.531835 -4.755437 25.372481 204 204 204 0
-5.432333 -4.753291 25.361031 205 205 205 0
-5.425575 -4.833694 25.790019 205 205 205 0
-5.349376 -4.854063 25.898696 205 205 205 0
-5.212216 -4.818841 25.710770 205 205 205 0
-5.092494 -4.798696 25.603287 204 204 204 0
-5.015254 -4.818578 25.709365 206 206 206 0
-4.967407 -4.868058 25.973368 205 205 205 0
-4.882100 -4.882100 26.048286 205 205 205 0
-4.773614 -4.873064 26.000075 205 205 205 0
-4.654252 -4.852306 25.889320 205 205 205 0
-4.562323 -4.859866 25.929657 206 206 206 0
-4.511012 -4.911991 26.207768 205 205 205 0
-4.431911 -4.935537 26.333397 205 205 205 0
-4.315089 -4.917194 26.235528 206 206 206 0
-4.190605 -4.889040 26.085313 206 206 206 0
-4.091195 -4.889477 26.087647 206 206 206 0
-4.011252 -4.913784 26.217335 206 206 206 0
-3.929504 -4.937069 26.341571 207 207 207 0
-3.809811 -4.912651 26.211289 206 206 206 0
-3.698424 -4.897913 26.132653 206 206 206 0
-3.593003 -4.890477 26.092979 206 206 206 0
-3.505263 -4.907368 26.183105 206 206 206 0
-3.423686 -4.934136 26.325924 206 206 206 0
-3.320707 -4.930747 26.307842 206 206 206 0
-3.215530 -4.923781 26.270673 206 206 206 0
-3.118437 -4.929142 26.299277 206 206 206 0
-3.024388 -4.939834 26.356326 207 207 207 0
-2.924637 -4.941628 26.365895 207 207 207 0
-2.818762 -4.932834 26.318975 206 206 206 0
-2.725439 -4.946168 26.390119 206 206 206 0
-2.630745 -4.957942 26.452937 207 207 207 0
-2.533676 -4.966005 26.495958 208 208 208 0
-2.431409 -4.964127 26.485939 207 207 207 0
-2.334959 -4.974479 26.541169 207 207 207 0
-2.243248 -4.996325 26.657729 207 207 207 0
-2.134368 -4.980191 26.571647 208 208 208 0
-2.025638 -4.962812 26.478924 207 207 207 0
-1.923197 -4.959825 26.462983 207 207 207 0
-1.829439 -4.980140 26.571375 207 207 207 0
-1.729694 -4.985590 26.600453 208 208 208 0
-1.625325 -4.977558 26.557599 208 208 208 0
-1.519655 -4.964207 26.486366 208 208 208 0
-1.415242 -4.953346 26.428419 208 208 208 0
-1.321193 -4.979880 26.569989 207 207 207 0
-1.224732 -5.000991 26.682623 207 207 207 0
-1.121396 -4.995311 26.652321 208 208 208 0
-1.015883 -4.977828 26.559041 208 208 208 0
-0.915018 -4.981767 26.580054 208 208 208 0
-0.815514 -4.995022 26.650776 208 208 208 0
-0.716157 -5.013100 26.747230 208 208 208 0
-0.613899 -5.013508 26.749408 208 208 208 0
-0.509811 -4.996150 26.656798 207 207 207 0
-0.407004 -4.985800 26.601572 208 208 208 0
-0.306733 -5.009972 26.730544 209 209 209 0
-0.205532 -5.035546 26.866990 208 208 208 0
-0.102558 -5.025359 26.812641 208 208 208 0
0.000000 -5.006111 26.709940 209 209 209 0
0.101993 -4.997647 26.664783 209 209 209 0
0.204709 -5.015366 26.759323 209 209 209 0
0.308734 -5.042649 26.904888 209 209 209 0
0.409656 -5.018288 26.774915 208 208 208 0
0.509741 -4.995457 26.653100 209 209 209 0
0.610993 -4.989778 26.622798 209 209 209 0
0.715321 -5.007245 26.715992 209 209 209 0
0.819802 -5.021290 26.790931 209 209 209 0
0.921861 -5.019020 26.778818 208 208 208 0
1.022065 -5.008117 26.720647 209 209 209 0
1.124902 -5.010927 26.735639 210 210 210 0
1.230953 -5.026392 26.818152 209 209 209 0
1.333352 -5.025712 26.814525 209 209 209 0
1.435535 -5.024372 26.807376 210 210 210 0
1.536491 -5.019205 26.779805 209 209 209 0
1.642809 -5.031103 26.843286 209 209 209 0
1.749314 -5.042141 26.902178 209 209 209 0
1.854470 -5.048279 26.934929 210 210 210 0
1.957614 -5.048584 26.936553 209 209 209 0
2.057923 -5.041911 26.900954 209 209 209 0
2.159143 -5.038000 26.880084 210 210 210 0
2.264101 -5.042771 26.905538 210 210 210 0
2.372141 -5.053692 26.963810 210 210 210 0
2.469611 -5.042123 26.902085 210 210 210 0
2.568896 -5.035035 26.864268 210 210 210 0
2.671017 -5.033839 26.857884 210 210 210 0
2.771921 -5.030524 26.840196 209 209 209 0
2.877239 -5.035168 26.864973 210 210 210 0
2.985723 -5.044843 26.916594 210 210 210 0
3.091524 -5.049488 26.941382 210 210 210 0
3.190056 -5.042346 26.903274 210 210 210 0
3.291974 -5.040835 26.895209 210 210 210 0
3.394808 -5.040776 26.894895 210 210 210 0
3.505465 -5.051994 26.954751 210 210 210 0
3.607417 -5.050384 26.946160 211 211 211 0
3.710323 -5.050162 26.944976 210 210 210 0
3.814281 -5.051344 26.951284 210 210 210 0
3.933799 -5.072531 27.064322 211 211 211 0
4.038815 -5.074408 27.074340 211 211 211 0
4.132473 -5.062279 27.009627 211 211 211 0
4.226101 -5.050706 26.947877 210 210 210 0
4.333893 -5.056208 26.977233 210 210 210 0
4.457076 -5.078994 27.098807 211 211 211 0
4.546112 -5.062716 27.011956 210 210 210 0
4.636050 -5.048144 26.934207 211 211 211 0
4.732413 -5.041048 26.896350 211 211 211 0
4.843578 -5.049688 26.942445 211 211 211 0
4.959750 -5.063078 27.013888 211 211 211 0
5.055169 -5.055169 26.971690 211 211 211 0
5.153438 -5.050369 26.946080 211 211 211 0
5.255646 -5.049543 26.941671 210 210 210 0
5.372273 -5.062334 27.009920 210 210 210 0
5.475191 -5.061969 27.007969 211 211 211 0
5.575544 -5.059290 26.993676 211 211 211 0
5.673941 -5.054966 26.970606 211 211 211 0
5.780465 -5.057907 26.986297 211 211 211 0
5.907386 -5.078279 27.094994 211 211 211 0
6.017701 -5.083919 27.125087 211 211 211 0
6.106369 -5.071392 27.058245 210 210 210 0
6.201875 -5.064864 27.023419 211 211 211 0
6.314983 -5.072691 27.065181 212 212 212 0
6.430473 -5.082148 27.115637 211 211 211 0
6.519558 -5.070767 27.054915 210 210 210 0
6.608708 -5.059792 26.996358 211 211 211 0
6.706768 -5.055871 26.975437 212 212 212 0
6.817658 -5.061594 27.005972 211 211 211 0
6.930563 -5.068621 27.043462 211 211 211 0
7.031204 -5.066603 27.032696 211 211 211 0
7.128765 -5.062456 27.010571 212 212 212 0
7.241073 -5.068751 27.044156 212 212 212 0
7.346271 -5.069962 27.050616 211 211 211 0
7.442458 -5.065006 27.024177 211 211 211 0
7.551732 -5.068971 27.045331 211 211 211 0
7.660123 -5.072244 27.062792 211 211 211 0
7.763099 -5.071891 27.060910 212 212 212 0
7.875127 -5.077385 27.090222 211 211 211 0
7.987133 -5.082721 27.118694 211 211 211 0
8.116665 -5.098931 27.205180 212 212 212 0
8.195252 -5.083131 27.120881 211 211 211 0
-7.403248 -4.441949 24.193622 202 202 202 0
-7.298998 -4.434834 24.154871 203 203 203 0
-7.217533 -4.441559 24.191498 202 202 202 0
-7.190232 -4.482223 24.412977 203 203 203 0
-7.147147 -4.513988 24.585989 202 202 202 0
-7.090687 -4.538040 24.716993 203 203 203 0
-7.000689 -4.540988 24.733048 203 203 203 0
-6.899780 -4.536841 24.710465 204 204 204 0
-6.803205 -4.535470 24.702996 203 203 203 0
-6.719741 -4.542923 24.743592 203 203 203 0
-6.720654 -4.608448 25.100482 204 204 204 0
-6.644326 -4.622140 25.175054 203 203 203 0
-6.532121 -4.610909 25.113882 203 203 203 0
-6.422671 -4.601316 25.061635 204 204 204 0
-6.405570 -4.658597 25.373620 204 204 204 0
-6.382298 -4.713081 25.670378 204 204 204 0
-6.267380 -4.700535 25.602042 204 204 204 0
-6.126032 -4.667453 25.421857 204 204 204 0
-5.991421 -4.638520 25.264268 204 204 204 0
-5.943518 -4.676866 25.473129 204 204 204 0
-5.947962 -4.758370 25.917048 204 204 204 0
-5.812722 -4.728994 25.757049 205 205 205 0
-5.674520 -4.696155 25.578184 204 204 204 0
-5.537619 -4.663258 25.399011 205 205 205 0
-5.436319 -4.659702 25.379638 205 205 205 0
-5.419005 -4.729314 25.758790 205 205 205 0
-5.349204 -4.754848 25.897867 205 205 205 0
-5.215746 -4.723694 25.728181 205 205 205 0
-5.098017 -4.705862 25.631056 205 205 205 0
-5.016176 -4.721107 25.714090 205 205 205 0
-4.964280 -4.765708 25.957017 205 205 205 0
-4.882486 -4.782844 26.050346 205 205 205 0
-4.771705 -4.771705 25.989679 205 205 205 0
-4.656253 -4.755323 25.900450 205 205 205 0
-4.566412 -4.764952 25.952896 205 205 205 0
-4.512033 -4.812835 26.213698 206 206 206 0
-4.427948 -4.830488 26.309850 206 206 206 0
-4.318037 -4.820134 26.253454 205 205 205 0
-4.190468 -4.789106 26.084454 206 206 206 0
-4.087935 -4.785875 26.066857 206 206 206 0
-4.013910 -4.816692 26.234707 205 205 205 0
-3.931376 -4.838617 26.354122 205 205 205 0
-3.809666 -4.812210 26.210294 206 206 206 0
-3.693907 -4.792096 26.100738 206 206 206 0
-3.594922 -4.793229 26.106911 206 206 206 0
-3.501137 -4.801559 26.152283 206 206 206 0
-3.421822 -4.830808 26.311591 206 206 206 0
-3.321120 -4.830720 26.311110 207 207 207 0
-3.214434 -4.821651 26.261718 207 207 207 0
-3.116290 -4.825223 26.281171 206 206 206 0
-3.023371 -4.837393 26.347459 207 207 207 0
-2.923705 -4.839236 26.357493 206 206 206 0
-2.821304 -4.836522 26.342712 206 206 206 0
-2.727952 -4.849692 26.414444 207 207 207 0
-2.628375 -4.852385 26.429110 208 208 208 0
-2.533357 -4.864045 26.492620 207 207 207 0
-2.431394 -4.862788 26.485771 207 207 207 0
-2.335735 -4.874578 26.549990 207 207 207 0
-2.242043 -4.891731 26.643415 207 207 207 0
-2.134698 -4.879311 26.575767 208 208 208 0
-2.026016 -4.862439 26.483874 207 207 207 0
-1.924572 -4.862078 26.481904 207 207 207 0
-1.831461 -4.883896 26.600743 208 208 208 0
-1.730392 -4.885814 26.611188 207 207 207 0
-1.626634 -4.879902 26.578988 207 207 207 0
-1.519286 -4.861715 26.479928 207 207 207 0
-1.414754 -4.850584 26.419303 208 208 208 0
-1.321460 -4.879236 26.575357 208 208 208 0
-1.224434 -4.897738 26.676131 208 208 208 0
-1.121045 -4.891831 26.643962 207 207 207 0
-1.015913 -4.876382 26.559817 207 207 207 0
-0.915301 -4.881606 26.588268 208 208 208 0
-0.815137 -4.890820 26.638454 208 208 208 0
-0.715951 -4.909378 26.739533 208 208 208 0
-0.613624 -4.908991 26.737422 209 209 209 0
-0.510194 -4.897859 26.676790 209 209 209 0
-0.407125 -4.885497 26.609462 209 209 209 0
-0.307206 -4.915296 26.771766 208 208 208 0
-0.205559 -4.933428 26.870520 209 209 209 0
-0.102558 -4.922788 26.812570 209 209 209 0
0.000000 -4.905072 26.716079 208 208 208 0
0.101969 -4.894500 26.658498 209 209 209 0
0.204788 -4.914901 26.769614 209 209 209 0
0.308862 -4.941796 26.916099 209 209 209 0
0.409648 -4.915776 26.774380 208 208 208 0
0.509924 -4.895268 26.662680 209 209 209 0
0.610985 -4.887879 26.622434 209 209 209 0
0.715225 -4.904401 26.712422 209 209 209 0
0.820042 -4.920252 26.798756 209 209 209 0
0.921404 -4.914153 26.765538 209 209 209 0
1.022093 -4.906046 26.721386 209 209 209 0
1.124650 -4.907565 26.729656 209 209 209 0
1.231047 -4.924188 26.820198 209 209 209 0
1.333436 -4.923457 26.816215 209 209 209 0
1.435145 -4.920497 26.800092 209 209 209 0
1.536271 -4.916068 26.775967 209 209 209 0
1.642644 -4.927933 26.840592 209 209 209 0
1.749333 -4.939292 26.902461 209 209 209 0
1.854389 -4.945037 26.933752 209 209 209 0
1.957694 -4.945752 26.937648 210 210 210 0
2.057478 -4.937948 26.895142 210 210 210 0
2.158593 -4.933927 26.873239 209 209 209 0
2.263083 -4.937636 26.893441 210 210 210 0
2.372813 -4.951958 26.971450 209 209 209 0
2.469287 -4.938574 26.898553 209 209 209 0
2.570241 -4.934862 26.878334 209 209 209 0
2.669825 -4.928908 26.845902 209 209 209 0
2.772824 -4.929464 26.848934 209 209 209 0
2.877946 -4.933621 26.871577 210 210 210 0
2.986378 -4.942970 26.922493 210 210 210 0
3.089558 -4.943293 26.924253 210 210 210 0
3.188386 -4.936856 26.889192 210 210 210 0
3.291898 -4.937847 26.894592 210 210 210 0
3.395694 -4.939191 26.901912 210 210 210 0
3.506281 -4.950044 26.961022 211 211 211 0
3.606597 -4.946191 26.940037 210 210 210 0
3.709821 -4.946428 26.941328 210 210 210 0
3.815166 -4.949404 26.957539 210 210 210 0
3.931869 -4.966572 27.051045 211 211 211 0
4.040556 -4.972993 27.086016 210 210 210 0
4.132376 -4.958851 27.008993 210 210 210 0
4.226380 -4.947957 26.949656 210 210 210 0
4.334969 -4.954251 26.983936 211 211 211 0
4.458304 -4.976712 27.106273 211 211 211 0
4.546117 -4.959400 27.011984 210 210 210 0
4.636515 -4.945616 26.936906 211 211 211 0
4.732182 -4.937929 26.895038 211 211 211 0
4.844340 -4.947411 26.946684 211 211 211 0
4.961408 -4.961408 27.022921 210 210 210 0
5.055042 -4.951878 26.971011 210 210 210 0
5.151518 -4.945457 26.936042 211 211 211 0
5.255236 -4.946105 26.939567 211 211 211 0
5.371840 -4.958622 27.007745 211 211 211 0
5.477373 -4.960640 27.018736 210 210 210 0
5.575686 -4.956165 26.994364 210 210 210 0
5.671708 -4.949854 26.959991 211 211 211 0
5.781384 -4.955472 26.990589 211 211 211 0
5.908886 -4.975904 27.101875 211 211 211 0
6.018744 -4.981029 27.129789 212 212 212 0
6.108102 -4.969303 27.065922 212 212 212 0
6.204826 -4.963861 27.036278 211 211 211 0
6.313708 -4.968163 27.059714 211 211 211 0
6.427503 -4.976131 27.103111 211 211 211 0
6.519303 -4.967088 27.053857 212 212 212 0
6.607735 -4.955801 26.992381 211 211 211 0
6.708058 -4.953643 26.980626 211 211 211 0
6.815430 -4.956676 26.997148 212 212 212 0
6.932606 -4.966643 27.051431 211 211 211 0
7.029770 -4.962190 27.027181 211 211 211 0
7.125572 -4.956920 26.998472 211 211 211 0
7.236374 -4.962085 27.026608 212 212 212 0
7.344272 -4.965142 27.043256 211 211 211 0
7.439167 -4.959445 27.012227 211 211 211 0
7.550828 -4.964928 27.042092 212 212 212 0
7.657588 -4.967084 27.053837 212 212 212 0
7.763138 -4.968409 27.061049 211 211 211 0
7.874443 -4.973332 27.087866 211 211 211 0
7.985578 -4.978023 27.113414 211 211 211 0
8.117069 -4.995119 27.206532 211 211 211 0
8.195639 -4.979629 27.122161 211 211 211 0
-7.418106 -4.358137 24.242175 202 202 202 0
-7.313860 -4.351284 24.204055 203 203 203 0
-7.218397 -4.349547 24.194393 203 203 203 0
-7.196741 -4.392816 24.435077 203 203 203 0
-7.119899 -4.403095 24.492256 204 204 204 0
-7.078727 -4.436002 24.675301 203 203 203 0
-7.015337 -4.455687 24.784799 203 203 203 0
-6.909746 -4.448740 24.746157 204 204 204 0
-6.797357 -4.437164 24.681763 203 203 203 0
-6.737634 -4.460124 24.809477 204 204 204 0
-6.717901 -4.510591 25.090201 204 204 204 0
-6.646066 -4.527031 25.181648 204 204 204 0
-6.533239 -4.515621 25.118183 203 203 203 0
-6.422866 -4.505593 25.062400 203 203 203 0
-6.404584 -4.560840 25.369712 204 204 204 0
-6.374310 -4.609117 25.638251 205 205 205 0
-6.264071 -4.600177 25.588525 204 204 204 0
-6.120345 -4.565971 25.398255 205 205 205 0
-5.993301 -4.543309 25.272195 204 204 204 0
-5.937114 -4.574498 25.445684 204 204 204 0
-5.950129 -4.660934 25.926488 205 205 205 0
-5.818288 -4.634907 25.781712 204 204 204 0
-5.671709 -4.596040 25.565512 204 204 204 0
-5.537824 -4.566276 25.399952 204 204 204 0
-5.436669 -4.562919 25.381275 205 205 205 0
-5.421476 -4.632898 25.770534 205 205 205 0
-5.350260 -4.656707 25.902975 205 205 205 0
-5.215397 -4.624975 25.726462 206 206 206 0
-5.095062 -4.605153 25.616201 205 205 205 0
-5.018097 -4.624521 25.723939 205 205 205 0
-4.961273 -4.663596 25.941295 205 205 205 0
-4.879174 -4.680024 26.032674 205 205 205 0
-4.773594 -4.674144 25.999968 205 205 205 0
-4.653839 -4.653839 25.887020 205 205 205 0
-4.563688 -4.662899 25.937416 206 206 206 0
-4.512839 -4.713409 26.218381 205 205 205 0
-4.426936 -4.728772 26.303836 205 205 205 0
-4.317190 -4.718789 26.248303 206 206 206 0
-4.191588 -4.690586 26.091426 205 205 205 0
-4.092142 -4.690992 26.093682 206 206 206 0
-4.012399 -4.714569 26.224833 206 206 206 0
-3.931260 -4.737672 26.353342 207 207 207 0
-3.810004 -4.712374 26.212620 206 206 206 0
-3.695140 -4.693827 26.109451 206 206 206 0
-3.592521 -4.690235 26.089475 206 206 206 0
-3.506145 -4.708251 26.189689 206 206 206 0
-3.424734 -4.734190 26.333976 206 206 206 0
-3.321454 -4.730556 26.313761 207 207 207 0
-3.214780 -4.721708 26.264541 206 206 206 0
-3.118080 -4.727412 26.296269 206 206 206 0
-3.023668 -4.737079 26.350046 207 207 207 0
-2.923352 -4.737846 26.354310 207 207 207 0
-2.820743 -4.734819 26.337473 207 207 207 0
-2.728560 -4.749715 26.420333 207 207 207 0
-2.630338 -4.754842 26.448852 207 207 207 0
-2.532993 -4.762026 26.488811 207 207 207 0
-2.430999 -4.760706 26.481471 207 207 207 0
-2.334642 -4.770789 26.537558 207 207 207 0
-2.241508 -4.788676 26.637049 207 207 207 0
-2.136142 -4.780889 26.593736 207 207 207 0
-2.026693 -4.762729 26.492720 207 207 207 0
-1.923439 -4.757981 26.466313 207 207 207 0
-1.831037 -4.781041 26.594580 208 208 208 0
-1.729859 -4.782552 26.602988 208 208 208 0
-1.626297 -4.777246 26.573474 207 207 207 0
-1.519175 -4.760082 26.477997 207 207 207 0
-1.415486 -4.751990 26.432987 208 208 208 0
-1.320972 -4.775823 26.565559 208 208 208 0
-1.224185 -4.794723 26.670689 208 208 208 0
-1.121143 -4.790337 26.646292 208 208 208 0
-1.016448 -4.777307 26.573812 208 208 208 0
-0.914263 -4.774483 26.558106 208 208 208 0
-0.815251 -4.789602 26.642200 208 208 208 0
-0.716288 -4.809364 26.752130 208 208 208 0
-0.613360 -4.804650 26.725908 208 208 208 0
-0.509812 -4.792230 26.656820 208 208 208 0
-0.406892 -4.780981 26.594251 208 208 208 0
-0.306936 -4.808665 26.748242 208 208 208 0
-0.205560 -4.830664 26.870612 208 208 208 0
-0.102580 -4.821245 26.818216 208 208 208 0
0.000000 -4.803661 26.720405 208 208 208 0
0.102008 -4.794359 26.668661 209 209 209 0
0.204759 -4.811835 26.765873 208 208 208 0
0.308702 -4.836336 26.902159 209 209 209 0
0.409526 -4.811926 26.766378 209 209 209 0
0.509885 -4.792916 26.660639 209 209 209 0
0.610927 -4.785596 26.619919 209 209 209 0
0.715388 -4.803321 26.718512 210 210 210 0
0.819912 -4.816982 26.794506 209 209 209 0
0.921600 -4.812798 26.771229 209 209 209 0
1.022684 -4.806614 26.736830 209 209 209 0
1.124419 -4.804334 26.724150 209 209 209 0
1.230898 -4.821019 26.816958 210 210 210 0
