ply
    format ascii 1.0
    element vertex 25597
    property float x
    property float y
    property float z
    property uchar red
    property uchar green
    property uchar blue
    property uchar alpha
    end_header
5.483536 -6.499006 26.548228 210 210 210 0
5.584397 -6.498207 26.544964 211 211 211 0
5.681705 -6.493377 26.525232 211 211 211 0
5.781368 -6.491361 26.516997 211 211 211 0
5.888760 -6.497942 26.543881 211 211 211 0
6.010851 -6.520245 26.634990 211 211 211 0
6.114088 -6.521694 26.640906 211 211 211 0
6.198602 -6.503451 26.566386 211 211 211 0
6.294168 -6.497205 26.540872 211 211 211 0
6.401546 -6.503158 26.565188 211 211 211 0
6.517962 -6.517962 26.625662 211 211 211 0
6.604269 -6.502665 26.563174 211 211 211 0
6.694841 -6.491967 26.519474 211 211 211 0
6.791836 -6.487724 26.502139 210 210 210 0
6.900473 -6.494563 26.530078 212 212 212 0
7.008202 -6.500361 26.553764 212 212 212 0
7.110640 -6.501156 26.557012 212 212 212 0
7.203507 -6.493302 26.524926 211 211 211 0
7.312851 -6.500312 26.553561 211 211 211 0
7.412162 -6.498333 26.545480 212 212 212 0
7.511613 -6.496530 26.538114 211 211 211 0
7.620577 -6.502892 26.564101 212 212 212 0
7.721337 -6.502179 26.561187 212 212 212 0
7.824591 -6.503556 26.566815 212 212 212 0
7.921532 -6.499719 26.551140 211 211 211 0
8.030779 -6.505948 26.576584 212 212 212 0
-7.310815 -5.757266 23.891551 203 203 203 0
-7.187330 -5.731669 23.785324 203 203 203 0
-7.080849 -5.719147 23.733364 203 203 203 0
-6.999686 -5.727016 23.766018 203 203 203 0
-6.944092 -5.756287 23.887487 203 203 203 0
-6.946269 -5.834866 24.213573 204 204 204 0
-6.885918 -5.862335 24.327566 203 203 203 0
-6.782467 -5.853362 24.290327 203 203 203 0
-6.702728 -5.864887 24.338155 203 203 203 0
-6.620422 -5.874459 24.377877 203 203 203 0
-6.596854 -5.937168 24.638109 204 204 204 0
-6.548324 -5.978905 24.811306 203 203 203 0
-6.421620 -5.949442 24.689043 204 204 204 0
-6.312663 -5.935787 24.632378 204 204 204 0
-6.259539 -5.975014 24.795163 204 204 204 0
-6.247575 -6.055342 25.128508 204 204 204 0
-6.192608 -6.095848 25.296601 205 205 205 0
-6.048639 -6.048639 25.100690 204 204 204 0
-5.905011 -6.000253 24.899900 204 204 204 0
-5.815050 -6.005708 24.922535 204 204 204 0
-5.806687 -6.097021 25.301469 204 204 204 0
-5.731902 -6.120506 25.398924 205 205 205 0
-5.599157 -6.081843 25.238483 205 205 205 0
-5.464729 -6.039963 25.064688 205 205 205 0
-5.339650 -6.007106 24.928336 205 205 205 0
-5.300572 -6.071564 25.195825 205 205 205 0
-5.249772 -6.124735 25.416473 205 205 205 0
-5.140384 -6.110268 25.356438 205 205 205 0
-5.019704 -6.081565 25.237328 205 205 205 0
-4.903611 -6.057402 25.137056 205 205 205 0
-4.829273 -6.084884 25.251099 206 206 206 0
-4.768477 -6.130899 25.442055 206 206 206 0
-4.695109 -6.162330 25.572486 205 205 205 0
-4.580932 -6.140398 25.481475 206 206 206 0
-4.468496 -6.119897 25.396398 205 205 205 0
-4.387306 -6.142228 25.489066 206 206 206 0
-4.338125 -6.211407 25.776146 206 206 206 0
-4.242807 -6.216205 25.796059 206 206 206 0
-4.134704 -6.202056 25.737344 206 206 206 0
-4.019956 -6.177006 25.633389 206 206 206 0
-3.918813 -6.172130 25.613154 207 207 207 0
-3.849851 -6.218990 25.807615 206 206 206 0
-3.767958 -6.246878 25.923345 207 207 207 0
-3.645275 -6.206819 25.757109 206 206 206 0
-3.532281 -6.181492 25.652004 206 206 206 0
-3.437576 -6.187637 25.677505 206 206 206 0
-3.345650 -6.199293 25.725876 206 206 206 0
-3.259935 -6.223513 25.826383 206 206 206 0
-3.161694 -6.224585 25.830834 206 206 206 0
-3.054377 -6.207283 25.759031 206 206 206 0
-2.960491 -6.217032 25.799488 207 207 207 0
-2.871940 -6.239042 25.890827 206 206 206 0
-2.776335 -6.246754 25.922829 207 207 207 0
-2.674399 -6.240263 25.895895 207 207 207 0
-2.578762 -6.248539 25.930239 207 207 207 0
-2.484071 -6.259859 25.977215 206 206 206 0
-2.387902 -6.268243 26.012005 207 207 207 0
-2.289241 -6.270531 26.021500 207 207 207 0
-2.198312 -6.295167 26.123733 208 208 208 0
-2.103503 -6.310509 26.187400 207 207 207 0
-1.996366 -6.288552 26.096282 207 207 207 0
-1.892482 -6.275070 26.040338 208 208 208 0
-1.791498 -6.270241 26.020298 207 207 207 0
-1.698844 -6.295716 26.126015 208 208 208 0
-1.598646 -6.294670 26.121674 207 207 207 0
-1.497423 -6.289176 26.098873 208 208 208 0
-1.394410 -6.274847 26.039410 208 208 208 0
-1.290963 -6.256206 25.962056 208 208 208 0
-1.197659 -6.287711 26.092795 208 208 208 0
-1.102243 -6.312847 26.197104 208 208 208 0
-1.000967 -6.306089 26.169061 208 208 208 0
-0.899131 -6.293914 26.118534 208 208 208 0
-0.797718 -6.282027 26.069207 207 207 207 0
-0.699850 -6.298652 26.138199 208 208 208 0
-0.601914 -6.320100 26.227204 208 208 208 0
-0.502198 -6.327695 26.258720 208 208 208 0
-0.400709 -6.311164 26.190117 208 208 208 0
-0.300258 -6.305409 26.166237 209 209 209 0
-0.200949 -6.329880 26.267786 209 209 209 0
-0.100934 -6.358865 26.388070 208 208 208 0
0.000000 -6.353729 26.366757 208 208 208 0
0.100440 -6.327707 26.258769 208 208 208 0
0.200337 -6.310606 26.187802 209 209 209 0
0.301523 -6.331973 26.276471 209 209 209 0
0.404347 -6.368464 26.427902 208 208 208 0
0.503372 -6.342484 26.320093 209 209 209 0
0.601828 -6.319194 26.223442 208 208 208 0
0.700946 -6.308516 26.179129 209 209 209 0
0.803137 -6.324706 26.246317 209 209 209 0
0.906390 -6.344731 26.329417 209 209 209 0
1.006857 -6.343197 26.323050 209 209 209 0
1.104192 -6.324008 26.243421 209 209 209 0
1.205050 -6.326514 26.253819 209 209 209 0
1.309182 -6.344498 26.328450 210 210 210 0
1.412065 -6.354294 26.369099 209 209 209 0
1.512048 -6.350600 26.353773 210 210 210 0
1.612670 -6.349888 26.350816 209 209 209 0
1.715368 -6.356952 26.380131 210 210 210 0
1.817422 -6.360977 26.396832 209 209 209 0
1.923582 -6.378194 26.468281 209 209 209 0
2.025896 -6.381573 26.482303 210 210 210 0
2.124393 -6.373179 26.447470 210 210 210 0
2.224488 -6.370125 26.434796 210 210 210 0
2.327805 -6.376162 26.459849 210 210 210 0
2.434185 -6.389735 26.516174 210 210 210 0
2.529834 -6.375182 26.455782 210 210 210 0
2.625100 -6.360820 26.396184 210 210 210 0
2.723695 -6.355288 26.373226 210 210 210 0
2.822016 -6.349537 26.349360 210 210 210 0
2.930811 -6.366935 26.421558 210 210 210 0
3.034775 -6.373027 26.446840 209 209 209 0
3.134517 -6.370147 26.434887 210 210 210 0
3.235964 -6.370805 26.437617 209 209 209 0
3.334979 -6.366778 26.420909 210 210 210 0
3.438560 -6.371450 26.440296 210 210 210 0
3.544493 -6.380087 26.476135 210 210 210 0
3.646209 -6.380866 26.479370 210 210 210 0
3.745193 -6.376951 26.463123 210 210 210 0
3.841312 -6.368491 26.428015 210 210 210 0
3.958534 -6.394555 26.536174 210 210 210 0
4.071325 -6.412336 26.609964 210 210 210 0
4.168893 -6.405860 26.583088 210 210 210 0
4.258950 -6.388426 26.510740 211 211 211 0
4.361582 -6.390224 26.518204 211 211 211 0
4.478968 -6.413068 26.613001 211 211 211 0
4.575573 -6.405802 26.582848 211 211 211 0
4.666215 -6.390686 26.520122 211 211 211 0
4.752496 -6.370367 26.435800 211 211 211 0
4.852064 -6.368334 26.427363 210 210 210 0
4.968251 -6.387751 26.507943 211 211 211 0
5.081798 -6.403065 26.571492 211 211 211 0
5.168084 -6.384104 26.492805 211 211 211 0
5.265027 -6.378782 26.470723 211 211 211 0
5.372528 -6.386213 26.501557 211 211 211 0
5.481736 -6.395358 26.539509 211 211 211 0
5.581586 -6.393453 26.531603 211 211 211 0
5.682076 -6.392335 26.526965 210 210 210 0
5.781056 -6.389588 26.515565 211 211 211 0
5.888932 -6.396599 26.544658 211 211 211 0
6.011576 -6.419141 26.638202 211 211 211 0
6.114234 -6.419946 26.641542 211 211 211 0
6.198852 -6.402093 26.567458 212 212 212 0
6.292517 -6.394009 26.533912 211 211 211 0
6.405934 -6.405934 26.583397 211 211 211 0
6.517501 -6.415665 26.623777 211 211 211 0
6.604101 -6.400898 26.562498 211 211 211 0
6.693987 -6.389715 26.516089 211 211 211 0
6.797330 -6.391519 26.523579 211 211 211 0
6.898999 -6.391720 26.524410 211 211 211 0
7.008349 -6.398927 26.554320 211 211 211 0
7.108258 -6.397433 26.548117 211 211 211 0
7.203475 -6.391816 26.524810 212 212 212 0
7.314825 -6.400472 26.560730 211 211 211 0
7.412773 -6.397324 26.547668 211 211 211 0
7.515280 -6.398144 26.551069 211 211 211 0
7.622036 -6.402511 26.569190 211 211 211 0
7.723762 -6.402592 26.569529 212 212 212 0
7.827224 -6.404093 26.575755 212 212 212 0
7.921296 -6.397970 26.550348 211 211 211 0
8.028491 -6.402468 26.569013 212 212 212 0
-7.284013 -5.645110 23.803965 203 203 203 0
-7.190064 -5.642835 23.794372 203 203 203 0
-7.095871 -5.640308 23.783714 203 203 203 0
-7.002056 -5.638019 23.774064 203 203 203 0
-6.946057 -5.666520 23.894245 203 203 203 0
-6.935930 -5.733702 24.177532 203 203 203 0
-6.868955 -5.755070 24.267637 203 203 203 0
-6.789413 -5.766351 24.315206 203 203 203 0
-6.703144 -5.772152 24.339667 204 204 204 0
-6.611742 -5.773634 24.345916 203 203 203 0
-6.591487 -5.838174 24.618066 204 204 204 0
-6.542790 -5.879029 24.790339 204 204 204 0
-6.425954 -5.858958 24.705704 204 204 204 0
-6.311963 -5.840921 24.629647 204 204 204 0
-6.247799 -5.869144 24.748658 204 204 204 0
-6.244695 -5.956478 25.116923 204 204 204 0
-6.191169 -5.997695 25.290722 204 204 204 0
-6.047410 -5.951419 25.095590 205 205 205 0
-5.910150 -5.910150 24.921570 204 204 204 0
-5.816665 -5.912020 24.929455 204 204 204 0
-5.817298 -6.011208 25.347703 205 205 205 0
-5.731024 -6.022432 25.395031 205 205 205 0
-5.603949 -5.990428 25.260079 205 205 205 0
-5.460483 -5.939473 25.045216 205 205 205 0
-5.347906 -5.920896 24.966883 205 205 205 0
-5.300560 -5.975176 25.195768 204 204 204 0
-5.252139 -6.030234 25.427932 206 206 206 0
-5.145090 -6.018784 25.379652 205 205 205 0
-5.021212 -5.986830 25.244907 206 206 206 0
-4.907204 -5.965620 25.155473 205 205 205 0
-4.826744 -5.985163 25.237879 205 205 205 0
-4.774881 -6.041686 25.476220 205 205 205 0
-4.693542 -6.062491 25.563952 206 206 206 0
-4.578551 -6.039790 25.468228 205 205 205 0
-4.472684 -6.028400 25.420199 205 205 205 0
-4.385440 -6.042161 25.478226 205 205 205 0
-4.334459 -6.107647 25.754363 206 206 206 0
-4.240126 -6.113670 25.779762 205 205 205 0
-4.134002 -6.102575 25.732975 206 206 206 0
-4.017232 -6.074839 25.616018 205 205 205 0
-3.922375 -6.079681 25.636439 206 206 206 0
-3.849834 -6.120249 25.807501 206 206 206 0
-3.766637 -6.145566 25.914255 207 207 207 0
-3.646017 -6.109541 25.762349 206 206 206 0
-3.534234 -6.086736 25.666184 206 206 206 0
-3.435379 -6.085528 25.661093 206 206 206 0
-3.347607 -6.104461 25.740926 206 206 206 0
-3.260345 -6.125497 25.829631 206 206 206 0
-3.161980 -6.126336 25.833170 207 207 207 0
-3.056699 -6.113397 25.778609 207 207 207 0
-2.965445 -6.128586 25.842656 206 206 206 0
-2.872683 -6.141597 25.897522 206 206 206 0
-2.776952 -6.148965 25.928591 207 207 207 0
-2.676804 -6.146735 25.919185 207 207 207 0
-2.579610 -6.151378 25.938764 207 207 207 0
-2.485036 -6.162890 25.987306 207 207 207 0
-2.387511 -6.167736 26.007742 207 207 207 0
-2.289595 -6.171952 26.025521 207 207 207 0
-2.196328 -6.189651 26.100151 208 208 208 0
-2.102484 -6.207335 26.174720 207 207 207 0
-1.996387 -6.188800 26.096563 207 207 207 0
-1.891422 -6.172010 26.025764 208 208 208 0
-1.792422 -6.173896 26.033719 208 208 208 0
-1.699595 -6.198522 26.137557 208 208 208 0
-1.599612 -6.198496 26.137447 207 207 207 0
-1.498085 -6.192086 26.110420 208 208 208 0
-1.393738 -6.172270 26.026862 208 208 208 0
-1.291182 -6.157947 25.966463 208 208 208 0
-1.197666 -6.187941 26.092941 208 208 208 0
-1.102893 -6.216308 26.212557 208 208 208 0
-1.001271 -6.207881 26.177022 208 208 208 0
-0.898664 -6.190798 26.104989 208 208 208 0
-0.797712 -6.182265 26.069009 209 209 209 0
-0.699696 -6.197305 26.132427 208 208 208 0
-0.602068 -6.221374 26.233919 208 208 208 0
-0.502210 -6.227410 26.259370 208 208 208 0
-0.400726 -6.211257 26.191260 208 208 208 0
-0.300232 -6.204800 26.164029 209 209 209 0
-0.201047 -6.232454 26.280642 208 208 208 0
-0.100894 -6.255407 26.377427 209 209 209 0
0.000000 -6.249491 26.352484 208 208 208 0
0.100483 -6.229966 26.270148 209 209 209 0
0.200361 -6.211188 26.190967 209 209 209 0
0.301782 -6.236834 26.299109 208 208 208 0
0.404505 -6.269832 26.438254 208 208 208 0
0.503573 -6.244303 26.330605 209 209 209 0
0.602217 -6.222913 26.240408 209 209 209 0
0.701126 -6.209969 26.185829 209 209 209 0
0.803182 -6.224663 26.247788 209 209 209 0
0.906088 -6.241941 26.320643 209 209 209 0
1.007057 -6.243751 26.328277 209 209 209 0
1.104330 -6.224407 26.246709 209 209 209 0
1.205364 -6.227715 26.260660 210 210 210 0
1.309298 -6.244342 26.330769 209 209 209 0
1.411453 -6.250722 26.357671 209 209 209 0
1.512029 -6.249721 26.353450 209 209 209 0
1.612862 -6.249842 26.353960 210 210 210 0
1.714034 -6.251182 26.359613 209 209 209 0
1.816665 -6.257400 26.385833 209 209 209 0
1.923118 -6.275438 26.461894 209 209 209 0
2.025327 -6.278512 26.474857 210 210 210 0
2.124632 -6.272724 26.450448 209 209 209 0
2.224892 -6.270151 26.439600 209 209 209 0
2.327690 -6.274643 26.458540 209 209 209 0
2.433382 -6.286236 26.507427 210 210 210 0
2.529925 -6.274215 26.456735 210 210 210 0
2.625319 -6.260375 26.398377 210 210 210 0
2.721992 -6.250501 26.356740 210 210 210 0
2.822193 -6.249142 26.351009 210 210 210 0
2.929826 -6.263765 26.412672 210 210 210 0
3.034781 -6.271881 26.446895 209 209 209 0
3.134999 -6.269998 26.438953 210 210 210 0
3.235854 -6.269467 26.436715 210 210 210 0
3.336680 -6.268915 26.434385 211 211 211 0
3.438860 -6.270862 26.442597 210 210 210 0
3.545139 -6.279960 26.480963 210 210 210 0
3.648086 -6.282815 26.493001 210 210 210 0
3.745915 -6.276938 26.468219 211 211 211 0
3.841137 -6.267118 26.426812 210 210 210 0
3.955633 -6.288442 26.516728 210 210 210 0
4.072301 -6.312067 26.616348 210 210 210 0
4.169171 -6.304599 26.584859 210 210 210 0
4.258341 -6.286122 26.506944 211 211 211 0
4.361965 -6.289345 26.520537 210 210 210 0
4.480055 -6.312804 26.619458 210 210 210 0
4.578398 -6.308015 26.599261 211 211 211 0
4.664267 -6.286620 26.509046 211 211 211 0
4.753053 -6.269984 26.438896 211 211 211 0
4.850735 -6.265532 26.420124 210 210 210 0
4.967509 -6.285419 26.503980 211 211 211 0
5.078670 -6.297551 26.555138 211 211 211 0
5.167118 -6.281594 26.487853 211 211 211 0
5.265936 -6.278616 26.475296 211 211 211 0
5.371137 -6.283217 26.494695 211 211 211 0
5.483187 -6.295511 26.546537 211 211 211 0
5.582299 -6.292773 26.534990 211 211 211 0
5.682102 -6.290899 26.527086 211 211 211 0
5.780768 -6.287853 26.514242 211 211 211 0
5.888982 -6.295119 26.544881 211 211 211 0
6.011204 -6.316859 26.636553 211 211 211 0
6.114329 -6.318140 26.641957 211 211 211 0
6.198820 -6.300440 26.567318 212 212 212 0
6.295466 -6.295466 26.546346 211 211 211 0
6.405590 -6.303914 26.581968 212 212 212 0
6.517610 -6.313934 26.624222 211 211 211 0
6.599710 -6.295108 26.544838 211 211 211 0
6.692797 -6.287173 26.511375 211 211 211 0
6.793566 -6.286584 26.508892 211 211 211 0
6.900404 -6.291545 26.529812 211 211 211 0
7.007911 -6.296964 26.552662 212 212 212 0
7.110468 -6.297843 26.556371 211 211 211 0
7.202438 -6.289453 26.520991 211 211 211 0
7.313736 -6.297939 26.556776 211 211 211 0
7.412503 -6.295551 26.546703 212 212 212 0
7.509733 -6.291938 26.531471 211 211 211 0
7.621407 -6.300363 26.566994 212 212 212 0
7.723409 -6.300676 26.568315 212 212 212 0
7.828404 -6.303390 26.579759 211 211 211 0
7.919123 -6.294688 26.543065 211 211 211 0
8.029998 -6.302024 26.573999 211 211 211 0
-7.287232 -5.556514 23.814483 203 203 203 0
-7.177932 -5.542454 23.754221 203 203 203 0
-7.095152 -5.548773 23.781305 202 202 202 0
-6.992536 -5.539541 23.741739 204 204 204 0
-6.951906 -5.579819 23.914365 203 203 203 0
-6.922173 -5.630034 24.129579 204 204 204 0
-6.874678 -5.666964 24.287856 203 203 203 0
-6.775349 -5.661593 24.264837 204 204 204 0
-6.689899 -5.667831 24.291573 203 203 203 0
-6.616189 -5.684331 24.362289 203 203 203 0
-6.602621 -5.753713 24.659651 204 204 204 0
-6.555277 -5.795245 24.837652 204 204 204 0
-6.429211 -5.767380 24.718228 204 204 204 0
-6.304931 -5.740310 24.602207 203 203 203 0
-6.253263 -5.779531 24.770304 204 204 204 0
-6.245819 -5.861461 25.121444 205 205 205 0
-6.191623 -5.901391 25.292578 204 204 204 0
-6.047208 -5.855233 25.094751 205 205 205 0
-5.903480 -5.808263 24.893444 204 204 204 0
-5.817948 -5.817948 24.934955 204 204 204 0
-5.808836 -5.905650 25.310832 205 205 205 0
-5.726763 -5.920891 25.376153 205 205 205 0
-5.602805 -5.892605 25.254925 205 205 205 0
-5.460466 -5.843656 25.045136 204 204 204 0
-5.343258 -5.820335 24.945182 205 205 205 0
-5.301524 -5.879872 25.200353 205 205 205 0
-5.248116 -5.928428 25.408455 205 205 205 0
-5.146541 -5.923377 25.386809 205 205 205 0
-5.022410 -5.891673 25.250929 205 205 205 0
-4.907569 -5.869837 25.157342 205 205 205 0
-4.833928 -5.897392 25.275442 206 206 206 0
-4.778582 -5.948846 25.495967 205 205 205 0
-4.696681 -5.968699 25.581050 205 205 205 0
-4.582705 -5.947766 25.491337 206 206 206 0
-4.469505 -5.926953 25.402133 206 206 206 0
-4.386749 -5.946482 25.485832 206 206 206 0
-4.335918 -6.011159 25.763030 206 206 206 0
-4.243898 -6.020414 25.802696 205 205 205 0
-4.132192 -6.001517 25.721707 205 205 205 0
-4.020122 -5.981157 25.634444 207 207 207 0
-3.918278 -5.975374 25.609662 206 206 206 0
-3.849793 -6.021471 25.807226 206 206 206 0
-3.765568 -6.044728 25.906904 206 206 206 0
-3.646061 -6.011073 25.762661 206 206 206 0
-3.537554 -5.994189 25.690299 206 206 206 0
-3.434101 -5.985148 25.651550 206 206 206 0
-3.343947 -5.999434 25.712779 207 207 207 0
-3.260119 -6.026281 25.827841 207 207 207 0
-3.164951 -6.033188 25.857444 207 207 207 0
-3.054857 -6.011170 25.763075 206 206 206 0
-2.964855 -6.028538 25.837514 206 206 206 0
-2.872663 -6.042498 25.897345 206 206 206 0
-2.776294 -6.048355 25.922447 207 207 207 0
-2.676519 -6.046951 25.916429 207 207 207 0
-2.580654 -6.054611 25.949260 207 207 207 0
-2.488236 -6.071296 26.020770 207 207 207 0
-2.388148 -6.069876 26.014684 207 207 207 0
-2.290163 -6.073911 26.031977 207 207 207 0
-2.196122 -6.089248 26.097707 208 208 208 0
-2.102545 -6.107392 26.175471 207 207 207 0
-1.996798 -6.090234 26.101937 207 207 207 0
-1.891628 -6.073120 26.028587 207 207 207 0
-1.791340 -6.070652 26.018011 207 207 207 0
-1.697778 -6.092027 26.109620 208 208 208 0
-1.597882 -6.091925 26.109184 208 208 208 0
-1.497106 -6.088232 26.093355 207 207 207 0
-1.393608 -6.072150 26.024428 207 207 207 0
-1.291650 -6.060820 25.975869 208 208 208 0
-1.197600 -6.087799 26.091498 208 208 208 0
-1.102572 -6.114266 26.204931 207 207 207 0
-1.001176 -6.107171 26.174525 208 208 208 0
-0.898484 -6.089724 26.099749 207 207 207 0
-0.797988 -6.084662 26.078053 208 208 208 0
-0.699405 -6.094814 26.121564 208 208 208 0
-0.602078 -6.121123 26.234320 209 209 209 0
-0.502225 -6.127139 26.260106 209 209 209 0
-0.400698 -6.110637 26.189379 208 208 208 0
-0.300333 -6.106768 26.172795 208 208 208 0
-0.201029 -6.131380 26.278283 208 208 208 0
-0.100908 -6.155376 26.381127 208 208 208 0
0.000000 -6.151876 26.366126 208 208 208 0
0.100427 -6.126027 26.255339 209 209 209 0
0.200344 -6.110481 26.188712 208 208 208 0
0.301596 -6.132455 26.282889 209 209 209 0
0.404301 -6.165588 26.424893 209 209 209 0
0.503427 -6.141810 26.322981 209 209 209 0
0.602472 -6.125127 26.251483 209 209 209 0
0.701336 -6.111639 26.193674 209 209 209 0
0.802774 -6.121150 26.234438 209 209 209 0
0.906647 -6.145054 26.336886 209 209 209 0
1.007461 -6.145513 26.338855 209 209 209 0
1.104381 -6.124297 26.247925 209 209 209 0
1.204494 -6.122843 26.241694 209 209 209 0
1.309358 -6.143909 26.331981 210 210 210 0
1.411869 -6.151716 26.365439 209 209 209 0
1.512461 -6.150673 26.360970 209 209 209 0
1.612615 -6.148095 26.349922 209 209 209 0
1.714703 -6.152758 26.369906 210 210 210 0
1.816264 -6.155116 26.380011 210 210 210 0
1.922984 -6.173791 26.460048 210 210 210 0
2.025111 -6.176589 26.472040 210 210 210 0
2.124599 -6.171454 26.450034 209 209 209 0
2.223868 -6.166179 26.427426 209 209 209 0
2.327615 -6.173239 26.457685 210 210 210 0
2.433836 -6.185999 26.512373 209 209 209 0
2.531678 -6.177295 26.475069 210 210 210 0
2.626317 -6.161745 26.408420 210 210 210 0
2.722607 -6.151074 26.362689 210 210 210 0
2.822602 -6.149239 26.354824 210 210 210 0
2.929766 -6.162611 26.412133 209 209 209 0
3.034791 -6.170742 26.446980 210 210 210 0
3.134199 -6.167295 26.432207 210 210 210 0
3.237055 -6.170637 26.446530 210 210 210 0
3.335857 -6.166282 26.427866 210 210 210 0
3.438817 -6.169643 26.442271 210 210 210 0
3.545276 -6.178910 26.481988 210 210 210 0
3.649086 -6.183174 26.500263 210 210 210 0
3.746505 -6.176670 26.472387 210 210 210 0
3.842246 -6.167816 26.434439 211 211 211 0
3.955045 -6.186096 26.512787 211 211 211 0
4.071335 -6.208787 26.610036 210 210 210 0
4.167838 -6.200929 26.576360 211 211 211 0
4.258620 -6.185139 26.508685 211 211 211 0
4.362119 -6.188122 26.521469 210 210 210 0
4.478886 -6.209365 26.612515 210 210 210 0
4.576767 -6.204062 26.589789 211 211 211 0
4.664132 -6.185045 26.508283 210 210 210 0
4.752672 -6.168361 26.436778 211 211 211 0
4.849610 -6.163046 26.413999 211 211 211 0
4.968296 -6.185022 26.508183 210 210 210 0
5.078834 -6.196178 26.555996 210 210 210 0
5.167201 -6.180377 26.488277 211 211 211 0
5.265718 -6.177092 26.474196 211 211 211 0
5.371963 -6.182825 26.498770 210 210 210 0
5.482525 -6.193223 26.543331 211 211 211 0
5.583421 -6.192522 26.540328 210 210 210 0
5.680469 -6.187654 26.519463 210 210 210 0
5.781725 -6.187460 26.518635 211 211 211 0
5.889900 -6.194550 26.549019 212 212 212 0
6.012281 -6.216087 26.641326 212 212 212 0
6.111678 -6.213540 26.630407 211 211 211 0
6.198209 -6.198209 26.564702 211 211 211 0
6.294353 -6.192831 26.541653 211 211 211 0
6.405148 -6.201810 26.580134 211 211 211 0
6.518303 -6.212757 26.627054 211 211 211 0
6.601099 -6.194878 26.550424 211 211 211 0
6.693460 -6.186380 26.514002 211 211 211 0
6.794986 -6.186480 26.514433 212 212 212 0
6.899232 -6.189017 26.525306 211 211 211 0
7.007588 -6.195114 26.551438 212 212 212 0
7.108971 -6.194960 26.550778 212 212 212 0
7.203238 -6.188698 26.523937 211 211 211 0
7.313446 -6.196114 26.555722 212 212 212 0
7.415604 -6.196601 26.557810 211 211 211 0
7.513844 -6.193844 26.545994 212 212 212 0
7.619946 -6.197556 26.561903 212 212 212 0
7.722122 -6.198019 26.563887 211 211 211 0
7.825971 -6.199795 26.571499 212 212 212 0
7.921190 -6.194777 26.549993 212 212 212 0
8.031947 -6.201883 26.580449 211 211 211 0
-7.297664 -5.473248 23.848576 204 204 204 0
-7.176917 -5.450823 23.750864 202 202 202 0
-7.080708 -5.446698 23.732890 203 203 203 0
-6.991459 -5.447890 23.738084 203 203 203 0
-6.956404 -5.491898 23.929839 203 203 203 0
-6.944100 -5.555280 24.206012 203 203 203 0
-6.871204 -5.571247 24.275585 203 203 203 0
-6.776750 -5.569932 24.269855 204 204 204 0
-6.705969 -5.588307 24.349923 204 204 204 0
-6.618227 -5.592868 24.369795 204 204 204 0
-6.596247 -5.653926 24.635842 204 204 204 0
-6.544386 -5.690770 24.796385 203 203 203 0
-6.438773 -5.681271 24.754992 204 204 204 0
-6.308368 -5.649285 24.615619 204 204 204 0
-6.255203 -5.686549 24.777989 204 204 204 0
-6.237542 -5.757731 25.088151 204 204 204 0
-6.197991 -5.810617 25.318592 204 204 204 0
-6.050217 -5.762111 25.107238 204 204 204 0
-5.908442 -5.717847 24.914368 205 205 205 0
-5.815898 -5.720555 24.926168 204 204 204 0
-5.809468 -5.809468 25.313584 204 204 204 0
-5.725892 -5.822941 25.372294 205 205 205 0
-5.603505 -5.796729 25.258080 204 204 204 0
-5.460419 -5.747809 25.044921 205 205 205 0
-5.344715 -5.726480 24.951982 205 205 205 0
-5.306015 -5.788380 25.221700 205 205 205 0
-5.251931 -5.835479 25.426925 204 204 204 0
-5.151337 -5.831703 25.410469 205 205 205 0
-5.024210 -5.797166 25.259982 204 204 204 0
-4.909064 -5.775369 25.165008 205 205 205 0
-4.834308 -5.801170 25.277430 205 205 205 0
-4.780341 -5.853479 25.505355 206 206 206 0
-4.695457 -5.869321 25.574385 205 205 205 0
-4.579878 -5.846653 25.475612 206 206 206 0
-4.471770 -5.832743 25.415003 206 206 206 0
-4.390770 -5.854360 25.509196 205 205 205 0
-4.339538 -5.917552 25.784541 206 206 206 0
-4.241040 -5.917731 25.785318 206 206 206 0
-4.132200 -5.903143 25.721757 206 206 206 0
-4.016581 -5.877924 25.611869 206 206 206 0
-3.921892 -5.882838 25.633279 206 206 206 0
-3.850279 -5.923506 25.810482 206 206 206 0
-3.766347 -5.946863 25.912259 206 206 206 0
-3.643335 -5.908110 25.743401 206 206 206 0
-3.533316 -5.888861 25.659524 206 206 206 0
-3.437570 -5.892977 25.677459 206 206 206 0
-3.348559 -5.909221 25.748240 206 206 206 0
-3.259704 -5.926734 25.824551 207 207 207 0
-3.161803 -5.928380 25.831720 206 206 206 0
-3.052954 -5.908944 25.747031 207 207 207 0
-2.964436 -5.928872 25.833867 206 206 206 0
-2.870512 -5.938990 25.877954 207 207 207 0
-2.776716 -5.950105 25.926384 207 207 207 0
-2.675809 -5.946243 25.909556 207 207 207 0
-2.581490 -5.957284 25.957667 207 207 207 0
-2.484975 -5.963940 25.986665 206 206 206 0
-2.388685 -5.971713 26.020536 207 207 207 0
-2.290588 -5.975447 26.036808 208 208 208 0
-2.196853 -5.991418 26.106397 208 208 208 0
-2.102877 -6.008220 26.179606 208 208 208 0
-1.998494 -5.995483 26.124109 207 207 207 0
-1.892201 -5.975370 26.036472 208 208 208 0
-1.792321 -5.974403 26.032259 208 208 208 0
-1.699287 -5.997484 26.132826 207 207 207 0
-1.599091 -5.996590 26.128932 208 208 208 0
-1.497297 -5.989190 26.096687 208 208 208 0
-1.394260 -5.975400 26.036600 207 207 207 0
-1.291219 -5.959470 25.967190 208 208 208 0
-1.197746 -5.988729 26.094681 208 208 208 0
-1.103358 -6.018319 26.223611 208 208 208 0
-1.000852 -6.005111 26.166060 208 208 208 0
-0.898937 -5.992913 26.112910 208 208 208 0
-0.798136 -5.986017 26.082863 208 208 208 0
-0.699500 -5.995714 26.125115 208 208 208 0
-0.602165 -6.021645 26.238105 208 208 208 0
-0.502067 -6.024799 26.251846 209 209 209 0
-0.400737 -6.011059 26.191976 208 208 208 0
-0.300150 -6.003003 26.156874 208 208 208 0
-0.201025 -6.030759 26.277817 208 208 208 0
-0.100973 -6.058395 26.398237 209 209 209 0
0.000000 -6.051922 26.370031 208 208 208 0
0.100436 -6.026138 26.257684 209 209 209 0
0.200257 -6.007718 26.177419 209 209 209 0
0.301652 -6.033034 26.287732 209 209 209 0
0.404337 -6.065058 26.427266 208 208 208 0
0.503575 -6.042898 26.330709 208 208 208 0
0.601908 -6.019076 26.226912 209 209 209 0
0.701077 -6.009228 26.184002 209 209 209 0
0.802871 -6.021531 26.237607 208 208 208 0
0.906671 -6.044475 26.337583 208 208 208 0
1.006986 -6.041916 26.326431 209 209 209 0
1.104520 -6.024657 26.251229 209 209 209 0
1.204655 -6.023276 26.245210 209 209 209 0
1.309415 -6.043454 26.333132 209 209 209 0
1.411726 -6.050253 26.362757 209 209 209 0
1.511826 -6.047303 26.349904 209 209 209 0
1.612361 -6.046353 26.345763 209 209 209 0
1.714423 -6.050904 26.365594 210 210 210 0
1.816521 -6.055068 26.383740 210 210 210 0
1.922908 -6.072341 26.459003 209 209 209 0
2.025478 -6.076433 26.476830 210 210 210 0
2.124444 -6.069841 26.448109 210 210 210 0
2.224002 -6.065459 26.429017 210 210 210 0
2.327693 -6.072244 26.458578 210 210 210 0
2.434326 -6.085816 26.517717 210 210 210 0
2.530504 -6.073209 26.462785 209 209 209 0
2.624882 -6.057421 26.393991 210 210 210 0
2.724991 -6.055535 26.385775 210 210 210 0
2.821795 -6.046704 26.347296 210 210 210 0
2.929019 -6.060040 26.405403 209 209 209 0
3.035333 -6.070666 26.451704 209 209 209 0
3.134081 -6.065963 26.431213 210 210 210 0
3.236912 -6.069209 26.445355 210 210 210 0
3.336311 -6.066021 26.431464 210 210 210 0
3.438342 -6.067663 26.438618 210 210 210 0
3.546679 -6.080021 26.492465 211 211 211 0
3.649009 -6.081681 26.499701 211 211 211 0
3.745766 -6.074216 26.467171 210 210 210 0
3.842261 -6.066728 26.434545 210 210 210 0
3.957218 -6.088028 26.527353 210 210 210 0
4.070966 -6.106449 26.607619 211 211 211 0
4.168014 -6.099532 26.577482 211 211 211 0
4.259095 -6.084422 26.511641 211 211 211 0
4.361490 -6.085800 26.517648 211 211 211 0
4.478973 -6.107690 26.613028 210 210 210 0
4.577132 -6.102842 26.591906 211 211 211 0
4.664103 -6.083613 26.508116 211 211 211 0
4.753264 -6.067997 26.440074 210 210 210 0
4.850030 -6.062537 26.416285 211 211 211 0
4.967271 -6.082373 26.502713 211 211 211 0
5.080095 -6.096114 26.562589 211 211 211 0
5.167683 -6.079627 26.490748 211 211 211 0
5.266340 -6.076546 26.477323 211 211 211 0
5.370312 -6.079599 26.490626 211 211 211 0
5.481292 -6.090324 26.537362 211 211 211 0
5.582629 -6.090141 26.536560 211 211 211 0
5.679585 -6.085270 26.515336 211 211 211 0
5.779752 -6.083950 26.509585 211 211 211 0
5.888232 -6.091275 26.541502 211 211 211 0
6.010257 -6.112126 26.632355 211 211 211 0
6.112996 -6.112996 26.636150 211 211 211 0
6.197275 -6.095681 26.560701 211 211 211 0
6.295424 -6.092346 26.546168 211 211 211 0
6.406920 -6.101828 26.587488 212 212 212 0
6.518423 -6.111021 26.627544 211 211 211 0
6.600292 -6.092578 26.547179 211 211 211 0
6.693424 -6.084930 26.513858 211 211 211 0
6.793469 -6.083703 26.508512 211 211 211 0
6.899765 -6.088028 26.527355 211 211 211 0
7.005753 -6.091959 26.544484 211 211 211 0
7.110718 -6.094901 26.557304 212 212 212 0
7.206975 -6.090401 26.537697 211 211 211 0
7.315720 -6.096433 26.563978 211 211 211 0
7.412300 -6.092301 26.545974 211 211 211 0
7.512691 -6.091371 26.541923 211 211 211 0
7.620559 -6.096447 26.564039 211 211 211 0
7.722941 -6.097059 26.566704 212 212 212 0
7.822958 -6.095812 26.561271 211 211 211 0
7.921049 -6.093115 26.549520 212 212 212 0
8.029836 -6.098610 26.573463 212 212 212 0
-7.308187 -5.389788 23.882962 203 203 203 0
-7.185473 -5.366366 23.779177 203 203 203 0
-7.092042 -5.364494 23.770881 203 203 203 0
-6.988710 -5.354985 23.728749 203 203 203 0
-6.944509 -5.391132 23.888921 204 204 204 0
-6.933214 -5.454128 24.168067 203 203 203 0
-6.867282 -5.475265 24.261727 204 204 204 0
-6.787220 -5.485561 24.307351 203 203 203 0
-6.693525 -5.484972 24.304738 203 203 203 0
-6.607886 -5.491060 24.331717 204 204 204 0
-6.595820 -5.559334 24.634248 204 204 204 0
-6.559878 -5.609171 24.855084 204 204 204 0
-6.445206 -5.592164 24.779725 205 205 205 0
-6.308723 -5.555442 24.617004 204 204 204 0
-6.261214 -5.597145 24.801796 204 204 204 0
-6.246755 -5.670132 25.125209 204 204 204 0
-6.193115 -5.709278 25.298671 204 204 204 0
-6.047532 -5.663561 25.096096 204 204 204 0
-5.908988 -5.623069 24.916668 205 205 205 0
-5.821536 -5.630666 24.950333 205 205 205 0
-5.800781 -5.704102 25.275736 204 204 204 0
-5.724280 -5.724280 25.365150 204 204 204 0
-5.603446 -5.700057 25.257812 204 204 204 0
-5.459967 -5.651544 25.042847 205 205 205 0
-5.344096 -5.630387 24.949095 204 204 204 0
-5.305408 -5.691256 25.218816 205 205 205 0
-5.257108 -5.743877 25.451986 205 205 205 0
-5.146006 -5.728573 25.384170 205 205 205 0
-5.023115 -5.699303 25.254474 205 205 205 0
-4.911110 -5.681480 25.175496 206 206 206 0
-4.836092 -5.706589 25.286758 205 205 205 0
-4.775199 -5.749729 25.477918 206 206 206 0
-4.697727 -5.774289 25.586747 205 205 205 0
-4.580913 -5.750507 25.481367 206 206 206 0
-4.471453 -5.735125 25.413205 206 206 206 0
-4.389318 -5.754884 25.500759 206 206 206 0
-4.339431 -5.818782 25.783903 206 206 206 0
-4.244029 -5.823202 25.803489 206 206 206 0
-4.135324 -5.809145 25.741198 205 205 205 0
-4.020792 -5.786018 25.638721 206 206 206 0
-3.923166 -5.786669 25.641605 206 206 206 0
-3.851155 -5.826106 25.816355 206 206 206 0
-3.767152 -5.848999 25.917799 206 206 206 0
-3.646299 -5.814369 25.764345 206 206 206 0
-3.531296 -5.787401 25.644848 207 207 207 0
-3.434020 -5.788776 25.650941 207 207 207 0
-3.342185 -5.799674 25.699232 207 207 207 0
-3.259108 -5.826891 25.819833 206 206 206 0
-3.161214 -5.828488 25.826910 206 206 206 0
-3.056537 -5.817280 25.777247 207 207 207 0
-2.961986 -5.825239 25.812514 207 207 207 0
-2.872542 -5.844137 25.896254 207 207 207 0
-2.776390 -5.850250 25.923342 207 207 207 0
-2.678973 -5.854052 25.940188 207 207 207 0
-2.581728 -5.858536 25.960059 207 207 207 0
-2.486715 -5.868648 26.004866 207 207 207 0
-2.387250 -5.868656 26.004899 207 207 207 0
-2.290506 -5.875646 26.035876 208 208 208 0
-2.196838 -5.891520 26.106213 207 207 207 0
-2.104174 -5.911727 26.195757 207 207 207 0
-1.997141 -5.891565 26.106412 208 208 208 0
-1.892466 -5.876606 26.040128 208 208 208 0
-1.792135 -5.874221 26.029562 207 207 207 0
-1.699365 -5.897796 26.134026 207 207 207 0
-1.598458 -5.894313 26.118590 208 208 208 0
-1.497948 -5.891928 26.108021 208 208 208 0
-1.393883 -5.874222 26.029565 208 208 208 0
-1.291604 -5.861895 25.974941 208 208 208 0
-1.198415 -5.892205 26.109251 208 208 208 0
-1.102498 -5.913400 26.203169 208 208 208 0
-1.001630 -5.909620 26.186417 208 208 208 0
-0.898799 -5.892124 26.108889 209 209 209 0
-0.798169 -5.886495 26.083950 208 208 208 0
-0.699676 -5.897267 26.131681 208 208 208 0
-0.601928 -5.918960 26.227805 209 209 209 0
-0.501857 -5.921918 26.240912 208 208 208 0
-0.400429 -5.906322 26.171804 208 208 208 0
-0.300174 -5.903425 26.158968 208 208 208 0
-0.200951 -5.928052 26.268095 208 208 208 0
-0.100967 -5.957074 26.396694 209 209 209 0
0.000000 -5.949517 26.363208 209 209 209 0
0.100394 -5.923270 26.246903 208 208 208 0
0.200289 -5.908522 26.181551 209 209 209 0
0.301578 -5.931037 26.281318 209 209 209 0
0.404174 -5.961573 26.416632 208 208 208 0
0.503663 -5.943228 26.335341 208 208 208 0
0.601650 -5.916230 26.215706 209 209 209 0
0.700943 -5.907947 26.179007 209 209 209 0
0.802925 -5.921573 26.239386 208 208 208 0
0.906804 -5.944606 26.341445 209 209 209 0
1.007233 -5.942677 26.332898 209 209 209 0
1.104650 -5.924941 26.254307 209 209 209 0
1.205132 -5.925233 26.255603 210 210 210 0
1.309107 -5.941331 26.326937 209 209 209 0
1.411316 -5.947689 26.355106 209 209 209 0
1.511854 -5.946627 26.350403 210 210 210 0
1.613312 -5.949088 26.361306 209 209 209 0
1.713656 -5.947396 26.353809 210 210 210 0
1.815465 -5.950691 26.368412 210 210 210 0
1.923331 -5.972449 26.464825 209 209 209 0
2.025914 -5.976446 26.482535 210 210 210 0
2.125516 -5.971688 26.461450 210 210 210 0
2.224152 -5.964772 26.430805 209 209 209 0
2.328162 -5.972242 26.463907 210 210 210 0
2.433316 -5.981901 26.506709 210 210 210 0
2.530882 -5.972882 26.466743 210 210 210 0
2.626792 -5.960797 26.413191 210 210 210 0
2.723889 -5.952202 26.375105 210 210 210 0
2.823706 -5.949952 26.365136 211 211 211 0
2.929267 -5.959543 26.407636 211 211 211 0
3.034000 -5.966867 26.440089 211 211 211 0
3.134393 -5.965457 26.433842 210 210 210 0
3.235279 -5.965047 26.432022 209 209 209 0
3.336741 -5.965688 26.434865 210 210 210 0
3.439896 -5.969231 26.450566 210 210 210 0
3.544152 -5.974427 26.473590 210 210 210 0
3.649006 -5.980316 26.499683 211 211 211 0
3.745720 -5.972906 26.466847 211 211 211 0
3.840847 -5.963420 26.424815 210 210 210 0
3.956345 -5.985239 26.521499 211 211 211 0
4.072520 -6.006967 26.617777 211 211 211 0
4.168476 -5.998539 26.580431 211 211 211 0
4.257798 -5.981192 26.503567 211 211 211 0
4.361567 -5.984476 26.518117 211 211 211 0
4.478996 -6.005927 26.613170 211 211 211 0
4.577625 -6.001774 26.594768 211 211 211 0
4.665462 -5.983963 26.515843 210 210 210 0
4.751173 -5.964239 26.428443 211 211 211 0
4.849430 -5.960758 26.413020 212 212 212 0
4.967347 -5.981091 26.503119 211 211 211 0
5.076644 -5.990440 26.544546 211 211 211 0
5.167857 -5.978501 26.491642 211 211 211 0
5.263326 -5.971851 26.462172 211 211 211 0
5.371200 -5.979261 26.495006 211 211 211 0
5.481611 -5.989167 26.538904 211 211 211 0
5.583898 -5.990000 26.542593 212 212 212 0
5.681314 -5.985670 26.523409 211 211 211 0
5.781823 -5.984694 26.519081 211 211 211 0
5.887600 -5.989110 26.538653 212 212 212 0
6.010990 -6.010990 26.635605 211 211 211 0
6.112986 -6.011103 26.636103 211 211 211 0
6.197154 -5.993968 26.560179 211 211 211 0
6.292629 -5.988147 26.534384 211 211 211 0
6.405517 -5.998818 26.581667 212 212 212 0
6.516467 -6.007368 26.619553 212 212 212 0
6.601191 -5.991850 26.550792 211 211 211 0
6.692201 -5.982422 26.509015 211 211 211 0
6.793010 -5.981905 26.506722 211 211 211 0
6.897470 -5.984570 26.518531 211 211 211 0
7.007539 -5.991953 26.551250 211 211 211 0
7.107165 -5.990325 26.544034 211 211 211 0
7.202426 -5.985115 26.520947 212 212 212 0
7.312644 -5.992305 26.552809 211 211 211 0
7.414727 -5.992724 26.554667 212 212 212 0
7.512200 -5.989457 26.540188 211 211 211 0
7.620411 -5.994723 26.563523 212 212 212 0
7.725836 -5.997689 26.576665 212 212 212 0
7.828095 -5.998150 26.578710 212 212 212 0
7.921316 -5.991765 26.550414 212 212 212 0
8.030861 -5.997732 26.576856 212 212 212 0
-7.309427 -5.299334 23.887015 203 203 203 0
-7.173191 -5.266393 23.738532 203 203 203 0
-7.091728 -5.273336 23.769828 203 203 203 0
-6.996549 -5.270128 23.755365 203 203 203 0
-6.953496 -5.306615 23.919834 203 203 203 0
-6.915594 -5.348060 24.106647 203 203 203 0
-6.872104 -5.386244 24.278764 204 204 204 0
-6.769300 -5.378348 24.243173 204 204 204 0
-6.693600 -5.392067 24.305012 204 204 204 0
-6.616767 -5.405246 24.364417 204 204 204 0
-6.602002 -5.470230 24.657337 204 204 204 0
-6.556060 -5.510891 24.840619 204 204 204 0
-6.438535 -5.491692 24.754076 204 204 204 0
-6.314029 -5.465876 24.637710 205 205 205 0
-6.254636 -5.496498 24.775741 204 204 204 0
-6.244476 -5.571994 25.116041 204 204 204 0
-6.204138 -5.622500 25.343699 204 204 204 0
-6.036804 -5.557692 25.051576 205 205 205 0
-5.904967 -5.524002 24.899714 205 205 205 0
-5.816342 -5.530292 24.928070 204 204 204 0
-5.809213 -5.615572 25.312473 204 204 204 0
-5.719964 -5.623015 25.346023 204 204 204 0
-5.600569 -5.600569 25.244846 205 205 205 0
-5.463304 -5.559152 25.058155 205 205 205 0
-5.343068 -5.533891 24.944293 205 205 205 0
-5.302013 -5.591214 25.202676 205 205 205 0
-5.251647 -5.640658 25.425549 205 205 205 0
-5.146147 -5.631633 25.384867 205 205 205 0
-5.023278 -5.602887 25.255293 206 206 206 0
-4.907261 -5.580806 25.155764 206 206 206 0
-4.835802 -5.609530 25.285238 206 206 206 0
-4.781236 -5.659422 25.510129 206 206 206 0
-4.696351 -5.674757 25.579253 205 205 205 0
-4.579401 -5.651176 25.472960 206 206 206 0
-4.467561 -5.633011 25.391081 206 206 206 0
-4.393160 -5.662296 25.523082 206 206 206 0
-4.335331 -5.714755 25.759543 205 205 205 0
-4.247241 -5.728837 25.823020 206 206 206 0
-4.134634 -5.709732 25.736905 206 206 206 0
-4.020214 -5.687133 25.635036 206 206 206 0
-3.914543 -5.676088 25.585250 206 206 206 0
-3.847277 -5.721592 25.790362 206 206 206 0
-3.767494 -5.750386 25.920154 206 206 206 0
-3.645476 -5.714530 25.758532 206 206 206 0
-3.530862 -5.688610 25.641696 206 206 206 0
-3.434776 -5.691914 25.656590 207 207 207 0
-3.344620 -5.705528 25.717954 206 206 206 0
-3.256339 -5.723262 25.797890 207 207 207 0
-3.161371 -5.729986 25.828198 206 206 206 0
-3.054852 -5.715530 25.763038 207 207 207 0
-2.962941 -5.728353 25.820837 207 207 207 0
-2.872272 -5.744544 25.893820 207 207 207 0
-2.778408 -5.755274 25.942188 207 207 207 0
-2.681702 -5.760693 25.966610 207 207 207 0
-2.586081 -5.768950 26.003832 207 207 207 0
-2.490085 -5.776996 26.040100 207 207 207 0
-2.387930 -5.770832 26.012313 207 207 207 0
-2.290235 -5.775374 26.032790 207 207 207 0
-2.198656 -5.796457 26.127821 208 208 208 0
-2.102453 -5.806775 26.174329 208 208 208 0
-1.997291 -5.792143 26.108373 208 208 208 0
-1.892132 -5.775982 26.035527 207 207 207 0
-1.791616 -5.772984 26.022014 207 207 207 0
-1.697784 -5.792441 26.109717 207 207 207 0
-1.599153 -5.796930 26.129955 208 208 208 0
-1.498107 -5.792679 26.110791 208 208 208 0
-1.394380 -5.776716 26.038837 207 207 207 0
-1.291919 -5.763945 25.981269 208 208 208 0
-1.197086 -5.785916 26.080307 208 208 208 0
-1.103392 -5.817887 26.224416 208 208 208 0
-1.001151 -5.806675 26.173877 208 208 208 0
-0.898896 -5.792887 26.111729 208 208 208 0
-0.798231 -5.787172 26.085967 208 208 208 0
-0.699507 -5.795913 26.125368 208 208 208 0
-0.602112 -5.820420 26.235833 207 207 207 0
-0.501804 -5.820923 26.238102 208 208 208 0
-0.400456 -5.806606 26.173569 209 209 209 0
-0.300143 -5.802773 26.156292 209 209 209 0
-0.200961 -5.827881 26.269464 208 208 208 0
-0.100906 -5.852571 26.380757 209 209 209 0
0.000000 -5.849760 26.368088 208 208 208 0
0.100422 -5.824497 26.254213 209 209 209 0
0.200285 -5.808275 26.181091 209 209 209 0
0.301634 -5.831593 26.286198 209 209 209 0
0.404259 -5.861753 26.422143 209 209 209 0
0.503691 -5.842821 26.336807 209 209 209 0
0.602208 -5.821342 26.239990 209 209 209 0
0.701009 -5.808364 26.181494 209 209 209 0
0.803021 -5.821901 26.242511 209 209 209 0
0.906223 -5.840101 26.324548 210 210 210 0
1.006819 -5.839550 26.322066 209 209 209 0
1.104562 -5.824052 26.252205 210 210 210 0
1.205272 -5.825479 26.258639 210 210 210 0
1.309454 -5.842181 26.333924 210 210 210 0
1.411586 -5.848000 26.360153 209 209 209 0
1.512897 -5.849870 26.368583 210 210 210 0
1.612434 -5.845073 26.346958 209 209 209 0
1.713032 -5.844463 26.344210 209 209 209 0
1.816335 -5.852635 26.381047 209 209 209 0
1.923635 -5.872150 26.469013 210 210 210 0
2.027302 -5.879175 26.500675 209 209 209 0
2.125630 -5.870789 26.462874 210 210 210 0
2.225093 -5.866155 26.441988 210 210 210 0
2.327812 -5.870135 26.459928 210 210 210 0
2.433721 -5.881494 26.511127 210 210 210 0
2.529732 -5.868978 26.454713 210 210 210 0
2.627236 -5.860757 26.417656 210 210 210 0
2.723449 -5.850371 26.370841 210 210 210 0
2.822492 -5.846591 26.353801 210 210 210 0
2.929199 -5.858399 26.407026 210 210 210 0
3.035350 -5.868343 26.451852 210 210 210 0
3.132010 -5.859890 26.413748 210 210 210 0
3.233995 -5.861615 26.421525 210 210 210 0
3.335801 -5.862923 26.427419 210 210 210 0
3.438536 -5.865738 26.440108 210 210 210 0
3.542817 -5.870954 26.463618 210 210 210 0
3.647502 -5.876530 26.488756 211 211 211 0
3.747228 -5.874032 26.477495 211 211 211 0
3.842557 -5.864955 26.436577 210 210 210 0
3.956840 -5.884531 26.524819 211 211 211 0
4.070457 -5.902163 26.604295 211 211 211 0
4.167670 -5.895729 26.575293 211 211 211 0
4.258427 -5.880685 26.507485 211 211 211 0
4.361277 -5.882653 26.516353 211 211 211 0
4.479355 -5.904605 26.615302 211 211 211 0
4.578558 -5.901252 26.600190 210 210 210 0
4.667314 -5.884874 26.526364 210 210 210 0
4.752014 -5.864188 26.433121 210 210 210 0
4.849358 -5.859641 26.412626 211 211 211 0
4.966169 -5.878322 26.496832 211 211 211 0
5.078259 -5.890780 26.552987 211 211 211 0
5.170474 -5.880147 26.505057 211 211 211 0
5.263484 -5.870809 26.462968 211 211 211 0
5.371456 -5.878198 26.496270 211 211 211 0
5.482396 -5.888500 26.542707 211 211 211 0
5.583920 -5.888498 26.542699 211 211 211 0
5.682928 -5.885889 26.530941 211 211 211 0
5.779724 -5.881123 26.509456 211 211 211 0
5.889183 -5.889183 26.545786 210 210 210 0
6.011699 -5.909806 26.638747 211 211 211 0
6.113151 -5.909379 26.636822 212 212 212 0
6.198054 -5.893232 26.564039 212 212 212 0
6.293758 -5.887709 26.539142 211 211 211 0
6.406383 -5.897940 26.585261 211 211 211 0
6.516697 -5.905756 26.620493 211 211 211 0
6.603047 -5.891950 26.558259 211 211 211 0
6.693103 -5.881818 26.512588 211 211 211 0
6.789824 -5.877758 26.494291 212 212 212 0
6.898922 -5.884374 26.524113 211 211 211 0
7.007358 -5.890243 26.550567 211 211 211 0
7.107711 -5.889246 26.546073 211 211 211 0
7.204643 -5.885483 26.529109 211 211 211 0
7.311135 -5.889526 26.547332 212 212 212 0
7.413849 -5.890455 26.551524 212 212 212 0
7.510941 -5.886954 26.535740 211 211 211 0
7.619995 -5.892796 26.562076 212 212 212 0
7.723181 -5.894006 26.567529 212 212 212 0
7.825632 -5.894632 26.570347 212 212 212 0
7.923063 -5.891509 26.556271 212 212 212 0
8.031607 -5.896623 26.579325 212 212 212 0
-7.304535 -5.204481 23.871031 203 203 203 0
-7.178184 -5.179196 23.755057 203 203 203 0
-7.092404 -5.182911 23.772094 203 203 203 0
-6.986118 -5.171542 23.719948 203 203 203 0
-6.952795 -5.214596 23.917424 204 204 204 0
-6.930223 -5.266969 24.157640 204 204 204 0
-6.869605 -5.291452 24.269934 204 204 204 0
-6.767448 -5.284172 24.236541 204 204 204 0
-6.683599 -5.291183 24.268697 204 204 204 0
-6.612935 -5.308976 24.350308 203 203 203 0
-6.585350 -5.362356 24.595144 204 204 204 0
-6.544406 -5.406248 24.796461 204 204 204 0
-6.440120 -5.398335 24.760167 204 204 204 0
-6.304744 -5.363738 24.601479 204 204 204 0
-6.255311 -5.402314 24.778417 205 205 205 0
-6.245490 -5.476815 25.120122 204 204 204 0
-6.199646 -5.521560 25.325353 204 204 204 0
-6.049054 -5.472954 25.102413 205 205 205 0
-5.904716 -5.428529 24.898655 205 205 205 0
-5.825476 -5.443477 24.967217 205 205 205 0
-5.808231 -5.517819 25.308195 205 205 205 0
-5.711722 -5.518105 25.309505 205 205 205 0
-5.600402 -5.503844 25.244094 205 205 205 0
-5.463719 -5.463719 25.060058 205 205 205 0
-5.340732 -5.436102 24.933390 205 205 205 0
-5.304094 -5.496970 25.212567 205 205 205 0
-5.248435 -5.540014 25.409996 205 205 205 0
-5.144645 -5.532920 25.377458 205 205 205 0
-5.022260 -5.505169 25.250174 205 205 205 0
-4.905841 -5.482999 25.148487 205 205 205 0
-4.833152 -5.509793 25.271382 206 206 206 0
-4.778912 -5.559142 25.497729 205 205 205 0
-4.696294 -5.576849 25.578942 205 205 205 0
-4.584409 -5.559815 25.500816 205 205 205 0
-4.474860 -5.544935 25.432565 206 206 206 0
-4.386197 -5.555849 25.482624 206 206 206 0
-4.340543 -5.622976 25.790512 206 206 206 0
-4.244455 -5.626371 25.806083 206 206 206 0
-4.132347 -5.608185 25.722670 206 206 206 0
-4.017283 -5.585004 25.616346 206 206 206 0
-3.914002 -5.577454 25.581716 206 206 206 0
-3.848057 -5.624084 25.795591 206 206 206 0
-3.767888 -5.651833 25.922865 206 206 206 0
-3.645968 -5.616762 25.762009 207 207 207 0
-3.531339 -5.591286 25.645162 206 206 206 0
-3.433392 -5.591525 25.646254 207 207 207 0
-3.342897 -5.604268 25.704702 206 206 206 0
-3.260290 -5.631410 25.829192 207 207 207 0
-3.160748 -5.630083 25.823106 207 207 207 0
-3.055134 -5.617504 25.765414 207 207 207 0
-2.962480 -5.628712 25.816817 206 206 206 0
-2.873586 -5.648082 25.905663 206 206 206 0
-2.777877 -5.654964 25.937228 207 207 207 0
-2.676949 -5.651336 25.920587 207 207 207 0
-2.583058 -5.662857 25.973429 207 207 207 0
-2.485096 -5.666018 25.987928 207 207 207 0
-2.387688 -5.670759 26.009672 207 207 207 0
-2.291292 -5.678419 26.044807 208 208 208 0
-2.197604 -5.693792 26.115316 208 208 208 0
-2.104363 -5.711842 26.198106 207 207 207 0
-1.997200 -5.692019 26.107185 207 207 207 0
-1.891991 -5.675974 26.033592 208 208 208 0
-1.792347 -5.675766 26.032637 208 208 208 0
-1.699310 -5.697687 26.133184 208 208 208 0
-1.598667 -5.695252 26.122014 208 208 208 0
-1.498393 -5.693892 26.115777 208 208 208 0
-1.393981 -5.675495 26.031397 208 208 208 0
-1.290772 -5.659540 25.958218 208 208 208 0
-1.198374 -5.692275 26.108358 208 208 208 0
-1.102741 -5.714206 26.208948 208 208 208 0
-1.001194 -5.706805 26.175004 208 208 208 0
-0.898744 -5.692045 26.107305 208 208 208 0
-0.797991 -5.685689 26.078152 208 208 208 0
-0.699502 -5.695945 26.125192 208 208 208 0
-0.602170 -5.720620 26.238366 209 209 209 0
-0.501848 -5.721067 26.240416 209 209 209 0
-0.400549 -5.707825 26.179681 208 208 208 0
-0.300235 -5.704466 26.164273 208 208 208 0
-0.200923 -5.726316 26.264492 208 208 208 0
-0.100882 -5.750247 26.374254 209 209 209 0
0.000000 -5.750211 26.374091 208 208 208 0
0.100423 -5.724101 26.254332 209 209 209 0
0.200162 -5.704608 26.164925 209 209 209 0
0.301753 -5.733316 26.296598 209 209 209 0
0.404092 -5.758317 26.411269 209 209 209 0
0.503547 -5.740438 26.329265 209 209 209 0
0.601616 -5.715352 26.214206 209 209 209 0
0.701328 -5.710810 26.193374 209 209 209 0
0.802707 -5.719290 26.232265 209 209 209 0
0.906354 -5.740243 26.328369 209 209 209 0
1.006975 -5.739759 26.326153 209 209 209 0
1.104569 -5.723675 26.252380 209 209 209 0
1.205378 -5.725544 26.260953 209 209 209 0
1.309597 -5.742079 26.336793 209 209 209 0
1.411237 -5.745751 26.353634 209 209 209 0
1.512450 -5.747310 26.360786 209 209 209 0
1.612883 -5.745895 26.354294 209 209 209 0
1.714227 -5.747701 26.362578 209 209 209 0
1.816931 -5.753616 26.389707 210 210 210 0
1.923528 -5.770583 26.467530 209 209 209 0
2.026417 -5.775288 26.489107 210 210 210 0
2.124093 -5.765396 26.443738 209 209 209 0
2.224854 -5.764395 26.439146 209 209 209 0
2.326871 -5.766593 26.449230 210 210 210 0
2.432985 -5.778339 26.503102 209 209 209 0
2.529479 -5.767212 26.452066 210 210 210 0
2.626334 -5.757733 26.408590 210 210 210 0
2.725337 -5.753488 26.389122 210 210 210 0
2.822603 -5.746013 26.354836 210 210 210 0
2.929430 -5.757845 26.409104 211 211 211 0
3.035173 -5.766829 26.450312 209 209 209 0
3.133810 -5.762167 26.428930 211 211 211 0
