ply
    format ascii 1.0
    element vertex 25576
    property float x
    property float y
    property float z
    property uchar red
    property uchar green
    property uchar blue
    property uchar alpha
    end_header
6.681785 2.672714 34.937437 201 201 201 0
6.815122 2.672597 34.935905 201 201 201 0
6.949076 2.672722 34.937537 201 201 201 0
7.082689 2.672713 34.937424 201 201 201 0
7.216119 2.672637 34.936425 202 202 202 0
7.349644 2.672598 34.935920 201 201 201 0
7.483442 2.672658 34.936704 201 201 201 0
7.617239 2.672716 34.937458 201 201 201 0
7.750681 2.672648 34.936582 201 201 201 0
7.884091 2.672573 34.935599 201 201 201 0
8.017855 2.672618 34.936185 201 201 201 0
8.151570 2.672646 34.936548 201 201 201 0
8.297337 2.676560 34.987716 201 201 201 0
8.418673 2.672595 34.935879 201 201 201 0
8.552400 2.672625 34.936273 201 201 201 0
8.686057 2.672633 34.936380 201 201 201 0
8.819424 2.672553 34.935330 201 201 201 0
8.953270 2.672618 34.936183 201 201 201 0
9.087058 2.672664 34.936787 201 201 201 0
9.220508 2.672611 34.936092 201 201 201 0
9.354119 2.672605 34.936017 201 201 201 0
9.487847 2.672633 34.936377 201 201 201 0
9.621556 2.672654 34.936660 201 201 201 0
9.754976 2.672596 34.935896 201 201 201 0
9.888380 2.672535 34.935101 202 202 202 0
10.022132 2.672569 34.935537 201 201 201 0
10.155989 2.672629 34.936324 201 201 201 0
10.289487 2.672594 34.935871 202 202 202 0
10.423021 2.672570 34.935550 202 202 202 0
10.556988 2.672655 34.936669 201 201 201 0
-10.710094 2.811400 35.000309 191 191 191 0
-10.576220 2.811400 35.000314 192 192 192 0
-10.442412 2.811419 35.000543 193 193 193 0
-10.304228 2.810244 34.985919 192 192 192 0
-10.170516 2.810274 34.986295 191 191 191 0
-10.036798 2.810303 34.986660 192 192 192 0
-9.900161 2.809505 34.976720 192 192 192 0
-9.765776 2.809333 34.974575 193 193 193 0
-9.632488 2.809476 34.976356 193 193 193 0
-9.498821 2.809511 34.976789 192 192 192 0
-9.363982 2.809195 34.972857 193 193 193 0
-9.229484 2.808973 34.970102 193 193 193 0
-9.095979 2.809052 34.971083 193 193 193 0
-8.963315 2.809397 34.975377 193 193 193 0
-8.829286 2.809318 34.974397 194 194 194 0
-8.694196 2.808894 34.969115 194 194 194 0
-8.559674 2.808643 34.965990 194 194 194 0
-8.426575 2.808858 34.968670 194 194 194 0
-8.293361 2.809042 34.970951 194 194 194 0
-8.158833 2.808779 34.967677 193 193 193 0
-8.024068 2.808424 34.963261 194 194 194 0
-7.890638 2.808532 34.964610 194 194 194 0
-7.757323 2.808686 34.966521 194 194 194 0
-7.623162 2.808533 34.964622 194 194 194 0
-7.488095 2.808036 34.958426 194 194 194 0
-7.354065 2.807916 34.956935 194 194 194 0
-7.221556 2.808383 34.962751 194 194 194 0
-7.087986 2.808447 34.963552 195 195 195 0
-6.952846 2.807880 34.956490 194 194 194 0
-6.819020 2.807832 34.955888 195 195 195 0
-6.686031 2.808133 34.959639 194 194 194 0
-6.552819 2.808351 34.962355 195 195 195 0
-6.418158 2.807944 34.957287 195 195 195 0
-6.283760 2.807638 34.953471 194 194 194 0
-6.150369 2.807777 34.955209 195 195 195 0
-6.017365 2.808103 34.959271 196 196 196 0
-5.883345 2.807960 34.957488 195 195 195 0
-5.748972 2.807637 34.953467 196 196 196 0
-5.615005 2.807503 34.951791 196 196 196 0
-5.482033 2.807871 34.956371 196 196 196 0
-5.348282 2.807848 34.956089 196 196 196 0
-5.213564 2.807303 34.949312 195 195 195 0
-5.079821 2.807270 34.948892 195 195 195 0
-4.946560 2.807507 34.951845 196 196 196 0
-4.813223 2.807714 34.954418 196 196 196 0
-4.678631 2.807179 34.947756 196 196 196 0
-4.544857 2.807118 34.947001 196 196 196 0
-4.411695 2.807442 34.951040 196 196 196 0
-4.278394 2.807696 34.954200 196 196 196 0
-4.144239 2.807388 34.950360 197 197 197 0
-4.010099 2.807069 34.946396 196 196 196 0
-3.876642 2.807224 34.948319 196 196 196 0
-3.743225 2.807419 34.950749 197 197 197 0
-3.609412 2.807320 34.949519 197 197 197 0
-3.475402 2.807055 34.946222 197 197 197 0
-3.341615 2.806956 34.944989 197 197 197 0
-3.208335 2.807293 34.949184 197 197 197 0
-3.074658 2.807296 34.949225 197 197 197 0
-2.940447 2.806790 34.942922 197 197 197 0
-2.806777 2.806777 34.942754 197 197 197 0
-2.673428 2.807100 34.946775 197 197 197 0
-2.539800 2.807147 34.947367 198 198 198 0
-2.405793 2.806759 34.942531 198 198 198 0
-2.272139 2.806761 34.942553 198 198 198 0
-2.138707 2.807052 34.946187 198 198 198 0
-2.005137 2.807192 34.947919 198 198 198 0
-1.871262 2.806893 34.944201 198 198 198 0
-1.737491 2.806716 34.941997 198 198 198 0
-1.603959 2.806928 34.944634 198 198 198 0
-1.470403 2.807132 34.947178 198 198 198 0
-1.336674 2.807016 34.945727 198 198 198 0
-1.202901 2.806769 34.942657 198 198 198 0
-1.069275 2.806846 34.943612 198 198 198 0
-0.935683 2.807050 34.946162 198 198 198 0
-0.801997 2.806988 34.945387 198 198 198 0
-0.668240 2.806607 34.940645 199 199 199 0
-0.534618 2.806745 34.942360 198 198 198 0
-0.400991 2.806938 34.944759 199 199 199 0
-0.267319 2.806846 34.943619 198 198 198 0
-0.133642 2.806477 34.939027 198 198 198 0
0.000000 2.806672 34.941448 199 199 199 0
0.133662 2.806907 34.944375 199 199 199 0
0.267320 2.806859 34.943777 198 198 198 0
0.400931 2.806515 34.939500 199 199 199 0
0.534592 2.806606 34.940629 199 199 199 0
0.668280 2.806774 34.942726 199 199 199 0
0.801925 2.806736 34.942251 199 199 199 0
0.935522 2.806565 34.940118 199 199 199 0
1.069179 2.806594 34.940478 199 199 199 0
1.202919 2.806812 34.943189 199 199 199 0
1.336552 2.806759 34.942538 199 199 199 0
1.470043 2.806446 34.938639 199 199 199 0
1.603670 2.806422 34.938336 199 199 199 0
1.737453 2.806655 34.941234 199 199 199 0
1.871072 2.806608 34.940656 200 200 200 0
2.004511 2.806315 34.937012 200 200 200 0
2.138245 2.806447 34.938650 200 200 200 0
2.272097 2.806708 34.941893 199 199 199 0
2.405722 2.806675 34.941492 199 199 199 0
2.539133 2.806410 34.938187 200 200 200 0
2.672797 2.806437 34.938529 200 200 200 0
2.806573 2.806573 34.940217 200 200 200 0
2.940205 2.806559 34.940046 200 200 200 0
3.073671 2.806395 34.938008 200 200 200 0
3.207331 2.806415 34.938250 201 201 201 0
3.341204 2.806611 34.940694 199 199 199 0
3.474794 2.806565 34.940113 200 200 200 0
3.608199 2.806377 34.937773 200 200 200 0
3.741791 2.806343 34.937357 200 200 200 0
3.875679 2.806526 34.939636 200 200 200 0
4.009210 2.806447 34.938649 200 200 200 0
4.142477 2.806194 34.935502 200 200 200 0
4.276376 2.806372 34.937712 200 200 200 0
4.410236 2.806514 34.939484 201 201 201 0
4.543860 2.806502 34.939333 200 200 200 0
4.677152 2.806291 34.936709 200 200 200 0
4.810872 2.806342 34.937341 201 201 201 0
4.944697 2.806450 34.938681 201 201 201 0
5.078219 2.806384 34.937869 201 201 201 0
5.211706 2.806303 34.936860 201 201 201 0
5.345499 2.806387 34.937901 200 200 200 0
5.479420 2.806532 34.939708 200 200 200 0
5.612761 2.806381 34.937822 201 201 201 0
5.746075 2.806223 34.935859 201 201 201 0
5.879761 2.806250 34.936193 201 201 201 0
6.013726 2.806405 34.938131 201 201 201 0
6.147119 2.806293 34.936738 201 201 201 0
6.280388 2.806131 34.934713 201 201 201 0
6.414524 2.806354 34.937495 201 201 201 0
6.548333 2.806428 34.938418 201 201 201 0
6.681769 2.806343 34.937355 201 201 201 0
6.815143 2.806236 34.936016 201 201 201 0
6.949110 2.806371 34.937707 201 201 201 0
7.082697 2.806352 34.937462 201 201 201 0
7.216095 2.806259 34.936313 201 201 201 0
7.349647 2.806229 34.935932 201 201 201 0
7.483483 2.806306 34.936895 200 200 200 0
7.617188 2.806332 34.937222 201 201 201 0
7.750681 2.806281 34.936583 201 201 201 0
7.884186 2.806236 34.936019 202 202 202 0
8.017831 2.806241 34.936083 201 201 201 0
8.151594 2.806286 34.936649 201 201 201 0
8.297755 2.810530 34.989478 201 201 201 0
8.418732 2.806244 34.936122 201 201 201 0
8.552406 2.806258 34.936298 201 201 201 0
8.686022 2.806253 34.936238 201 201 201 0
8.819374 2.806164 34.935130 201 201 201 0
8.953269 2.806248 34.936178 201 201 201 0
9.087075 2.806302 34.936850 202 202 202 0
9.220529 2.806248 34.936171 201 201 201 0
9.354072 2.806222 34.935845 201 201 201 0
9.487803 2.806252 34.936217 201 201 201 0
9.621601 2.806300 34.936824 202 202 202 0
9.754936 2.806215 34.935755 201 201 201 0
9.888338 2.806150 34.934950 201 201 201 0
10.022173 2.806208 34.935679 201 201 201 0
10.156006 2.806265 34.936382 201 201 201 0
10.289495 2.806226 34.935898 201 201 201 0
10.423101 2.806220 34.935818 202 202 202 0
10.557035 2.806300 34.936825 202 202 202 0
-10.710082 2.945272 35.000267 192 192 192 0
-10.576247 2.945284 35.000403 192 192 192 0
-10.442404 2.945293 35.000515 192 192 192 0
-10.304106 2.944030 34.985506 192 192 192 0
-10.170201 2.944006 34.985211 193 193 193 0
-10.036728 2.944107 34.986415 192 192 192 0
-9.900207 2.943305 34.976882 192 192 192 0
-9.765775 2.943110 34.974572 193 193 193 0
-9.633096 2.943446 34.978562 192 192 192 0
-9.499279 2.943439 34.978473 193 193 193 0
-9.363618 2.942851 34.971495 193 193 193 0
-9.229472 2.942730 34.970055 193 193 193 0
-9.096155 2.942874 34.971763 193 193 193 0
-8.963122 2.943115 34.974625 193 193 193 0
-8.829236 2.943079 34.974197 193 193 193 0
-8.694045 2.942600 34.968507 193 193 193 0
-8.559724 2.942405 34.966191 193 193 193 0
-8.426426 2.942562 34.968052 194 194 194 0
-8.293287 2.942779 34.970640 193 193 193 0
-8.158802 2.942519 34.967543 194 194 194 0
-8.024043 2.942149 34.963151 194 194 194 0
-7.890725 2.942304 34.964993 194 194 194 0
-7.757437 2.942476 34.967035 194 194 194 0
-7.623222 2.942296 34.964896 194 194 194 0
-7.487924 2.941685 34.957631 194 194 194 0
-7.354051 2.941620 34.956869 194 194 194 0
-7.221677 2.942165 34.963337 194 194 194 0
-7.087939 2.942163 34.963321 194 194 194 0
-6.952749 2.941548 34.956003 194 194 194 0
-6.819103 2.941574 34.956315 194 194 194 0
-6.686127 2.941896 34.960143 195 195 195 0
-6.552694 2.942026 34.961684 195 195 195 0
-6.418080 2.941620 34.956863 195 195 195 0
-6.283801 2.941354 34.953698 195 195 195 0
-6.150310 2.941452 34.954872 194 194 194 0
-6.017438 2.941859 34.959697 195 195 195 0
-5.883475 2.941737 34.958256 195 195 195 0
-5.749034 2.941366 34.953850 195 195 195 0
-5.615099 2.941242 34.952375 196 196 196 0
-5.481899 2.941507 34.955517 195 195 195 0
-5.348296 2.941563 34.956184 196 196 196 0
-5.213554 2.940979 34.949249 196 196 196 0
-5.079817 2.940947 34.948861 196 196 196 0
-4.946564 2.941200 34.951872 196 196 196 0
-4.813148 2.941368 34.953868 196 196 196 0
-4.678575 2.940819 34.947342 196 196 196 0
-4.544927 2.940835 34.947536 197 197 197 0
-4.411695 2.941130 34.951037 197 197 197 0
-4.278413 2.941409 34.954358 196 196 196 0
-4.144213 2.941054 34.950140 196 196 196 0
-4.010121 2.940756 34.946590 196 196 196 0
-3.876549 2.940831 34.947481 197 197 197 0
-3.743240 2.941117 34.950889 197 197 197 0
-3.609416 2.941006 34.949562 197 197 197 0
-3.475365 2.940694 34.945856 197 197 197 0
-3.341648 2.940650 34.945335 197 197 197 0
-3.208329 2.940968 34.949117 197 197 197 0
-3.074653 2.940972 34.949167 197 197 197 0
-2.940467 2.940467 34.943159 198 198 198 0
-2.806803 2.940460 34.943077 197 197 197 0
-2.673452 2.940797 34.947085 198 198 198 0
-2.539827 2.940852 34.947737 197 197 197 0
-2.405812 2.940437 34.942803 197 197 197 0
-2.272149 2.940428 34.942701 197 197 197 0
-2.138685 2.940692 34.945834 198 198 198 0
-2.005117 2.940839 34.947577 197 197 197 0
-1.871266 2.940560 34.944272 197 197 197 0
-1.737504 2.940392 34.942272 198 198 198 0
-1.603958 2.940589 34.944608 197 197 197 0
-1.470398 2.940795 34.947061 198 198 198 0
-1.336653 2.940637 34.945182 198 198 198 0
-1.202885 2.940385 34.942192 199 199 199 0
-1.069260 2.940464 34.943126 198 198 198 0
-0.935695 2.940755 34.946579 199 199 199 0
-0.801982 2.940602 34.944767 198 198 198 0
-0.668234 2.940230 34.940341 198 198 198 0
-0.534608 2.940343 34.941689 198 198 198 0
-0.400994 2.940621 34.944989 199 199 199 0
-0.267321 2.940536 34.943986 198 198 198 0
-0.133642 2.940124 34.939089 199 199 199 0
0.000000 2.940347 34.941737 199 199 199 0
0.133664 2.940601 34.944752 198 198 198 0
0.267320 2.940519 34.943780 199 199 199 0
0.400933 2.940176 34.939707 198 198 198 0
0.534588 2.940236 34.940413 199 199 199 0
0.668271 2.940393 34.942279 198 198 198 0
0.801926 2.940396 34.942316 199 199 199 0
0.935516 2.940194 34.939914 199 199 199 0
1.069157 2.940183 34.939786 199 199 199 0
1.202917 2.940464 34.943125 199 199 199 0
1.336554 2.940419 34.942585 199 199 199 0
1.470021 2.940042 34.938111 199 199 199 0
1.603662 2.940047 34.938169 199 199 199 0
1.737456 2.940310 34.941290 199 199 199 0
1.871083 2.940273 34.940858 200 200 200 0
2.004483 2.939908 34.936515 199 199 199 0
2.138229 2.940065 34.938380 199 199 199 0
2.272089 2.940350 34.941772 200 200 200 0
2.405747 2.940357 34.941858 199 199 199 0
2.539122 2.940036 34.938038 200 200 200 0
2.672800 2.940080 34.938556 200 200 200 0
2.806587 2.940234 34.940394 200 200 200 0
2.940192 2.940192 34.939899 200 200 200 0
3.073671 2.940034 34.938010 200 200 200 0
3.207324 2.940047 34.938173 200 200 200 0
3.341186 2.940244 34.940509 201 201 201 0
3.474790 2.940207 34.940069 200 200 200 0
3.608216 2.940028 34.937943 200 200 200 0
3.741808 2.939992 34.937513 200 200 200 0
3.875652 2.940150 34.939391 200 200 200 0
4.009226 2.940099 34.938790 201 201 201 0
4.142479 2.939824 34.935517 201 201 201 0
4.276346 2.939988 34.937466 200 200 200 0
4.410234 2.940156 34.939462 200 200 200 0
4.543866 2.940149 34.939376 200 200 200 0
4.677161 2.939930 34.936777 200 200 200 0
4.810834 2.939954 34.937067 201 201 201 0
4.944682 2.940081 34.938577 201 201 201 0
5.078238 2.940033 34.938001 200 200 200 0
5.211687 2.939926 34.936735 201 201 201 0
5.345484 2.940016 34.937804 201 201 201 0
5.479413 2.940173 34.939667 201 201 201 0
5.612776 2.940026 34.937917 201 201 201 0
5.746039 2.939834 34.935640 201 201 201 0
5.879829 2.939914 34.936595 201 201 201 0
6.013749 2.940055 34.938266 200 200 200 0
6.147148 2.939940 34.936903 201 201 201 0
6.280359 2.939743 34.934554 201 201 201 0
6.414456 2.939959 34.937122 201 201 201 0
6.548306 2.940056 34.938276 200 200 200 0
6.681776 2.939982 34.937392 201 201 201 0
6.815132 2.939861 34.935958 201 201 201 0
6.949084 2.939997 34.937578 201 201 201 0
7.082669 2.939976 34.937324 201 201 201 0
7.216112 2.939898 34.936394 201 201 201 0
7.349658 2.939863 34.935985 202 202 202 0
7.483497 2.939945 34.936962 201 201 201 0
7.617241 2.939988 34.937467 201 201 201 0
7.750627 2.939893 34.936341 201 201 201 0
7.884225 2.939881 34.936194 201 201 201 0
8.017897 2.939895 34.936369 201 201 201 0
8.151607 2.939924 34.936706 201 201 201 0
8.297856 2.944401 34.989907 201 201 201 0
8.418742 2.939878 34.936165 201 201 201 0
8.552345 2.939869 34.936051 201 201 201 0
8.686026 2.939886 34.936254 201 201 201 0
8.819391 2.939797 34.935198 201 201 201 0
8.953182 2.939851 34.935840 201 201 201 0
9.087088 2.939940 34.936903 201 201 201 0
9.220518 2.939875 34.936130 201 201 201 0
9.354055 2.939846 34.935779 201 201 201 0
9.487834 2.939892 34.936329 201 201 201 0
9.621552 2.939919 34.936646 201 201 201 0
9.754939 2.939845 34.935766 201 201 201 0
9.888317 2.939770 34.934876 201 201 201 0
10.022163 2.939835 34.935645 201 201 201 0
10.155978 2.939888 34.936285 201 201 201 0
10.289467 2.939848 34.935802 201 201 201 0
10.423026 2.939828 34.935567 201 201 201 0
10.556984 2.939920 34.936655 201 201 201 0
-10.710078 3.079148 35.000256 192 192 192 0
-10.576253 3.079162 35.000423 191 191 191 0
-10.442399 3.079169 35.000498 192 192 192 0
-10.304343 3.077921 34.986309 192 192 192 0
-10.170145 3.077807 34.985018 193 193 193 0
-10.036754 3.077938 34.986505 192 192 192 0
-9.900190 3.077086 34.976822 192 192 192 0
-9.765631 3.076843 34.974057 193 193 193 0
-9.632719 3.077119 34.977193 192 192 192 0
-9.498801 3.077076 34.976715 192 192 192 0
-9.363530 3.076589 34.971169 192 192 192 0
-9.229475 3.076492 34.970065 193 193 193 0
-9.095834 3.076532 34.970528 193 193 193 0
-8.963491 3.077019 34.976066 193 193 193 0
-8.829263 3.076864 34.974304 193 193 193 0
-8.693914 3.076308 34.967982 193 193 193 0
-8.559674 3.076133 34.965989 193 193 193 0
-8.426321 3.076276 34.967617 194 194 194 0
-8.293565 3.076645 34.971812 193 193 193 0
-8.158761 3.076254 34.967368 194 194 194 0
-8.023947 3.075846 34.962732 194 194 194 0
-7.890591 3.075993 34.964402 195 195 195 0
-7.757571 3.076278 34.967641 194 194 194 0
-7.623492 3.076146 34.966135 194 194 194 0
-7.488087 3.075464 34.958389 194 194 194 0
-7.354211 3.075397 34.957627 194 194 194 0
-7.221668 3.075896 34.963294 195 195 195 0
-7.087945 3.075901 34.963350 195 195 195 0
-6.952826 3.075288 34.956390 194 194 194 0
-6.819152 3.075304 34.956567 195 195 195 0
-6.685968 3.075545 34.959309 194 194 194 0
-6.552751 3.075781 34.961991 195 195 195 0
-6.418149 3.075363 34.957241 195 195 195 0
-6.283874 3.075087 34.954102 195 195 195 0
-6.150288 3.075144 34.954751 195 195 195 0
-6.017268 3.075493 34.958710 195 195 195 0
-5.883404 3.075415 34.957834 195 195 195 0
-5.749090 3.075095 34.954190 195 195 195 0
-5.615044 3.074905 34.952034 195 195 195 0
-5.481880 3.075201 34.955393 196 196 196 0
-5.348299 3.075272 34.956200 196 196 196 0
-5.213595 3.074684 34.949525 196 196 196 0
-5.079771 3.074598 34.948544 196 196 196 0
-4.946708 3.074981 34.952893 196 196 196 0
-4.813138 3.075060 34.953798 196 196 196 0
-4.678674 3.074557 34.948081 196 196 196 0
-4.544900 3.074491 34.947330 196 196 196 0
-4.411693 3.074816 34.951024 196 196 196 0
-4.278338 3.075055 34.953741 196 196 196 0
-4.144239 3.074758 34.950358 196 196 196 0
-4.010134 3.074436 34.946698 196 196 196 0
-3.876614 3.074556 34.948065 196 196 196 0
-3.743255 3.074817 34.951030 196 196 196 0
-3.609408 3.074680 34.949480 196 196 196 0
-3.475412 3.074403 34.946329 196 196 196 0
-3.341700 3.074364 34.945886 197 197 197 0
-3.208333 3.074652 34.949156 197 197 197 0
-3.074689 3.074689 34.949571 197 197 197 0
-2.940471 3.074129 34.943213 197 197 197 0
-2.806807 3.074122 34.943128 198 198 198 0
-2.673453 3.074471 34.947103 198 198 198 0
-2.539824 3.074524 34.947704 197 197 197 0
-2.405814 3.074095 34.942829 197 197 197 0
-2.272133 3.074063 34.942456 197 197 197 0
-2.138688 3.074364 34.945883 198 198 198 0
-2.005126 3.074527 34.947738 197 197 197 0
-1.871258 3.074210 34.944131 197 197 197 0
-1.737502 3.074042 34.942226 198 198 198 0
-1.603942 3.074223 34.944280 198 198 198 0
-1.470415 3.074505 34.947482 197 197 197 0
-1.336647 3.074288 34.945013 198 198 198 0
-1.202884 3.074038 34.942176 198 198 198 0
-1.069264 3.074133 34.943260 198 198 198 0
-0.935689 3.074407 34.946373 199 199 199 0
-0.801981 3.074259 34.944686 198 198 198 0
-0.668237 3.073889 34.940480 199 199 199 0
-0.534608 3.073999 34.941732 199 199 199 0
-0.400995 3.074295 34.945094 198 198 198 0
-0.267320 3.074179 34.943778 199 199 199 0
-0.133643 3.073782 34.939269 199 199 199 0
0.000000 3.073967 34.941369 199 199 199 0
0.133664 3.074267 34.944784 199 199 199 0
0.267322 3.074205 34.944078 198 198 198 0
0.400932 3.073808 34.939567 199 199 199 0
0.534587 3.073875 34.940327 199 199 199 0
0.668271 3.074048 34.942295 199 199 199 0
0.801928 3.074057 34.942394 199 199 199 0
0.935517 3.073840 34.939930 199 199 199 0
1.069169 3.073860 34.940148 199 199 199 0
1.202926 3.074145 34.943396 199 199 199 0
1.336562 3.074093 34.942804 199 199 199 0
1.470025 3.073689 34.938215 199 199 199 0
1.603673 3.073706 34.938402 199 199 199 0
1.737460 3.073967 34.941374 199 199 199 0
1.871103 3.073954 34.941228 199 199 199 0
2.004503 3.073571 34.936867 200 200 200 0
2.138252 3.073737 34.938751 200 200 200 0
2.272077 3.073987 34.941596 200 200 200 0
2.405752 3.074017 34.941939 199 199 199 0
2.539126 3.073679 34.938091 199 199 199 0
2.672803 3.073724 34.938607 200 200 200 0
2.806589 3.073883 34.940414 200 200 200 0
2.940230 3.073877 34.940344 200 200 200 0
3.073679 3.073679 34.938091 200 200 200 0
3.207331 3.073692 34.938247 200 200 200 0
3.341216 3.073919 34.940822 201 201 201 0
3.474792 3.073855 34.940093 200 200 200 0
3.608199 3.073651 34.937778 200 200 200 0
3.741821 3.073638 34.937634 200 200 200 0
3.875692 3.073825 34.939752 200 200 200 0
4.009195 3.073716 34.938515 200 200 200 0
4.142466 3.073443 34.935409 200 200 200 0
4.276343 3.073622 34.937443 200 200 200 0
4.410270 3.073825 34.939754 200 200 200 0
4.543861 3.073788 34.939337 200 200 200 0
4.677123 3.073538 34.936495 200 200 200 0
4.810871 3.073612 34.937336 200 200 200 0
4.944655 3.073704 34.938385 200 200 200 0
5.078192 3.073642 34.937681 200 200 200 0
5.211686 3.073558 34.936724 201 201 201 0
5.345493 3.073658 34.937860 200 200 200 0
5.479386 3.073802 34.939493 201 201 201 0
5.612718 3.073631 34.937554 201 201 201 0
5.746066 3.073477 34.935804 201 201 201 0
5.879789 3.073526 34.936356 201 201 201 0
6.013742 3.073690 34.938226 200 200 200 0
6.147170 3.073585 34.937029 200 200 200 0
6.280354 3.073365 34.934523 201 201 201 0
6.414523 3.073626 34.937489 201 201 201 0
6.548344 3.073713 34.938477 201 201 201 0
6.681765 3.073612 34.937331 200 200 200 0
6.815155 3.073501 34.936075 202 202 202 0
6.949103 3.073642 34.937670 201 201 201 0
7.082690 3.073620 34.937428 201 201 201 0
7.216131 3.073537 34.936483 201 201 201 0
7.349654 3.073491 34.935965 201 201 201 0
7.483487 3.073575 34.936916 201 201 201 0
7.617182 3.073600 34.937196 202 202 202 0
7.750653 3.073535 34.936459 201 201 201 0
7.884162 3.073487 34.935910 202 202 202 0
8.017900 3.073528 34.936383 201 201 201 0
8.151577 3.073546 34.936579 201 201 201 0
8.297787 3.078211 34.989612 201 201 201 0
8.418706 3.073496 34.936013 201 201 201 0
8.552420 3.073526 34.936357 201 201 201 0
8.686073 3.073533 34.936442 201 201 201 0
8.819357 3.073412 34.935065 201 201 201 0
8.953238 3.073500 34.936056 201 201 201 0
9.087124 3.073586 34.937038 202 202 202 0
9.220529 3.073510 34.936171 202 202 202 0
9.354058 3.073476 34.935791 201 201 201 0
9.487809 3.073516 34.936239 201 201 201 0
9.621573 3.073558 34.936721 201 201 201 0
9.754938 3.073474 34.935763 201 201 201 0
9.888282 3.073385 34.934755 201 201 201 0
10.022168 3.073465 34.935660 201 201 201 0
10.156006 3.073528 34.936382 201 201 201 0
10.289521 3.073493 34.935986 201 201 201 0
10.423040 3.073461 34.935614 201 201 201 0
10.557011 3.073560 34.936744 201 201 201 0
-10.710090 3.213027 35.000294 192 192 192 0
-10.576249 3.213038 35.000410 192 192 192 0
-10.442414 3.213051 35.000551 192 192 192 0
-10.308561 3.213058 35.000631 192 192 192 0
-10.170470 3.211727 34.986138 192 192 192 0
-10.036515 3.211685 34.985674 192 192 192 0
-9.899989 3.210807 34.976116 192 192 192 0
-9.765787 3.210670 34.974616 192 192 192 0
-9.632688 3.210896 34.977082 193 193 193 0
-9.498977 3.210922 34.977362 192 192 192 0
-9.363778 3.210438 34.972093 193 193 193 0
-9.229435 3.210238 34.969915 193 193 193 0
-9.096235 3.210436 34.972069 193 193 193 0
-8.963285 3.210729 34.975260 193 193 193 0
-8.829339 3.210669 34.974607 194 194 194 0
-8.693910 3.210059 34.967963 193 193 193 0
-8.559544 3.209829 34.965459 194 194 194 0
-8.426285 3.210013 34.967467 194 194 194 0
-8.293262 3.210295 34.970534 193 193 193 0
-8.158727 3.209991 34.967220 193 193 193 0
-8.023724 3.209490 34.961761 194 194 194 0
-7.890833 3.209830 34.965473 194 194 194 0
-7.757581 3.210034 34.967686 193 193 193 0
-7.623359 3.209835 34.965528 194 194 194 0
-7.488146 3.209205 34.958664 194 194 194 0
-7.354059 3.209044 34.956904 195 195 195 0
-7.221422 3.209521 34.962102 194 194 194 0
-7.087939 3.209633 34.963318 194 194 194 0
-6.952739 3.208956 34.955952 194 194 194 0
-6.819007 3.208944 34.955821 195 195 195 0
-6.686096 3.209326 34.959981 195 195 195 0
-6.552828 3.209548 34.962401 195 195 195 0
-6.418062 3.209031 34.956767 194 194 194 0
-6.283722 3.208709 34.953257 195 195 195 0
-6.150413 3.208911 34.955461 195 195 195 0
-6.017483 3.209324 34.959960 195 195 195 0
-5.883442 3.209150 34.958065 195 195 195 0
-5.749007 3.208748 34.953683 195 195 195 0
-5.615007 3.208575 34.951801 196 196 196 0
-5.481938 3.208939 34.955768 196 196 196 0
-5.348263 3.208958 34.955967 196 196 196 0
-5.213543 3.208334 34.949172 195 195 195 0
-5.079829 3.208313 34.948941 196 196 196 0
-4.946571 3.208586 34.951921 196 196 196 0
-4.813129 3.208752 34.953730 196 196 196 0
-4.678605 3.208186 34.947561 196 196 196 0
-4.544889 3.208157 34.947242 196 196 196 0
-4.411645 3.208469 34.950644 196 196 196 0
-4.278389 3.208792 34.954156 196 196 196 0
-4.144234 3.208439 34.950321 196 196 196 0
-4.010128 3.208103 34.946652 196 196 196 0
-3.876611 3.208229 34.948034 196 196 196 0
-3.743239 3.208491 34.950882 197 197 197 0
-3.609388 3.208344 34.949286 197 197 197 0
-3.475374 3.208038 34.945944 197 197 197 0
-3.341651 3.207985 34.945369 197 197 197 0
-3.208372 3.208372 34.949581 197 197 197 0
-3.074668 3.208350 34.949343 197 197 197 0
-2.940481 3.207798 34.943332 197 197 197 0
-2.806842 3.207819 34.943563 197 197 197 0
-2.673436 3.208124 34.946882 197 197 197 0
-2.539813 3.208185 34.947544 198 198 198 0
-2.405801 3.207734 34.942639 197 197 197 0
-2.272147 3.207737 34.942670 198 198 198 0
-2.138690 3.208036 34.945922 197 197 197 0
-2.005152 3.208243 34.948176 198 198 198 0
-1.871238 3.207836 34.943747 198 198 198 0
-1.737491 3.207676 34.942009 198 198 198 0
-1.603941 3.207881 34.944241 198 198 198 0
-1.470407 3.208160 34.947281 197 197 197 0
-1.336645 3.207947 34.944955 198 198 198 0
-1.202893 3.207716 34.942435 198 198 198 0
-1.069270 3.207811 34.943479 199 199 199 0
-0.935692 3.208088 34.946490 199 199 199 0
-0.801985 3.207940 34.944885 198 198 198 0
-0.668235 3.207529 34.940398 199 199 199 0
-0.534612 3.207675 34.941990 198 198 198 0
-0.400992 3.207935 34.944823 198 198 198 0
-0.267320 3.207844 34.943838 199 199 199 0
-0.133642 3.207404 34.939043 198 198 198 0
0.000000 3.207626 34.941462 199 199 199 0
0.133664 3.207927 34.944743 199 199 199 0
0.267321 3.207851 34.943909 199 199 199 0
0.400930 3.207444 34.939476 199 199 199 0
0.534593 3.207555 34.940689 199 199 199 0
0.668278 3.207734 34.942634 199 199 199 0
0.801923 3.207694 34.942198 198 198 198 0
0.935514 3.207477 34.939841 199 199 199 0
1.069156 3.207469 34.939753 199 199 199 0
1.202909 3.207757 34.942890 199 199 199 0
1.336544 3.207706 34.942326 199 199 199 0
1.470031 3.207341 34.938359 200 200 200 0
1.603671 3.207342 34.938371 199 199 199 0
1.737452 3.207605 34.941226 200 200 200 0
1.871079 3.207563 34.940776 200 200 200 0
2.004515 3.207225 34.937089 200 200 200 0
2.138235 3.207353 34.938484 199 199 199 0
2.272060 3.207614 34.941334 200 200 200 0
2.405744 3.207659 34.941817 200 200 200 0
2.539146 3.207342 34.938367 200 200 200 0
2.672804 3.207365 34.938615 200 200 200 0
2.806592 3.207534 34.940457 200 200 200 0
2.940213 3.207505 34.940141 200 200 200 0
3.073666 3.207304 34.937950 200 200 200 0
3.207345 3.207345 34.938399 200 200 200 0
3.341214 3.207566 34.940801 200 200 200 0
3.474779 3.207488 34.939960 200 200 200 0
3.608208 3.207296 34.937866 200 200 200 0
3.741805 3.207262 34.937492 200 200 200 0
3.875691 3.207468 34.939740 200 200 200 0
4.009219 3.207375 34.938731 200 200 200 0
4.142481 3.207082 34.935535 200 200 200 0
4.276340 3.207255 34.937417 200 200 200 0
4.410251 3.207455 34.939596 200 200 200 0
4.543877 3.207443 34.939465 200 200 200 0
4.677154 3.207191 34.936725 200 200 200 0
4.810845 3.207230 34.937147 201 201 201 0
4.944664 3.207350 34.938450 201 201 201 0
5.078262 3.207323 34.938160 201 201 201 0
5.211702 3.207201 34.936833 200 200 200 0
5.345494 3.207296 34.937868 201 201 201 0
5.479404 3.207456 34.939608 201 201 201 0
5.612765 3.207294 34.937845 201 201 201 0
5.746074 3.207111 34.935848 200 200 200 0
5.879787 3.207157 34.936348 201 201 201 0
6.013688 3.207300 34.937914 201 201 201 0
6.147135 3.207201 34.936829 201 201 201 0
6.280368 3.206996 34.934601 201 201 201 0
6.414504 3.207252 34.937383 200 200 200 0
6.548327 3.207344 34.938389 201 201 201 0
6.681823 3.207275 34.937635 201 201 201 0
6.815170 3.207139 34.936153 201 201 201 0
6.949071 3.207263 34.937509 201 201 201 0
7.082682 3.207252 34.937387 200 200 200 0
7.216122 3.207165 34.936439 201 201 201 0
7.349684 3.207135 34.936107 201 201 201 0
7.483447 3.207192 34.936728 202 202 202 0
7.617177 3.207232 34.937172 202 202 202 0
7.750680 3.207178 34.936579 201 201 201 0
7.884115 3.207098 34.935704 201 201 201 0
8.017860 3.207144 34.936210 201 201 201 0
8.151582 3.207180 34.936600 201 201 201 0
8.296763 3.211650 34.985298 201 201 201 0
8.418729 3.207135 34.936107 201 201 201 0
8.552417 3.207156 34.936343 201 201 201 0
8.686039 3.207153 34.936304 201 201 201 0
8.819358 3.207039 34.935069 201 201 201 0
8.953243 3.207132 34.936078 202 202 202 0
9.087122 3.207219 34.937031 201 201 201 0
9.220543 3.207145 34.936223 201 201 201 0
9.354090 3.207116 34.935909 201 201 201 0
9.487871 3.207168 34.936468 201 201 201 0
9.621576 3.207192 34.936731 201 201 201 0
9.754915 3.207095 34.935678 201 201 201 0
9.888345 3.207031 34.934977 201 201 201 0
10.022191 3.207101 34.935743 202 202 202 0
10.156026 3.207166 34.936449 201 201 201 0
10.289474 3.207109 34.935825 202 202 202 0
10.423109 3.207110 34.935843 202 202 202 0
10.557007 3.207192 34.936733 202 202 202 0
-10.710095 3.346905 35.000310 191 191 191 0
-10.576255 3.346916 35.000431 192 192 192 0
-10.442406 3.346925 35.000521 192 192 192 0
-10.304281 3.345546 34.986098 192 192 192 0
-10.170223 3.345468 34.985288 192 192 192 0
-10.036699 3.345566 34.986315 192 192 192 0
-9.900149 3.344645 34.976680 193 193 193 0
-9.765922 3.344494 34.975100 193 193 193 0
-9.632782 3.344716 34.977422 192 192 192 0
-9.498941 3.344698 34.977230 192 192 192 0
-9.363753 3.344198 34.972001 193 193 193 0
-9.229576 3.344049 34.970451 193 193 193 0
-9.095830 3.344055 34.970511 193 193 193 0
-8.963284 3.344509 34.975256 193 193 193 0
-8.829486 3.344502 34.975186 193 193 193 0
-8.694031 3.343858 34.968451 194 194 194 0
-8.559756 3.343655 34.966323 193 193 193 0
-8.426376 3.343800 34.967843 193 193 193 0
-8.293092 3.343989 34.969818 194 194 194 0
-8.158798 3.343770 34.967525 194 194 194 0
-8.023916 3.343298 34.962597 194 194 194 0
-7.890776 3.343549 34.965222 194 194 194 0
-7.757623 3.343803 34.967875 194 194 194 0
-7.623374 3.343585 34.965594 194 194 194 0
-7.488175 3.342935 34.958801 194 194 194 0
-7.354249 3.342840 34.957809 194 194 194 0
-7.221556 3.343313 34.962752 194 194 194 0
-7.087930 3.343363 34.963277 194 194 194 0
-6.952721 3.342654 34.955861 195 195 195 0
-6.819073 3.342683 34.956160 195 195 195 0
-6.686076 3.343038 34.959874 195 195 195 0
-6.552742 3.343236 34.961942 194 194 194 0
-6.418113 3.342767 34.957041 195 195 195 0
-6.283801 3.342447 34.953695 195 195 195 0
-6.150332 3.342572 34.954999 196 196 196 0
-6.017366 3.342981 34.959279 196 196 196 0
-5.883402 3.342842 34.957827 195 195 195 0
-5.749028 3.342458 34.953809 196 196 196 0
-5.615025 3.342277 34.951913 195 195 195 0
-5.481939 3.342646 34.955775 196 196 196 0
-5.348282 3.342676 34.956091 196 196 196 0
-5.213633 3.342072 34.949777 196 196 196 0
-5.079820 3.341987 34.948885 196 196 196 0
-4.946640 3.342324 34.952413 196 196 196 0
-4.813140 3.342458 34.953813 196 196 196 0
-4.678701 3.341929 34.948277 196 196 196 0
-4.544921 3.341853 34.947486 196 196 196 0
-4.411677 3.342180 34.950899 197 197 197 0
-4.278414 3.342511 34.954364 197 197 197 0
-4.144235 3.342125 34.950330 196 196 196 0
-4.010126 3.341771 34.946628 196 196 196 0
-3.876564 3.341865 34.947611 196 196 196 0
-3.743240 3.342179 34.950887 197 197 197 0
-3.609390 3.342028 34.949309 197 197 197 0
-3.475377 3.341708 34.945971 197 197 197 0
-3.341662 3.341662 34.945484 197 197 197 0
-3.208344 3.342025 34.949284 197 197 197 0
-3.074660 3.342022 34.949251 197 197 197 0
-2.940489 3.341464 34.943419 197 197 197 0
-2.806807 3.341437 34.943130 197 197 197 0
-2.673471 3.341839 34.947337 197 197 197 0
-2.539840 3.341895 34.947925 197 197 197 0
-2.405825 3.341424 34.942999 197 197 197 0
-2.272150 3.341398 34.942721 198 198 198 0
-2.138717 3.341746 34.946358 197 197 197 0
-2.005144 3.341907 34.948044 197 197 197 0
-1.871264 3.341543 34.944237 198 198 198 0
-1.737481 3.341310 34.941800 197 197 197 0
-1.603951 3.341565 34.944473 197 197 197 0
-1.470410 3.341840 34.947345 199 199 199 0
-1.336647 3.341617 34.945014 198 198 198 0
-1.202890 3.341362 34.942345 198 198 198 0
-1.069273 3.341477 34.943553 198 198 198 0
-0.935693 3.341760 34.946509 198 198 198 0
-0.801978 3.341575 34.944574 198 198 198 0
-0.668248 3.341239 34.941059 198 198 198 0
-0.534622 3.341390 34.942638 198 198 198 0
-0.400995 3.341628 34.945134 198 198 198 0
-0.267317 3.341467 34.943442 198 198 198 0
-0.133641 3.341015 34.938721 199 199 199 0
0.000000 3.341296 34.941657 198 198 198 0
0.133663 3.341587 34.944706 198 198 198 0
0.267323 3.341536 34.944163 199 199 199 0
0.400935 3.341122 34.939836 198 198 198 0
0.534598 3.341235 34.941017 198 198 198 0
0.668273 3.341365 34.942375 199 199 199 0
0.801926 3.341357 34.942293 199 199 199 0
0.935518 3.341134 34.939969 199 199 199 0
1.069148 3.341089 34.939492 199 199 199 0
1.202902 3.341393 34.942674 199 199 199 0
1.336550 3.341375 34.942482 200 200 200 0
1.470023 3.340961 34.938151 200 200 200 0
1.603672 3.340984 34.938392 199 199 199 0
1.737463 3.341276 34.941447 200 200 200 0
1.871090 3.341232 34.940990 200 200 200 0
2.004493 3.340821 34.936690 199 199 199 0
2.138258 3.341029 34.938861 200 200 200 0
2.272074 3.341285 34.941546 199 199 199 0
2.405757 3.341329 34.942003 200 200 200 0
2.539136 3.340968 34.938231 200 200 200 0
2.672803 3.341004 34.938600 200 200 200 0
2.806589 3.341177 34.940416 200 200 200 0
2.940196 3.341132 34.939944 200 200 200 0
3.073688 3.340965 34.938199 200 200 200 0
3.207364 3.341005 34.938610 200 200 200 0
3.341185 3.341185 34.940496 200 200 200 0
3.474778 3.341133 34.939952 200 200 200 0
3.608229 3.340952 34.938064 200 200 200 0
3.741851 3.340938 34.937919 200 200 200 0
3.875697 3.341118 34.939798 200 200 200 0
4.009252 3.341043 34.939011 200 200 200 0
4.142466 3.340699 34.935410 201 201 201 0
4.276341 3.340891 34.937424 200 200 200 0
4.410280 3.341121 34.939832 200 200 200 0
4.543884 3.341091 34.939515 200 200 200 0
4.677143 3.340816 34.936639 200 200 200 0
4.810910 3.340910 34.937617 201 201 201 0
4.944739 3.341040 34.938980 200 200 200 0
5.078235 3.340944 34.937977 200 200 200 0
5.211662 3.340809 34.936563 201 201 201 0
5.345521 3.340951 34.938045 200 200 200 0
5.479422 3.341111 34.939721 201 201 201 0
5.612758 3.340928 34.937805 200 200 200 0
5.746044 3.340723 34.935666 201 201 201 0
5.879765 3.340776 34.936215 200 200 200 0
6.013734 3.340963 34.938179 201 201 201 0
6.147142 3.340838 34.936870 201 201 201 0
6.280351 3.340612 34.934506 201 201 201 0
6.414543 3.340908 34.937599 201 201 201 0
6.548344 3.340992 34.938477 201 201 201 0
6.681768 3.340884 34.937350 201 201 201 0
6.815163 3.340766 34.936117 200 200 200 0
6.949123 3.340924 34.937772 201 201 201 0
7.082712 3.340902 34.937537 202 202 202 0
7.216117 3.340795 34.936417 201 201 201 0
7.349700 3.340773 34.936183 201 201 201 0
7.483508 3.340852 34.937014 201 201 201 0
7.617204 3.340879 34.937298 201 201 201 0
7.750697 3.340818 34.936654 201 201 201 0
7.884113 3.340726 34.935694 201 201 201 0
8.017949 3.340812 34.936595 201 201 201 0
8.151532 3.340792 34.936385 201 201 201 0
8.295647 3.345019 34.980591 201 201 201 0
8.418680 3.340746 34.935905 202 202 202 0
8.552478 3.340812 34.936593 201 201 201 0
8.686077 3.340799 34.936458 201 201 201 0
8.819445 3.340699 34.935412 201 201 201 0
8.953247 3.340764 34.936091 201 201 201 0
9.087062 3.340831 34.936800 201 201 201 0
9.220484 3.340755 34.936000 201 201 201 0
9.354103 3.340751 34.935958 201 201 201 0
9.487856 3.340795 34.936413 201 201 201 0
9.621522 3.340806 34.936537 201 201 201 0
9.754897 3.340718 34.935615 201 201 201 0
9.888269 3.340631 34.934707 202 202 202 0
10.022143 3.340714 34.935576 202 202 202 0
10.155988 3.340785 34.936318 201 201 201 0
10.289549 3.340763 34.936080 202 202 202 0
10.422983 3.340700 34.935423 201 201 201 0
10.557018 3.340828 34.936768 201 201 201 0
-10.710095 3.480781 35.000311 191 191 191 0
-10.576252 3.480792 35.000420 192 192 192 0
-10.442406 3.480802 35.000522 192 192 192 0
-10.304086 3.479302 34.985438 191 191 191 0
-10.170622 3.479423 34.986659 192 192 192 0
-10.036493 3.479317 34.985595 192 192 192 0
-9.900149 3.478431 34.976680 192 192 192 0
-9.765620 3.478166 34.974016 193 193 193 0
-9.632802 3.478512 34.977495 192 192 192 0
-9.498898 3.478470 34.977072 193 193 193 0
-9.363487 3.477867 34.971008 192 192 192 0
-9.229541 3.477798 34.970318 193 193 193 0
-9.096130 3.477932 34.971666 193 193 193 0
-8.963492 3.478370 34.976069 194 194 194 0
-8.829149 3.478150 34.973853 193 193 193 0
-8.693926 3.477570 34.968028 193 193 193 0
-8.559725 3.477388 34.966196 194 194 194 0
-8.426329 3.477533 34.967650 194 194 194 0
-8.293114 3.477757 34.969909 194 194 194 0
-8.159090 3.477645 34.968778 194 194 194 0
-8.023965 3.477052 34.962811 193 193 193 0
-7.890665 3.477242 34.964730 194 194 194 0
-7.757454 3.477480 34.967115 194 194 194 0
-7.623209 3.477253 34.964838 194 194 194 0
-7.488176 3.476653 34.958805 194 194 194 0
-7.354133 3.476499 34.957256 194 194 194 0
-7.221455 3.476997 34.962263 194 194 194 0
-7.087961 3.477113 34.963430 194 194 194 0
-6.952792 3.476396 34.956220 194 194 194 0
-6.819058 3.476382 34.956082 195 195 195 0
-6.685954 3.476696 34.959237 195 195 195 0
-6.552775 3.476982 34.962116 194 194 194 0
-6.418232 3.476542 34.957688 195 195 195 0
-6.283713 3.476097 34.953208 195 195 195 0
-6.150290 3.476251 34.954760 195 195 195 0
-6.017226 3.476620 34.958467 195 195 195 0
-5.883427 3.476570 34.957973 195 195 195 0
-5.748950 3.476109 34.953335 195 195 195 0
-5.615020 3.475965 34.951886 196 196 196 0
-5.481940 3.476352 34.955776 195 195 195 0
-5.348337 3.476419 34.956448 195 195 195 0
-5.213581 3.475721 34.949430 196 196 196 0
-5.079797 3.475651 34.948727 196 196 196 0
-4.946576 3.475972 34.951956 196 196 196 0
-4.813162 3.476172 34.953970 196 196 196 0
-4.678713 3.475615 34.948370 196 196 196 0
-4.544941 3.475543 34.947642 197 197 197 0
-4.411683 3.475872 34.950948 197 197 197 0
-4.278411 3.476209 34.954335 197 197 197 0
-4.144236 3.475810 34.950332 196 196 196 0
-4.010128 3.475444 34.946646 196 196 196 0
-3.876601 3.475573 34.947948 197 197 197 0
-3.743247 3.475872 34.950954 197 197 197 0
-3.609362 3.475682 34.949039 196 196 196 0
-3.475424 3.475424 34.946450 196 196 196 0
-3.341681 3.475348 34.945681 197 197 197 0
-3.208363 3.475726 34.949483 196 196 196 0
-3.074691 3.475738 34.949603 197 197 197 0
-2.940517 3.475157 34.943759 197 197 197 0
-2.806820 3.475110 34.943287 198 198 198 0
-2.673449 3.475484 34.947052 197 197 197 0
-2.539839 3.475569 34.947906 197 197 197 0
-2.405813 3.475063 34.942819 197 197 197 0
-2.272151 3.475055 34.942731 197 197 197 0
-2.138724 3.475426 34.946463 198 198 198 0
-2.005144 3.475584 34.948050 198 198 198 0
-1.871259 3.475196 34.944153 198 198 198 0
-1.737506 3.475013 34.942312 198 198 198 0
-1.603952 3.475229 34.944488 198 198 198 0
-1.470415 3.475526 34.947474 198 198 198 0
-1.336653 3.475297 34.945170 198 198 198 0
-1.202902 3.475051 34.942695 199 199 199 0
-1.069274 3.475140 34.943586 198 198 198 0
-0.935695 3.475438 34.946587 198 198 198 0
-0.801990 3.475288 34.945080 198 198 198 0
-0.668240 3.474851 34.940679 198 198 198 0
-0.534615 3.474995 34.942136 198 198 198 0
-0.400995 3.475290 34.945099 198 198 198 0
-0.267321 3.475167 34.943862 199 199 199 0
-0.133642 3.474686 34.939027 198 198 198 0
0.000000 3.474926 34.941436 198 198 198 0
0.133663 3.475249 34.944689 199 199 199 0
0.267321 3.475179 34.943978 199 199 199 0
0.400934 3.474758 34.939748 199 199 199 0
0.534593 3.474856 34.940734 198 198 198 0
0.668273 3.475021 34.942389 198 198 198 0
0.801931 3.475034 34.942519 198 198 198 0
0.935510 3.474752 34.939693 199 199 199 0
1.069150 3.474739 34.939559 199 199 199 0
1.202907 3.475066 34.942842 199 199 199 0
1.336541 3.475005 34.942235 199 199 199 0
1.470025 3.474604 34.938196 199 199 199 0
1.603659 3.474594 34.938097 199 199 199 0
1.737467 3.474933 34.941510 199 199 199 0
1.871082 3.474866 34.940839 199 199 199 0
2.004494 3.474457 34.936718 199 199 199 0
2.138252 3.474660 34.938766 200 200 200 0
2.272079 3.474945 34.941625 199 199 199 0
2.405736 3.474952 34.941697 199 199 199 0
2.539124 3.474591 34.938072 200 200 200 0
2.672762 3.474590 34.938062 200 200 200 0
2.806566 3.474796 34.940135 200 200 200 0
2.940216 3.474801 34.940177 200 200 200 0
3.073702 3.474620 34.938361 199 199 199 0
3.207370 3.474651 34.938674 199 199 199 0
3.341208 3.474856 34.940737 200 200 200 0
3.474813 3.474813 34.940298 200 200 200 0
3.608231 3.474593 34.938088 200 200 200 0
3.741863 3.474587 34.938029 200 200 200 0
3.875710 3.474774 34.939910 200 200 200 0
4.009237 3.474672 34.938888 201 201 201 0
4.142449 3.474312 34.935265 201 201 201 0
4.276342 3.474528 34.937431 201 201 201 0
4.410264 3.474753 34.939702 200 200 200 0
4.543872 3.474726 34.939426 200 200 200 0
4.677175 3.474473 34.936882 201 201 201 0
4.810852 3.474504 34.937195 201 201 201 0
4.944689 3.474646 34.938627 200 200 200 0
5.078224 3.474574 34.937900 200 200 200 0
5.211759 3.474506 34.937217 200 200 200 0
5.345508 3.474580 34.937961 200 200 200 0
5.479420 3.474754 34.939712 201 201 201 0
5.612775 3.474575 34.937909 201 201 201 0
5.746049 3.474355 34.935701 201 201 201 0
5.879800 3.474427 34.936422 201 201 201 0
6.013699 3.474582 34.937975 201 201 201 0
6.147145 3.474473 34.936883 200 200 200 0
6.280372 3.474249 34.934626 200 200 200 0
6.414539 3.474542 34.937576 201 201 201 0
6.548328 3.474623 34.938392 201 201 201 0
6.681795 3.474533 34.937490 201 201 201 0
6.815196 3.474414 34.936287 201 201 201 0
6.949083 3.474541 34.937571 201 201 201 0
7.082737 3.474550 34.937659 201 201 201 0
7.216166 3.474450 34.936653 201 201 201 0
7.349640 3.474375 34.935899 202 202 202 0
7.483521 3.474492 34.937072 201 201 201 0
7.617300 3.474558 34.937735 200 200 200 0
7.750687 3.474446 34.936609 200 200 200 0
7.884227 3.474405 34.936202 201 201 201 0
8.017873 3.474411 34.936264 201 201 201 0
8.151584 3.474446 34.936609 201 201 201 0
8.293921 3.478096 34.973314 201 201 201 0
8.418806 3.474428 34.936430 201 201 201 0
8.552521 3.474462 34.936768 201 201 201 0
8.686082 3.474433 34.936479 201 201 201 0
8.819354 3.474291 34.935052 201 201 201 0
8.953251 3.474396 34.936107 201 201 201 0
9.087028 3.474452 34.936669 201 201 201 0
9.220466 3.474378 34.935933 200 200 200 0
9.353908 3.474309 34.935230 201 201 201 0
9.487796 3.474404 34.936192 201 201 201 0
9.621556 3.474451 34.936658 202 202 202 0
9.754889 3.474344 34.935586 201 201 201 0
9.888312 3.474272 34.934860 201 201 201 0
10.022174 3.474354 34.935684 201 201 201 0
10.155939 3.474400 34.936150 201 201 201 0
10.289497 3.474376 34.935904 201 201 201 0
10.423022 3.474341 34.935554 201 201 201 0
10.556960 3.474442 34.936576 201 201 201 0
-10.710089 3.614655 35.000289 192 192 192 0
-10.576231 3.614661 35.000351 192 192 192 0
-10.442394 3.614675 35.000483 191 191 191 0
-10.304409 3.613234 34.986536 192 192 192 0
-10.170426 3.613178 34.985987 192 192 192 0
-10.036994 3.613318 34.987342 192 192 192 0
-9.900213 3.612240 34.976906 191 191 191 0
-9.765639 3.611948 34.974084 193 193 193 0
-9.632522 3.612196 34.976480 193 193 193 0
-9.498738 3.612196 34.976481 193 193 193 0
-9.363736 3.611727 34.971935 193 193 193 0
-9.229511 3.611548 34.970205 193 193 193 0
-9.096210 3.611730 34.971973 193 193 193 0
-8.963278 3.612067 34.975234 193 193 193 0
-8.829243 3.611963 34.974224 193 193 193 0
-8.693949 3.611333 34.968121 194 194 194 0
-8.560017 3.611257 34.967391 193 193 193 0
-8.426263 3.611256 34.967376 194 194 194 0
-8.293204 3.611557 34.970290 194 194 194 0
-8.158689 3.611223 34.967060 193 193 193 0
-8.024022 3.610810 34.963057 194 194 194 0
-7.890637 3.610969 34.964604 193 193 193 0
-7.757600 3.611296 34.967770 194 194 194 0
-7.623508 3.611136 34.966212 194 194 194 0
-7.488294 3.610428 34.959357 194 194 194 0
-7.354088 3.610188 34.957041 194 194 194 0
-7.221576 3.610788 34.962849 195 195 195 0
-7.087947 3.610841 34.963361 195 195 195 0
-6.952713 3.610063 34.955824 195 195 195 0
-6.819052 3.610087 34.956054 195 195 195 0
-6.686049 3.610466 34.959733 194 194 194 0
-6.552694 3.610668 34.961684 194 194 194 0
-6.418100 3.610181 34.956970 194 194 194 0
-6.283746 3.609811 34.953389 195 195 195 0
-6.150266 3.609938 34.954621 195 195 195 0
-6.017334 3.610400 34.959092 195 195 195 0
-5.883443 3.610295 34.958070 195 195 195 0
-5.748920 3.609787 34.953155 195 195 195 0
-5.615007 3.609648 34.951804 196 196 196 0
-5.482007 3.610102 34.956207 195 195 195 0
-5.348400 3.610170 34.956860 195 195 195 0
-5.213546 3.609378 34.949193 195 195 195 0
-5.079743 3.609291 34.948353 196 196 196 0
-4.946569 3.609658 34.951910 196 196 196 0
-4.813145 3.609859 34.953850 196 196 196 0
-4.678700 3.609283 34.948269 195 195 195 0
-4.544941 3.609218 34.947641 197 197 197 0
-4.411676 3.609553 34.950893 197 197 197 0
-4.278431 3.609926 34.954503 196 196 196 0
-4.144143 3.609415 34.949553 197 197 197 0
-4.010125 3.609113 34.946626 197 197 197 0
-3.876642 3.609287 34.948317 196 196 196 0
-3.743211 3.609525 34.950617 196 196 196 0
-3.609388 3.609388 34.949289 197 197 197 0
-3.475375 3.609043 34.945948 197 197 197 0
-3.341715 3.609052 34.946035 197 197 197 0
-3.208320 3.609360 34.949022 197 197 197 0
-3.074717 3.609451 34.949896 197 197 197 0
-2.940511 3.608809 34.943681 197 197 197 0
-2.806848 3.608804 34.943638 197 197 197 0
-2.673448 3.609155 34.947037 197 197 197 0
-2.539832 3.609234 34.947803 197 197 197 0
-2.405811 3.608717 34.942793 197 197 197 0
-2.272164 3.608731 34.942929 198 198 198 0
-2.138697 3.609052 34.946034 197 197 197 0
-2.005142 3.609256 34.948015 198 198 198 0
-1.871268 3.608875 34.944319 197 197 197 0
-1.737498 3.608649 34.942139 198 198 198 0
-1.603955 3.608899 34.944560 198 198 198 0
-1.470408 3.609183 34.947305 198 198 198 0
-1.336652 3.608960 34.945143 198 198 198 0
-1.202887 3.608662 34.942264 198 198 198 0
-1.069275 3.608802 34.943613 198 198 198 0
-0.935693 3.609103 34.946531 198 198 198 0
-0.801989 3.608949 34.945043 198 198 198 0
-0.668233 3.608460 34.940303 198 198 198 0
-0.534616 3.608656 34.942205 198 198 198 0
-0.400996 3.608961 34.945154 198 198 198 0
-0.267320 3.608825 34.943841 199 199 199 0
-0.133643 3.608356 34.939301 198 198 198 0
0.000000 3.608604 34.941702 199 199 199 0
0.133664 3.608919 34.944753 199 199 199 0
0.267318 3.608798 34.943578 199 199 199 0
0.400936 3.608424 34.939960 199 199 199 0
0.534593 3.608502 34.940711 199 199 199 0
0.668275 3.608684 34.942477 199 199 199 0
0.801938 3.608721 34.942835 199 199 199 0
0.935511 3.608399 34.939713 200 200 200 0
1.069171 3.608452 34.940230 199 199 199 0
1.202910 3.608731 34.942933 199 199 199 0
1.336552 3.608690 34.942535 199 199 199 0
1.470047 3.608298 34.938738 199 199 199 0
1.603667 3.608250 34.938276 200 200 200 0
1.737465 3.608582 34.941482 199 199 199 0
1.871082 3.608516 34.940848 199 199 199 0
2.004489 3.608081 34.936634 199 199 199 0
2.138236 3.608273 34.938499 199 199 199 0
2.272096 3.608623 34.941883 200 200 200 0
2.405732 3.608598 34.941642 199 199 199 0
2.539139 3.608250 34.938274 200 200 200 0
2.672784 3.608258 34.938351 200 200 200 0
2.806590 3.608473 34.940435 199 199 199 0
2.940224 3.608457 34.940277 200 200 200 0
3.073674 3.608225 34.938034 200 200 200 0
3.207369 3.608290 34.938659 200 200 200 0
3.341227 3.608525 34.940939 200 200 200 0
3.474792 3.608438 34.940092 200 200 200 0
3.608234 3.608234 34.938113 200 200 200 0
3.741883 3.608244 34.938214 200 200 200 0
3.875703 3.608413 34.939848 199 199 199 0
4.009208 3.608287 34.938628 201 201 201 0
4.142416 3.607911 34.934990 201 201 201 0
4.276344 3.608165 34.937451 200 200 200 0
4.410273 3.608405 34.939774 201 201 201 0
4.543866 3.608364 34.939378 201 201 201 0
4.677144 3.608082 34.936649 200 200 200 0
4.810851 3.608138 34.937189 200 200 200 0
4.944684 3.608283 34.938591 200 200 200 0
5.078248 3.608229 34.938070 200 200 200 0
5.211707 3.608105 34.936867 201 201 201 0
5.345500 3.608213 34.937911 201 201 201 0
5.479379 3.608372 34.939451 201 201 201 0
5.612780 3.608216 34.937941 201 201 201 0
5.746104 3.608019 34.936034 200 200 200 0
5.879764 3.608037 34.936210 201 201 201 0
6.013706 3.608223 34.938013 200 200 200 0
6.147146 3.608107 34.936889 201 201 201 0
6.280364 3.607869 34.934580 201 201 201 0
6.414509 3.608161 34.937412 201 201 201 0
6.548356 3.608278 34.938542 201 201 201 0
6.681802 3.608173 34.937526 201 201 201 0
6.815153 3.608022 34.936065 201 201 201 0
