ply
    format ascii 1.0
    element vertex 25597
    property float x
    property float y
    property float z
    property uchar red
    property uchar green
    property uchar blue
    property uchar alpha
    end_header
6.198657 2.099545 26.138126 212 212 212 0
6.286963 2.095654 26.089691 212 212 212 0
6.377280 2.092545 26.050979 213 213 213 0
6.487298 2.095896 26.092701 212 212 212 0
6.598439 2.099503 26.137606 212 212 212 0
6.683409 2.094800 26.079052 212 212 212 0
6.772886 2.091627 26.039546 213 213 213 0
6.871056 2.091191 26.034123 212 212 212 0
6.973996 2.092199 26.046672 212 212 212 0
7.081150 2.094425 26.074383 213 213 213 0
7.183089 2.095068 26.082387 213 213 213 0
7.273001 2.092233 26.047099 212 212 212 0
7.375814 2.093136 26.058342 212 212 212 0
7.482992 2.095238 26.084504 213 213 213 0
7.582410 2.095140 26.083282 213 213 213 0
7.688302 2.096810 26.104071 212 212 212 0
7.797793 2.099406 26.136394 213 213 213 0
7.891097 2.097633 26.114328 213 213 213 0
-7.136676 1.962586 23.322470 204 204 204 0
-7.050224 1.963354 23.331594 204 204 204 0
-6.959155 1.962839 23.325473 204 204 204 0
-6.867936 1.962267 23.318684 204 204 204 0
-6.836094 1.978869 23.515976 205 205 205 0
-6.820489 2.000677 23.775124 204 204 204 0
-6.744505 2.005123 23.827962 204 204 204 0
-6.670371 2.010249 23.888875 205 205 205 0
-6.586949 2.012679 23.917753 204 204 204 0
-6.495805 2.012785 23.919009 205 205 205 0
-6.419494 2.017555 23.975700 205 205 205 0
-6.405255 2.042255 24.269225 205 205 205 0
-6.342373 2.051944 24.384362 205 205 205 0
-6.228862 2.045298 24.305382 205 205 205 0
-6.112443 2.037481 24.212488 205 205 205 0
-6.086226 2.059953 24.479540 205 205 205 0
-6.049291 2.079444 24.711156 205 205 205 0
-5.954881 2.079482 24.711612 205 205 205 0
-5.814299 2.063138 24.517392 205 205 205 0
-5.693573 2.053420 24.401897 206 206 206 0
-5.620331 2.060788 24.489459 206 206 206 0
-5.612613 2.092839 24.870334 205 205 205 0
-5.510880 2.090334 24.840566 206 206 206 0
-5.384978 2.078413 24.698902 206 206 206 0
-5.251658 2.063151 24.517545 206 206 206 0
-5.155493 2.062197 24.506207 206 206 206 0
-5.138594 2.093501 24.878210 205 205 205 0
-5.080777 2.109002 25.062409 206 206 206 0
-4.955652 2.096622 24.915295 206 206 206 0
-4.836274 2.086236 24.791868 206 206 206 0
-4.737449 2.084478 24.770977 206 206 206 0
-4.676897 2.099831 24.953433 206 206 206 0
-4.606110 2.111134 25.087744 206 206 206 0
-4.512205 2.112096 25.099179 207 207 207 0
-4.403594 2.106067 25.027530 206 206 206 0
-4.307414 2.105847 25.024917 207 207 207 0
-4.229754 2.114877 25.132228 207 207 207 0
-4.166354 2.131623 25.331232 207 207 207 0
-4.066163 2.129895 25.310694 207 207 207 0
-3.958670 2.124164 25.242596 207 207 207 0
-3.855047 2.120276 25.196386 208 208 208 0
-3.762697 2.122547 25.223379 208 208 208 0
-3.681157 2.131196 25.326161 207 207 207 0
-3.605279 2.143680 25.474506 207 207 207 0
-3.477879 2.125371 25.256929 207 207 207 0
-3.373095 2.120231 25.195854 207 207 207 0
-3.277122 2.120491 25.198937 208 208 208 0
-3.189450 2.126300 25.267970 208 208 208 0
-3.103871 2.133912 25.358426 207 207 207 0
-3.010091 2.136193 25.385542 207 207 207 0
-2.906957 2.131769 25.332961 208 208 208 0
-2.820212 2.139472 25.424498 208 208 208 0
-2.722923 2.139439 25.424117 208 208 208 0
-2.627343 2.140798 25.440265 208 208 208 0
-2.528876 2.139818 25.428619 208 208 208 0
-2.437110 2.144657 25.486116 208 208 208 0
-2.342968 2.147720 25.522524 208 208 208 0
-2.247125 2.149424 25.542772 208 208 208 0
-2.150348 2.150348 25.553755 209 209 209 0
-2.058607 2.156636 25.628471 209 209 209 0
-1.966852 2.163537 25.710486 209 209 209 0
-1.864391 2.158769 25.653817 208 208 208 0
-1.760429 2.151635 25.569043 208 208 208 0
-1.663206 2.152384 25.577946 208 208 208 0
-1.570894 2.159980 25.668206 209 209 209 0
-1.473283 2.160815 25.678137 208 208 208 0
-1.372554 2.156870 25.631252 208 208 208 0
-1.271132 2.151146 25.563232 209 209 209 0
-1.170671 2.146230 25.504813 209 209 209 0
-1.078457 2.156913 25.631767 209 209 209 0
-0.983835 2.164437 25.721175 209 209 209 0
-0.885187 2.163790 25.713489 210 210 210 0
-0.785490 2.160097 25.669597 209 209 209 0
-0.686309 2.156971 25.632456 210 210 210 0
-0.589508 2.161529 25.686614 209 209 209 0
-0.492408 2.166594 25.746815 209 209 209 0
-0.394560 2.170080 25.788237 209 209 209 0
-0.295238 2.165078 25.728788 210 210 210 0
-0.196715 2.163868 25.714413 209 209 209 0
-0.098659 2.170507 25.793314 210 210 210 0
0.000000 2.181504 25.923990 209 209 209 0
0.099135 2.180966 25.917595 209 209 209 0
0.197231 2.169544 25.781866 210 210 210 0
0.295187 2.164706 25.724373 209 209 209 0
0.394483 2.169657 25.783209 210 210 210 0
0.495697 2.181065 25.918780 209 209 209 0
0.593700 2.176898 25.869263 210 210 210 0
0.690266 2.169406 25.780229 210 210 210 0
0.787055 2.164401 25.720750 210 210 210 0
0.885673 2.164979 25.727621 210 210 210 0
0.989433 2.176752 25.867519 210 210 210 0
1.089408 2.178816 25.892051 210 210 210 0
1.185105 2.172693 25.819285 210 210 210 0
1.283445 2.171984 25.810860 210 210 210 0
1.383200 2.173600 25.830065 210 210 210 0
1.484899 2.177852 25.880593 210 210 210 0
1.583901 2.177864 25.880737 210 210 210 0
1.681690 2.176304 25.862200 211 211 211 0
1.779334 2.174742 25.843631 210 210 210 0
1.882252 2.179450 25.899583 210 210 210 0
1.985372 2.183909 25.952570 210 210 210 0
2.087709 2.187124 25.990775 210 210 210 0
2.187097 2.187097 25.990453 211 211 211 0
2.284118 2.184808 25.963258 210 210 210 0
2.380621 2.182236 25.932692 211 211 211 0
2.483047 2.185081 25.966503 212 212 212 0
2.587078 2.189066 26.013857 211 211 211 0
2.679370 2.183190 25.944034 211 211 211 0
2.774405 2.179890 25.904808 211 211 211 0
2.874436 2.180606 25.913327 211 211 211 0
2.971648 2.179208 25.896712 212 212 212 0
3.075188 2.182392 25.934541 211 211 211 0
3.177531 2.184552 25.960219 211 211 211 0
3.275064 2.183376 25.946240 211 211 211 0
3.372360 2.182116 25.931260 211 211 211 0
3.472210 2.182532 25.936212 211 211 211 0
3.571521 2.182596 25.936971 212 212 212 0
3.678514 2.187224 25.991970 211 211 211 0
3.782654 2.189957 26.024449 211 211 211 0
3.880146 2.188800 26.010698 212 212 212 0
3.979689 2.188829 26.011037 212 212 212 0
4.089405 2.194315 26.076229 212 212 212 0
4.198652 2.199294 26.135400 212 212 212 0
4.284673 2.192158 26.050601 212 212 212 0
4.374913 2.187456 25.994729 212 212 212 0
4.477270 2.188888 26.011736 211 211 211 0
4.596868 2.198502 26.125992 212 212 212 0
4.686978 2.193904 26.071354 212 212 212 0
4.776973 2.189446 26.018370 212 212 212 0
4.867154 2.185253 25.968542 211 211 211 0
4.967489 2.185695 25.973798 212 212 212 0
5.078425 2.190693 26.033192 212 212 212 0
5.182264 2.192496 26.054623 212 212 212 0
5.271686 2.188247 26.004125 212 212 212 0
5.368916 2.187336 25.993298 212 212 212 0
5.470697 2.188279 26.004502 213 213 213 0
5.577850 2.191298 26.040383 212 212 212 0
5.680628 2.192523 26.054938 212 212 212 0
5.779896 2.192374 26.053169 212 212 212 0
5.879556 2.192377 26.053202 212 212 212 0
5.988020 2.195607 26.091592 212 212 212 0
6.101136 2.200410 26.148660 212 212 212 0
6.198998 2.199644 26.139564 212 212 212 0
6.289168 2.196217 26.098838 212 212 212 0
6.379693 2.193019 26.060838 212 212 212 0
6.488894 2.196241 26.099121 212 212 212 0
6.598135 2.199378 26.136405 213 213 213 0
6.684172 2.194803 26.082030 212 212 212 0
6.773723 2.191498 26.042763 212 212 212 0
6.870177 2.190491 26.030794 212 212 212 0
6.974040 2.191841 26.046835 213 213 213 0
7.081249 2.194190 26.074744 212 212 212 0
7.181467 2.194337 26.076494 212 212 212 0
7.272663 2.191761 26.045887 212 212 212 0
7.377352 2.193267 26.063777 213 213 213 0
7.483605 2.195191 26.086639 212 212 212 0
7.582624 2.194970 26.084018 213 213 213 0
7.692208 2.197774 26.117336 213 213 213 0
7.801405 2.200396 26.148502 213 213 213 0
7.891230 2.197558 26.114768 212 212 212 0
-7.126126 2.048761 23.287992 204 204 204 0
-7.049576 2.052408 23.329450 204 204 204 0
-6.962338 2.052997 23.336141 204 204 204 0
-6.872088 2.052702 23.332785 204 204 204 0
-6.844144 2.071254 23.543667 205 205 205 0
-6.808209 2.087851 23.732320 204 204 204 0
-6.752636 2.098792 23.856690 204 204 204 0
-6.674385 2.102888 23.903250 205 205 205 0
-6.585883 2.103824 23.913883 205 205 205 0
-6.494890 2.103978 23.915639 205 205 205 0
-6.431992 2.113369 24.022381 204 204 204 0
-6.410627 2.136876 24.289579 205 205 205 0
-6.354530 2.149326 24.431105 205 205 205 0
-6.224859 2.136892 24.289762 205 205 205 0
-6.107171 2.128257 24.191608 205 205 205 0
-6.088552 2.154411 24.488896 205 205 205 0
-6.060932 2.178147 24.758709 205 205 205 0
-5.960454 2.176039 24.734740 206 206 206 0
-5.819012 2.158666 24.537264 205 205 205 0
-5.697316 2.148168 24.417939 206 206 206 0
-5.623786 2.155784 24.504512 206 206 206 0
-5.616153 2.189348 24.886024 206 206 206 0
-5.509001 2.184604 24.832097 206 206 206 0
-5.381340 2.171418 24.682214 206 206 206 0
-5.252050 2.157092 24.519376 206 206 206 0
-5.156328 2.156283 24.510176 206 206 206 0
-5.136476 2.187758 24.867954 206 206 206 0
-5.083263 2.205944 25.074672 206 206 206 0
-4.956566 2.192327 24.919889 206 206 206 0
-4.840670 2.183047 24.814407 206 206 206 0
-4.739961 2.180382 24.784109 206 206 206 0
-4.669985 2.192034 24.916555 206 206 206 0
-4.598544 2.203469 25.046538 207 207 207 0
-4.512079 2.208039 25.098480 207 207 207 0
-4.404600 2.202300 25.033247 206 206 206 0
-4.310281 2.203033 25.041577 206 206 206 0
-4.227642 2.209904 25.119679 207 207 207 0
-4.165123 2.227857 25.323746 207 207 207 0
-4.066500 2.226893 25.312794 207 207 207 0
-3.958305 2.220513 25.240267 207 207 207 0
-3.852249 2.215043 25.178100 207 207 207 0
-3.763221 2.219336 25.226890 208 208 208 0
-3.683011 2.229191 25.338912 207 207 207 0
-3.601307 2.238650 25.446438 207 207 207 0
-3.482305 2.224806 25.289072 207 207 207 0
-3.373378 2.216791 25.197969 207 207 207 0
-3.278491 2.217803 25.209469 208 208 208 0
-3.187240 2.221409 25.250463 208 208 208 0
-3.104065 2.231047 25.360011 207 207 207 0
-3.009889 2.233143 25.383838 208 208 208 0
-2.907594 2.229155 25.338509 208 208 208 0
-2.820007 2.236557 25.422645 208 208 208 0
-2.724221 2.237753 25.436234 208 208 208 0
-2.628591 2.239170 25.452346 208 208 208 0
-2.528674 2.236904 25.426591 208 208 208 0
-2.438009 2.242968 25.495519 208 208 208 0
-2.341720 2.244148 25.508933 208 208 208 0
-2.245058 2.245058 25.519272 208 208 208 0
-2.150314 2.248056 25.553349 208 208 208 0
-2.057478 2.253428 25.614419 209 209 209 0
-1.967038 2.262093 25.712912 209 209 209 0
-1.863898 2.256298 25.647033 208 208 208 0
-1.759863 2.248713 25.560823 208 208 208 0
-1.661493 2.247902 25.551602 208 208 208 0
-1.570398 2.257447 25.660093 209 209 209 0
-1.473157 2.258840 25.675934 208 208 208 0
-1.372337 2.254553 25.627202 208 208 208 0
-1.270872 2.248466 25.558014 209 209 209 0
-1.170637 2.243720 25.504068 209 209 209 0
-1.078134 2.254280 25.624099 209 209 209 0
-0.984456 2.264249 25.737414 209 209 209 0
-0.884476 2.260326 25.692826 209 209 209 0
-0.785015 2.256918 25.654079 209 209 209 0
-0.686252 2.254827 25.630311 210 210 210 0
-0.589520 2.259825 25.687127 209 209 209 0
-0.492087 2.263601 25.730047 210 210 210 0
-0.394562 2.268730 25.788352 210 210 210 0
-0.295244 2.263534 25.729282 209 209 209 0
-0.196717 2.262249 25.714685 210 210 210 0
-0.098680 2.269633 25.798615 210 210 210 0
0.000000 2.280868 25.926315 210 210 210 0
0.099103 2.279365 25.909233 210 210 210 0
0.197214 2.267962 25.779621 209 209 209 0
0.295419 2.264875 25.744535 210 210 210 0
0.394613 2.269026 25.791712 210 210 210 0
0.495710 2.280266 25.919482 210 210 210 0
0.593535 2.275216 25.862074 210 210 210 0
0.690025 2.267226 25.771254 210 210 210 0
0.786857 2.262213 25.714267 210 210 210 0
0.885616 2.263240 25.725946 210 210 210 0
0.989382 2.275579 25.866205 210 210 210 0
1.089374 2.277783 25.891253 210 210 210 0
1.185299 2.271823 25.823512 210 210 210 0
1.282722 2.269431 25.796318 210 210 210 0
1.383217 2.272427 25.830377 210 210 210 0
1.484287 2.275907 25.869930 210 210 210 0
1.583481 2.276254 25.873874 211 211 211 0
1.681891 2.275500 25.865298 211 211 211 0
1.778778 2.272883 25.835554 210 210 210 0
1.882567 2.278896 25.903909 210 210 210 0
1.985307 2.283103 25.951721 211 211 211 0
2.088073 2.286937 25.995306 211 211 211 0
2.186220 2.285593 25.980033 210 210 210 0
2.283920 2.283920 25.961010 211 211 211 0
2.380603 2.281411 25.932495 211 211 211 0
2.483165 2.284512 25.967742 212 212 212 0
2.587433 2.288883 26.017428 211 211 211 0
2.678784 2.281927 25.938362 211 211 211 0
2.774681 2.279202 25.907382 211 211 211 0
2.873527 2.279004 25.905136 211 211 211 0
2.972645 2.279028 25.905407 211 211 211 0
3.075492 2.281817 25.937103 211 211 211 0
3.178176 2.284314 25.965491 211 211 211 0
3.274748 2.282400 25.943732 211 211 211 0
3.373033 2.281757 25.936430 211 211 211 0
3.472656 2.282031 25.939541 211 211 211 0
3.573054 2.282785 25.948108 211 211 211 0
3.679176 2.287055 25.996649 211 211 211 0
3.780580 2.288246 26.010179 211 211 211 0
3.879906 2.288150 26.009091 212 212 212 0
3.978984 2.287916 26.006432 211 211 211 0
4.092042 2.295536 26.093044 211 211 211 0
4.197694 2.298737 26.129437 212 212 212 0
4.283936 2.291408 26.046125 212 212 212 0
4.373497 2.286146 25.986315 212 212 212 0
4.476432 2.287954 26.006869 211 211 211 0
4.594357 2.297179 26.111721 211 211 211 0
4.685974 2.293136 26.065770 212 212 212 0
4.774583 2.287821 26.005352 212 212 212 0
4.867372 2.284685 25.969703 211 211 211 0
4.965136 2.283962 25.961494 211 211 211 0
5.077545 2.289873 26.028683 212 212 212 0
5.182222 2.292136 26.054407 212 212 212 0
5.270120 2.287033 25.996399 212 212 212 0
5.368705 2.286671 25.992277 212 212 212 0
5.473441 2.288893 26.017543 212 212 212 0
5.576914 2.290518 26.036012 212 212 212 0
5.682337 2.292873 26.062778 213 213 213 0
5.778726 2.291564 26.047896 212 212 212 0
5.881282 2.292703 26.060850 213 213 213 0
5.987243 2.295110 26.088204 212 212 212 0
6.100174 2.300066 26.144538 212 212 212 0
6.198352 2.299389 26.136842 213 213 213 0
6.289131 2.296032 26.098687 213 213 213 0
6.379077 2.292481 26.058322 212 212 212 0
6.487291 2.295503 26.092672 213 213 213 0
6.598762 2.299568 26.138886 212 212 212 0
6.681827 2.293761 26.072878 212 212 212 0
6.773871 2.291162 26.043332 213 213 213 0
6.871818 2.290606 26.037012 213 213 213 0
6.975710 2.292019 26.053070 212 212 212 0
7.079982 2.293515 26.070080 213 213 213 0
7.182883 2.294532 26.081638 212 212 212 0
7.274179 2.291865 26.051316 212 212 212 0
7.377533 2.293017 26.064418 213 213 213 0
7.482611 2.294668 26.083177 213 213 213 0
7.584289 2.295245 26.089745 212 212 212 0
7.692863 2.297868 26.119557 212 212 212 0
7.800555 2.300164 26.145652 212 212 212 0
7.894694 2.298455 26.126232 213 213 213 0
-7.139402 2.141820 23.331378 204 204 204 0
-7.038805 2.138371 23.293804 204 204 204 0
-6.955986 2.140303 23.314851 204 204 204 0
-6.861978 2.138798 23.298457 204 204 204 0
-6.841568 2.160495 23.534806 204 204 204 0
-6.809117 2.178918 23.735485 204 204 204 0
-6.754242 2.190565 23.862363 205 205 205 0
-6.679027 2.195844 23.919875 204 204 204 0
-6.585912 2.195304 23.913985 205 205 205 0
-6.481060 2.190781 23.864713 204 204 204 0
-6.425789 2.203128 23.999212 205 205 205 0
-6.418620 2.232564 24.319865 205 205 205 0
-6.344529 2.239246 24.392653 205 205 205 0
-6.224496 2.229670 24.288346 205 205 205 0
-6.107757 2.221003 24.193929 205 205 205 0
-6.091059 2.249006 24.498979 205 205 205 0
-6.059140 2.272177 24.751387 206 206 206 0
-5.958074 2.269742 24.724864 206 206 206 0
-5.813319 2.250317 24.513256 205 205 205 0
-5.698470 2.242021 24.422886 205 205 205 0
-5.623936 2.249574 24.505167 206 206 206 0
-5.618108 2.285332 24.894685 206 206 206 0
-5.506566 2.278579 24.821123 205 205 205 0
-5.384680 2.267234 24.697535 205 205 205 0
-5.252436 2.251044 24.521177 206 206 206 0
-5.157900 2.250720 24.517649 206 206 206 0
-5.141424 2.285077 24.891910 206 206 206 0
-5.083314 2.301878 25.074926 206 206 206 0
-4.953979 2.286452 24.906883 206 206 206 0
-4.838127 2.276765 24.801366 207 207 207 0
-4.733581 2.272119 24.750752 207 207 207 0
-4.671829 2.288243 24.926391 207 207 207 0
-4.603173 2.301587 25.071749 206 206 206 0
-4.516706 2.306403 25.124216 207 207 207 0
-4.400100 2.295704 25.007671 207 207 207 0
-4.308310 2.297765 25.030125 207 207 207 0
-4.228622 2.306521 25.125500 207 207 207 0
-4.165040 2.324674 25.323243 207 207 207 0
-4.063380 2.321931 25.293370 207 207 207 0
-3.956560 2.316035 25.229144 207 207 207 0
-3.852386 2.311432 25.178992 207 207 207 0
-3.763116 2.315764 25.226185 207 207 207 0
-3.682080 2.325524 25.332510 207 207 207 0
-3.603310 2.337282 25.460590 207 207 207 0
-3.480542 2.320361 25.276268 207 207 207 0
-3.373174 2.313034 25.196444 207 207 207 0
-3.277935 2.313836 25.205188 207 207 207 0
-3.188836 2.319153 25.263106 207 207 207 0
-3.104000 2.328000 25.359479 207 207 207 0
-3.007893 2.328692 25.367012 208 208 208 0
-2.906836 2.325469 25.331906 207 207 207 0
-2.818257 2.332351 25.406869 207 207 207 0
-2.723250 2.334214 25.427172 208 208 208 0
-2.629146 2.337019 25.457723 208 208 208 0
-2.529939 2.335328 25.439304 208 208 208 0
-2.436889 2.339413 25.483804 208 208 208 0
-2.338828 2.338828 25.477425 208 208 208 0
-2.246297 2.343962 25.533355 208 208 208 0
-2.151338 2.346914 25.565514 209 209 209 0
-2.056946 2.350795 25.607787 208 208 208 0
-1.966694 2.360032 25.708412 208 208 208 0
-1.864330 2.354943 25.652977 209 209 209 0
-1.759144 2.345525 25.550382 208 208 208 0
-1.662495 2.347052 25.567014 209 209 209 0
-1.570799 2.356198 25.666644 208 208 208 0
-1.473417 2.357468 25.680474 209 209 209 0
-1.372793 2.353360 25.635732 209 209 209 0
-1.271725 2.347800 25.575162 209 209 209 0
-1.171003 2.342005 25.512040 209 209 209 0
-1.078645 2.353407 25.636243 208 208 208 0
-0.983397 2.360154 25.709738 209 209 209 0
-0.884209 2.357891 25.685086 209 209 209 0
-0.784909 2.354727 25.650624 210 210 210 0
-0.686122 2.352418 25.625464 210 210 210 0
-0.589217 2.356866 25.673925 209 209 209 0
-0.492146 2.362300 25.733117 210 210 210 0
-0.394493 2.366959 25.783863 209 209 209 0
-0.295295 2.362359 25.733758 209 209 209 0
-0.196750 2.360996 25.718907 210 210 210 0
-0.098698 2.368755 25.803432 209 209 209 0
0.000000 2.380494 25.931313 210 210 210 0
0.099088 2.378109 25.905332 209 209 209 0
0.197295 2.367543 25.790233 210 210 210 0
0.295502 2.364014 25.751791 210 210 210 0
0.394326 2.365958 25.772959 210 210 210 0
0.495722 2.379465 25.920098 210 210 210 0
0.593528 2.374110 25.861765 209 209 209 0
0.689993 2.365689 25.770030 210 210 210 0
0.786883 2.360648 25.715118 210 210 210 0
0.885468 2.361248 25.721661 210 210 210 0
0.989503 2.374806 25.869349 210 210 210 0
1.089049 2.376106 25.883512 211 211 211 0
1.185648 2.371297 25.831117 210 210 210 0
1.283611 2.369743 25.814193 210 210 210 0
1.383575 2.371843 25.837073 210 210 210 0
1.484288 2.374861 25.869949 211 211 211 0
1.583363 2.375044 25.871943 210 210 210 0
1.681594 2.374015 25.860726 211 211 211 0
1.779595 2.372793 25.847418 210 210 210 0
1.883157 2.378725 25.912035 211 211 211 0
1.984930 2.381915 25.946792 211 211 211 0
2.087619 2.385851 25.989659 211 211 211 0
2.187097 2.385924 25.990456 211 211 211 0
2.283499 2.382782 25.956231 211 211 211 0
2.380251 2.380251 25.928660 211 211 211 0
2.481461 2.382203 25.949920 210 210 210 0
2.587264 2.388243 26.015722 211 211 211 0
2.679363 2.381656 25.943965 211 211 211 0
2.775292 2.378822 25.913093 211 211 211 0
2.873026 2.377677 25.900617 211 211 211 0
2.971337 2.377069 25.894000 211 211 211 0
3.073442 2.379439 25.919816 211 211 211 0
3.179399 2.384550 25.975486 211 211 211 0
3.274986 2.381808 25.945621 211 211 211 0
3.372839 2.380827 25.934940 211 211 211 0
3.471568 2.380504 25.931414 211 211 211 0
3.572314 2.381543 25.942732 212 212 212 0
3.679807 2.386902 26.001109 211 211 211 0
3.781997 2.388630 26.019929 212 212 212 0
3.879561 2.387422 26.006774 211 211 211 0
3.978534 2.387121 26.003492 211 211 211 0
4.089604 2.393914 26.077499 212 212 212 0
4.196802 2.398173 26.123886 212 212 212 0
4.283848 2.390985 26.045590 211 211 211 0
4.375825 2.386814 26.000148 212 212 212 0
4.478133 2.388338 26.016752 212 212 212 0
4.593640 2.396682 26.107643 212 212 212 0
4.685370 2.392529 26.062409 212 212 212 0
4.775338 2.387669 26.009464 211 211 211 0
4.867625 2.384143 25.971055 212 212 212 0
4.965391 2.383388 25.962830 212 212 212 0
5.077130 2.389237 26.026552 212 212 212 0
5.182652 2.391993 26.056572 212 212 212 0
5.272267 2.387442 26.006991 211 211 211 0
5.367662 2.385627 25.987226 212 212 212 0
5.474160 2.388724 26.020961 212 212 212 0
5.577258 2.390254 26.037621 213 213 213 0
5.681983 2.392414 26.061155 213 213 213 0
5.778111 2.390943 26.045125 212 212 212 0
5.879219 2.391547 26.051709 212 212 212 0
5.987261 2.394904 26.088281 212 212 212 0
6.100396 2.400156 26.145486 212 212 212 0
6.201120 2.400434 26.148514 212 212 212 0
6.286889 2.395005 26.089382 212 212 212 0
6.381381 2.393018 26.067731 212 212 212 0
6.486985 2.395195 26.091444 212 212 212 0
6.599156 2.399693 26.140446 212 212 212 0
6.680852 2.393141 26.069074 213 213 213 0
6.772589 2.390326 26.038405 212 212 212 0
6.872626 2.390478 26.040070 212 212 212 0
6.975553 2.391618 26.052486 212 212 212 0
7.081017 2.393583 26.073892 213 213 213 0
7.178841 2.392947 26.066962 213 213 213 0
7.274120 2.391492 26.051107 212 212 212 0
7.377569 2.392725 26.064542 213 213 213 0
7.484275 2.394968 26.088975 213 213 213 0
7.582597 2.394504 26.083925 212 212 212 0
7.690894 2.397162 26.112875 213 213 213 0
7.802667 2.400821 26.152731 213 213 213 0
7.892686 2.397778 26.119587 213 213 213 0
-7.151781 2.234932 23.371835 204 204 204 0
-7.049193 2.230757 23.328179 204 204 204 0
-6.960215 2.230838 23.329026 205 205 205 0
-6.873195 2.231557 23.336542 204 204 204 0
-6.841842 2.250606 23.535749 204 204 204 0
-6.820059 2.273353 23.773627 204 204 204 0
-6.753727 2.281665 23.860545 205 205 205 0
-6.674888 2.285921 23.905053 205 205 205 0
-6.585004 2.286460 23.910690 204 204 204 0
-6.496191 2.287391 23.920432 204 204 204 0
-6.427768 2.295631 24.006602 205 205 205 0
-6.407618 2.321601 24.278177 205 205 205 0
-6.346740 2.333360 24.401153 205 205 205 0
-6.228942 2.324232 24.305695 205 205 205 0
-6.113299 2.315643 24.215880 205 205 205 0
-6.086731 2.341050 24.481572 206 206 206 0
-6.058610 2.366644 24.749222 205 205 205 0
-5.958837 2.364618 24.728031 205 205 205 0
-5.816983 2.345558 24.528710 206 206 206 0
-5.695488 2.334217 24.410108 206 206 206 0
-5.616464 2.340193 24.472612 206 206 206 0
-5.610654 2.377396 24.861653 205 205 205 0
-5.511532 2.375660 24.843505 206 206 206 0
-5.380523 2.359879 24.678470 206 206 206 0
-5.249199 2.343392 24.506063 206 206 206 0
-5.153566 2.342530 24.497043 205 205 205 0
-5.142136 2.380619 24.895357 206 206 206 0
-5.078595 2.395564 25.051648 206 206 206 0
-4.955522 2.382463 24.914643 206 206 206 0
-4.837282 2.371216 24.797035 207 207 207 0
-4.732478 2.366239 24.744981 207 207 207 0
-4.673020 2.384194 24.932747 206 206 206 0
-4.604470 2.398162 25.078814 207 207 207 0
-4.513251 2.400666 25.104999 206 206 206 0
-4.402967 2.392917 25.023967 207 207 207 0
-4.306484 2.392491 25.019517 207 207 207 0
-4.230126 2.403481 25.134438 207 207 207 0
-4.165149 2.421598 25.323901 207 207 207 0
-4.065204 2.419764 25.304722 207 207 207 0
-3.959184 2.414136 25.245872 207 207 207 0
-3.852379 2.407737 25.178949 208 208 208 0
-3.759459 2.409909 25.201667 207 207 207 0
-3.679124 2.420476 25.312172 207 207 207 0
-3.600399 2.432702 25.440022 207 207 207 0
-3.480028 2.416686 25.272536 207 207 207 0
-3.371136 2.407954 25.181220 208 208 208 0
-3.278633 2.410759 25.210555 207 207 207 0
-3.187477 2.414755 25.252343 208 208 208 0
-3.103750 2.424805 25.357438 208 208 208 0
-3.006236 2.424384 25.353031 207 207 207 0
-2.907448 2.422874 25.337241 208 208 208 0
-2.814451 2.426251 25.372557 207 207 207 0
-2.723633 2.431816 25.430751 208 208 208 0
-2.627631 2.432992 25.443051 208 208 208 0
-2.529974 2.432668 25.439662 208 208 208 0
-2.435916 2.435916 25.473632 208 208 208 0
-2.341172 2.438720 25.502959 208 208 208 0
-2.246157 2.441475 25.531767 208 208 208 0
-2.150070 2.443262 25.550451 208 208 208 0
-2.058128 2.450152 25.622504 208 208 208 0
-1.967305 2.459132 25.716411 208 208 208 0
-1.862582 2.450766 25.628924 208 208 208 0
-1.758929 2.442956 25.547256 208 208 208 0
-1.662091 2.444251 25.560798 209 209 209 0
-1.570041 2.453189 25.654261 209 209 209 0
-1.473957 2.456595 25.689887 209 209 209 0
-1.372102 2.450183 25.622825 209 209 209 0
-1.271212 2.444638 25.564839 208 208 208 0
-1.170678 2.438912 25.504957 208 208 208 0
-1.078282 2.450640 25.627608 210 210 210 0
-0.984012 2.460029 25.725794 209 209 209 0
-0.884542 2.457061 25.694755 209 209 209 0
-0.784851 2.452659 25.648719 209 209 209 0
-0.685993 2.449975 25.620658 209 209 209 0
-0.589215 2.455061 25.673844 209 209 209 0
-0.491953 2.459766 25.723044 209 209 209 0
-0.394087 2.463043 25.757316 209 209 209 0
-0.295155 2.459628 25.721597 209 209 209 0
-0.196798 2.459973 25.725205 209 209 209 0
-0.098699 2.467478 25.803687 210 210 210 0
0.000000 2.478588 25.919877 209 209 209 0
0.099095 2.477370 25.907138 209 209 209 0
0.197225 2.465307 25.780993 210 210 210 0
0.295353 2.461275 25.738820 209 209 209 0
0.394160 2.463501 25.762102 209 209 209 0
0.495710 2.478551 25.919482 210 210 210 0
0.593781 2.474087 25.872801 209 209 209 0
0.689997 2.464274 25.770185 210 210 210 0
0.786708 2.458462 25.709409 210 210 210 0
0.885413 2.459480 25.720055 210 210 210 0
0.989272 2.473180 25.863321 211 211 211 0
1.088744 2.474418 25.876264 211 211 211 0
1.185643 2.470089 25.831000 210 210 210 0
1.282998 2.467303 25.801862 210 210 210 0
1.383018 2.469675 25.826667 210 210 210 0
1.483927 2.473212 25.863650 210 210 210 0
1.583989 2.474984 25.882181 211 211 211 0
1.682028 2.473571 25.867408 210 210 210 0
1.778988 2.470817 25.838609 211 211 211 0
1.883037 2.477681 25.910385 211 211 211 0
1.984787 2.480984 25.944935 211 211 211 0
2.086965 2.484482 25.981516 211 211 211 0
2.186298 2.484429 25.980957 211 211 211 0
2.282886 2.481397 25.949253 211 211 211 0
2.381353 2.480576 25.940669 211 211 211 0
2.481885 2.481885 25.954350 211 211 211 0
2.587375 2.487861 26.016843 211 211 211 0
2.678999 2.480555 25.940442 211 211 211 0
2.774689 2.477401 25.907456 211 211 211 0
2.873328 2.477006 25.903336 211 211 211 0
2.972074 2.476728 25.900427 211 211 211 0
3.073742 2.478824 25.922344 211 211 211 0
3.178148 2.482928 25.965264 211 211 211 0
3.273731 2.480099 25.935676 211 211 211 0
3.373269 2.480345 25.938250 211 211 211 0
3.471890 2.479921 25.933817 211 211 211 0
3.571940 2.480514 25.940011 212 212 212 0
3.677774 2.484983 25.986748 211 211 211 0
3.780692 2.487297 26.010952 211 211 211 0
3.879011 2.486545 26.003089 212 212 212 0
3.978908 2.486817 26.005934 211 211 211 0
4.089615 2.493667 26.077568 212 212 212 0
4.197817 2.498701 26.130203 211 211 211 0
4.283542 2.490431 26.043726 212 212 212 0
4.374181 2.485330 25.990378 211 211 211 0
4.476308 2.486838 26.006146 212 212 212 0
4.593753 2.496605 26.108289 211 211 211 0
4.685318 2.492191 26.062124 212 212 212 0
4.775135 2.487049 26.008359 212 212 212 0
4.865222 2.482256 25.958233 212 212 212 0
4.967327 2.483664 25.972952 212 212 212 0
5.078463 2.489443 26.033388 211 211 211 0
5.182067 2.491378 26.053629 212 212 212 0
5.270505 2.486087 25.998298 213 213 213 0
5.367248 2.484837 25.985222 212 212 212 0
5.473455 2.487934 26.017609 212 212 212 0
5.577109 2.489781 26.036923 212 212 212 0
5.680764 2.491563 26.055561 212 212 212 0
5.777865 2.490459 26.044018 212 212 212 0
5.878491 2.490886 26.048482 212 212 212 0
5.984102 2.493376 26.074520 212 212 212 0
6.101854 2.500760 26.151739 212 212 212 0
6.196407 2.498551 26.128638 212 212 212 0
6.288032 2.495251 26.094126 213 213 213 0
6.379272 2.491903 26.059117 212 212 212 0
6.487656 2.495252 26.094141 212 212 212 0
6.597603 2.499092 26.134297 212 212 212 0
6.682858 2.493604 26.076901 212 212 212 0
6.776116 2.491219 26.051964 212 212 212 0
6.872967 2.490206 26.041365 212 212 212 0
6.974521 2.490900 26.048630 212 212 212 0
7.081534 2.493498 26.075795 212 212 212 0
7.181590 2.493608 26.076942 213 213 213 0
7.272817 2.490691 26.046440 213 213 213 0
7.379933 2.493220 26.072893 213 213 213 0
7.483540 2.494513 26.086415 213 213 213 0
7.584304 2.494837 26.089796 212 212 212 0
7.690190 2.496815 26.110483 213 213 213 0
7.798699 2.499583 26.139431 213 213 213 0
7.890662 2.497045 26.112888 212 212 212 0
-7.128524 2.316770 23.295831 204 204 204 0
-7.054719 2.321806 23.346469 204 204 204 0
-6.959547 2.319849 23.326788 204 204 204 0
-6.863630 2.317589 23.304066 204 204 204 0
-6.843166 2.341083 23.540302 204 204 204 0
-6.818961 2.363907 23.769800 205 205 205 0
-6.744503 2.369690 23.827955 204 204 204 0
-6.677271 2.378206 23.913584 205 205 205 0
-6.585421 2.378069 23.912205 204 204 204 0
-6.487256 2.375615 23.887528 205 205 205 0
-6.422425 2.385472 23.986648 205 205 205 0
-6.407042 2.414248 24.275994 205 205 205 0
-6.333971 2.421812 24.352059 205 205 205 0
-6.222460 2.414686 24.280403 206 206 206 0
-6.112960 2.408136 24.214539 205 205 205 0
-6.084252 2.433701 24.471601 205 205 205 0
-6.061029 2.462293 24.759105 206 206 206 0
-5.958944 2.459247 24.728475 206 206 206 0
-5.820804 2.440983 24.544822 206 206 206 0
-5.699414 2.429258 24.426931 206 206 206 0
-5.624471 2.437271 24.507501 205 205 205 0
-5.618287 2.475855 24.895478 206 206 206 0
-5.504750 2.467647 24.812939 206 206 206 0
-5.384358 2.456023 24.696059 206 206 206 0
-5.250912 2.437924 24.514064 206 206 206 0
-5.153446 2.436175 24.496477 206 206 206 0
-5.141677 2.475622 24.893135 205 205 205 0
-5.074778 2.489514 25.032817 206 206 206 0
-4.955883 2.477941 24.916454 206 206 206 0
-4.832072 2.463409 24.770331 206 206 206 0
-4.736839 2.463156 24.767783 206 206 206 0
-4.670123 2.478025 24.917292 206 206 206 0
-4.597619 2.490377 25.041498 207 207 207 0
-4.512724 2.496400 25.102064 206 206 206 0
-4.397596 2.485598 24.993444 206 206 206 0
-4.302886 2.486112 24.998609 207 207 207 0
-4.221107 2.494290 25.080850 207 207 207 0
-4.167266 2.519742 25.336775 207 207 207 0
-4.066163 2.517148 25.310691 207 207 207 0
-3.957415 2.509580 25.234594 206 206 206 0
-3.851550 2.503508 25.173533 206 206 206 0
-3.760717 2.507145 25.210104 207 207 207 0
-3.679207 2.517352 25.312744 207 207 207 0
-3.603195 2.531975 25.459780 207 207 207 0
-3.479683 2.513104 25.270026 207 207 207 0
-3.370909 2.504104 25.179529 207 207 207 0
-3.277680 2.506461 25.203230 208 208 208 0
-3.187561 2.511412 25.253010 208 208 208 0
-3.103389 2.521504 25.354488 208 208 208 0
-3.007220 2.522185 25.361336 207 207 207 0
-2.904729 2.517431 25.313539 207 207 207 0
-2.815231 2.524000 25.379591 209 209 209 0
-2.723771 2.529216 25.432035 208 208 208 0
-2.627072 2.529773 25.437639 208 208 208 0
-2.529398 2.529398 25.433865 207 207 207 0
-2.434404 2.531780 25.457815 208 208 208 0
-2.340338 2.535366 25.493880 208 208 208 0
-2.245505 2.538397 25.524358 208 208 208 0
-2.148709 2.539384 25.534278 208 208 208 0
-2.057072 2.546851 25.609360 209 209 209 0
-1.967213 2.557377 25.715205 208 208 208 0
-1.862505 2.548691 25.627866 208 208 208 0
-1.758876 2.540599 25.546493 208 208 208 0
-1.661966 2.541831 25.558880 208 208 208 0
-1.571119 2.553068 25.671878 209 209 209 0
-1.474384 2.555599 25.697327 209 209 209 0
-1.373098 2.550040 25.641424 209 209 209 0
-1.271139 2.542279 25.563388 209 209 209 0
-1.170561 2.536216 25.502420 209 209 209 0
-1.077667 2.547213 25.613006 209 209 209 0
-0.983574 2.557291 25.714343 209 209 209 0
-0.884275 2.554573 25.687010 210 210 210 0
-0.784838 2.550725 25.648317 209 209 209 0
-0.686151 2.548560 25.626542 209 209 209 0
-0.589491 2.554459 25.685867 209 209 209 0
-0.492216 2.559525 25.736803 209 209 209 0
-0.394163 2.562062 25.762316 210 210 210 0
-0.295185 2.558273 25.724211 209 209 209 0
-0.196813 2.558567 25.727171 210 210 210 0
-0.098718 2.566662 25.808569 209 209 209 0
0.000000 2.577725 25.919804 209 209 209 0
0.099072 2.575867 25.901126 210 210 210 0
0.197234 2.564039 25.782188 210 210 210 0
0.295258 2.558901 25.730530 210 210 210 0
0.394427 2.563779 25.779575 209 209 209 0
0.495825 2.578291 25.925501 209 209 209 0
0.593530 2.571965 25.861892 209 209 209 0
0.690245 2.563768 25.779469 210 210 210 0
0.786660 2.556646 25.707852 210 210 210 0
0.885450 2.557967 25.721137 210 210 210 0
0.989131 2.571739 25.859621 210 210 210 0
1.089086 2.574204 25.884399 210 210 210 0
1.185105 2.567727 25.819274 210 210 210 0
1.282184 2.564368 25.785500 210 210 210 0
1.383475 2.569311 25.835202 210 210 210 0
1.484369 2.572906 25.871353 210 210 210 0
1.583595 2.573343 25.875742 210 210 210 0
1.681773 2.572123 25.863479 210 210 210 0
1.779059 2.569752 25.839635 210 210 210 0
1.882379 2.575888 25.901333 211 211 211 0
1.985484 2.581129 25.954035 211 211 211 0
2.087405 2.584407 25.986994 211 211 211 0
2.186632 2.584201 25.984927 211 211 211 0
2.282620 2.580353 25.946236 210 210 210 0
2.380420 2.578788 25.930502 210 210 210 0
2.482458 2.581756 25.960346 211 211 211 0
2.586385 2.586385 26.006884 211 211 211 0
2.678588 2.579381 25.936457 211 211 211 0
2.774165 2.576010 25.902564 211 211 211 0
2.872787 2.575602 25.898462 211 211 211 0
2.971012 2.574877 25.891169 212 212 212 0
3.073204 2.577526 25.917807 212 212 212 0
3.176864 2.581202 25.954773 212 212 212 0
3.274921 2.580241 25.945109 211 211 211 0
3.372422 2.578911 25.931732 211 211 211 0
3.470910 2.578390 25.926495 212 212 212 0
3.572196 2.579919 25.941871 211 211 211 0
3.678450 2.584857 25.991519 211 211 211 0
3.779990 2.586309 26.006126 211 211 211 0
3.878056 2.585371 25.996691 211 211 211 0
3.978667 2.586134 26.004359 211 211 211 0
4.090632 2.594059 26.084052 212 212 212 0
4.199154 2.599476 26.138525 212 212 212 0
4.284933 2.590889 26.052181 212 212 212 0
4.374074 2.584680 25.989743 212 212 212 0
4.477132 2.586787 26.010934 212 212 212 0
4.593668 2.596421 26.107801 211 211 211 0
4.685537 2.591999 26.063339 211 211 211 0
4.774747 2.586321 26.006247 212 212 212 0
4.866008 2.581963 25.962426 212 212 212 0
4.965252 2.581931 25.962100 212 212 212 0
5.077187 2.588370 26.026845 212 212 212 0
5.183253 2.591626 26.059591 212 212 212 0
5.270270 2.585415 25.997137 212 212 212 0
5.367266 2.584239 25.985313 212 212 212 0
5.471482 2.586519 26.008231 213 213 213 0
5.578252 2.589902 26.042257 212 212 212 0
5.680370 2.591046 26.053754 212 212 212 0
5.776211 2.589336 26.036561 211 211 211 0
5.878742 2.590632 26.049594 212 212 212 0
5.986246 2.594040 26.083859 212 212 212 0
6.100718 2.600306 26.146868 212 212 212 0
6.198309 2.599291 26.136662 213 213 213 0
6.288000 2.595048 26.093995 212 212 212 0
6.379775 2.591784 26.061173 212 212 212 0
6.489367 2.595747 26.101023 212 212 212 0
6.601248 2.600492 26.148734 212 212 212 0
6.682420 2.593178 26.075191 213 213 213 0
6.775813 2.590752 26.050801 212 212 212 0
6.873008 2.589829 26.041519 212 212 212 0
6.976965 2.591444 26.057758 212 212 212 0
7.081356 2.593173 26.075139 212 212 212 0
7.183157 2.593918 26.082634 213 213 213 0
7.273733 2.590644 26.049718 212 212 212 0
7.375119 2.591258 26.055889 213 213 213 0
7.481903 2.593727 26.080709 213 213 213 0
7.584312 2.594633 26.089824 213 213 213 0
7.685687 2.595167 26.095194 213 213 213 0
7.798747 2.599582 26.139590 212 212 212 0
7.889420 2.596518 26.108779 212 212 212 0
-7.144432 2.411246 23.347817 204 204 204 0
-7.048213 2.408883 23.324938 204 204 204 0
-6.958794 2.408813 23.324264 204 204 204 0
-6.863168 2.406566 23.302498 204 204 204 0
-6.836329 2.428696 23.516784 204 204 204 0
-6.795155 2.446256 23.686814 204 204 204 0
-6.740453 2.459355 23.813649 204 204 204 0
-6.672826 2.468031 23.897666 205 205 205 0
-6.589448 2.471043 23.926827 205 205 205 0
-6.490271 2.468131 23.898633 205 205 205 0
-6.412458 2.473377 23.949422 205 205 205 0
-6.415893 2.510567 24.309530 205 205 205 0
-6.338481 2.516750 24.369399 205 205 205 0
-6.222271 2.507482 24.279663 205 205 205 0
-6.111046 2.499973 24.206955 205 205 205 0
-6.086519 2.528246 24.480720 206 206 206 0
-6.056209 2.554963 24.739416 205 205 205 0
-5.960232 2.554385 24.733820 206 206 206 0
-5.821118 2.535003 24.546142 206 206 206 0
-5.701374 2.523559 24.435333 205 205 205 0
-5.620518 2.529233 24.490273 206 206 206 0
-5.615567 2.569836 24.883425 205 205 205 0
-5.500915 2.560771 24.795648 205 205 205 0
-5.378712 2.547811 24.670161 206 206 206 0
-5.254113 2.533233 24.529007 206 206 206 0
-5.152570 2.529444 24.492313 206 206 206 0
-5.141328 2.570664 24.891447 206 206 206 0
-5.075358 2.585560 25.035678 207 207 207 0
-4.950531 2.570468 24.889550 206 206 206 0
-4.833635 2.558983 24.778343 206 206 206 0
-4.734283 2.556513 24.754418 206 206 206 0
-4.671883 2.574303 24.926679 206 206 206 0
-4.600417 2.587735 25.056737 206 206 206 0
-4.512559 2.592321 25.101147 207 207 207 0
-4.402347 2.583986 25.020444 206 206 206 0
-4.303846 2.582308 25.004189 207 207 207 0
-4.224505 2.592310 25.101039 207 207 207 0
-4.164820 2.615120 25.321905 206 206 206 0
-4.063769 2.612423 25.295790 207 207 207 0
-3.958403 2.606753 25.240890 207 207 207 0
-3.848559 2.597778 25.153983 207 207 207 0
-3.760821 2.603646 25.210802 207 207 207 0
-3.684982 2.618277 25.352475 207 207 207 0
-3.603492 2.629575 25.461878 207 207 207 0
-3.478962 2.609222 25.264796 207 207 207 0
-3.370700 2.600254 25.177961 207 207 207 0
-3.275958 2.601496 25.189985 208 208 208 0
-3.186921 2.607481 25.247940 208 208 208 0
-3.103168 2.618298 25.352680 207 207 207 0
-3.006305 2.618395 25.353616 208 208 208 0
-2.905224 2.614702 25.317860 208 208 208 0
-2.817804 2.623473 25.402790 208 208 208 0
-2.724958 2.627638 25.443119 208 208 208 0
-2.628207 2.628207 25.448626 208 208 208 0
-2.528006 2.625237 25.419866 208 208 208 0
-2.435124 2.629934 25.465345 208 208 208 0
-2.340497 2.633059 25.495613 208 208 208 0
-2.244998 2.635432 25.518589 208 208 208 0
-2.150616 2.639393 25.556938 209 209 209 0
-2.056728 2.644365 25.605084 208 208 208 0
-1.966487 2.654757 25.705710 209 209 209 0
-1.863069 2.647520 25.635630 208 208 208 0
-1.759860 2.639790 25.560783 208 208 208 0
-1.662535 2.640497 25.567627 209 209 209 0
-1.571136 2.651292 25.672155 209 209 209 0
-1.474117 2.653410 25.692667 209 209 209 0
-1.372268 2.646517 25.625919 208 208 208 0
-1.271626 2.641070 25.573179 209 209 209 0
-1.170688 2.634048 25.505185 209 209 209 0
-1.077747 2.645379 25.614900 209 209 209 0
-0.984069 2.656987 25.727299 209 209 209 0
-0.884804 2.654411 25.702362 209 209 209 0
-0.784872 2.648942 25.649405 209 209 209 0
-0.686162 2.646624 25.626957 209 209 209 0
-0.589275 2.651738 25.676471 209 209 209 0
-0.492486 2.659426 25.750918 209 209 209 0
-0.394396 2.662170 25.777487 209 209 209 0
-0.295013 2.655117 25.709196 209 209 209 0
-0.196730 2.655862 25.716405 210 210 210 0
-0.098661 2.663858 25.793832 209 209 209 0
0.000000 2.677627 25.927156 210 210 210 0
0.099131 2.676526 25.916498 210 210 210 0
0.197322 2.663854 25.793790 210 210 210 0
0.295277 2.657489 25.732157 210 210 210 0
0.394354 2.661889 25.774769 210 210 210 0
0.495839 2.677531 25.926230 210 210 210 0
0.593559 2.671015 25.863131 210 210 210 0
0.690292 2.662554 25.781208 211 211 211 0
0.786466 2.654323 25.701501 210 210 210 0
0.885315 2.655944 25.717200 210 210 210 0
0.989274 2.671041 25.863384 210 210 210 0
1.089105 2.673258 25.884852 210 210 210 0
1.184804 2.665809 25.812728 211 211 211 0
1.282528 2.663712 25.792415 210 210 210 0
1.383418 2.668021 25.834145 210 210 210 0
1.484797 2.672635 25.878820 210 210 210 0
1.583080 2.671447 25.867317 210 210 210 0
1.680668 2.669296 25.846485 211 211 211 0
1.780119 2.670179 25.855034 210 210 210 0
1.883220 2.676155 25.912903 211 211 211 0
1.985556 2.680501 25.954980 211 211 211 0
2.087154 2.683483 25.983861 210 210 210 0
2.186290 2.683174 25.980867 211 211 211 0
2.283512 2.680645 25.956378 210 210 210 0
2.379182 2.676580 25.917019 211 211 211 0
2.481788 2.680331 25.953340 211 211 211 0
2.586577 2.686061 26.008820 211 211 211 0
2.679035 2.679035 25.940794 211 211 211 0
2.773369 2.674320 25.895135 211 211 211 0
2.873696 2.675510 25.906657 210 210 210 0
2.971781 2.674603 25.897873 212 212 212 0
3.074699 2.677963 25.930413 211 211 211 0
3.177526 2.681037 25.960176 211 211 211 0
3.273665 2.678453 25.935158 212 212 212 0
3.372060 2.677813 25.928954 212 212 212 0
3.471939 2.678353 25.934184 211 211 211 0
3.570974 2.678230 25.932996 211 211 211 0
3.677596 2.683651 25.985488 211 211 211 0
3.781242 2.686672 26.014736 211 211 211 0
3.880428 2.686450 26.012593 212 212 212 0
3.979388 2.686087 26.009075 212 212 212 0
4.089867 2.693327 26.079176 212 212 212 0
4.196491 2.697744 26.121950 212 212 212 0
4.282819 2.689212 26.039329 211 211 211 0
4.375613 2.685035 25.998888 212 212 212 0
4.477521 2.686513 26.013195 211 211 211 0
4.593672 2.696286 26.107825 212 212 212 0
4.684708 2.691215 26.058730 212 212 212 0
4.773971 2.685359 26.002021 212 212 212 0
4.865389 2.680929 25.959127 212 212 212 0
4.964194 2.680665 25.956568 212 212 212 0
5.077795 2.688245 26.029965 212 212 212 0
5.183159 2.691256 26.059122 212 212 212 0
5.270460 2.684951 25.998076 212 212 212 0
5.368997 2.684498 25.993692 212 212 212 0
5.472245 2.686375 26.011859 212 212 212 0
5.576895 2.688860 26.035926 212 212 212 0
5.681921 2.691436 26.060871 212 212 212 0
5.777258 2.689413 26.041281 212 212 212 0
5.878342 2.690089 26.047821 212 212 212 0
5.986011 2.693705 26.082836 212 212 212 0
6.100530 2.700234 26.146061 212 212 212 0
6.197039 2.698711 26.131306 212 212 212 0
6.287366 2.694585 26.091362 212 212 212 0
6.383033 2.692842 26.074481 212 212 212 0
6.490932 2.696233 26.107317 212 212 212 0
6.601661 2.700680 26.150372 213 213 213 0
6.684059 2.693576 26.081588 212 212 212 0
6.775846 2.690410 26.050928 212 212 212 0
6.872809 2.689360 26.040766 213 213 213 0
6.976668 2.691000 26.056649 212 212 212 0
7.081841 2.693094 26.076926 213 213 213 0
7.179980 2.692492 26.071096 212 212 212 0
7.271626 2.689506 26.042175 213 213 213 0
7.374786 2.690800 26.054712 213 213 213 0
7.480116 2.692842 26.074478 213 213 213 0
7.581364 2.693379 26.079685 213 213 213 0
7.686042 2.695106 26.096401 212 212 212 0
7.798599 2.699515 26.139096 213 213 213 0
7.888253 2.695985 26.104917 212 212 212 0
-7.145305 2.500857 23.350670 203 203 203 0
-7.063402 2.503484 23.375204 204 204 204 0
-6.947540 2.493989 23.286544 204 204 204 0
-6.868037 2.497468 23.319028 205 205 205 0
-6.836758 2.518805 23.518258 204 204 204 0
-6.807698 2.541541 23.730539 204 204 204 0
-6.747645 2.553163 23.839058 205 205 205 0
-6.660953 2.554886 23.855144 205 205 205 0
-6.581448 2.559452 23.897780 205 205 205 0
-6.491259 2.559933 23.902272 204 204 204 0
-6.413089 2.565235 23.951779 205 205 205 0
-6.403838 2.598659 24.263855 205 205 205 0
-6.338295 2.609886 24.368686 205 205 205 0
-6.224914 2.601457 24.289979 204 204 204 0
-6.110461 2.592317 24.204637 206 206 206 0
-6.080770 2.619409 24.457597 206 206 206 0
-6.052609 2.648017 24.724711 205 205 205 0
-5.951637 2.645172 24.698152 205 205 205 0
-5.818734 2.627815 24.536090 206 206 206 0
-5.694510 2.613873 24.405913 205 205 205 0
-5.629220 2.626969 24.528191 206 206 206 0
-5.620445 2.667330 24.905042 205 205 205 0
-5.503697 2.656957 24.808189 206 206 206 0
-5.379128 2.642378 24.672068 205 205 205 0
-5.246041 2.623021 24.491322 206 206 206 0
-5.152474 2.623078 24.491855 206 206 206 0
-5.136304 2.663269 24.867122 206 206 206 0
-5.073215 2.680189 25.025109 206 206 206 0
-4.949165 2.664935 24.882681 206 206 206 0
-4.833046 2.653437 24.775324 207 207 207 0
-4.735210 2.651718 24.759269 206 206 206 0
-4.669005 2.668003 24.911323 206 206 206 0
-4.596434 2.681253 25.035046 206 206 206 0
-4.507724 2.685452 25.074252 206 206 206 0
-4.400700 2.678687 25.011083 207 207 207 0
-4.303013 2.677430 24.999351 206 206 206 0
-4.226715 2.689728 25.114173 207 207 207 0
-4.163903 2.711379 25.316329 207 207 207 0
-4.065379 2.710253 25.305816 207 207 207 0
-3.957361 2.702588 25.234249 208 208 208 0
-3.850321 2.695225 25.165499 207 207 207 0
-3.762112 2.701003 25.219454 207 207 207 0
-3.687660 2.717223 25.370898 207 207 207 0
-3.604361 2.727625 25.468019 207 207 207 0
-3.478857 2.705778 25.264033 207 207 207 0
-3.370333 2.696266 25.175220 208 208 208 0
-3.277453 2.699079 25.201485 208 208 208 0
-3.184807 2.702261 25.231193 208 208 208 0
-3.102750 2.714906 25.349261 208 208 208 0
-3.006362 2.715423 25.354093 208 208 208 0
-2.904882 2.711224 25.314879 208 208 208 0
-2.819604 2.722376 25.419014 207 207 207 0
-2.723082 2.723082 25.425601 208 208 208 0
-2.627134 2.724436 25.438242 208 208 208 0
-2.526490 2.720835 25.404625 207 207 207 0
-2.433275 2.725268 25.446012 208 208 208 0
-2.339947 2.729938 25.489615 208 208 208 0
-2.245702 2.733898 25.526595 208 208 208 0
-2.149357 2.735545 25.541967 208 208 208 0
-2.055783 2.741045 25.593321 208 208 208 0
-1.965944 2.752322 25.698619 209 209 209 0
-1.864004 2.746953 25.648486 209 209 209 0
-1.758499 2.735443 25.541022 208 208 208 0
-1.662305 2.737914 25.564090 209 209 209 0
-1.570306 2.748036 25.658600 209 209 209 0
-1.474152 2.751751 25.693284 208 208 208 0
-1.373330 2.746660 25.645754 209 209 209 0
-1.270796 2.737099 25.556481 209 209 209 0
-1.170854 2.731992 25.508791 209 209 209 0
-1.077735 2.743326 25.614620 209 209 209 0
-0.983824 2.754707 25.720889 209 209 209 0
-0.884097 2.750523 25.681820 209 209 209 0
-0.785153 2.748036 25.658597 209 209 209 0
-0.686240 2.744962 25.629894 210 210 210 0
-0.588775 2.747618 25.654697 210 210 210 0
-0.491986 2.755122 25.724760 209 209 209 0
-0.394305 2.760132 25.771537 209 209 209 0
-0.295103 2.754295 25.717040 209 209 209 0
-0.196750 2.754497 25.718925 209 209 209 0
-0.098670 2.762773 25.796202 209 209 209 0
0.000000 2.774764 25.908162 210 210 210 0
0.099110 2.775074 25.911056 210 210 210 0
0.197400 2.763600 25.803924 209 209 209 0
0.295266 2.755813 25.731212 210 210 210 0
0.394605 2.762236 25.791186 210 210 210 0
0.495797 2.776465 25.924047 210 210 210 0
0.593796 2.771047 25.873459 210 210 210 0
0.690555 2.762222 25.791051 210 210 210 0
0.786303 2.752062 25.696192 210 210 210 0
0.885547 2.755036 25.723957 210 210 210 0
0.989384 2.770276 25.866252 210 210 210 0
1.089397 2.773010 25.891780 211 211 211 0
1.184241 2.763229 25.800460 210 210 210 0
1.281802 2.760804 25.777814 210 210 210 0
1.383274 2.766547 25.831439 210 210 210 0
1.484247 2.770595 25.869232 210 210 210 0
1.582972 2.770201 25.865554 210 210 210 0
1.681444 2.769437 25.858425 210 210 210 0
1.779646 2.768338 25.848156 211 211 211 0
1.881823 2.773213 25.893676 210 210 210 0
1.985094 2.779132 25.948947 211 211 211 0
2.087605 2.783473 25.989480 211 211 211 0
2.186533 2.782860 25.983754 211 211 211 0
2.282830 2.779097 25.948621 211 211 211 0
2.381816 2.778785 25.945708 211 211 211 0
2.482474 2.780371 25.960515 211 211 211 0
2.587564 2.786607 26.018738 211 211 211 0
2.678562 2.777768 25.936205 211 211 211 0
2.774468 2.774468 25.905393 210 210 210 0
2.873461 2.774376 25.904542 212 212 212 0
2.971293 2.773206 25.893617 211 211 211 0
3.072126 2.774824 25.908718 211 211 211 0
3.177770 2.780548 25.962170 211 211 211 0
3.273297 2.777343 25.932244 211 211 211 0
3.371853 2.776820 25.927357 211 211 211 0
3.471362 2.777090 25.929875 211 211 211 0
3.571797 2.778064 25.938974 211 211 211 0
3.677290 2.782814 25.983327 211 211 211 0
3.779923 2.785207 26.005665 211 211 211 0
3.878493 2.784559 25.999616 211 211 211 0
3.979398 2.785579 26.009138 211 211 211 0
4.091110 2.793929 26.087101 211 211 211 0
4.198675 2.799117 26.135545 211 211 211 0
4.284674 2.790020 26.050608 211 211 211 0
4.376277 2.784903 26.002831 212 212 212 0
4.477369 2.785919 26.012313 212 212 212 0
4.594306 2.796534 26.111429 211 211 211 0
4.686436 2.791919 26.068340 212 212 212 0
4.775264 2.785571 26.009063 212 212 212 0
4.868084 2.781762 25.973502 211 211 211 0
4.965403 2.780626 25.962892 212 212 212 0
5.077627 2.787717 26.029102 212 212 212 0
5.182043 2.790331 26.053509 212 212 212 0
5.270685 2.784513 25.999188 212 212 212 0
5.366018 2.782380 25.979271 212 212 212 0
5.474592 2.787065 26.023016 212 212 212 0
5.578248 2.789124 26.042243 212 212 212 0
5.682677 2.791491 26.064337 213 213 213 0
5.778180 2.789466 26.045435 213 213 213 0
5.877691 2.789413 26.044935 212 212 212 0
5.990242 2.795446 26.101273 212 212 212 0
6.099287 2.799673 26.140734 212 212 212 0
6.198743 2.799432 26.138490 212 212 212 0
6.287391 2.794396 26.091468 212 212 212 0
6.380422 2.791434 26.063814 213 213 213 0
6.491234 2.796224 26.108535 212 212 212 0
