ply
    format ascii 1.0
    element vertex 25597
    property float x
    property float y
    property float z
    property uchar red
    property uchar green
    property uchar blue
    property uchar alpha
    end_header
5.869078 -5.869078 25.573323 212 212 212 0
5.967521 -5.869693 25.576004 212 212 212 0
6.077980 -5.881916 25.629263 212 212 212 0
6.184441 -5.889943 25.664242 212 212 212 0
6.281091 -5.888523 25.658053 212 212 212 0
6.365409 -5.875762 25.602451 212 212 212 0
6.459667 -5.872424 25.587905 212 212 212 0
6.566974 -5.880872 25.624715 212 212 212 0
6.675320 -5.889988 25.664438 212 212 212 0
6.752529 -5.871764 25.585029 212 212 212 0
6.840512 -5.863296 25.548131 212 212 212 0
6.939428 -5.864305 25.552527 212 212 212 0
7.043151 -5.869293 25.574261 212 212 212 0
7.147230 -5.874436 25.596669 212 212 212 0
7.246937 -5.875895 25.603028 212 212 212 0
7.334177 -5.867341 25.565758 212 212 212 0
7.437694 -5.871864 25.585464 212 212 212 0
7.534882 -5.871336 25.583165 212 212 212 0
7.631660 -5.870508 25.579554 212 212 212 0
7.736186 -5.875584 25.601674 213 213 213 0
-7.002763 -5.164538 22.884846 204 204 204 0
-6.944383 -5.186311 22.981329 204 204 204 0
-6.845947 -5.178344 22.946026 204 204 204 0
-6.734924 -5.160526 22.867069 204 204 204 0
-6.648402 -5.161259 22.870320 205 205 205 0
-6.648523 -5.230171 23.175678 204 204 204 0
-6.611092 -5.271006 23.356622 205 205 205 0
-6.536354 -5.282807 23.408915 204 204 204 0
-6.440028 -5.277246 23.384272 204 204 204 0
-6.361634 -5.286428 23.424963 204 204 204 0
-6.297668 -5.308035 23.520703 205 205 205 0
-6.288545 -5.377162 23.827017 205 205 205 0
-6.244657 -5.418158 24.008676 206 206 206 0
-6.122567 -5.391514 23.890614 205 205 205 0
-5.999859 -5.363510 23.766523 205 205 205 0
-5.951745 -5.402353 23.938644 205 205 205 0
-5.937042 -5.473211 24.252623 205 205 205 0
-5.881851 -5.508400 24.408552 205 205 205 0
-5.746064 -5.468028 24.229659 206 206 206 0
-5.611669 -5.427679 24.050867 206 206 206 0
-5.512075 -5.420207 24.017757 205 205 205 0
-5.574038 -5.574038 24.699406 205 205 205 0
-5.424631 -5.518159 24.451797 205 205 205 0
-5.319720 -5.506376 24.399585 206 206 206 0
-5.184418 -5.462155 24.203633 205 205 205 0
-5.065245 -5.433627 24.077220 206 206 206 0
-4.983912 -5.445385 24.129325 206 206 206 0
-4.956843 -5.517996 24.451072 206 206 206 0
-4.875433 -5.531742 24.511983 206 206 206 0
-4.754181 -5.499935 24.371044 206 206 206 0
-4.642697 -5.478383 24.275541 206 206 206 0
-4.561368 -5.492260 24.337032 207 207 207 0
-4.505500 -5.538011 24.539763 206 206 206 0
-4.429170 -5.560022 24.637297 207 207 207 0
-4.334741 -5.559776 24.636209 207 207 207 0
-4.222192 -5.535763 24.529800 206 206 206 0
-4.144180 -5.556968 24.623766 207 207 207 0
-4.084098 -5.603762 24.831115 207 207 207 0
-4.007513 -5.629601 24.945612 206 206 206 0
-3.905233 -5.619725 24.901849 207 207 207 0
-3.791338 -5.592223 24.779986 207 207 207 0
-3.688866 -5.580592 24.728448 207 207 207 0
-3.598442 -5.587055 24.757084 207 207 207 0
-3.462849 -5.521840 24.468105 207 207 207 0
-3.438784 -5.635785 24.973014 208 208 208 0
-3.323673 -5.602763 24.826689 208 208 208 0
-3.211332 -5.572605 24.693053 208 208 208 0
-3.125710 -5.588390 24.763001 207 207 207 0
-3.035564 -5.596821 24.800358 207 207 207 0
-2.951085 -5.616582 24.887921 207 207 207 0
-2.854342 -5.613539 24.874437 208 208 208 0
-2.756740 -5.608541 24.852291 207 207 207 0
-2.667907 -5.621661 24.910428 208 208 208 0
-2.579603 -5.636911 24.978004 208 208 208 0
-2.487557 -5.644840 25.013138 208 208 208 0
-2.389126 -5.638337 24.984321 208 208 208 0
-2.297300 -5.647529 25.025056 208 208 208 0
-2.205843 -5.658467 25.073524 209 209 209 0
-2.110734 -5.660605 25.082993 208 208 208 0
-2.017240 -5.667485 25.113480 208 208 208 0
-1.925154 -5.679203 25.165406 209 209 209 0
-1.834269 -5.695889 25.239345 209 209 209 0
-1.733404 -5.681712 25.176522 208 208 208 0
-1.632403 -5.665398 25.104236 208 208 208 0
-1.535428 -5.661890 25.088691 209 209 209 0
-1.445375 -5.685140 25.191716 209 209 209 0
-1.349281 -5.686257 25.196665 208 208 208 0
-1.252406 -5.683998 25.186656 209 209 209 0
-1.153253 -5.670162 25.125343 209 209 209 0
-1.054395 -5.655390 25.059887 209 209 209 0
-0.962331 -5.677754 25.158986 209 209 209 0
-0.869370 -5.699204 25.254032 210 210 210 0
-0.773165 -5.702091 25.266828 209 209 209 0
-0.674906 -5.688491 25.206563 209 209 209 0
-0.577288 -5.676664 25.154156 210 210 210 0
-0.481730 -5.684410 25.188478 209 209 209 0
-0.386432 -5.699872 25.256991 209 209 209 0
-0.290483 -5.712831 25.314419 209 209 209 0
-0.193491 -5.707983 25.292934 209 209 209 0
-0.096643 -5.701921 25.266073 210 210 210 0
0.000000 -5.706748 25.287462 210 210 210 0
0.097221 -5.736018 25.417160 209 209 209 0
0.194729 -5.744507 25.454776 210 210 210 0
0.290966 -5.722332 25.356518 210 210 210 0
0.387168 -5.710734 25.305124 209 209 209 0
0.485321 -5.726783 25.376239 209 209 209 0
0.630439 -6.199317 27.470111 210 210 210 0
0.680151 -5.732699 25.402454 210 210 210 0
0.775485 -5.719200 25.342641 209 209 209 0
0.869482 -5.699937 25.257284 210 210 210 0
0.966017 -5.699503 25.255358 210 210 210 0
1.067627 -5.726365 25.374388 210 210 210 0
1.165831 -5.732002 25.399368 210 210 210 0
1.260089 -5.718864 25.341152 210 210 210 0
1.355531 -5.712596 25.313378 210 210 210 0
1.452839 -5.714500 25.321813 211 211 211 0
1.555748 -5.736820 25.420717 210 210 210 0
1.651230 -5.730738 25.393768 210 210 210 0
1.748367 -5.730759 25.393861 211 211 211 0
1.844468 -5.727558 25.379674 210 210 210 0
1.945957 -5.740573 25.437345 211 211 211 0
2.046943 -5.750934 25.483258 211 211 211 0
2.147139 -5.758238 25.515620 210 210 210 0
2.246382 -5.762458 25.534320 211 211 211 0
2.337979 -5.747531 25.468180 211 211 211 0
2.436263 -5.749580 25.477256 211 211 211 0
2.535222 -5.753004 25.492429 211 211 211 0
2.636946 -5.762215 25.533246 210 210 210 0
2.729071 -5.750542 25.481522 211 211 211 0
2.822116 -5.741547 25.441662 211 211 211 0
2.918572 -5.739858 25.434179 211 211 211 0
3.014483 -5.737241 25.422582 211 211 211 0
3.117705 -5.748269 25.471446 210 210 210 0
3.220282 -5.757475 25.512240 211 211 211 0
3.315721 -5.753751 25.495738 211 211 211 0
3.412479 -5.752464 25.490036 211 211 211 0
3.507670 -5.748682 25.473277 212 212 212 0
3.604087 -5.747057 25.466078 212 212 212 0
3.704248 -5.751332 25.485022 211 211 211 0
3.808604 -5.761734 25.531113 211 211 211 0
3.902789 -5.756614 25.508427 212 212 212 0
4.002737 -5.760037 25.523592 212 212 212 0
4.104079 -5.765254 25.546713 211 211 211 0
4.217681 -5.787051 25.643297 211 211 211 0
4.312684 -5.782918 25.624981 212 212 212 0
4.399969 -5.768849 25.562639 212 212 212 0
4.490334 -5.759342 25.520513 211 211 211 0
4.594670 -5.767777 25.557889 211 211 211 0
4.709320 -5.788539 25.649892 212 212 212 0
4.793158 -5.771354 25.573740 212 212 212 0
4.877063 -5.754935 25.500984 211 211 211 0
4.969887 -5.749477 25.476802 212 212 212 0
5.067090 -5.749198 25.475565 212 212 212 0
5.183483 -5.770293 25.569039 212 212 212 0
5.281291 -5.770299 25.569068 212 212 212 0
5.369568 -5.760082 25.523793 212 212 212 0
5.464475 -5.757215 25.511088 212 212 212 0
5.570921 -5.766392 25.551753 212 212 212 0
5.673670 -5.771491 25.574350 213 213 213 0
5.773816 -5.773816 25.584651 212 212 212 0
5.865954 -5.768188 25.559711 212 212 212 0
5.968801 -5.773103 25.581489 212 212 212 0
6.078088 -5.783987 25.629720 212 212 212 0
6.184797 -5.792112 25.665721 212 212 212 0
6.278505 -5.787996 25.647486 213 213 213 0
6.365479 -5.777896 25.602729 211 211 211 0
6.461130 -5.775859 25.593704 212 212 212 0
6.565212 -5.781306 25.617839 212 212 212 0
6.674453 -5.791070 25.661104 212 212 212 0
6.754489 -5.775578 25.592456 212 212 212 0
6.840183 -5.765297 25.546903 212 212 212 0
6.937493 -5.764959 25.545405 213 213 213 0
7.041507 -5.770124 25.568289 212 212 212 0
7.148058 -5.777197 25.599634 212 212 212 0
7.246304 -5.777458 25.600790 212 212 212 0
7.334669 -5.769939 25.567473 213 213 213 0
7.439264 -5.775218 25.590864 213 213 213 0
7.534555 -5.773230 25.582055 212 212 212 0
7.635313 -5.775429 25.591799 212 212 212 0
7.737665 -5.778762 25.606568 213 213 213 0
-7.009173 -5.081651 22.905795 204 204 204 0
-6.936599 -5.092693 22.955567 204 204 204 0
-6.837429 -5.084242 22.917477 204 204 204 0
-6.755938 -5.088889 22.938420 204 204 204 0
-6.654705 -5.078591 22.892003 204 204 204 0
-6.630099 -5.127277 23.111456 204 204 204 0
-6.595338 -5.169319 23.300965 205 205 205 0
-6.529659 -5.187948 23.384936 205 205 205 0
-6.439860 -5.187665 23.383661 204 204 204 0
-6.369611 -5.203344 23.454333 205 205 205 0
-6.307553 -5.226258 23.557621 205 205 205 0
-6.269379 -5.269913 23.754397 205 205 205 0
-6.232206 -5.315705 23.960808 205 205 205 0
-6.128478 -5.305250 23.913678 206 206 206 0
-5.997527 -5.270554 23.757285 205 205 205 0
-5.941639 -5.301770 23.897995 205 205 205 0
-5.931929 -5.375811 24.231737 205 205 205 0
-5.881244 -5.414479 24.406035 206 206 206 0
-5.746760 -5.376001 24.232594 205 205 205 0
-5.616453 -5.340234 24.071374 205 205 205 0
-5.516908 -5.333011 24.038814 205 205 205 0
-5.569896 -5.475491 24.681050 205 205 205 0
-5.426165 -5.426165 24.458710 206 206 206 0
-5.325703 -5.419137 24.427030 206 206 206 0
-5.184297 -5.369451 24.203069 206 206 206 0
-5.065012 -5.341285 24.076110 206 206 206 0
-4.976783 -5.345434 24.094811 206 206 206 0
-4.958394 -5.426168 24.458722 206 206 206 0
-4.878723 -5.441653 24.528522 207 207 207 0
-4.749438 -5.401321 24.346726 207 207 207 0
-4.641266 -5.383868 24.268057 207 207 207 0
-4.565378 -5.403917 24.358427 207 207 207 0
-4.506537 -5.445399 24.545411 206 206 206 0
-4.429438 -5.466115 24.638785 206 206 206 0
-4.330486 -5.460178 24.612028 206 206 206 0
-4.227256 -5.448463 24.559219 207 207 207 0
-4.145187 -5.464110 24.629751 206 206 206 0
-4.083757 -5.508323 24.829043 207 207 207 0
-4.007918 -5.534744 24.948138 207 207 207 0
-3.907681 -5.527939 24.917462 207 207 207 0
-3.786171 -5.489947 24.746212 207 207 207 0
-3.686071 -5.481849 24.709709 207 207 207 0
-3.595275 -5.487525 24.735293 207 207 207 0
-3.453561 -5.413690 24.402479 207 207 207 0
-3.441174 -5.544114 24.990371 207 207 207 0
-3.324339 -5.508904 24.831662 207 207 207 0
-3.216525 -5.487014 24.732989 207 207 207 0
-3.122685 -5.488355 24.739037 208 208 208 0
-3.035844 -5.502467 24.802648 207 207 207 0
-2.949096 -5.517664 24.871148 207 207 207 0
-2.857899 -5.525271 24.905437 208 208 208 0
-2.755774 -5.511548 24.843579 208 208 208 0
-2.666795 -5.524076 24.900051 208 208 208 0
-2.580795 -5.543930 24.989541 208 208 208 0
-2.485238 -5.543993 24.989828 208 208 208 0
-2.390393 -5.545713 24.997577 208 208 208 0
-2.298597 -5.554943 25.039183 208 208 208 0
-2.206136 -5.563299 25.076850 208 208 208 0
-2.110463 -5.563949 25.079778 209 209 209 0
-2.017093 -5.571018 25.111641 209 209 209 0
-1.926304 -5.586281 25.180440 209 209 209 0
-1.834651 -5.600514 25.244600 208 208 208 0
-1.732290 -5.581823 25.160349 208 208 208 0
-1.632295 -5.569007 25.102577 208 208 208 0
-1.535396 -5.565810 25.088168 208 208 208 0
-1.445272 -5.588384 25.189919 209 209 209 0
-1.349415 -5.590432 25.199153 208 208 208 0
-1.252259 -5.587001 25.183686 209 209 209 0
-1.153075 -5.573195 25.121454 209 209 209 0
-1.054761 -5.561465 25.068581 209 209 209 0
-0.962021 -5.579721 25.150872 209 209 209 0
-0.869388 -5.602725 25.254563 209 209 209 0
-0.772913 -5.603622 25.258608 209 209 209 0
-0.674807 -5.591259 25.202880 209 209 209 0
-0.577530 -5.582791 25.164712 208 208 208 0
-0.481555 -5.586033 25.179324 209 209 209 0
-0.386375 -5.602431 25.253238 210 210 210 0
-0.290600 -5.618258 25.324579 210 210 210 0
-0.193474 -5.610734 25.290666 209 209 209 0
-0.096571 -5.601139 25.247413 209 209 209 0
0.000000 -5.609280 25.284109 209 209 209 0
0.097253 -5.640656 25.425541 209 209 209 0
0.194890 -5.651820 25.475862 209 209 209 0
0.291115 -5.628230 25.369530 210 210 210 0
0.387294 -5.615761 25.313323 210 210 210 0
0.485417 -5.630834 25.381266 210 210 210 0
0.637464 -6.162151 27.776206 209 209 209 0
0.680478 -5.638245 25.414673 210 210 210 0
0.775746 -5.624159 25.351177 210 210 210 0
0.869428 -5.602979 25.255708 211 211 211 0
0.966020 -5.602914 25.255418 209 209 209 0
1.067025 -5.626131 25.360068 210 210 210 0
1.165591 -5.633688 25.394132 210 210 210 0
1.260216 -5.622501 25.343705 211 211 211 0
1.356361 -5.619210 25.328871 210 210 210 0
1.453557 -5.620419 25.334322 210 210 210 0
1.554799 -5.636146 25.405209 210 210 210 0
1.651920 -5.635964 25.404389 210 210 210 0
1.748893 -5.635323 25.401503 210 210 210 0
1.845057 -5.632281 25.387787 210 210 210 0
1.946842 -5.645841 25.448911 210 210 210 0
2.046774 -5.652995 25.481159 210 210 210 0
2.147626 -5.661924 25.521405 211 211 211 0
2.245296 -5.662050 25.521974 210 210 210 0
2.339875 -5.654699 25.488838 210 210 210 0
2.437122 -5.654122 25.486241 211 211 211 0
2.535798 -5.656781 25.498225 211 211 211 0
2.635631 -5.661726 25.520515 211 211 211 0
2.728521 -5.651936 25.476387 211 211 211 0
2.823886 -5.647772 25.457615 211 211 211 0
2.921311 -5.647868 25.458046 211 211 211 0
3.013505 -5.638170 25.414335 211 211 211 0
3.116127 -5.647981 25.458557 211 211 211 0
3.218670 -5.657056 25.499462 211 211 211 0
3.316294 -5.657207 25.500144 211 211 211 0
3.412776 -5.655457 25.492257 211 211 211 0
3.507454 -5.650898 25.471706 211 211 211 0
3.603740 -5.649106 25.463626 212 212 212 0
3.705642 -5.655980 25.494611 211 211 211 0
3.809567 -5.665509 25.537568 212 212 212 0
3.902601 -5.658772 25.507199 212 212 212 0
4.001437 -5.660570 25.515303 212 212 212 0
4.103895 -5.667284 25.545565 212 212 212 0
4.216211 -5.686982 25.634356 212 212 212 0
4.312444 -5.684585 25.623551 212 212 212 0
4.401051 -5.672465 25.568922 211 211 211 0
4.489519 -5.660697 25.515878 211 211 211 0
4.596239 -5.671954 25.566617 211 211 211 0
4.709317 -5.690424 25.649873 212 212 212 0
4.792016 -5.672182 25.567645 212 212 212 0
4.877300 -5.657669 25.502225 211 211 211 0
4.972259 -5.654726 25.488963 212 212 212 0
5.067433 -5.652137 25.477290 212 212 212 0
5.182546 -5.671466 25.564416 212 212 212 0
5.283218 -5.674567 25.578397 212 212 212 0
5.371546 -5.664539 25.533196 212 212 212 0
5.468065 -5.663353 25.527849 212 212 212 0
5.570657 -5.668388 25.550544 211 211 211 0
5.671337 -5.671337 25.563837 211 211 211 0
5.774133 -5.676266 25.586054 212 212 212 0
5.866265 -5.670723 25.561069 212 212 212 0
5.969505 -5.675923 25.584508 212 212 212 0
6.077144 -5.685070 25.625737 212 212 212 0
6.183579 -5.692819 25.660667 212 212 212 0
6.279636 -5.690920 25.652107 212 212 212 0
6.364540 -5.679128 25.598953 212 212 212 0
6.459644 -5.676657 25.587814 212 212 212 0
6.563900 -5.682182 25.612722 212 212 212 0
6.673273 -5.691909 25.656566 212 212 212 0
6.753943 -5.677227 25.590387 212 212 212 0
6.841392 -5.668582 25.551418 212 212 212 0
6.938889 -5.668388 25.550544 212 212 212 0
7.040381 -5.671418 25.564201 212 212 212 0
7.148154 -5.679355 25.599979 213 213 213 0
7.246126 -5.679396 25.600164 212 212 212 0
7.333848 -5.671509 25.564612 213 213 213 0
7.436634 -5.675326 25.581818 213 213 213 0
7.533144 -5.674316 25.577264 213 213 213 0
7.632605 -5.675527 25.582723 213 213 213 0
7.736823 -5.680199 25.603784 213 213 213 0
-7.007089 -4.992551 22.898985 204 204 204 0
-6.931323 -5.001081 22.938108 204 204 204 0
-6.831590 -4.992316 22.897906 204 204 204 0
-6.741841 -4.990713 22.890556 204 204 204 0
-6.654827 -4.991120 22.892421 205 205 205 0
-6.641685 -5.047681 23.151845 205 205 205 0
-6.599128 -5.083112 23.314353 205 205 205 0
-6.528243 -5.097396 23.379867 205 205 205 0
-6.430173 -5.090554 23.348487 205 205 205 0
-6.366241 -5.110926 23.441926 204 204 204 0
-6.294539 -5.125554 23.509017 205 205 205 0
-6.264453 -5.174983 23.735733 205 205 205 0
-6.221134 -5.214774 23.918237 205 205 205 0
-6.124460 -5.210361 23.897999 205 205 205 0
-5.999591 -5.181465 23.765463 206 206 206 0
-5.942761 -5.211344 23.902509 205 205 205 0
-5.926815 -5.278570 24.210846 205 205 205 0
-5.888903 -5.328055 24.437817 206 206 206 0
-5.747494 -5.283987 24.235693 206 206 206 0
-5.623103 -5.254375 24.099875 206 206 206 0
-5.513302 -5.237637 24.023101 206 206 206 0
-5.574441 -5.385477 24.701188 206 206 206 0
-5.423640 -5.330129 24.447331 205 205 205 0
-5.324651 -5.324651 24.422204 206 206 206 0
-5.184430 -5.277009 24.203687 206 206 206 0
-5.064567 -5.248733 24.073995 206 206 206 0
-4.974593 -5.250959 24.084206 206 206 206 0
-4.952039 -5.325778 24.427372 206 206 206 0
-4.876388 -5.345271 24.516781 206 206 206 0
-4.751941 -5.310993 24.359559 206 206 206 0
-4.646251 -5.296727 24.294125 206 206 206 0
-4.566070 -5.311551 24.362117 206 206 206 0
-4.511424 -5.357316 24.572025 206 206 206 0
-4.429643 -5.372120 24.639926 206 206 206 0
-4.334017 -5.370412 24.632094 207 207 207 0
-4.225073 -5.351759 24.546538 206 206 206 0
-4.152608 -5.379516 24.673847 207 207 207 0
-4.082992 -5.412338 24.824390 207 207 207 0
-4.007283 -5.438456 24.944185 206 206 206 0
-3.903762 -5.427181 24.892472 207 207 207 0
-3.790976 -5.402140 24.777618 207 207 207 0
-3.688043 -5.390217 24.722932 207 207 207 0
-3.596459 -5.394689 24.743442 207 207 207 0
-3.441636 -5.301980 24.318222 207 207 207 0
-3.440600 -5.447616 24.986201 207 207 207 0
-3.323327 -5.412275 24.824104 208 208 208 0
-3.213632 -5.387560 24.710743 207 207 207 0
-3.124339 -5.396586 24.752142 208 208 208 0
-3.035684 -5.407313 24.801343 208 208 208 0
-2.950814 -5.425690 24.885632 208 208 208 0
-2.857493 -5.429236 24.901899 207 207 207 0
-2.758317 -5.421519 24.866503 207 207 207 0
-2.666992 -5.429234 24.901886 208 208 208 0
-2.581533 -5.449904 24.996691 208 208 208 0
-2.485780 -5.449594 24.995271 208 208 208 0
-2.390735 -5.450876 25.001150 208 208 208 0
-2.299424 -5.461131 25.048189 208 208 208 0
-2.205320 -5.465359 25.067580 208 208 208 0
-2.110958 -5.469300 25.085654 209 209 209 0
-2.017369 -5.475716 25.115081 208 208 208 0
-1.925185 -5.486777 25.165818 208 208 208 0
-1.834263 -5.502790 25.239261 209 209 209 0
-1.733608 -5.489760 25.179498 209 209 209 0
-1.632649 -5.474177 25.108023 209 209 209 0
-1.536120 -5.472427 25.099998 209 209 209 0
-1.445123 -5.491469 25.187336 208 208 208 0
-1.348475 -5.490220 25.181606 209 209 209 0
-1.250801 -5.484280 25.154361 209 209 209 0
-1.153435 -5.478817 25.129306 209 209 209 0
-1.054794 -5.465749 25.069370 209 209 209 0
-0.962083 -5.483873 25.152498 209 209 209 0
-0.868526 -5.500662 25.229503 209 209 209 0
-0.772462 -5.503793 25.243863 209 209 209 0
-0.674539 -5.492673 25.192858 209 209 209 0
-0.577269 -5.484059 25.153348 210 210 210 0
-0.481641 -5.490707 25.183843 209 209 209 0
-0.386321 -5.505075 25.249742 209 209 209 0
-0.290453 -5.518604 25.311796 209 209 209 0
-0.193480 -5.514168 25.291448 209 209 209 0
-0.096584 -5.505313 25.250835 210 210 210 0
0.000000 -5.514070 25.290999 209 209 209 0
0.097283 -5.545154 25.433570 210 210 210 0
0.194759 -5.550641 25.458737 210 210 210 0
0.291017 -5.529315 25.360923 210 210 210 0
0.387496 -5.521823 25.326557 210 210 210 0
0.484795 -5.526660 25.348747 210 210 210 0
0.640507 -6.084813 27.908786 210 210 210 0
0.679921 -5.536497 25.393863 210 210 210 0
0.775370 -5.524509 25.338879 209 209 209 0
0.869328 -5.505747 25.252822 210 210 210 0
0.965837 -5.505271 25.250639 210 210 210 0
1.068009 -5.534227 25.383452 210 210 210 0
1.166165 -5.539283 25.406641 210 210 210 0
1.259889 -5.524130 25.337139 210 210 210 0
1.356371 -5.522368 25.329059 210 210 210 0
1.454183 -5.525897 25.345246 210 210 210 0
1.554994 -5.539667 25.408401 210 210 210 0
1.650891 -5.535341 25.388563 210 210 210 0
1.749026 -5.538584 25.403434 211 211 211 0
1.843877 -5.531631 25.371544 210 210 210 0
1.946541 -5.547641 25.444975 211 211 211 0
2.045375 -5.551733 25.463743 210 210 210 0
2.148437 -5.566404 25.531034 210 210 210 0
2.245467 -5.564853 25.523920 211 211 211 0
2.339097 -5.555355 25.480356 210 210 210 0
2.436759 -5.555811 25.482451 211 211 211 0
2.535691 -5.559014 25.497142 211 211 211 0
2.638127 -5.569379 25.544681 211 211 211 0
2.728664 -5.554779 25.477717 210 210 210 0
2.821181 -5.545079 25.433225 211 211 211 0
2.919817 -5.547653 25.445030 210 210 210 0
3.014167 -5.542179 25.419923 211 211 211 0
3.118051 -5.554029 25.474275 211 211 211 0
3.220113 -5.562013 25.510896 212 212 212 0
3.315747 -5.558752 25.495937 211 211 211 0
3.413181 -5.558609 25.495284 211 211 211 0
3.507648 -5.553776 25.473115 211 211 211 0
3.604666 -5.553135 25.470174 211 211 211 0
3.703624 -5.555436 25.480729 212 212 212 0
3.805882 -5.562443 25.512867 211 211 211 0
3.903455 -5.562423 25.512776 211 211 211 0
4.000263 -5.561342 25.507817 212 212 212 0
4.105258 -5.571421 25.554048 212 212 212 0
4.217002 -5.589979 25.639167 211 211 211 0
4.312386 -5.586500 25.623206 211 211 211 0
4.401408 -5.575117 25.570999 212 212 212 0
4.489657 -5.563271 25.516664 212 212 212 0
4.595715 -5.573527 25.563704 212 212 212 0
4.708887 -5.591804 25.647535 212 212 212 0
4.792891 -5.575404 25.572313 212 212 212 0
4.878600 -5.561604 25.509021 212 212 212 0
4.970136 -5.554858 25.478080 212 212 212 0
5.070110 -5.557620 25.490749 212 212 212 0
5.183415 -5.574616 25.568702 212 212 212 0
5.279940 -5.573270 25.562529 212 212 212 0
5.368696 -5.563922 25.519649 212 212 212 0
5.467163 -5.564791 25.523636 212 212 212 0
5.571382 -5.571382 25.553866 212 212 212 0
5.673175 -5.575362 25.572122 213 213 213 0
5.774851 -5.579093 25.589235 212 212 212 0
5.866977 -5.573629 25.564172 212 212 212 0
5.970247 -5.578755 25.587686 212 212 212 0
6.075047 -5.585124 25.616897 212 212 212 0
6.182960 -5.594107 25.658097 213 213 213 0
6.281375 -5.594349 25.659210 212 212 212 0
6.365845 -5.582356 25.604202 212 212 212 0
6.459084 -5.578300 25.585599 213 213 213 0
6.565046 -5.585188 25.617193 212 212 212 0
6.673168 -5.593685 25.656162 213 213 213 0
6.753945 -5.579346 25.590395 212 212 212 0
6.843104 -5.572242 25.557812 212 212 212 0
6.936884 -5.569047 25.543160 212 212 212 0
7.041198 -5.574282 25.567167 212 212 212 0
7.146823 -5.580396 25.595210 213 213 213 0
7.247154 -5.582268 25.603796 213 213 213 0
7.335335 -5.574855 25.569796 212 212 212 0
7.439882 -5.579911 25.592988 212 212 212 0
7.536169 -5.578723 25.587537 213 213 213 0
7.634485 -5.579047 25.589023 213 213 213 0
7.738289 -5.583323 25.608634 212 212 212 0
-6.986709 -4.890697 22.832383 204 204 204 0
-6.926782 -4.910124 22.923081 204 204 204 0
-6.836830 -4.908494 22.915470 204 204 204 0
-6.753126 -4.911365 22.928873 204 204 204 0
-6.649834 -4.899878 22.875246 204 204 204 0
-6.627305 -4.948387 23.101716 204 204 204 0
-6.607958 -5.000617 23.345550 205 205 205 0
-6.537662 -5.015193 23.413599 205 205 205 0
-6.433097 -5.003520 23.359103 205 205 205 0
-6.358990 -5.015541 23.415224 205 205 205 0
-6.289971 -5.031977 23.491956 205 205 205 0
-6.272248 -5.090520 23.765266 205 205 205 0
-6.230885 -5.131317 23.955728 205 205 205 0
-6.121422 -5.116412 23.886144 205 205 205 0
-5.993794 -5.085643 23.742499 205 205 205 0
-5.945775 -5.122514 23.914629 205 205 205 0
-5.933643 -5.191938 24.238737 206 206 206 0
-5.889054 -5.234715 24.438444 205 205 205 0
-5.753531 -5.196738 24.261148 206 206 206 0
-5.623519 -5.162575 24.101657 206 206 206 0
-5.506813 -5.139692 23.994826 205 205 205 0
-5.580152 -5.296416 24.726498 206 206 206 0
-5.428710 -5.241513 24.470183 207 207 207 0
-5.324640 -5.231226 24.422155 206 206 206 0
-5.188687 -5.188687 24.223561 206 206 206 0
-5.068527 -5.160682 24.092822 205 205 205 0
-4.979482 -5.163907 24.107875 206 206 206 0
-4.959253 -5.239966 24.462960 206 206 206 0
-4.878544 -5.253817 24.527622 206 206 206 0
-4.751739 -5.217596 24.358524 206 206 206 0
-4.646517 -5.204099 24.295513 207 207 207 0
-4.562031 -5.213750 24.340567 206 206 206 0
-4.510468 -5.262213 24.566818 207 207 207 0
-4.430554 -5.278957 24.644993 206 206 206 0
-4.333487 -5.275549 24.629079 207 207 207 0
-4.227180 -5.260491 24.558782 207 207 207 0
-4.144854 -5.275269 24.627772 206 206 206 0
-4.083885 -5.318548 24.829821 207 207 207 0
-4.010306 -5.347074 24.962999 207 207 207 0
-3.906055 -5.335099 24.907091 207 207 207 0
-3.789239 -5.304934 24.766266 207 207 207 0
-3.689579 -5.297857 24.733228 207 207 207 0
-3.597828 -5.302063 24.752860 207 207 207 0
-3.407300 -5.156994 24.075603 207 207 207 0
-3.442445 -5.354915 24.999604 207 207 207 0
-3.327013 -5.323221 24.851639 208 208 208 0
-3.214251 -5.294060 24.715500 207 207 207 0
-3.125045 -5.303107 24.757738 208 208 208 0
-3.036941 -5.314647 24.811610 208 208 208 0
-2.949094 -5.327395 24.871126 208 208 208 0
-2.857132 -5.333313 24.898756 207 207 207 0
-2.756400 -5.322704 24.849225 208 208 208 0
-2.668065 -5.336129 24.911900 208 208 208 0
-2.579475 -5.350022 24.976761 208 208 208 0
-2.487674 -5.358068 25.014322 208 208 208 0
-2.389701 -5.352929 24.990333 208 208 208 0
-2.300884 -5.368729 25.064096 208 208 208 0
-2.205903 -5.370894 25.074202 208 208 208 0
-2.110718 -5.372736 25.082802 208 208 208 0
-2.016302 -5.376806 25.101802 208 208 208 0
-1.926399 -5.393918 25.181690 208 208 208 0
-1.833702 -5.404595 25.231534 208 208 208 0
-1.732873 -5.391160 25.168816 208 208 208 0
-1.632684 -5.378252 25.108553 208 208 208 0
-1.536036 -5.376124 25.098620 208 208 208 0
-1.445165 -5.395283 25.188064 209 209 209 0
-1.348519 -5.394077 25.182430 209 209 209 0
-1.251628 -5.391627 25.170996 209 209 209 0
-1.152701 -5.379273 25.113320 209 209 209 0
-1.054400 -5.367855 25.060014 209 209 209 0
-0.962269 -5.388707 25.157363 209 209 209 0
-0.868587 -5.404544 25.231296 209 209 209 0
-0.773222 -5.412556 25.268704 209 209 209 0
-0.674734 -5.397871 25.200144 209 209 209 0
-0.577342 -5.388526 25.156519 209 209 209 0
-0.481711 -5.395160 25.187486 209 209 209 0
-0.386255 -5.407572 25.245436 209 209 209 0
-0.290608 -5.424690 25.325349 210 210 210 0
-0.193460 -5.416872 25.288853 209 209 209 0
-0.096598 -5.409480 25.254341 210 210 210 0
0.000000 -5.415009 25.280154 209 209 209 0
0.097276 -5.447432 25.431522 210 210 210 0
0.194788 -5.454071 25.462515 210 210 210 0
0.291097 -5.433811 25.367933 209 209 209 0
0.387342 -5.422793 25.316495 209 209 209 0
0.485258 -5.434886 25.372952 210 210 210 0
0.642242 -5.994260 27.984407 210 210 210 0
0.679906 -5.439250 25.393322 209 209 209 0
0.775373 -5.427612 25.338990 209 209 209 0
0.869384 -5.409502 25.254445 210 210 210 0
0.965892 -5.408993 25.252069 210 210 210 0
1.067507 -5.434581 25.371527 210 210 210 0
1.165809 -5.440443 25.398891 210 210 210 0
1.260262 -5.428821 25.344638 211 211 211 0
1.356431 -5.425726 25.330187 210 210 210 0
1.454152 -5.428835 25.344700 210 210 210 0
1.554614 -5.441148 25.402184 211 211 211 0
1.652163 -5.442420 25.408122 210 210 210 0
1.748437 -5.439583 25.394880 211 211 211 0
1.844468 -5.436325 25.379671 211 211 211 0
1.946758 -5.450923 25.447818 210 210 210 0
2.045744 -5.455316 25.468331 210 210 210 0
2.148349 -5.468525 25.529998 211 211 211 0
2.246507 -5.469757 25.535746 211 211 211 0
2.339403 -5.458606 25.483690 211 211 211 0
2.436447 -5.457640 25.479180 211 211 211 0
2.535466 -5.461004 25.494882 211 211 211 0
2.637130 -5.469602 25.535025 210 210 210 0
2.728580 -5.457159 25.476934 210 210 210 0
2.823346 -5.451979 25.452750 211 211 211 0
2.919258 -5.449282 25.440158 211 211 211 0
3.014119 -5.444860 25.419514 211 211 211 0
3.115526 -5.452170 25.453643 212 212 212 0
3.219339 -5.463121 25.504768 211 211 211 0
3.316517 -5.462498 25.501859 211 211 211 0
3.413492 -5.461587 25.497604 211 211 211 0
3.506640 -5.454774 25.465799 211 211 211 0
3.603788 -5.454382 25.463969 211 211 211 0
3.702922 -5.456938 25.475901 211 211 211 0
3.807062 -5.466550 25.520775 211 211 211 0
3.905277 -5.467388 25.524685 211 211 211 0
4.002572 -5.466928 25.522539 211 211 211 0
4.103273 -5.471031 25.541694 211 211 211 0
4.216246 -5.490925 25.634569 211 211 211 0
4.312382 -5.488486 25.623185 212 212 212 0
4.400973 -5.476766 25.568470 211 211 211 0
4.489952 -5.466028 25.518338 211 211 211 0
4.597903 -5.478352 25.575875 211 211 211 0
4.707595 -5.492194 25.640494 212 212 212 0
4.793939 -5.478788 25.577908 212 212 212 0
4.876522 -5.461705 25.498155 212 212 212 0
4.969889 -5.457133 25.476814 212 212 212 0
5.067446 -5.457250 25.477358 212 212 212 0
5.181173 -5.474447 25.557641 212 212 212 0
5.280383 -5.475953 25.564673 212 212 212 0
5.371904 -5.469575 25.534897 212 212 212 0
5.466161 -5.466161 25.518959 212 212 212 0
5.573090 -5.475317 25.561703 211 211 211 0
5.673183 -5.477556 25.572157 212 212 212 0
5.773766 -5.480185 25.584430 212 212 212 0
5.868341 -5.477118 25.570113 212 212 212 0
5.970078 -5.480728 25.586964 213 213 213 0
6.075821 -5.487838 25.620160 212 212 212 0
6.185688 -5.498389 25.669418 212 212 212 0
6.281032 -5.495903 25.657811 212 212 212 0
6.366211 -5.484736 25.605675 213 213 213 0
6.459229 -5.480558 25.586170 212 212 212 0
6.565934 -5.487945 25.620658 212 212 212 0
6.672821 -5.495265 25.654830 212 212 212 0
6.754468 -5.481887 25.592378 212 212 212 0
6.842121 -5.473697 25.554141 212 212 212 0
6.937396 -5.471749 25.545045 212 212 212 0
7.041619 -5.476815 25.568698 212 212 212 0
7.147668 -5.483142 25.598236 212 212 212 0
7.243120 -5.481280 25.589543 212 212 212 0
7.336379 -5.477830 25.573435 213 213 213 0
7.440340 -5.482356 25.594565 213 213 213 0
7.537327 -5.481692 25.591467 213 213 213 0
7.634227 -5.480984 25.588159 212 212 212 0
7.738203 -5.485308 25.608348 212 212 212 0
-6.982286 -4.800321 22.817927 204 204 204 0
-6.933701 -4.827260 22.945979 204 204 204 0
-6.821823 -4.810260 22.865169 204 204 204 0
-6.743901 -4.817072 22.897552 204 204 204 0
-6.657937 -4.818244 22.903120 204 204 204 0
-6.634409 -4.865233 23.126479 204 204 204 0
-6.610723 -4.913375 23.355319 205 205 205 0
-6.515538 -4.908967 23.334366 205 205 205 0
-6.436623 -4.916865 23.371908 205 205 205 0
-6.364999 -4.930633 23.437353 204 204 204 0
-6.287467 -4.940153 23.482604 205 205 205 0
-6.270269 -4.998041 23.757769 205 205 205 0
-6.229805 -5.038813 23.951577 205 205 205 0
-6.131045 -5.032947 23.923695 205 205 205 0
-5.999746 -4.999788 23.766076 205 205 205 0
-5.951198 -5.035629 23.936443 205 205 205 0
-5.934588 -5.100037 24.242599 206 206 206 0
-5.885379 -5.138029 24.423192 206 206 206 0
-5.752648 -5.103156 24.257425 205 205 205 0
-5.625255 -5.071951 24.109095 206 206 206 0
-5.512070 -5.052731 24.017735 205 205 205 0
-5.572733 -5.194920 24.693620 206 206 206 0
-5.424097 -5.143541 24.449391 205 205 205 0
-5.324736 -5.137903 24.422592 206 206 206 0
-5.183834 -5.091265 24.200905 206 206 206 0
-5.062406 -5.062406 24.063724 206 206 206 0
-4.974975 -5.067105 24.086059 206 206 206 0
-4.953334 -5.140252 24.433760 206 206 206 0
-4.876164 -5.157481 24.515654 207 207 207 0
-4.753034 -5.125821 24.365164 207 207 207 0
-4.643169 -5.107486 24.278010 206 206 206 0
-4.567742 -5.127057 24.371039 206 206 206 0
-4.509000 -5.166562 24.558823 206 206 206 0
-4.430239 -5.184323 24.643245 207 207 207 0
-4.335719 -5.184012 24.641770 206 206 206 0
-4.224394 -5.163149 24.542596 206 206 206 0
-4.143633 -5.179542 24.620519 206 206 206 0
-4.085083 -5.225106 24.837105 207 207 207 0
-4.008096 -5.248697 24.949242 207 207 207 0
-3.906304 -5.240164 24.908682 207 207 207 0
-3.791865 -5.213814 24.783432 207 207 207 0
-3.690694 -5.204825 24.740700 207 207 207 0
-3.597741 -5.207257 24.752263 207 207 207 0
-3.364832 -5.001778 23.775534 207 207 207 0
-3.445789 -5.264399 25.023883 207 207 207 0
-3.327284 -5.228589 24.853661 207 207 207 0
-3.215381 -5.201352 24.724193 208 208 208 0
-3.127181 -5.211968 24.774653 208 208 208 0
-3.038603 -5.222599 24.825189 207 207 207 0
-2.949987 -5.233848 24.878659 208 208 208 0
-2.856065 -5.236119 24.889456 208 208 208 0
-2.757905 -5.230510 24.862793 207 207 207 0
-2.666697 -5.238154 24.899130 208 208 208 0
-2.581295 -5.258194 24.994386 208 208 208 0
-2.486445 -5.259786 25.001956 208 208 208 0
-2.390674 -5.259482 25.000508 208 208 208 0
-2.298855 -5.268209 25.041993 208 208 208 0
-2.206567 -5.276574 25.081753 208 208 208 0
-2.109637 -5.274093 25.069960 208 208 208 0
-2.016885 -5.282317 25.109055 209 209 209 0
-1.925906 -5.296240 25.175236 208 208 208 0
-1.834429 -5.310189 25.241541 209 209 209 0
-1.733130 -5.295675 25.172547 208 208 208 0
-1.632788 -5.282549 25.110156 209 209 209 0
-1.536316 -5.281086 25.103201 208 208 208 0
-1.445068 -5.298584 25.186379 209 209 209 0
-1.348957 -5.299473 25.190604 209 209 209 0
-1.252047 -5.297123 25.179433 209 209 209 0
-1.152536 -5.282456 25.109715 208 208 208 0
-1.055028 -5.275140 25.074939 209 209 209 0
-0.962551 -5.294033 25.164745 208 208 208 0
-0.869150 -5.311470 25.247629 209 209 209 0
-0.773108 -5.315119 25.264975 209 209 209 0
-0.674551 -5.300042 25.193308 209 209 209 0
-0.577320 -5.292097 25.155542 209 209 209 0
-0.481732 -5.299047 25.188580 209 209 209 0
-0.386316 -5.311839 25.249381 210 210 210 0
-0.290405 -5.324083 25.307584 209 209 209 0
-0.193430 -5.319334 25.285008 209 209 209 0
-0.096607 -5.313395 25.256778 210 210 210 0
0.000000 -5.316440 25.271255 210 210 210 0
0.097224 -5.347334 25.418105 209 209 209 0
0.194687 -5.353884 25.449240 210 210 210 0
0.291214 -5.338924 25.378128 210 210 210 0
0.387466 -5.327658 25.324576 210 210 210 0
0.485078 -5.335855 25.363540 210 210 210 0
0.641593 -5.881270 27.956127 210 210 210 0
0.679810 -5.341361 25.389714 210 210 210 0
0.775662 -5.332678 25.348439 210 210 210 0
0.869540 -5.313858 25.258980 210 210 210 0
0.966220 -5.314208 25.260645 210 210 210 0
1.067828 -5.339140 25.379157 211 211 211 0
1.166248 -5.345302 25.408445 210 210 210 0
1.260547 -5.333084 25.350371 210 210 210 0
1.356865 -5.330542 25.338286 210 210 210 0
1.454533 -5.333288 25.351339 210 210 210 0
1.554616 -5.343992 25.402218 210 210 210 0
1.652392 -5.345973 25.411637 210 210 210 0
1.749591 -5.345973 25.411634 210 210 210 0
1.844277 -5.338696 25.377044 210 210 210 0
1.944635 -5.347746 25.420066 210 210 210 0
2.046620 -5.360196 25.479243 211 211 211 0
2.147925 -5.369812 25.524953 211 211 211 0
2.245308 -5.369216 25.522119 210 210 210 0
2.339795 -5.362031 25.487968 211 211 211 0
2.436124 -5.359473 25.475807 211 211 211 0
2.534238 -5.360889 25.482538 211 211 211 0
2.635866 -5.369356 25.522786 211 211 211 0
2.728425 -5.359407 25.475493 211 211 211 0
2.820874 -5.349933 25.430459 211 211 211 0
2.918733 -5.351010 25.435580 211 211 211 0
3.015176 -5.349506 25.428431 211 211 211 0
3.115756 -5.355206 25.455527 211 211 211 0
3.217514 -5.362524 25.490309 211 211 211 0
3.315387 -5.363126 25.493170 211 211 211 0
3.413981 -5.364827 25.501259 211 211 211 0
3.507773 -5.359098 25.474026 211 211 211 0
3.605079 -5.358901 25.473090 211 211 211 0
3.704585 -5.361899 25.487340 211 211 211 0
3.806333 -5.367906 25.515891 211 211 211 0
3.902422 -5.365830 25.506023 211 211 211 0
4.002196 -5.368800 25.520142 212 212 212 0
4.104583 -5.375049 25.549846 211 211 211 0
4.216056 -5.392629 25.633414 212 212 212 0
4.311210 -5.389012 25.616219 211 211 211 0
4.401437 -5.379534 25.571165 212 212 212 0
4.491348 -5.370090 25.526273 212 212 212 0
4.597876 -5.380493 25.575724 212 212 212 0
4.707258 -5.393733 25.638658 212 212 212 0
4.793123 -5.380036 25.573550 213 213 213 0
4.876118 -5.363730 25.496042 212 212 212 0
4.971239 -5.361140 25.483729 212 212 212 0
5.067335 -5.359681 25.476796 211 211 211 0
5.183965 -5.379586 25.571413 212 212 212 0
5.281217 -5.379017 25.568709 211 211 211 0
5.370735 -5.370735 25.529339 212 212 212 0
5.465409 -5.367812 25.515447 212 212 212 0
5.571086 -5.375610 25.552512 212 212 212 0
5.673314 -5.379867 25.572748 212 212 212 0
5.773238 -5.381832 25.582091 212 212 212 0
5.867411 -5.378460 25.566063 213 213 213 0
5.968868 -5.381766 25.581775 212 212 212 0
6.076769 -5.390682 25.624157 212 212 212 0
6.184633 -5.399283 25.665040 212 212 212 0
6.279484 -5.396432 25.651488 212 212 212 0
6.365902 -5.386532 25.604431 212 212 212 0
6.457494 -5.381245 25.579297 212 212 212 0
6.564012 -5.388368 25.613158 213 213 213 0
6.671728 -5.396250 25.650626 213 213 213 0
6.754334 -5.383890 25.591870 212 212 212 0
6.840578 -5.374740 25.548377 212 212 212 0
6.935292 -5.372410 25.537301 212 212 212 0
7.039247 -5.377202 25.560083 213 213 213 0
7.148145 -5.385589 25.599948 213 213 213 0
7.247479 -5.386640 25.604943 213 213 213 0
7.334704 -5.378783 25.567596 213 213 213 0
7.439932 -5.384161 25.593160 212 212 212 0
7.534966 -5.382119 25.583452 213 213 213 0
7.635096 -5.383721 25.591070 213 213 213 0
7.737726 -5.387024 25.606770 212 212 212 0
-6.986650 -4.715989 22.832189 204 204 204 0
-6.924840 -4.733435 22.916655 204 204 204 0
-6.832221 -4.729999 22.900020 205 205 205 0
-6.741816 -4.728027 22.890471 205 205 205 0
-6.644841 -4.721334 22.858070 205 205 205 0
-6.633563 -4.776165 23.123530 204 204 204 0
-6.601279 -4.817150 23.321955 205 205 205 0
-6.516760 -4.820617 23.338742 204 204 204 0
-6.432708 -4.824531 23.357692 205 205 205 0
-6.355584 -4.833825 23.402686 205 205 205 0
-6.285247 -4.848619 23.474312 205 205 205 0
-6.264522 -4.902670 23.735995 205 205 205 0
-6.219088 -4.938687 23.910371 205 205 205 0
-6.120103 -4.932621 23.881000 205 205 205 0
-5.999522 -4.908700 23.765188 205 205 205 0
-5.951531 -4.944349 23.937782 206 206 206 0
-5.932856 -5.005847 24.235522 205 205 205 0
-5.876627 -5.037109 24.386875 206 206 206 0
-5.753255 -5.010899 24.259982 206 206 206 0
-5.624950 -4.979464 24.107788 206 206 206 0
-5.514524 -4.963072 24.028427 205 205 205 0
-5.568812 -5.096879 24.676246 205 205 205 0
-5.423464 -5.049432 24.446536 205 205 205 0
-5.321743 -5.041651 24.408866 206 206 206 0
-5.183590 -4.998462 24.199767 206 206 206 0
-5.063706 -4.971638 24.069903 206 206 206 0
-4.974584 -4.974584 24.084163 206 206 206 0
-4.954495 -5.047976 24.439486 206 206 206 0
-4.874380 -5.061856 24.506687 206 206 206 0
-4.753240 -5.032842 24.366216 206 206 206 0
-4.645032 -5.016634 24.287747 206 206 206 0
-4.563730 -5.029417 24.349634 206 206 206 0
-4.514352 -5.078646 24.587974 207 207 207 0
-4.427364 -5.086759 24.627251 207 207 207 0
-4.334883 -5.088776 24.637018 207 207 207 0
-4.225520 -5.070623 24.549133 206 206 206 0
-4.146256 -5.088587 24.636105 207 207 207 0
-4.084182 -5.128973 24.831629 207 207 207 0
-4.008639 -5.153965 24.952627 207 207 207 0
-3.906532 -5.145188 24.910135 208 208 208 0
-3.788468 -5.114432 24.761230 207 207 207 0
-3.687665 -5.105998 24.720397 207 207 207 0
-3.598779 -5.114054 24.759402 207 207 207 0
-3.329588 -4.859398 23.526499 207 207 207 0
-3.448469 -5.172704 25.043351 207 207 207 0
-3.329136 -5.136381 24.867493 208 208 208 0
-3.215417 -5.106838 24.724464 208 208 208 0
-3.125473 -5.114411 24.761127 207 207 207 0
-3.036008 -5.123264 24.803990 208 208 208 0
-2.949499 -5.137837 24.874544 208 208 208 0
-2.854970 -5.138946 24.879911 208 208 208 0
-2.756514 -5.132820 24.850254 208 208 208 0
-2.666637 -5.142801 24.898574 208 208 208 0
-2.579485 -5.158971 24.976862 208 208 208 0
-2.488946 -5.169349 25.027105 208 208 208 0
-2.389402 -5.161107 24.987206 208 208 208 0
-2.299192 -5.173181 25.045660 208 208 208 0
-2.206292 -5.179991 25.078628 209 209 209 0
-2.111104 -5.181800 25.087390 208 208 208 0
-2.017194 -5.187070 25.112904 209 209 209 0
-1.925754 -5.199536 25.173256 208 208 208 0
-1.833893 -5.212117 25.234164 209 209 209 0
-1.734943 -5.204830 25.198885 209 209 209 0
-1.632920 -5.186923 25.112193 209 209 209 0
-1.535585 -5.182601 25.091264 209 209 209 0
-1.445845 -5.205042 25.199914 208 208 208 0
-1.349549 -5.205402 25.201655 209 209 209 0
-1.251995 -5.200596 25.178388 209 209 209 0
-1.152928 -5.188178 25.118266 208 208 208 0
-1.055067 -5.179421 25.075871 210 210 210 0
-0.962834 -5.199306 25.172140 208 208 208 0
-0.869009 -5.214052 25.243535 209 209 209 0
-0.772869 -5.216863 25.257145 209 209 209 0
-0.674608 -5.204116 25.195430 209 209 209 0
-0.577387 -5.196484 25.158482 209 209 209 0
-0.481670 -5.202040 25.185377 209 209 209 0
-0.386264 -5.214565 25.246020 210 210 210 0
-0.290401 -5.227219 25.307281 209 209 209 0
-0.193458 -5.223367 25.288630 209 209 209 0
-0.096533 -5.212782 25.237386 209 209 209 0
0.000000 -5.220782 25.276116 209 209 209 0
0.097177 -5.247558 25.405751 209 209 209 0
0.194775 -5.258924 25.460777 210 210 210 0
0.291104 -5.239875 25.368556 209 209 209 0
0.387487 -5.231079 25.325970 210 210 210 0
0.484895 -5.236865 25.353981 209 209 209 0
0.640747 -5.766722 27.919254 210 210 210 0
0.679740 -5.243708 25.387112 210 210 210 0
0.775235 -5.232834 25.334467 210 210 210 0
0.869247 -5.215480 25.250446 210 210 210 0
0.965678 -5.214662 25.246487 210 210 210 0
1.068397 -5.244858 25.392677 210 210 210 0
1.166018 -5.247083 25.403452 211 211 211 0
1.260720 -5.236838 25.353851 210 210 210 0
1.356640 -5.232754 25.334078 210 210 210 0
1.454842 -5.237433 25.356731 210 210 210 0
1.555770 -5.250724 25.421080 210 210 210 0
1.652195 -5.248149 25.408612 211 211 211 0
1.749275 -5.247824 25.407041 211 211 211 0
1.844012 -5.240876 25.373403 210 210 210 0
1.947049 -5.257033 25.451625 210 210 210 0
2.046194 -5.261641 25.473935 211 211 211 0
2.148033 -5.272445 25.526240 211 211 211 0
2.246046 -5.273326 25.530506 211 211 211 0
2.339562 -5.264016 25.485430 211 211 211 0
2.436771 -5.263425 25.482570 211 211 211 0
2.534063 -5.263053 25.480769 210 210 210 0
2.636543 -5.273085 25.529340 210 210 210 0
2.727869 -5.260891 25.470302 211 211 211 0
2.821587 -5.253989 25.436885 211 211 211 0
2.918698 -5.253656 25.435274 211 211 211 0
3.013973 -5.250147 25.418284 211 211 211 0
3.117787 -5.261266 25.472117 211 211 211 0
3.218579 -5.266765 25.498743 212 212 212 0
3.315203 -5.265322 25.491756 211 211 211 0
3.413799 -5.267005 25.499901 211 211 211 0
3.507976 -5.261965 25.475501 212 212 212 0
3.604168 -5.260137 25.466654 212 212 212 0
3.703305 -5.262591 25.478532 211 211 211 0
3.807015 -5.271251 25.520459 211 211 211 0
3.903289 -5.269440 25.511692 212 212 212 0
4.002846 -5.272041 25.524286 212 212 212 0
4.102987 -5.275269 25.539913 212 212 212 0
4.214169 -5.292212 25.621942 212 212 212 0
4.310996 -5.290768 25.614950 211 211 211 0
4.400839 -5.281006 25.567690 212 212 212 0
4.489592 -5.270391 25.516296 212 212 212 0
4.597472 -5.282202 25.573480 212 212 212 0
4.707308 -5.295721 25.638931 212 212 212 0
4.793526 -5.282662 25.575704 211 211 211 0
4.875797 -5.265860 25.494362 212 212 212 0
4.970029 -5.262383 25.477527 212 212 212 0
5.068264 -5.263198 25.481469 211 211 211 0
5.182170 -5.279947 25.562561 213 213 213 0
5.282928 -5.282928 25.576994 211 211 211 0
5.371278 -5.273618 25.531921 212 212 212 0
5.468725 -5.273413 25.530928 212 212 212 0
5.574170 -5.280792 25.566653 212 212 212 0
5.671949 -5.280780 25.566593 212 212 212 0
5.773286 -5.284024 25.582301 212 212 212 0
5.868164 -5.281348 25.569343 212 212 212 0
5.967329 -5.282553 25.575179 212 212 212 0
6.075022 -5.291149 25.616793 212 212 212 0
6.181255 -5.298219 25.651023 212 212 212 0
6.278493 -5.297478 25.647438 212 212 212 0
6.366027 -5.288699 25.604933 212 212 212 0
6.459039 -5.284669 25.585420 212 212 212 0
6.565537 -5.291627 25.619110 212 212 212 0
6.674100 -5.300021 25.659746 213 213 213 0
6.755670 -5.287046 25.596930 212 212 212 0
6.840742 -5.277144 25.548992 212 212 212 0
6.937442 -5.276365 25.545218 213 213 213 0
7.039563 -5.279672 25.561231 213 213 213 0
7.148238 -5.287738 25.600280 212 212 212 0
7.244086 -5.286225 25.592955 212 212 212 0
7.337415 -5.282939 25.577045 212 212 212 0
7.441196 -5.287165 25.597509 213 213 213 0
7.536661 -5.285451 25.589207 212 212 212 0
7.633297 -5.284590 25.585040 212 212 212 0
7.738278 -5.289456 25.608599 212 212 212 0
-6.998681 -4.636626 22.871507 204 204 204 0
-6.934692 -4.652389 22.949259 204 204 204 0
-6.828634 -4.639969 22.887998 204 204 204 0
-6.743926 -4.641923 22.897635 204 204 204 0
-6.642931 -4.632570 22.851499 205 205 205 0
-6.641881 -4.693596 23.152528 204 204 204 0
-6.599617 -4.726753 23.316083 205 205 205 0
-6.523788 -4.736449 23.363911 205 205 205 0
-6.429602 -4.732902 23.346413 205 205 205 0
-6.363077 -4.749902 23.430274 206 206 206 0
-6.271904 -4.748727 23.424477 205 205 205 0
-6.250558 -4.801154 23.683086 205 205 205 0
-6.202037 -4.833941 23.844819 204 204 204 0
-6.109474 -4.832867 23.839523 205 205 205 0
-6.006619 -4.823497 23.793300 205 205 205 0
-5.949790 -4.851367 23.930780 205 205 205 0
-5.924614 -4.906321 24.201853 205 205 205 0
-5.880153 -4.946795 24.401505 206 206 206 0
-5.745688 -4.911636 24.228074 205 205 205 0
-5.625294 -4.887550 24.109263 206 206 206 0
-5.518182 -4.874394 24.044367 206 206 206 0
-5.559780 -4.994378 24.636223 206 206 206 0
-5.422466 -4.955012 24.442036 206 206 206 0
-5.322442 -4.948938 24.412074 206 206 206 0
-5.183429 -4.905745 24.199016 205 205 205 0
-5.059020 -4.875055 24.047627 207 207 207 0
-4.978715 -4.886517 24.104166 206 206 206 0
-4.953587 -4.953587 24.435007 206 206 206 0
-4.878389 -4.972205 24.526844 207 207 207 0
-4.754662 -4.941119 24.373506 207 207 207 0
-4.645583 -4.924318 24.290629 206 206 206 0
-4.570461 -4.943560 24.385546 206 206 206 0
-4.512181 -4.982200 24.576149 206 206 206 0
-4.434777 -5.000919 24.668486 207 207 207 0
-4.337837 -4.997943 24.653807 207 207 207 0
-4.226611 -4.978009 24.555477 207 207 207 0
-4.145555 -4.993510 24.631939 207 207 207 0
-4.079655 -5.028412 24.804104 207 207 207 0
-4.008181 -5.057943 24.949772 208 208 208 0
-3.906835 -5.050299 24.912069 207 207 207 0
-3.790433 -5.022324 24.774072 207 207 207 0
-3.686328 -5.009625 24.711430 207 207 207 0
-3.595799 -5.015193 24.738900 208 208 208 0
-3.309421 -4.740521 23.383999 207 207 207 0
-3.449528 -5.078471 25.051035 207 207 207 0
-3.330931 -5.043982 24.880907 208 208 208 0
-3.214776 -5.011269 24.719540 207 207 207 0
-3.126271 -5.020981 24.767449 208 208 208 0
-3.034092 -5.025215 24.788332 208 208 208 0
-2.950945 -5.045164 24.886737 208 208 208 0
-2.857637 -5.048492 24.903157 208 208 208 0
-2.756412 -5.037580 24.849330 209 209 209 0
-2.668862 -5.051774 24.919346 208 208 208 0
-2.579422 -5.063310 24.976250 208 208 208 0
-2.485484 -5.066563 24.992296 208 208 208 0
-2.388690 -5.064023 24.979764 208 208 208 0
-2.299871 -5.078883 25.053065 209 209 209 0
-2.203986 -5.078751 25.052414 208 208 208 0
-2.110745 -5.084976 25.083120 209 209 209 0
-2.016283 -5.088714 25.101561 208 208 208 0
-1.927418 -5.107659 25.195012 208 208 208 0
-1.835049 -5.118822 25.250075 208 208 208 0
-1.732638 -5.101657 25.165406 208 208 208 0
-1.631671 -5.086974 25.092979 208 208 208 0
-1.535714 -5.087052 25.093364 209 209 209 0
-1.445133 -5.106137 25.187503 209 209 209 0
-1.349398 -5.108436 25.198845 209 209 209 0
-1.252150 -5.104920 25.181501 209 209 209 0
-1.152450 -5.089988 25.107847 209 209 209 0
-1.055216 -5.084220 25.079395 209 209 209 0
-0.962734 -5.102491 25.169521 209 209 209 0
-0.869691 -5.121514 25.263358 209 209 209 0
-0.772240 -5.116087 25.236589 209 209 209 0
-0.674312 -5.105505 25.184388 210 210 210 0
-0.577138 -5.098052 25.147625 210 210 210 0
-0.481494 -5.103836 25.176156 209 209 209 0
-0.386267 -5.118039 25.246214 210 210 210 0
-0.290290 -5.128461 25.297627 210 210 210 0
-0.193254 -5.121233 25.261970 209 209 209 0
-0.096539 -5.116565 25.238945 209 209 209 0
0.000000 -5.121812 25.264828 209 209 209 0
0.097240 -5.153694 25.422093 209 209 209 0
0.194776 -5.161558 25.460886 210 210 210 0
0.290999 -5.140981 25.359385 210 210 210 0
0.387462 -5.133867 25.324291 210 210 210 0
0.485473 -5.146013 25.384206 210 210 210 0
0.638696 -5.641812 27.829878 210 210 210 0
0.680156 -5.149755 25.402663 210 210 210 0
0.775191 -5.135641 25.333043 210 210 210 0
0.869569 -5.120793 25.259799 211 211 211 0
0.965603 -5.117696 25.244521 210 210 210 0
1.068227 -5.146914 25.388650 210 210 210 0
1.166106 -5.150302 25.405363 211 211 211 0
1.261066 -5.141268 25.360798 210 210 210 0
1.357505 -5.139124 25.350225 210 210 210 0
1.456240 -5.145383 25.381097 210 210 210 0
1.555012 -5.150978 25.408696 210 210 210 0
1.651887 -5.150001 25.403876 211 211 211 0
1.749095 -5.150112 25.404427 210 210 210 0
1.844395 -5.144893 25.378679 211 211 211 0
1.946289 -5.157665 25.441683 211 211 211 0
2.046312 -5.164501 25.475402 210 210 210 0
2.148397 -5.175683 25.530563 211 211 211 0
2.246898 -5.177634 25.540185 211 211 211 0
2.339016 -5.165327 25.479479 211 211 211 0
2.435718 -5.163723 25.471564 211 211 211 0
2.535049 -5.167599 25.490685 211 211 211 0
2.635546 -5.173479 25.519689 211 211 211 0
2.728603 -5.164855 25.477148 211 211 211 0
2.822479 -5.158324 25.444933 211 211 211 0
2.918287 -5.155640 25.431694 211 211 211 0
3.013843 -5.152699 25.417188 212 212 212 0
3.116066 -5.160984 25.458054 211 211 211 0
3.217892 -5.168129 25.493301 211 211 211 0
3.315479 -5.168247 25.493881 212 212 212 0
3.413339 -5.168770 25.496461 212 212 212 0
3.507491 -5.163806 25.471973 211 211 211 0
3.605805 -5.165072 25.478217 211 211 211 0
