ply
    format ascii 1.0
    element vertex 25597
    property float x
    property float y
    property float z
    property uchar red
    property uchar green
    property uchar blue
    property uchar alpha
    end_header
1.521169 2.471900 24.855703 211 211 211 0
1.619872 2.477451 24.911526 211 211 211 0
1.717165 2.480349 24.940661 211 211 211 0
1.812154 2.479789 24.935038 211 211 211 0
1.906341 2.478244 24.919493 211 211 211 0
2.001125 2.477584 24.912860 212 212 212 0
2.098159 2.479643 24.933560 212 212 212 0
2.200035 2.486996 25.007501 211 211 211 0
2.297863 2.489352 25.031192 211 211 211 0
2.393177 2.488904 25.026684 212 212 212 0
2.485828 2.485828 24.995756 212 212 212 0
2.581725 2.486106 24.998547 212 212 212 0
2.678350 2.487039 25.007932 212 212 212 0
2.781630 2.493875 25.076671 212 212 212 0
2.866945 2.484686 24.984273 213 213 213 0
2.963394 2.485427 24.991727 212 212 212 0
3.055077 2.482250 24.959776 212 212 212 0
3.149890 2.481731 24.954563 212 212 212 0
3.247858 2.483656 24.973915 211 211 211 0
3.346879 2.486253 25.000031 213 213 213 0
3.446479 2.489124 25.028896 212 212 212 0
3.541389 2.488544 25.023066 212 212 212 0
3.634257 2.486597 25.003489 212 212 212 0
3.729676 2.486451 25.002019 212 212 212 0
3.831701 2.490606 25.043800 212 212 212 0
3.930931 2.492785 25.065715 212 212 212 0
4.025209 2.491796 25.055767 213 213 213 0
4.112067 2.486366 25.001165 213 213 213 0
4.223421 2.495658 25.094599 212 212 212 0
4.329180 2.501304 25.151373 212 212 212 0
4.419444 2.497946 25.117610 212 212 212 0
4.507416 2.493464 25.072543 212 212 212 0
4.589305 2.485874 24.996216 213 213 213 0
4.427287 2.349173 23.621646 213 213 213 0
4.806579 2.499421 25.132439 213 213 213 0
4.894077 2.495020 25.088184 213 213 213 0
4.976875 2.488437 25.021995 212 212 212 0
5.065475 2.484950 24.986929 213 213 213 0
5.173837 2.491107 25.048836 213 213 213 0
5.279386 2.495710 25.095122 213 213 213 0
5.373375 2.494781 25.085784 212 212 212 0
5.459512 2.490304 25.040760 212 212 212 0
5.555332 2.490321 25.040939 212 212 212 0
5.654858 2.491971 25.057529 213 213 213 0
5.757463 2.494901 25.086984 213 213 213 0
5.854872 2.495519 25.093206 213 213 213 0
5.946673 2.493766 25.075577 213 213 213 0
6.049924 2.496794 25.106024 213 213 213 0
6.156220 2.500965 25.147959 213 213 213 0
6.262768 2.505107 25.189613 213 213 213 0
6.357228 2.504363 25.182127 213 213 213 0
6.440203 2.499183 25.130050 213 213 213 0
6.530871 2.497098 25.109078 213 213 213 0
6.633364 2.499529 25.133521 213 213 213 0
6.741766 2.504085 25.179333 213 213 213 0
6.818653 2.496972 25.107808 213 213 213 0
6.908498 2.494735 25.085323 214 214 214 0
7.004605 2.494791 25.085881 213 213 213 0
7.105848 2.496649 25.104567 213 213 213 0
7.207373 2.498556 25.123740 214 214 214 0
7.299274 2.497120 25.109303 214 214 214 0
7.391494 2.495829 25.096321 213 213 213 0
7.492230 2.497410 25.112219 213 213 213 0
7.591561 2.498489 25.123062 213 213 213 0
-6.854385 2.313355 22.399951 205 205 205 0
-6.816559 2.329710 22.558317 205 205 205 0
-6.735512 2.331524 22.575875 205 205 205 0
-6.645197 2.330134 22.562420 205 205 205 0
-6.536875 2.322311 22.486670 205 205 205 0
-6.525385 2.349138 22.746439 205 205 205 0
-6.482105 2.365092 22.900920 205 205 205 0
-6.420988 2.374886 22.995747 206 206 206 0
-6.344303 2.379113 23.036683 206 206 206 0
-6.251672 2.377396 23.020056 206 206 206 0
-6.165608 2.378163 23.027481 206 206 206 0
-6.107218 2.389781 23.139976 206 206 206 0
-6.094726 2.419965 23.432240 206 206 206 0
-6.011381 2.422497 23.456760 206 206 206 0
-5.916872 2.420538 23.437797 206 206 206 0
-5.810866 2.413744 23.372011 206 206 206 0
-5.766171 2.432603 23.554620 206 206 206 0
-5.746228 2.462669 23.845744 207 207 207 0
-5.664459 2.466781 23.885554 207 207 207 0
-5.529651 2.447550 23.699351 206 206 206 0
-5.395716 2.428072 23.510743 206 206 206 0
-5.325554 2.437118 23.598336 206 206 206 0
-5.304138 2.469168 23.908670 206 206 206 0
-5.217534 2.471464 23.930900 207 207 207 0
-5.109414 2.463468 23.853474 207 207 207 0
-4.984928 2.447146 23.695439 207 207 207 0
-4.879999 2.440000 23.626237 207 207 207 0
-4.840724 2.466029 23.878277 208 208 208 0
-4.783175 2.483572 24.048142 207 207 207 0
-4.690673 2.483297 24.045483 207 207 207 0
-4.576416 2.471265 23.928974 207 207 207 0
-4.464869 2.460234 23.822164 207 207 207 0
-4.400827 2.475465 23.969648 207 207 207 0
-4.332202 2.488712 24.097913 208 208 208 0
-4.254636 2.497287 24.180940 207 207 207 0
-4.154426 2.492656 24.136099 208 208 208 0
-4.046285 2.482948 24.042100 208 208 208 0
-3.973043 2.494701 24.155905 207 207 207 0
-3.909489 2.513243 24.335441 208 208 208 0
-3.830747 2.522687 24.426889 208 208 208 0
-3.735320 2.521341 24.413857 208 208 208 0
-3.626877 2.510915 24.312902 208 208 208 0
-3.528092 2.506802 24.273077 208 208 208 0
-3.453466 2.520097 24.401808 208 208 208 0
-3.387060 2.540295 24.597383 208 208 208 0
-3.278014 2.528754 24.485633 207 207 207 0
-3.169079 2.516621 24.368155 209 209 209 0
-3.067025 2.509384 24.298082 209 209 209 0
-2.976601 2.511507 24.318636 208 208 208 0
-2.891573 2.518467 24.386028 209 209 209 0
-2.803122 2.522810 24.428076 209 209 209 0
-2.708687 2.521881 24.419086 209 209 209 0
-2.614611 2.521232 24.412805 209 209 209 0
-2.526087 2.526087 24.459815 209 209 209 0
-2.434840 2.528488 24.483056 209 209 209 0
-2.340896 2.528168 24.479959 209 209 209 0
-2.248351 2.529394 24.491836 209 209 209 0
-2.157224 2.532394 24.520879 209 209 209 0
-2.066047 2.535603 24.551951 209 209 209 0
-1.977745 2.542815 24.621788 209 209 209 0
-1.885278 2.545125 24.644156 209 209 209 0
-1.793648 2.548868 24.680400 209 209 209 0
-1.706631 2.559946 24.787664 209 209 209 0
-1.608494 2.554667 24.736545 210 210 210 0
-1.509087 2.546584 24.658282 209 209 209 0
-1.414724 2.546504 24.657506 210 210 210 0
-1.325594 2.556503 24.754325 209 209 209 0
-1.230630 2.555924 24.748723 210 210 210 0
-1.134571 2.552786 24.718330 210 210 210 0
-1.038069 2.547987 24.671868 210 210 210 0
-0.942516 2.544793 24.640941 210 210 210 0
-0.849226 2.547678 24.668871 210 210 210 0
-0.756919 2.554601 24.735912 210 210 210 0
-0.662785 2.556458 24.753893 210 210 210 0
-0.567453 2.553536 24.725600 209 209 209 0
-0.471683 2.547086 24.663145 210 210 210 0
-0.377627 2.548985 24.681528 210 210 210 0
-0.284111 2.557000 24.759136 210 210 210 0
-0.189956 2.564403 24.830825 210 210 210 0
-0.094885 2.561889 24.806473 210 210 210 0
0.000000 2.557777 24.766665 210 210 210 0
0.094641 2.555303 24.742706 210 210 210 0
0.190443 2.570982 24.894524 211 211 211 0
0.286635 2.579712 24.979059 211 211 211 0
0.381307 2.573819 24.921997 211 211 211 0
0.475300 2.566619 24.852276 211 211 211 0
0.569327 2.561969 24.807257 210 210 210 0
0.666845 2.572115 24.905491 211 211 211 0
0.764511 2.580225 24.984026 210 210 210 0
0.856742 2.570227 24.887213 211 211 211 0
0.948991 2.562276 24.810223 211 211 211 0
1.042538 2.558958 24.778096 211 211 211 0
1.138682 2.562034 24.807881 212 212 212 0
1.238480 2.572228 24.906590 211 211 211 0
1.333461 2.571674 24.901227 211 211 211 0
1.426148 2.567066 24.856605 211 211 211 0
1.521836 2.568098 24.866596 211 211 211 0
1.620126 2.573141 24.915431 212 212 212 0
1.717438 2.576157 24.944632 211 211 211 0
1.813128 2.576550 24.948437 211 211 211 0
1.906479 2.573747 24.921300 212 212 212 0
2.001937 2.573919 24.922964 211 211 211 0
2.098696 2.575673 24.939945 212 212 212 0
2.201218 2.584039 25.020954 211 211 211 0
2.297987 2.585236 25.032542 211 211 211 0
2.392489 2.583888 25.019488 211 211 211 0
2.486824 2.582471 25.005771 212 212 212 0
2.581889 2.581889 25.000133 212 212 212 0
2.677342 2.581722 24.998520 211 211 211 0
2.780396 2.588645 25.065549 211 211 211 0
2.867048 2.580343 24.985163 213 213 213 0
2.961928 2.579744 24.979363 212 212 212 0
3.055884 2.578402 24.966373 212 212 212 0
3.148709 2.576216 24.945208 212 212 212 0
3.247281 2.578723 24.969479 212 212 212 0
3.349221 2.583685 25.017526 212 212 212 0
3.444898 2.583674 25.017415 212 212 212 0
3.540960 2.583944 25.020033 212 212 212 0
3.632350 2.580880 24.990370 212 212 212 0
3.730108 2.582382 25.004910 212 212 212 0
3.832872 2.587189 25.051454 212 212 212 0
3.930881 2.588629 25.065398 212 212 212 0
4.024538 2.587203 25.051591 213 213 213 0
4.112083 2.582006 25.001265 212 212 212 0
4.223286 2.591562 25.093799 213 213 213 0
4.330232 2.598139 25.157487 212 212 212 0
4.419532 2.594073 25.118114 212 212 212 0
4.507029 2.589144 25.070387 213 213 213 0
4.592572 2.583322 25.014011 213 213 213 0
4.439039 2.446001 23.684350 213 213 213 0
4.807416 2.596005 25.136816 212 212 212 0
4.895079 2.591513 25.093320 213 213 213 0
4.976856 2.584137 25.021903 213 213 213 0
5.065520 2.580548 24.987151 213 213 213 0
5.173322 2.586661 25.046342 213 213 213 0
5.279983 2.591992 25.097957 213 213 213 0
5.370742 2.589465 25.073490 213 213 213 0
5.459214 2.585944 25.039396 213 213 213 0
5.553516 2.585258 25.032754 212 212 212 0
5.659816 2.590085 25.079498 213 213 213 0
5.759023 2.591560 25.093780 213 213 213 0
5.856911 2.592403 25.101943 213 213 213 0
5.947145 2.589886 25.077567 213 213 213 0
6.049310 2.592562 25.103477 213 213 213 0
6.157499 2.597695 25.153184 213 213 213 0
6.262741 2.601446 25.189507 213 213 213 0
6.358597 2.601244 25.187550 213 213 213 0
6.440150 2.595284 25.129841 213 213 213 0
6.530300 2.592913 25.106881 213 213 213 0
6.632758 2.595427 25.131222 214 214 214 0
6.743489 2.601060 25.185768 213 213 213 0
6.821262 2.594001 25.117415 214 214 214 0
6.907416 2.590281 25.081394 213 213 213 0
7.003661 2.590395 25.082498 213 213 213 0
7.103915 2.591969 25.097739 214 214 214 0
7.207206 2.594594 25.123160 213 213 213 0
7.298093 2.592743 25.105237 214 214 214 0
7.393393 2.592488 25.102768 213 213 213 0
7.492861 2.593683 25.114331 213 213 213 0
7.592580 2.594932 25.126432 213 213 213 0
-6.875198 2.406319 22.467966 204 204 204 0
-6.826670 2.419579 22.591777 204 204 204 0
-6.731534 2.416448 22.562541 205 205 205 0
-6.649335 2.417940 22.576472 206 206 206 0
-6.534039 2.407278 22.476915 205 205 205 0
-6.528698 2.437381 22.757989 205 205 205 0
-6.483701 2.453292 22.906557 206 206 206 0
-6.422077 2.463263 22.999651 206 206 206 0
-6.343374 2.466868 23.033312 206 206 206 0
-6.270007 2.472679 23.087570 205 205 205 0
-6.167655 2.467062 23.035126 206 206 206 0
-6.095882 2.473691 23.097025 206 206 206 0
-6.084084 2.505211 23.391325 205 205 205 0
-6.007414 2.510561 23.441281 205 205 205 0
-5.916475 2.510020 23.436226 206 206 206 0
-5.807701 2.501779 23.359281 207 207 207 0
-5.766848 2.522996 23.557384 205 205 205 0
-5.729569 2.546475 23.776610 206 206 206 0
-5.662298 2.557167 23.876442 207 207 207 0
-5.522600 2.534964 23.669133 206 206 206 0
-5.406984 2.523259 23.559842 207 207 207 0
-5.331106 2.530016 23.622935 206 206 206 0
-5.311778 2.564307 23.943106 207 207 207 0
-5.218145 2.563299 23.933701 206 206 206 0
-5.110249 2.555125 23.857373 207 207 207 0
-4.981094 2.535830 23.677215 207 207 207 0
-4.878418 2.529550 23.618583 207 207 207 0
-4.833779 2.553695 23.844020 207 207 207 0
-4.783353 2.575652 24.049034 207 207 207 0
-4.692066 2.576036 24.052625 208 208 208 0
-4.575437 2.562245 23.923852 207 207 207 0
-4.466926 2.552529 23.833138 207 207 207 0
-4.390829 2.561317 23.915193 207 207 207 0
-4.335113 2.582620 24.114102 207 207 207 0
-4.260014 2.593052 24.211501 208 208 208 0
-4.156752 2.586423 24.149612 207 207 207 0
-4.048365 2.576232 24.054455 208 208 208 0
-3.970912 2.585710 24.142949 208 208 208 0
-3.911351 2.607568 24.347037 208 208 208 0
-3.832292 2.617175 24.436739 208 208 208 0
-3.736667 2.615667 24.422662 208 208 208 0
-3.627012 2.604008 24.313804 208 208 208 0
-3.533554 2.603671 24.310657 208 208 208 0
-3.456958 2.616076 24.426484 208 208 208 0
-3.383741 2.631799 24.573284 208 208 208 0
-3.276664 2.621331 24.475550 209 209 209 0
-3.166765 2.607924 24.350367 209 209 209 0
-3.065798 2.601283 24.288358 208 208 208 0
-2.975675 2.603716 24.311074 209 209 209 0
-2.889106 2.609515 24.365218 209 209 209 0
-2.801302 2.614549 24.412219 209 209 209 0
-2.710817 2.617341 24.438289 208 208 208 0
-2.614656 2.614656 24.413222 208 208 208 0
-2.525903 2.619455 24.458029 209 209 209 0
-2.435434 2.622775 24.489027 208 208 208 0
-2.340265 2.621097 24.473364 209 209 209 0
-2.245983 2.620314 24.466050 209 209 209 0
-2.157580 2.626619 24.524923 209 209 209 0
-2.064695 2.627794 24.535891 209 209 209 0
-1.977402 2.636536 24.617513 209 209 209 0
-1.883098 2.636337 24.615654 209 209 209 0
-1.793872 2.643601 24.683479 210 210 210 0
-1.705564 2.653099 24.772166 209 209 209 0
-1.608117 2.648662 24.730742 210 210 210 0
-1.508997 2.640744 24.656811 210 210 210 0
-1.414472 2.640347 24.653100 209 209 209 0
-1.326231 2.652462 24.766215 209 209 209 0
-1.230056 2.649352 24.737179 210 210 210 0
-1.134901 2.648102 24.725506 209 209 209 0
-1.037872 2.641855 24.667183 210 210 210 0
-0.941099 2.635076 24.603884 210 210 210 0
-0.849486 2.642844 24.676416 210 210 210 0
-0.756811 2.648838 24.732383 210 210 210 0
-0.662481 2.649925 24.742534 211 211 211 0
-0.567539 2.648517 24.729386 210 210 210 0
-0.471856 2.642393 24.672201 210 210 210 0
-0.377603 2.643218 24.679909 210 210 210 0
-0.284029 2.650935 24.751960 210 210 210 0
-0.189936 2.659102 24.828219 210 210 210 0
-0.094855 2.655939 24.798686 210 210 210 0
0.000000 2.652818 24.769541 211 211 211 0
0.094647 2.650109 24.744249 210 210 210 0
0.190435 2.666093 24.893489 210 210 210 0
0.286697 2.675836 24.984463 210 210 210 0
0.381305 2.669136 24.921903 210 210 210 0
0.475340 2.661903 24.854369 211 211 211 0
0.569281 2.656645 24.805272 211 211 211 0
0.666852 2.667406 24.905753 211 211 211 0
0.764925 2.677239 24.997562 211 211 211 0
0.856798 2.665594 24.888837 211 211 211 0
0.949104 2.657491 24.813175 211 211 211 0
1.043104 2.655175 24.791548 212 212 212 0
1.138697 2.656960 24.808214 211 211 211 0
1.238966 2.668541 24.916350 211 211 211 0
1.333353 2.666706 24.899211 211 211 211 0
1.425641 2.661197 24.847780 211 211 211 0
1.522075 2.663632 24.870514 211 211 211 0
1.621433 2.670595 24.935531 211 211 211 0
1.717709 2.671992 24.948573 212 212 212 0
1.811465 2.669527 24.925553 211 211 211 0
1.905705 2.667987 24.911174 212 212 212 0
2.003391 2.671189 24.941069 212 212 212 0
2.098215 2.670455 24.934219 211 211 211 0
2.200313 2.678642 25.010660 212 212 212 0
2.299976 2.683306 25.054207 211 211 211 0
2.393996 2.681275 25.035250 212 212 212 0
2.487169 2.678490 25.009240 211 211 211 0
2.581600 2.677215 24.997336 211 211 211 0
2.677591 2.677591 25.000849 211 211 211 0
2.780199 2.684330 25.063771 212 212 212 0
2.866418 2.675323 24.979677 212 212 212 0
2.961099 2.674541 24.972369 212 212 212 0
3.055521 2.673581 24.963404 212 212 212 0
3.147984 2.671017 24.939465 212 212 212 0
3.247614 2.674506 24.972045 212 212 212 0
3.349245 2.679396 25.017702 212 212 212 0
3.445532 2.679858 25.022021 212 212 212 0
3.540700 2.679449 25.018195 212 212 212 0
3.633968 2.677661 25.001502 212 212 212 0
3.729821 2.677820 25.002989 212 212 212 0
3.833240 2.683268 25.053858 212 212 212 0
3.931535 2.684951 25.069569 212 212 212 0
4.024702 2.683135 25.052610 212 212 212 0
4.113524 2.678574 25.010028 212 212 212 0
4.225796 2.689143 25.108709 213 213 213 0
4.330171 2.694329 25.157130 213 213 213 0
4.419608 2.690196 25.118546 212 212 212 0
4.512841 2.688501 25.102717 213 213 213 0
4.596791 2.681461 25.036988 213 213 213 0
4.406303 2.517887 23.509686 212 212 212 0
4.808669 2.692855 25.143366 213 213 213 0
4.894231 2.687029 25.088970 213 213 213 0
4.976690 2.679756 25.021065 213 213 213 0
5.065485 2.676105 24.986977 213 213 213 0
5.173513 2.682562 25.047267 213 213 213 0
5.281555 2.688792 25.105432 213 213 213 0
5.372522 2.686261 25.081801 213 213 213 0
5.460501 2.682351 25.045298 214 214 214 0
5.553257 2.680883 25.031587 213 213 213 0
5.658546 2.685412 25.073872 213 213 213 0
5.761121 2.688523 25.102924 213 213 213 0
5.854926 2.687507 25.093435 213 213 213 0
5.947762 2.686086 25.080170 212 212 212 0
6.048822 2.688365 25.101452 212 212 212 0
6.156539 2.693486 25.149259 214 214 214 0
6.262574 2.697724 25.188836 213 213 213 0
6.355411 2.696235 25.174930 213 213 213 0
6.440098 2.691384 25.129639 213 213 213 0
6.528670 2.688276 25.100614 213 213 213 0
6.632675 2.691520 25.130908 213 213 213 0
6.740423 2.696169 25.174316 213 213 213 0
6.821972 2.690355 25.120030 213 213 213 0
6.905949 2.685647 25.076068 213 213 213 0
7.003588 2.686308 25.082238 214 214 214 0
7.105818 2.688688 25.104462 213 213 213 0
7.209421 2.691517 25.130878 214 214 214 0
7.301892 2.690171 25.118308 213 213 213 0
7.394971 2.689080 25.108126 213 213 213 0
7.492115 2.689477 25.111830 213 213 213 0
7.590983 2.690475 25.121150 213 213 213 0
-6.854893 2.484899 22.401612 205 205 205 0
-6.824601 2.505233 22.584931 205 205 205 0
-6.724450 2.500116 22.538796 205 205 205 0
-6.633727 2.498417 22.523476 204 204 204 0
-6.532292 2.492585 22.470904 206 206 206 0
-6.525267 2.523103 22.746027 205 205 205 0
-6.467340 2.534498 22.848754 205 205 205 0
-6.428503 2.553789 23.022661 205 205 205 0
-6.335037 2.551612 23.003038 206 206 206 0
-6.255231 2.554954 23.033164 206 206 206 0
-6.167676 2.555180 23.035206 205 205 205 0
-6.097344 2.562652 23.102565 205 205 205 0
-6.084615 2.594909 23.393368 206 206 206 0
-6.004999 2.599179 23.431857 206 206 206 0
-5.912822 2.598058 23.421756 206 206 206 0
-5.799182 2.587327 23.325014 206 206 206 0
-5.770535 2.614774 23.572449 206 206 206 0
-5.742289 2.643276 23.829398 206 206 206 0
-5.663749 2.649173 23.882561 206 206 206 0
-5.529928 2.628982 23.700540 207 207 207 0
-5.396634 2.608373 23.514746 207 207 207 0
-5.326043 2.617886 23.600502 206 206 206 0
-5.314138 2.657069 23.953744 206 206 206 0
-5.226100 2.658893 23.970185 207 207 207 0
-5.110439 2.646477 23.858258 207 207 207 0
-4.980362 2.626009 23.673733 207 207 207 0
-4.882390 2.622024 23.637813 207 207 207 0
-4.838674 2.647576 23.868166 207 207 207 0
-4.788090 2.670281 24.072852 207 207 207 0
-4.690334 2.667053 24.043746 207 207 207 0
-4.576812 2.654551 23.931044 208 208 208 0
-4.470107 2.645574 23.850112 208 208 208 0
-4.391691 2.653313 23.919883 208 208 208 0
-4.333862 2.674085 24.107145 208 208 208 0
-4.252606 2.680991 24.169401 207 207 207 0
-4.152753 2.676218 24.126377 208 208 208 0
-4.046202 2.666815 24.041604 208 208 208 0
-3.968862 2.676674 24.130489 208 208 208 0
-3.911828 2.701024 24.350003 207 207 207 0
-3.830622 2.709464 24.426092 207 207 207 0
-3.736828 2.709200 24.423713 208 208 208 0
-3.626920 2.696940 24.313186 208 208 208 0
-3.530177 2.694082 24.287423 208 208 208 0
-3.455311 2.708217 24.414847 208 208 208 0
-3.383518 2.725612 24.571663 208 208 208 0
-3.277672 2.715785 24.483076 208 208 208 0
-3.168899 2.702885 24.366777 209 209 209 0
-3.064493 2.693039 24.278019 208 208 208 0
-2.975400 2.696456 24.308822 208 208 208 0
-2.888667 2.702301 24.361516 209 209 209 0
-2.802857 2.709428 24.425769 209 209 209 0
-2.710329 2.710329 24.433886 209 209 209 0
-2.614076 2.707436 24.407810 209 209 209 0
-2.524616 2.711625 24.445571 208 208 208 0
-2.435742 2.716789 24.492128 209 209 209 0
-2.341969 2.716684 24.491178 208 208 208 0
-2.248993 2.717533 24.498831 209 209 209 0
-2.157191 2.719937 24.520504 209 209 209 0
-2.067068 2.724771 24.564083 208 208 208 0
-1.977337 2.730609 24.616713 209 209 209 0
-1.884163 2.732037 24.629587 209 209 209 0
-1.794504 2.738980 24.692181 209 209 209 0
-1.705676 2.748033 24.773794 209 209 209 0
-1.608878 2.744556 24.742445 209 209 209 0
-1.509780 2.736476 24.669606 210 210 210 0
-1.413966 2.733667 24.644284 209 209 209 0
-1.325554 2.745791 24.753578 210 210 210 0
-1.230513 2.744992 24.746374 209 209 209 0
-1.135361 2.743790 24.735545 210 210 210 0
-1.037935 2.736373 24.668679 209 209 209 0
-0.941604 2.730651 24.617088 210 210 210 0
-0.849373 2.736869 24.673147 210 210 210 0
-0.756978 2.744046 24.737849 210 210 210 0
-0.663081 2.747051 24.764939 211 211 211 0
-0.567453 2.742688 24.725607 210 210 210 0
-0.471602 2.735294 24.658946 210 210 210 0
-0.377759 2.738753 24.690136 210 210 210 0
-0.284028 2.745603 24.751889 210 210 210 0
-0.190077 2.756114 24.846643 211 211 211 0
-0.094874 2.751340 24.803608 211 211 211 0
0.000000 2.747187 24.766171 210 210 210 0
0.094585 2.742957 24.728031 211 211 211 0
0.190370 2.760362 24.884944 210 210 210 0
0.286654 2.770986 24.980715 211 211 211 0
0.381311 2.764504 24.922277 211 211 211 0
0.475234 2.756359 24.848850 211 211 211 0
0.569489 2.752530 24.814331 210 210 210 0
0.666475 2.761110 24.891688 211 211 211 0
0.764992 2.773095 24.999726 211 211 211 0
0.856901 2.761126 24.891829 211 211 211 0
0.949248 2.752819 24.816938 211 211 211 0
1.042654 2.748815 24.780847 211 211 211 0
1.139605 2.754046 24.827997 211 211 211 0
1.238988 2.763897 24.916804 211 211 211 0
1.333571 2.762397 24.903286 211 211 211 0
1.425858 2.756659 24.851555 211 211 211 0
1.521108 2.757009 24.854714 211 211 211 0
1.621278 2.765710 24.933155 211 211 211 0
1.717606 2.767254 24.947075 211 211 211 0
1.811954 2.765614 24.932285 212 212 212 0
1.905568 2.763074 24.909388 211 211 211 0
2.001110 2.763438 24.912666 211 211 211 0
2.098568 2.766294 24.938422 211 211 211 0
2.200392 2.774407 25.011557 211 211 211 0
2.298247 2.777048 25.035367 211 211 211 0
2.393351 2.776287 25.028509 212 212 212 0
2.487270 2.774263 25.010255 212 212 212 0
2.580708 2.771872 24.988702 212 212 212 0
2.678437 2.774095 25.008746 211 211 211 0
2.780639 2.780639 25.067738 212 212 212 0
2.867214 2.771640 24.986611 212 212 212 0
2.961883 2.770794 24.978985 211 211 211 0
3.055094 2.768679 24.959920 211 211 211 0
3.149932 2.768122 24.954895 212 212 212 0
3.248424 2.770714 24.978267 212 212 212 0
3.349209 2.775059 25.017433 212 212 212 0
3.445287 2.775370 25.020238 212 212 212 0
3.540100 2.774673 25.013957 212 212 212 0
3.633589 2.773002 24.998891 212 212 212 0
3.730433 2.773912 25.007095 212 212 212 0
3.832553 2.778601 25.049369 213 213 213 0
3.930885 2.780382 25.065424 212 212 212 0
4.023042 2.777815 25.042279 212 212 212 0
4.113447 2.774185 25.009558 212 212 212 0
4.225396 2.784920 25.106333 212 212 212 0
4.330774 2.790943 25.160632 213 213 213 0
4.420528 2.786855 25.123775 212 212 212 0
4.514674 2.785650 25.112913 212 212 212 0
4.600208 2.779292 25.055600 213 213 213 0
4.351994 2.575670 23.219925 212 212 212 0
4.805620 2.787260 25.127427 213 213 213 0
4.893787 2.782742 25.086695 212 212 212 0
4.977052 2.775664 25.022885 213 213 213 0
5.066060 2.771995 24.989813 212 212 212 0
5.173491 2.778357 25.047163 213 213 213 0
5.279009 2.783478 25.093330 213 213 213 0
5.374600 2.783275 25.091502 213 213 213 0
5.458592 2.777178 25.036542 213 213 213 0
5.554002 2.777001 25.034944 213 213 213 0
5.660502 2.782281 25.082538 213 213 213 0
5.759320 2.783671 25.095075 213 213 213 0
5.855982 2.783991 25.097960 212 212 212 0
5.946658 2.781501 25.075512 213 213 213 0
6.049529 2.784704 25.104383 213 213 213 0
6.155606 2.789259 25.145448 213 213 213 0
6.261947 2.793792 25.186313 213 213 213 0
6.358561 2.793913 25.187406 213 213 213 0
6.438008 2.786601 25.121484 213 213 213 0
6.528349 2.784149 25.099381 213 213 213 0
6.632934 2.787755 25.131888 214 214 214 0
6.742404 2.793282 25.181715 213 213 213 0
6.819325 2.785358 25.110281 213 213 213 0
6.907191 2.782063 25.080578 213 213 213 0
7.004305 2.782532 25.084805 214 214 214 0
7.103999 2.784000 25.098036 213 213 213 0
7.211434 2.788421 25.137895 213 213 213 0
7.299416 2.785304 25.109792 213 213 213 0
7.397220 2.785966 25.115763 214 214 214 0
7.491744 2.785392 25.110589 214 214 214 0
7.595908 2.788371 25.137446 214 214 214 0
-6.833969 2.562738 22.333233 204 204 204 0
-6.808257 2.585414 22.530842 206 206 206 0
-6.731278 2.588953 22.561683 205 205 205 0
-6.649241 2.590614 22.576153 205 205 205 0
-6.524718 2.575546 22.444849 205 205 205 0
-6.517383 2.606953 22.718545 205 205 205 0
-6.473076 2.624220 22.869020 205 205 205 0
-6.429594 2.642299 23.026571 205 205 205 0
-6.345148 2.643812 23.039752 206 206 206 0
-6.254444 2.642723 23.030263 206 206 206 0
-6.162347 2.641006 23.015302 206 206 206 0
-6.099202 2.651827 23.109603 206 206 206 0
-6.082910 2.683637 23.386812 207 207 207 0
-6.006059 2.689280 23.435991 206 206 206 0
-5.917126 2.689603 23.438803 206 206 206 0
-5.799361 2.676628 23.325736 206 206 206 0
-5.763048 2.701429 23.541864 206 206 206 0
-5.741869 2.734223 23.827655 206 206 206 0
-5.662162 2.739756 23.875866 206 206 206 0
-5.523116 2.716287 23.671343 207 207 207 0
-5.397075 2.698537 23.516666 206 206 206 0
-5.329677 2.710005 23.616601 206 206 206 0
-5.306891 2.744943 23.921076 207 207 207 0
-5.229082 2.752148 23.983865 207 207 207 0
-5.115269 2.740323 23.880808 207 207 207 0
-4.990661 2.722178 23.722688 207 207 207 0
-4.880287 2.711270 23.627629 207 207 207 0
-4.838432 2.738735 23.866971 207 207 207 0
-4.784584 2.760337 24.055222 207 207 207 0
-4.691050 2.759441 24.047419 208 208 208 0
-4.570883 2.742530 23.900042 207 207 207 0
-4.470109 2.736802 23.850124 207 207 207 0
-4.397773 2.748608 23.953011 207 207 207 0
-4.333033 2.765766 24.102536 207 207 207 0
-4.252458 2.773342 24.168561 207 207 207 0
-4.155464 2.770309 24.142130 208 208 208 0
-4.046457 2.758948 24.043121 207 207 207 0
-3.970251 2.769943 24.138933 208 208 208 0
-3.912182 2.794416 24.352206 208 208 208 0
-3.830705 2.802955 24.426622 208 208 208 0
-3.735597 2.801698 24.415665 208 208 208 0
-3.628232 2.790948 24.321984 208 208 208 0
-3.531842 2.788296 24.298880 207 207 207 0
-3.456413 2.802497 24.422632 207 207 207 0
-3.385283 2.821069 24.584478 208 208 208 0
-3.276798 2.808684 24.476549 208 208 208 0
-3.167278 2.794657 24.354308 209 209 209 0
-3.066769 2.787971 24.296047 208 208 208 0
-2.975367 2.789407 24.308556 208 208 208 0
-2.890441 2.797201 24.376478 209 209 209 0
-2.801298 2.801298 24.412187 209 209 209 0
-2.710777 2.804252 24.437927 209 209 209 0
-2.614689 2.801453 24.413532 208 208 208 0
-2.524879 2.805421 24.448117 209 209 209 0
-2.433554 2.807947 24.470125 209 209 209 0
-2.343054 2.811664 24.502522 209 209 209 0
-2.248847 2.811059 24.497247 209 209 209 0
-2.160643 2.818230 24.559738 210 210 210 0
-2.067030 2.818678 24.563639 209 209 209 0
-1.978315 2.826164 24.628879 210 210 210 0
-1.884516 2.826774 24.634199 210 210 210 0
-1.794915 2.834076 24.697831 210 210 210 0
-1.705910 2.843184 24.777203 209 209 209 0
-1.607997 2.837642 24.728909 210 210 210 0
-1.509356 2.830043 24.662683 210 210 210 0
-1.415145 2.830290 24.664834 210 210 210 0
-1.325603 2.840579 24.754497 209 209 209 0
-1.230278 2.839102 24.741631 209 209 209 0
-1.135026 2.837566 24.728246 209 209 209 0
-1.037965 2.830815 24.669408 210 210 210 0
-0.941651 2.824952 24.618321 209 209 209 0
-0.849222 2.830741 24.668767 210 210 210 0
-0.757410 2.840289 24.751975 210 210 210 0
-0.662528 2.839404 24.744261 209 209 209 0
-0.567579 2.837897 24.731127 210 210 210 0
-0.471755 2.830533 24.666951 210 210 210 0
-0.377831 2.833735 24.694862 210 210 210 0
-0.284002 2.840020 24.749627 211 211 211 0
-0.189809 2.847132 24.811609 210 210 210 0
-0.094827 2.844800 24.791288 210 210 210 0
0.000000 2.840866 24.756999 210 210 210 0
0.094595 2.837836 24.730594 210 210 210 0
0.190330 2.854945 24.879694 211 211 211 0
0.286641 2.866410 24.979605 210 210 210 0
0.381175 2.858811 24.913389 210 210 210 0
0.475382 2.852293 24.856584 211 211 211 0
0.569440 2.847200 24.812204 210 210 210 0
0.667144 2.859187 24.916665 210 210 210 0
0.765409 2.870282 25.013352 211 211 211 0
0.856826 2.856088 24.889654 211 211 211 0
0.949114 2.847342 24.813439 211 211 211 0
1.042826 2.844072 24.784942 211 211 211 0
1.139778 2.849446 24.831772 211 211 211 0
1.239002 2.859235 24.917077 211 211 211 0
1.334155 2.858904 24.914200 212 212 212 0
1.425888 2.851776 24.852076 211 211 211 0
1.521066 2.851999 24.854019 211 211 211 0
1.621274 2.861072 24.933092 211 211 211 0
1.717534 2.862556 24.946025 211 211 211 0
1.812120 2.861242 24.934570 212 212 212 0
1.905624 2.858436 24.910118 211 211 211 0
2.002054 2.860077 24.924418 211 211 211 0
2.098500 2.861591 24.937615 212 212 212 0
2.200542 2.870272 25.013263 211 211 211 0
2.298228 2.872785 25.035161 212 212 212 0
2.393718 2.872462 25.032347 212 212 212 0
2.486609 2.869164 25.003608 211 211 211 0
2.583245 2.870272 25.013266 211 211 211 0
2.678403 2.869718 25.008433 212 212 212 0
2.780665 2.876550 25.067976 212 212 212 0
2.867957 2.867957 24.993088 212 212 212 0
2.961138 2.865617 24.972699 212 212 212 0
3.056107 2.865100 24.968194 212 212 212 0
3.148047 2.861861 24.939962 212 212 212 0
3.246981 2.864983 24.967174 212 212 212 0
3.349410 2.870923 25.018937 212 212 212 0
3.446344 2.871953 25.027915 211 211 211 0
3.540713 2.870849 25.018288 212 212 212 0
3.633000 2.868158 24.994842 212 212 212 0
3.731763 2.870587 25.016007 212 212 212 0
3.832171 2.874128 25.046866 212 212 212 0
3.930645 2.876082 25.063894 213 213 213 0
4.023681 2.874058 25.046255 212 212 212 0
4.114914 2.870870 25.018476 213 213 213 0
4.225733 2.881182 25.108338 213 213 213 0
4.331433 2.887622 25.164464 213 213 213 0
4.420582 2.882988 25.124080 213 213 213 0
4.514153 2.881374 25.110017 213 213 213 0
4.599255 2.874535 25.050410 213 213 213 0
4.277768 2.619041 22.823890 213 213 213 0
4.803175 2.881905 25.114641 212 212 212 0
4.893521 2.878542 25.085330 212 212 212 0
4.978746 2.872353 25.031402 212 212 212 0
5.067430 2.868356 24.996571 213 213 213 0
5.174325 2.874625 25.051200 212 212 212 0
5.279507 2.879731 25.095697 213 213 213 0
5.373871 2.878859 25.088100 213 213 213 0
5.459074 2.873197 25.038752 212 212 212 0
5.555414 2.873490 25.041309 213 213 213 0
5.660169 2.878052 25.081061 213 213 213 0
5.759144 2.879572 25.094310 213 213 213 0
5.855124 2.879569 25.094283 213 213 213 0
5.947829 2.877982 25.080452 213 213 213 0
6.051411 2.881624 25.112196 213 213 213 0
6.157743 2.886442 25.154181 213 213 213 0
6.261111 2.889744 25.182951 213 213 213 0
6.357683 2.889856 25.183929 213 213 213 0
6.438358 2.882847 25.122848 213 213 213 0
6.528980 2.880433 25.101808 213 213 213 0
6.633108 2.883960 25.132550 213 213 213 0
6.741251 2.889108 25.177409 213 213 213 0
6.821085 2.882149 25.116764 213 213 213 0
6.908691 2.878621 25.086024 214 214 214 0
7.002337 2.877673 25.077758 213 213 213 0
7.103726 2.879889 25.097071 214 214 214 0
7.210533 2.884213 25.134754 214 214 214 0
7.297798 2.880710 25.104225 214 214 214 0
7.396588 2.881788 25.113617 213 213 213 0
7.494078 2.882338 25.118410 214 214 214 0
7.592795 2.883340 25.127146 214 214 214 0
-6.816791 2.641507 22.277095 206 206 206 0
-6.811305 2.672790 22.540927 205 205 205 0
-6.728460 2.674131 22.552236 205 205 205 0
-6.635747 2.671535 22.530336 205 205 205 0
-6.528594 2.662979 22.458182 205 205 205 0
-6.524584 2.696828 22.743647 206 206 206 0
-6.479727 2.714480 22.892517 205 205 205 0
-6.433021 2.731831 23.038845 205 205 205 0
-6.336106 2.728045 23.006919 206 206 206 0
-6.259446 2.732998 23.048683 206 206 206 0
-6.168112 2.731592 23.036832 206 206 206 0
-6.093090 2.737475 23.086446 206 206 206 0
-6.079350 2.771469 23.373127 206 206 206 0
-6.002211 2.777142 23.420976 206 206 206 0
-5.907378 2.774677 23.400188 206 206 206 0
-5.802798 2.767488 23.339561 206 206 206 0
-5.766488 2.793142 23.555913 207 207 207 0
-5.739965 2.824427 23.819755 206 206 206 0
-5.662853 2.831426 23.878781 206 206 206 0
-5.523695 2.807124 23.673825 207 207 207 0
-5.401779 2.790919 23.537163 206 206 206 0
-5.332969 2.802069 23.631191 206 206 206 0
-5.317547 2.842137 23.969111 207 207 207 0
-5.226032 2.842228 23.969876 207 207 207 0
-5.107789 2.827526 23.845887 207 207 207 0
-4.986787 2.810735 23.704277 207 207 207 0
-4.875199 2.798725 23.602995 207 207 207 0
-4.839989 2.830937 23.874652 207 207 207 0
-4.782819 2.851296 24.046348 207 207 207 0
-4.688101 2.849630 24.032300 207 207 207 0
-4.575665 2.836912 23.925047 207 207 207 0
-4.477216 2.832524 23.888040 207 207 207 0
-4.398439 2.840658 23.956637 208 208 208 0
-4.330895 2.856548 24.090641 208 208 208 0
-4.254673 2.867280 24.181147 208 208 208 0
-4.150694 2.859367 24.114418 208 208 208 0
-4.045302 2.850099 24.036255 208 208 208 0
-3.968045 2.860683 24.125518 207 207 207 0
-3.913160 2.888285 24.358294 208 208 208 0
-3.828007 2.894347 24.409419 208 208 208 0
-3.737193 2.896324 24.426097 208 208 208 0
-3.629334 2.884855 24.329370 208 208 208 0
-3.527825 2.877962 24.271240 208 208 208 0
-3.455700 2.895317 24.417597 208 208 208 0
-3.382528 2.912733 24.564476 208 208 208 0
-3.277940 2.903318 24.485080 208 208 208 0
-3.170125 2.890408 24.376200 209 209 209 0
-3.067017 2.881137 24.298015 208 208 208 0
-2.977032 2.883999 24.322153 209 209 209 0
-2.888339 2.888339 24.358751 209 209 209 0
-2.802829 2.896256 24.425522 209 209 209 0
-2.711946 2.898977 24.448469 209 209 209 0
-2.615232 2.895436 24.418601 209 209 209 0
-2.525343 2.899468 24.452607 209 209 209 0
-2.434468 2.902635 24.479318 208 208 208 0
-2.343839 2.906361 24.510738 209 209 209 0
-2.250230 2.906547 24.512309 209 209 209 0
-2.160502 2.911981 24.558137 209 209 209 0
-2.066752 2.912242 24.560335 209 209 209 0
-1.978119 2.920081 24.626444 209 209 209 0
-1.885721 2.922868 24.649948 209 209 209 0
-1.793780 2.926693 24.682213 209 209 209 0
-1.706720 2.939352 24.788968 210 210 210 0
-1.608314 2.932807 24.733775 210 210 210 0
-1.509866 2.925366 24.671015 210 210 210 0
-1.414705 2.923723 24.657166 210 210 210 0
-1.325984 2.936108 24.761609 210 210 210 0
-1.230792 2.934966 24.751976 210 210 210 0
-1.135358 2.933007 24.735458 210 210 210 0
-1.037554 2.924017 24.659638 210 210 210 0
-0.941166 2.917614 24.605639 210 210 210 0
-0.849409 2.925741 24.674180 210 210 210 0
-0.757087 2.933711 24.741399 209 209 209 0
-0.662693 2.934782 24.750432 210 210 210 0
-0.567526 2.932218 24.728807 209 209 209 0
-0.471789 2.925091 24.668696 210 210 210 0
-0.377642 2.926724 24.682469 210 210 210 0
-0.284023 2.934902 24.751438 210 210 210 0
-0.189888 2.943257 24.821900 210 210 210 0
-0.094870 2.940962 24.802547 211 211 211 0
0.000000 2.935807 24.759075 211 211 211 0
0.094593 2.932398 24.730320 210 210 210 0
0.190364 2.950640 24.884166 210 210 210 0
0.286634 2.961886 24.979010 211 211 211 0
0.381265 2.954805 24.919290 211 211 211 0
0.475437 2.947711 24.859468 211 211 211 0
0.569375 2.941769 24.809357 210 210 210 0
0.667069 2.954163 24.913879 211 211 211 0
0.764828 2.963709 24.994379 210 210 210 0
0.857150 2.952404 24.899042 211 211 211 0
0.949145 2.942349 24.814243 211 211 211 0
1.043143 2.939768 24.792478 210 210 210 0
1.139277 2.943133 24.820855 211 211 211 0
1.238496 2.953338 24.906917 210 210 210 0
1.333576 2.952919 24.903385 211 211 211 0
1.425798 2.946650 24.850513 211 211 211 0
1.521362 2.947638 24.858849 211 211 211 0
1.620722 2.955434 24.924592 212 212 212 0
1.717885 2.958580 24.951127 211 211 211 0
1.812385 2.957050 24.938223 211 211 211 0
1.906391 2.954906 24.920144 211 211 211 0
2.001577 2.954709 24.918481 211 211 211 0
2.098482 2.956952 24.937395 211 211 211 0
2.200626 2.966061 25.014218 212 212 212 0
2.298174 2.968474 25.034571 211 211 211 0
2.394111 2.968698 25.036459 211 211 211 0
2.487229 2.965542 25.009840 212 212 212 0
2.582116 2.964651 25.002331 212 212 212 0
2.677539 2.964418 25.000362 211 211 211 0
2.780549 2.972311 25.066925 212 212 212 0
2.867950 2.963548 24.993028 212 212 212 0
2.961004 2.961004 24.971574 212 212 212 0
3.055303 2.959825 24.961624 212 212 212 0
3.149054 2.958202 24.947941 212 212 212 0
3.247111 2.960601 24.968173 212 212 212 0
3.348653 2.965950 25.013280 212 212 212 0
3.445912 2.967313 25.024776 212 212 212 0
3.541318 2.967051 25.022564 213 213 213 0
3.632979 2.963746 24.994692 211 211 211 0
3.730616 2.965361 25.008317 212 212 212 0
3.832378 2.970093 25.048221 212 212 212 0
3.930866 2.972118 25.065299 213 213 213 0
4.024590 2.970531 25.051915 212 212 212 0
4.112594 2.964894 25.004374 212 212 212 0
4.225593 2.977122 25.107505 213 213 213 0
4.332758 2.984789 25.172160 212 212 212 0
4.421662 2.979816 25.130218 213 213 213 0
4.513539 2.977015 25.106598 213 213 213 0
4.602094 2.972186 25.065870 213 213 213 0
4.218127 2.668611 22.505680 213 213 213 0
4.803382 2.978097 25.115725 213 213 213 0
4.891491 2.973259 25.074923 213 213 213 0
4.975858 2.966377 25.016884 213 213 213 0
5.065508 2.962844 24.987089 213 213 213 0
5.171109 2.968599 25.035627 213 213 213 0
5.278166 2.974966 25.089321 213 213 213 0
5.373385 2.974552 25.085830 212 212 212 0
5.460309 2.969642 25.044417 213 213 213 0
5.555460 2.969298 25.041514 212 212 212 0
5.658925 2.973333 25.075551 213 213 213 0
5.761556 2.976804 25.104817 213 213 213 0
5.859016 2.977533 25.110964 213 213 213 0
5.947663 2.973832 25.079753 213 213 213 0
6.050312 2.977138 25.107634 214 214 214 0
6.156975 2.982285 25.151042 213 213 213 0
6.261717 2.986358 25.185389 213 213 213 0
6.357808 2.986243 25.184424 213 213 213 0
6.439144 2.979305 25.125916 213 213 213 0
6.528745 2.976339 25.100902 213 213 213 0
6.633893 2.980444 25.135522 213 213 213 0
6.739636 2.984696 25.171376 213 213 213 0
6.821426 2.978369 25.118020 213 213 213 0
6.908065 2.974306 25.083749 213 213 213 0
7.004243 2.974405 25.084585 214 214 214 0
7.105065 2.976446 25.101801 213 213 213 0
7.210486 2.980334 25.134590 213 213 213 0
7.298868 2.977170 25.107904 214 214 214 0
7.395868 2.977557 25.111171 213 213 213 0
7.494674 2.978652 25.120408 214 214 214 0
7.594488 2.980116 25.132749 213 213 213 0
-6.825193 2.730077 22.304551 205 205 205 0
-6.803335 2.755781 22.514552 205 205 205 0
-6.714526 2.754677 22.505534 205 205 205 0
-6.635137 2.757460 22.528264 204 204 204 0
-6.534499 2.751368 22.478498 205 205 205 0
-6.515948 2.780138 22.713545 205 205 205 0
-6.466383 2.796274 22.845372 205 205 205 0
-6.423851 2.815935 23.006003 206 206 206 0
-6.339126 2.817389 23.017887 206 206 206 0
-6.256303 2.819742 23.037110 206 206 206 0
-6.164725 2.818160 23.024184 205 205 205 0
-6.103926 2.830806 23.127503 206 206 206 0
-6.080745 2.861527 23.378488 206 206 206 0
-6.008963 2.869952 23.447324 206 206 206 0
-5.911567 2.866214 23.416784 206 206 206 0
-5.802935 2.856829 23.340109 206 206 206 0
-5.758514 2.879257 23.523339 207 207 207 0
-5.738204 2.914643 23.812446 207 207 207 0
-5.660844 2.921726 23.870309 206 206 206 0
-5.524765 2.898238 23.678412 207 207 207 0
-5.397292 2.878556 23.517611 206 206 206 0
-5.335871 2.894032 23.644052 206 206 206 0
-5.313744 2.931721 23.951967 207 207 207 0
-5.225804 2.933785 23.968831 206 206 206 0
-5.113136 2.921792 23.870850 207 207 207 0
-4.983085 2.899250 23.686680 206 206 206 0
-4.886780 2.895869 23.659064 207 207 207 0
-4.836696 2.920270 23.858412 207 207 207 0
-4.784245 2.944151 24.053519 207 207 207 0
-4.685788 2.940102 24.020443 207 207 207 0
-4.576728 2.929106 23.930603 207 207 207 0
-4.470675 2.919624 23.853139 207 207 207 0
-4.395808 2.930539 23.942312 208 208 208 0
-4.333257 2.950303 24.103781 208 208 208 0
-4.249191 2.955959 24.149991 207 207 207 0
-4.149506 2.950760 24.107513 207 207 207 0
-4.043813 2.940955 24.027409 208 208 208 0
-3.972598 2.956352 24.153201 207 207 207 0
-3.917852 2.985030 24.387502 207 207 207 0
-3.833576 2.992059 24.444927 207 207 207 0
-3.737020 2.989616 24.424966 208 208 208 0
-3.629558 2.978098 24.330870 208 208 208 0
-3.530835 2.973335 24.291949 208 208 208 0
-3.453371 2.986700 24.401141 208 208 208 0
-3.384126 3.008112 24.576079 208 208 208 0
-3.279227 2.998151 24.494695 208 208 208 0
-3.166766 2.980485 24.350371 209 209 209 0
-3.065310 2.972422 24.284491 209 209 209 0
-2.976752 2.976752 24.319869 208 208 208 0
-2.888583 2.981763 24.360812 209 209 209 0
-2.803151 2.990028 24.428335 209 209 209 0
-2.709164 2.989422 24.423383 209 209 209 0
-2.615279 2.988890 24.419035 209 209 209 0
-2.526221 2.994040 24.461109 208 208 208 0
-2.434828 2.996712 24.482939 209 209 209 0
-2.342379 2.998245 24.495467 209 209 209 0
-2.248854 2.998472 24.497317 209 209 209 0
-2.161791 3.007710 24.572793 209 209 209 0
-2.067832 3.007756 24.573170 210 210 210 0
-1.976745 3.012183 24.609339 209 209 209 0
-1.885378 3.016605 24.645463 208 208 208 0
-1.794702 3.022656 24.694899 209 209 209 0
-1.705390 3.031804 24.769643 209 209 209 0
-1.608024 3.026868 24.729312 210 210 210 0
-1.510779 3.021557 24.685924 209 209 209 0
-1.415311 3.019329 24.667722 210 210 210 0
-1.325382 3.029445 24.750364 210 210 210 0
-1.231372 3.031068 24.763631 210 210 210 0
-1.134780 3.026081 24.722882 210 210 210 0
-1.037941 3.019465 24.668831 210 210 210 0
-0.941171 3.011748 24.605787 210 210 210 0
-0.849382 3.020026 24.673417 210 210 210 0
-0.756785 3.027140 24.731540 209 209 209 0
-0.662861 3.030221 24.756710 210 210 210 0
-0.567476 3.026541 24.726644 210 210 210 0
-0.471462 3.017359 24.651623 210 210 210 0
-0.377624 3.020996 24.681339 210 210 210 0
-0.283994 3.029265 24.748900 211 211 211 0
-0.189948 3.039169 24.829810 210 210 210 0
-0.094845 3.035046 24.796125 210 210 210 0
0.000000 3.031247 24.765090 211 211 211 0
0.094611 3.027539 24.734800 210 210 210 0
0.190376 3.046013 24.885724 210 210 210 0
0.286766 3.058841 24.990533 210 210 210 0
0.381263 3.050103 24.919146 210 210 210 0
0.475225 3.041441 24.848371 211 211 211 0
0.569477 3.037213 24.813832 210 210 210 0
0.667306 3.050540 24.922715 210 210 210 0
0.764827 3.059308 24.994348 211 211 211 0
0.856622 3.045768 24.883730 210 210 210 0
0.949551 3.038563 24.824858 211 211 211 0
1.042890 3.033861 24.786444 211 211 211 0
1.139761 3.039363 24.831400 211 211 211 0
1.238874 3.049537 24.914516 211 211 211 0
1.333372 3.047708 24.899574 211 211 211 0
1.425732 3.041563 24.849368 211 211 211 0
1.521581 3.043163 24.862443 211 211 211 0
1.620582 3.050508 24.922453 212 212 212 0
1.717761 3.053797 24.949320 211 211 211 0
1.813151 3.053727 24.948751 211 211 211 0
1.906753 3.050805 24.924876 212 212 212 0
2.002101 3.050821 24.925007 211 211 211 0
2.098179 3.051896 24.933791 211 211 211 0
2.200519 3.061592 25.013009 211 211 211 0
2.298909 3.065212 25.042582 212 212 212 0
2.393016 3.063060 25.025002 212 212 212 0
2.487143 3.061099 25.008976 212 212 212 0
2.581281 3.059296 24.994245 212 212 212 0
2.677408 3.059895 24.999142 212 212 212 0
2.780903 3.068583 25.070123 212 212 212 0
2.867631 3.058806 24.990244 212 212 212 0
2.961613 3.057149 24.976709 212 212 212 0
3.055954 3.055954 24.966942 211 211 211 0
3.147375 3.052000 24.934637 212 212 212 0
3.247356 3.056335 24.970059 212 212 212 0
3.350758 3.063550 25.029001 212 212 212 0
3.445963 3.063078 25.025145 212 212 212 0
3.541159 3.062624 25.021439 211 211 211 0
3.632707 3.059122 24.992826 213 213 213 0
3.731309 3.061587 25.012965 212 212 212 0
3.832236 3.065789 25.047296 212 212 212 0
3.931093 3.068170 25.066749 212 212 212 0
4.024960 3.066636 25.054218 213 213 213 0
4.113432 3.061158 25.009464 212 212 212 0
4.223935 3.071953 25.097654 212 212 212 0
4.332105 3.080608 25.168364 212 212 212 0
4.421064 3.075523 25.126820 212 212 212 0
4.511989 3.071992 25.097977 213 213 213 0
4.603513 3.069009 25.073600 212 212 212 0
4.194925 2.739543 22.381887 213 213 213 0
4.801845 3.073181 25.107688 213 213 213 0
4.891661 3.069278 25.075797 213 213 213 0
4.978902 3.063940 25.032189 213 213 213 0
5.066885 3.059252 24.993885 213 213 213 0
5.172042 3.064914 25.040144 213 213 213 0
5.278026 3.070851 25.088654 213 213 213 0
5.372799 3.070171 25.083093 212 212 212 0
5.458171 3.064237 25.034612 213 213 213 0
5.552915 3.063677 25.030044 213 213 213 0
5.663050 3.071485 25.093831 213 213 213 0
5.764025 3.074146 25.115575 213 213 213 0
5.861540 3.074906 25.121785 213 213 213 0
5.950484 3.071217 25.091646 213 213 213 0
6.050253 3.073144 25.107389 213 213 213 0
6.158143 3.079072 25.155814 213 213 213 0
6.263441 3.083540 25.192322 213 213 213 0
6.357277 3.082316 25.182322 213 213 213 0
6.437021 3.074398 25.117633 213 213 213 0
6.529990 3.072937 25.105690 213 213 213 0
6.633253 3.076291 25.133099 213 213 213 0
6.741526 3.081840 25.178434 213 213 213 0
6.818838 3.073279 25.108490 213 213 213 0
6.906875 3.069722 25.079431 213 213 213 0
7.003726 3.070127 25.082734 213 213 213 0
7.106852 3.073233 25.108115 214 214 214 0
7.210387 3.076432 25.134247 214 214 214 0
7.299294 3.073387 25.109372 213 213 213 0
7.398041 3.074510 25.118549 214 214 214 0
7.494552 3.074688 25.120000 213 213 213 0
7.595919 3.076828 25.137485 213 213 213 0
-6.856537 2.828321 22.406983 205 205 205 0
-6.833323 2.854426 22.613793 205 205 205 0
-6.720412 2.843251 22.525262 205 205 205 0
-6.630563 2.841670 22.512734 205 205 205 0
-6.526935 2.834064 22.452476 205 205 205 0
-6.521363 2.869400 22.732419 205 205 205 0
-6.476888 2.888342 22.882486 205 205 205 0
-6.424919 2.904416 23.009828 205 205 205 0
-6.330268 2.901373 22.985721 205 205 205 0
-6.253503 2.906558 23.026801 206 206 206 0
-6.167407 2.907492 23.034202 205 205 205 0
-6.104595 2.919589 23.130039 206 206 206 0
-6.082581 2.951841 23.385549 206 206 206 0
-6.007625 2.958980 23.442103 206 206 206 0
-5.906917 2.953459 23.398365 206 206 206 0
-5.803088 2.946183 23.340725 206 206 206 0
-5.766547 2.973376 23.556157 206 206 206 0
-5.730857 3.001878 23.781958 206 206 206 0
-5.658989 3.012042 23.862487 206 206 206 0
-5.528004 2.990560 23.692294 207 207 207 0
-5.397526 2.968639 23.518630 206 206 206 0
-5.327990 2.980062 23.609128 206 206 206 0
-5.315513 3.024344 23.959943 207 207 207 0
-5.225491 3.025284 23.967393 207 207 207 0
-5.117109 3.015439 23.889399 206 206 206 0
-4.987208 2.992325 23.706276 206 206 206 0
-4.880015 2.982231 23.626313 207 207 207 0
-4.841425 3.014472 23.881736 207 207 207 0
-4.783812 3.035881 24.051343 207 207 207 0
-4.690164 3.034812 24.042874 207 207 207 0
-4.575184 3.019622 23.922533 208 208 208 0
-4.468826 3.009618 23.843279 207 207 207 0
-4.396775 3.022783 23.947575 208 208 208 0
-4.333686 3.042801 24.106166 207 207 207 0
-4.253425 3.051370 24.174055 207 207 207 0
-4.152951 3.045497 24.127528 208 208 208 0
-4.043059 3.032294 24.022931 208 208 208 0
-3.967908 3.045139 24.124688 208 208 208 0
-3.911038 3.072958 24.345083 207 207 207 0
-3.832916 3.085030 24.440721 208 208 208 0
-3.739032 3.084701 24.438118 208 208 208 0
-3.628921 3.070625 24.326602 208 208 208 0
-3.531983 3.067248 24.299847 208 208 208 0
-3.456041 3.082415 24.420003 208 208 208 0
-3.383548 3.101585 24.571879 208 208 208 0
-3.277267 3.089994 24.480051 208 208 208 0
-3.170287 3.077043 24.377447 208 208 208 0
-3.064760 3.064760 24.280137 208 208 208 0
-2.975808 3.068802 24.312156 208 208 208 0
-2.888980 3.075366 24.364155 208 208 208 0
-2.802764 3.083041 24.424961 208 208 208 0
-2.710781 3.084682 24.437963 209 209 209 0
-2.616352 3.083557 24.429052 209 209 209 0
-2.524867 3.085949 24.447998 208 208 208 0
-2.435977 3.091817 24.494487 209 209 209 0
-2.344296 3.094471 24.515517 209 209 209 0
-2.250942 3.095045 24.520066 209 209 209 0
-2.160078 3.099242 24.553316 209 209 209 0
-2.066783 3.100174 24.560697 209 209 209 0
-1.976698 3.106240 24.608750 209 209 209 0
-1.885418 3.110939 24.645985 209 209 209 0
-1.795004 3.117639 24.699059 210 210 210 0
-1.706607 3.128780 24.787322 209 209 209 0
-1.607951 3.121316 24.728195 209 209 209 0
-1.509192 3.112709 24.660004 209 209 209 0
-1.415642 3.114412 24.673499 210 210 210 0
-1.324941 3.123076 24.742134 209 209 209 0
-1.231270 3.125533 24.761597 209 209 209 0
-1.133993 3.118481 24.705735 210 210 210 0
-1.037936 3.113808 24.668712 209 209 209 0
-0.941651 3.107447 24.618318 210 210 210 0
-0.849681 3.115496 24.682084 210 210 210 0
-0.757312 3.123912 24.748756 210 210 210 0
-0.662346 3.122486 24.737461 210 210 210 0
-0.567669 3.122179 24.735032 210 210 210 0
-0.471755 3.113583 24.666931 210 210 210 0
-0.377710 3.116105 24.686907 210 210 210 0
-0.284104 3.125139 24.758476 210 210 210 0
-0.189939 3.133994 24.828635 211 211 211 0
-0.094894 3.131502 24.808887 210 210 210 0
0.000000 3.124762 24.755496 210 210 210 0
0.094600 3.121794 24.731975 210 210 210 0
0.190450 3.142421 24.895395 211 211 211 0
0.286658 3.153235 24.981069 210 210 210 0
0.381279 3.145555 24.920219 210 210 210 0
0.475275 3.136816 24.850991 211 211 211 0
0.569414 3.131775 24.811052 210 210 210 0
0.667214 3.145437 24.919284 211 211 211 0
0.765304 3.156880 25.009945 211 211 211 0
0.856912 3.142012 24.892153 210 210 210 0
0.949177 3.132283 24.815079 211 211 211 0
1.043068 3.129204 24.790685 211 211 211 0
1.139173 3.132725 24.818582 211 211 211 0
1.238515 3.143922 24.907285 211 211 211 0
1.333580 3.143439 24.903460 211 211 211 0
1.426290 3.137838 24.859088 211 211 211 0
1.521576 3.138251 24.862358 211 211 211 0
1.621363 3.147351 24.934449 211 211 211 0
1.717871 3.149430 24.950921 211 211 211 0
1.813605 3.149946 24.955010 211 211 211 0
