ply
    format ascii 1.0
    element vertex 25597
    property float x
    property float y
    property float z
    property uchar red
    property uchar green
    property uchar blue
    property uchar alpha
    end_header
-6.219654 -5.355813 22.584075 206 206 206 0
-6.121057 -5.345148 22.539104 205 205 205 0
-6.044088 -5.353335 22.573623 206 206 206 0
-5.963977 -5.358936 22.597242 205 205 205 0
-5.932437 -5.408987 22.808293 206 206 206 0
-5.895558 -5.455591 23.004811 206 206 206 0
-5.800923 -5.449352 22.978504 206 206 206 0
-5.707255 -5.443844 22.955275 206 206 206 0
-5.641739 -5.465434 23.046318 206 206 206 0
-5.599351 -5.510472 23.236230 206 206 206 0
-5.556303 -5.556303 23.429486 206 206 206 0
-5.447406 -5.536708 23.346860 206 206 206 0
-5.334095 -5.511898 23.242245 206 206 206 0
-5.216298 -5.481533 23.114202 206 206 206 0
-5.164320 -5.520480 23.278429 207 207 207 0
-5.152884 -5.604891 23.634371 207 207 207 0
-5.036507 -5.576133 23.513104 207 207 207 0
-4.914085 -5.539514 23.358692 206 206 206 0
-4.793398 -5.503531 23.206960 207 207 207 0
-4.705486 -5.504531 23.211180 207 207 207 0
-4.675302 -5.574399 23.505793 207 207 207 0
-4.617012 -5.612839 23.667884 207 207 207 0
-4.498093 -5.577635 23.519441 207 207 207 0
-4.389531 -5.554100 23.420199 207 207 207 0
-4.291562 -5.543267 23.374519 208 208 208 0
-4.234932 -5.586507 23.556848 207 207 207 0
-4.167586 -5.617182 23.686197 207 207 207 0
-4.087364 -5.631479 23.746484 207 207 207 0
-3.987871 -5.619273 23.695017 208 208 208 0
-3.885406 -5.602213 23.623077 207 207 207 0
-3.801840 -5.612240 23.665357 207 207 207 0
-3.750354 -5.671267 23.914263 207 207 207 0
-3.670210 -5.688825 23.988297 208 208 208 0
-3.574730 -5.682904 23.963332 208 208 208 0
-3.465314 -5.653933 23.841170 209 209 209 0
-3.369054 -5.645443 23.805366 208 208 208 0
-3.299805 -5.682997 23.963722 208 208 208 0
-3.217125 -5.698908 24.030815 208 208 208 0
-3.118343 -5.686391 23.978033 207 207 207 0
-3.013353 -5.661452 23.872873 208 208 208 0
-2.917554 -5.652762 23.836229 209 209 209 0
-2.832036 -5.664071 23.883917 209 209 209 0
-2.743492 -5.669884 23.908429 208 208 208 0
-2.658154 -5.682950 23.963526 208 208 208 0
-2.569643 -5.689923 23.992927 209 209 209 0
-2.473224 -5.679255 23.947943 209 209 209 0
-2.385265 -5.687940 23.984568 209 209 209 0
-2.299040 -5.701620 24.042253 209 209 209 0
-2.208708 -5.705828 24.059996 209 209 209 0
-2.118257 -5.710085 24.077946 209 209 209 0
-2.028751 -5.717391 24.108752 209 209 209 0
-1.938996 -5.724655 24.139384 209 209 209 0
-1.848549 -5.730502 24.164038 209 209 209 0
-1.759065 -5.740108 24.204546 209 209 209 0
-1.670613 -5.754333 24.264530 210 210 210 0
-1.582015 -5.769704 24.329342 209 209 209 0
-1.486564 -5.760434 24.290255 209 209 209 0
-1.390304 -5.746590 24.231877 209 209 209 0
-1.294932 -5.734698 24.181735 210 210 210 0
-1.207493 -5.758815 24.283428 210 210 210 0
-1.114525 -5.758377 24.281583 210 210 210 0
-1.021325 -5.756556 24.273905 210 210 210 0
-0.926597 -5.744903 24.224763 209 209 209 0
-0.831739 -5.729758 24.160902 209 209 209 0
-0.737996 -5.719465 24.117501 210 210 210 0
-0.648884 -5.747262 24.234712 210 210 210 0
-0.557649 -5.762369 24.298414 210 210 210 0
-0.464158 -5.755563 24.269713 210 210 210 0
-0.370484 -5.742495 24.214610 210 210 210 0
-0.278316 -5.751857 24.254087 210 210 210 0
-0.185936 -5.764006 24.305318 210 210 210 0
-0.093230 -5.780281 24.373943 211 211 211 0
0.000000 -5.779002 24.368553 210 210 210 0
0.093045 -5.768804 24.325549 210 210 210 0
0.185832 -5.760797 24.291785 210 210 210 0
0.279962 -5.785885 24.397575 210 210 210 0
0.375146 -5.814760 24.519335 210 210 210 0
0.468438 -5.808632 24.493492 211 211 211 0
0.559619 -5.782733 24.384286 211 211 211 0
0.651486 -5.770308 24.331893 210 210 210 0
0.745926 -5.780923 24.376653 210 210 210 0
0.843221 -5.808857 24.494444 211 211 211 0
0.935097 -5.797604 24.446993 210 210 210 0
1.025793 -5.781741 24.380099 211 211 211 0
1.116327 -5.767690 24.320850 211 211 211 0
1.210060 -5.771058 24.335052 211 211 211 0
1.309000 -5.796998 24.444435 211 211 211 0
1.404255 -5.804255 24.475037 211 211 211 0
1.494773 -5.792244 24.424390 211 211 211 0
1.586658 -5.786635 24.400736 211 211 211 0
1.682594 -5.795602 24.438548 211 211 211 0
1.778434 -5.803309 24.471049 211 211 211 0
1.871643 -5.802095 24.465927 211 211 211 0
1.965305 -5.802331 24.466922 211 211 211 0
2.058585 -5.801466 24.463277 211 211 211 0
2.154621 -5.808110 24.491292 211 211 211 0
2.251806 -5.817165 24.529474 212 212 212 0
2.348851 -5.825150 24.563147 212 212 212 0
2.446010 -5.832793 24.595375 212 212 212 0
2.536478 -5.824505 24.560427 212 212 212 0
2.627979 -5.819096 24.537615 212 212 212 0
2.724742 -5.825311 24.563825 212 212 212 0
2.892296 -5.977411 25.205190 211 211 211 0
2.909926 -5.819853 24.540808 211 211 211 0
3.001060 -5.814555 24.518467 212 212 212 0
3.091338 -5.807968 24.490694 212 212 212 0
3.183043 -5.804372 24.475531 212 212 212 0
3.279557 -5.809502 24.497161 211 211 211 0
3.376525 -5.815127 24.520882 212 212 212 0
3.469814 -5.814282 24.517319 212 212 212 0
3.569970 -5.824688 24.561196 212 212 212 0
3.657571 -5.814600 24.518660 212 212 212 0
3.754267 -5.819114 24.537695 212 212 212 0
3.847880 -5.818745 24.536136 212 212 212 0
3.950836 -5.832186 24.592815 213 213 213 0
4.046943 -5.835126 24.605214 212 212 212 0
4.139767 -5.833309 24.597549 212 212 212 0
4.231130 -5.829557 24.581730 213 213 213 0
4.339634 -5.849072 24.664017 213 213 213 0
4.440632 -5.857855 24.701056 212 212 212 0
4.525034 -5.844835 24.646152 212 212 212 0
4.609933 -5.832976 24.596147 212 212 212 0
4.704599 -5.833702 24.599209 213 213 213 0
4.813300 -5.851463 24.674102 213 213 213 0
4.904396 -5.847549 24.657597 213 213 213 0
4.990157 -5.837543 24.615402 213 213 213 0
5.074315 -5.826065 24.567003 212 212 212 0
5.161374 -5.818276 24.534160 212 212 212 0
5.270299 -5.834974 24.604569 213 213 213 0
5.372487 -5.843757 24.641608 213 213 213 0
5.457381 -5.833752 24.599418 212 212 212 0
5.542595 -5.824421 24.560073 213 213 213 0
5.637682 -5.825605 24.565065 213 213 213 0
5.740791 -5.834902 24.604268 213 213 213 0
5.836195 -5.836195 24.609721 213 213 213 0
5.930229 -5.836098 24.609312 213 213 213 0
6.021583 -5.833408 24.597969 212 212 212 0
6.122370 -5.839799 24.624917 213 213 213 0
6.228974 -5.851461 24.674091 213 213 213 0
6.332704 -5.860114 24.710580 212 212 212 0
6.424897 -5.857994 24.701641 212 212 212 0
6.504925 -5.845005 24.646871 214 214 214 0
6.594990 -5.841277 24.631149 213 213 213 0
6.698752 -5.849615 24.666307 213 213 213 0
6.805820 -5.860567 24.712489 213 213 213 0
6.882979 -5.845817 24.650295 214 214 214 0
6.964490 -5.835114 24.605159 213 213 213 0
7.059681 -5.836003 24.608908 213 213 213 0
7.157529 -5.839037 24.621704 214 214 214 0
7.266086 -5.850615 24.670524 213 213 213 0
7.344145 -5.837654 24.615870 213 213 213 0
7.465974 -5.859372 24.707451 213 213 213 0
-6.738667 -5.138234 22.021788 205 205 205 0
-6.677491 -5.156038 22.098094 205 205 205 0
-6.581841 -5.147337 22.060804 204 204 204 0
-6.484794 -5.137304 22.017804 206 206 206 0
-6.396929 -5.134377 22.005259 205 205 205 0
-6.359887 -5.172708 22.169541 205 205 205 0
-6.325413 -5.214192 22.347336 205 205 205 0
-6.323323 -5.283872 22.645976 206 206 206 0
-6.217056 -5.267228 22.574639 205 205 205 0
-6.119377 -5.257493 22.532916 205 205 205 0
-6.046073 -5.268720 22.581037 206 206 206 0
-5.962484 -5.271181 22.591584 206 206 206 0
-5.935847 -5.324804 22.821403 206 206 206 0
-5.891759 -5.364138 22.989986 205 205 205 0
-5.800483 -5.361053 22.976761 206 206 206 0
-5.707468 -5.356239 22.956132 207 207 207 0
-5.645277 -5.380655 23.060772 206 206 206 0
-5.598721 -5.420984 23.233617 206 206 206 0
-5.569830 -5.479994 23.486528 206 206 206 0
-5.453029 -5.453029 23.370957 206 206 206 0
-5.325573 -5.414333 23.205113 207 207 207 0
-5.215544 -5.392343 23.110865 207 207 207 0
-5.164818 -5.431964 23.280675 206 206 206 0
-5.152932 -5.514541 23.634592 206 206 206 0
-5.035645 -5.485256 23.509080 207 207 207 0
-4.910053 -5.445695 23.339527 207 207 207 0
-4.796774 -5.418578 23.223305 207 207 207 0
-4.705871 -5.416192 23.213079 207 207 207 0
-4.679546 -5.489467 23.527129 207 207 207 0
-4.612954 -5.517455 23.647082 207 207 207 0
-4.499497 -5.489386 23.526781 208 208 208 0
-4.392129 -5.467752 23.434061 207 207 207 0
-4.298521 -5.462704 23.412423 207 207 207 0
-4.230577 -5.490749 23.532623 208 208 208 0
-4.170407 -5.530322 23.702227 207 207 207 0
-4.092608 -5.547758 23.776955 208 208 208 0
-3.990528 -5.532323 23.710800 208 208 208 0
-3.888285 -5.515939 23.640582 207 207 207 0
-3.797648 -5.515631 23.639263 207 207 207 0
-3.750800 -5.580459 23.917106 208 208 208 0
-3.672245 -5.600174 24.001603 208 208 208 0
-3.576156 -5.593475 23.972891 208 208 208 0
-3.464089 -5.560774 23.832742 208 208 208 0
-3.368455 -5.553398 23.801129 208 208 208 0
-3.299682 -5.591128 23.962834 208 208 208 0
-3.216323 -5.605592 24.024822 208 208 208 0
-3.116478 -5.591328 23.963691 208 208 208 0
-3.013700 -5.570779 23.875619 208 208 208 0
-2.917844 -5.562140 23.838596 209 209 209 0
-2.831867 -5.572383 23.882495 208 208 208 0
-2.742229 -5.575867 23.897424 208 208 208 0
-2.658113 -5.591203 23.963152 208 208 208 0
-2.565380 -5.588863 23.953125 209 209 209 0
-2.473894 -5.589168 23.954431 209 209 209 0
-2.383725 -5.592585 23.969076 209 209 209 0
-2.299021 -5.609610 24.042045 209 209 209 0
-2.209683 -5.616277 24.070618 208 208 208 0
-2.118215 -5.617875 24.077468 209 209 209 0
-2.029337 -5.626798 24.115710 209 209 209 0
-1.939638 -5.634186 24.147375 208 208 208 0
-1.850416 -5.643768 24.188443 209 209 209 0
-1.758875 -5.646915 24.201929 209 209 209 0
-1.670586 -5.661429 24.264135 209 209 209 0
-1.581885 -5.676175 24.327331 210 210 210 0
-1.485503 -5.663482 24.272932 210 210 210 0
-1.390261 -5.653730 24.231137 209 209 209 0
-1.295418 -5.644323 24.190820 209 209 209 0
-1.208319 -5.669803 24.300022 210 210 210 0
-1.115042 -5.668129 24.292850 210 210 210 0
-1.021739 -5.666007 24.283755 209 209 209 0
-0.926658 -5.652613 24.226350 209 209 209 0
-0.832166 -5.640233 24.173291 209 209 209 0
-0.738410 -5.630374 24.131038 209 209 209 0
-0.648606 -5.652140 24.224324 210 210 210 0
-0.557597 -5.668901 24.296157 210 210 210 0
-0.464194 -5.663168 24.271586 211 211 211 0
-0.370517 -5.650384 24.216796 210 210 210 0
-0.278185 -5.656432 24.242718 210 210 210 0
-0.185937 -5.671068 24.305444 210 210 210 0
-0.093197 -5.685017 24.365228 210 210 210 0
0.000000 -5.683192 24.357408 210 210 210 0
0.093032 -5.674961 24.322131 210 210 210 0
0.185803 -5.666999 24.288007 210 210 210 0
0.279979 -5.692915 24.399078 211 211 211 0
0.375019 -5.719047 24.511075 210 210 210 0
0.468372 -5.714142 24.490057 211 211 211 0
0.559830 -5.691603 24.393456 211 211 211 0
0.651286 -5.675488 24.324390 211 211 211 0
0.745706 -5.686006 24.369468 211 211 211 0
0.843496 -5.717030 24.502434 211 211 211 0
0.934857 -5.702627 24.440703 211 211 211 0
1.025404 -5.686329 24.370852 211 211 211 0
1.116106 -5.673541 24.316044 210 210 210 0
1.209843 -5.676956 24.330679 211 211 211 0
1.310023 -5.707959 24.463554 211 211 211 0
1.404156 -5.710235 24.473308 211 211 211 0
1.494162 -5.696491 24.414405 211 211 211 0
1.587446 -5.696130 24.412860 211 211 211 0
1.680603 -5.695376 24.409625 211 211 211 0
1.777781 -5.707613 24.462072 211 211 211 0
1.870693 -5.705614 24.453505 211 211 211 0
1.965116 -5.708193 24.464557 211 211 211 0
2.057803 -5.705725 24.453981 211 211 211 0
2.155145 -5.715820 24.497247 212 212 212 0
2.251690 -5.723044 24.528209 211 211 211 0
2.349651 -5.733149 24.571516 211 211 211 0
2.445293 -5.737033 24.588161 211 211 211 0
2.536805 -5.731301 24.563595 212 212 212 0
2.629464 -5.728476 24.551489 212 212 212 0
2.724359 -5.730548 24.560370 211 211 211 0
2.885051 -5.866271 25.142059 212 212 212 0
2.910680 -5.727467 24.547162 212 212 212 0
3.001949 -5.722464 24.525723 212 212 212 0
3.090553 -5.712840 24.484473 211 211 211 0
3.184018 -5.712503 24.483028 212 212 212 0
3.280217 -5.716950 24.502090 211 211 211 0
3.374174 -5.717350 24.503805 212 212 212 0
3.469808 -5.720494 24.517280 212 212 212 0
3.568194 -5.727891 24.548980 212 212 212 0
3.657149 -5.720157 24.515832 212 212 212 0
3.753551 -5.724166 24.533015 212 212 212 0
3.849241 -5.726920 24.544820 212 212 212 0
3.951360 -5.738879 24.596076 212 212 212 0
4.044690 -5.737816 24.591520 212 212 212 0
4.138626 -5.737641 24.590769 212 212 212 0
4.231793 -5.736430 24.585578 212 212 212 0
4.338517 -5.753250 24.657668 212 212 212 0
4.439161 -5.761464 24.692872 213 213 213 0
4.526297 -5.752169 24.653034 213 213 213 0
4.610071 -5.739067 24.596882 212 212 212 0
4.703933 -5.738798 24.595729 212 212 212 0
4.814755 -5.758824 24.681557 213 213 213 0
4.904361 -5.753193 24.657421 213 213 213 0
4.990123 -5.743349 24.615232 212 212 212 0
5.071372 -5.728772 24.552755 212 212 212 0
5.161395 -5.724456 24.534259 212 212 212 0
5.272100 -5.742824 24.612980 212 212 212 0
5.372940 -5.749988 24.643686 213 213 213 0
5.458998 -5.741360 24.606707 213 213 213 0
5.543713 -5.731635 24.565029 213 213 213 0
5.637206 -5.731159 24.562989 213 213 213 0
5.739084 -5.739084 24.596952 213 213 213 0
5.835192 -5.741076 24.605490 213 213 213 0
5.931913 -5.743598 24.616299 213 213 213 0
6.021562 -5.739301 24.597884 212 212 212 0
6.120552 -5.743903 24.617607 213 213 213 0
6.228346 -5.756501 24.671600 212 212 212 0
6.331267 -5.764288 24.704973 213 213 213 0
6.423547 -5.762300 24.696453 213 213 213 0
6.506776 -5.752367 24.653882 213 213 213 0
6.595117 -5.747174 24.631625 214 214 214 0
6.699627 -5.756017 24.669527 213 213 213 0
6.802870 -5.763542 24.701778 214 214 214 0
6.883267 -5.751771 24.651326 213 213 213 0
6.967358 -5.743363 24.615292 213 213 213 0
7.059850 -5.742011 24.609499 213 213 213 0
7.157735 -5.745024 24.622412 213 213 213 0
7.265869 -5.756078 24.669787 214 214 214 0
7.350066 -5.748129 24.635717 214 214 214 0
7.467976 -5.766412 24.714076 213 213 213 0
-6.734218 -5.050663 22.007248 205 205 205 0
-6.682252 -5.075128 22.113847 204 204 204 0
-6.589333 -5.068718 22.085917 205 205 205 0
-6.479834 -5.049222 22.000965 205 205 205 0
-6.394114 -5.047985 21.995576 205 205 205 0
-6.369010 -5.095208 22.201342 205 205 205 0
-6.324669 -5.128110 22.344706 205 205 205 0
-6.308628 -5.185173 22.593348 206 206 206 0
-6.217955 -5.181629 22.577903 205 205 205 0
-6.117607 -5.169808 22.526398 206 206 206 0
-6.045923 -5.182220 22.580479 206 206 206 0
-5.958448 -5.181259 22.576292 205 205 205 0
-5.937047 -5.238571 22.826016 206 206 206 0
-5.890903 -5.275435 22.986646 206 206 206 0
-5.795911 -5.269010 22.958648 206 206 206 0
-5.701428 -5.262857 22.931838 206 206 206 0
-5.649401 -5.296313 23.077617 206 206 206 0
-5.607306 -5.340291 23.269242 206 206 206 0
-5.568803 -5.389164 23.482196 207 207 207 0
-5.453601 -5.364197 23.373409 206 206 206 0
-5.328833 -5.328833 23.219316 206 206 206 0
-5.218043 -5.306484 23.121936 207 207 207 0
-5.159498 -5.337412 23.256697 206 206 206 0
-5.150382 -5.421454 23.622895 207 207 207 0
-5.031901 -5.391322 23.491601 207 207 207 0
-4.913621 -5.360313 23.356485 207 207 207 0
-4.793649 -5.326276 23.208175 206 206 206 0
-4.708006 -5.329818 23.223609 207 207 207 0
-4.675491 -5.394797 23.506740 206 206 206 0
-4.614776 -5.429149 23.656422 207 207 207 0
-4.498984 -5.398781 23.524101 207 207 207 0
-4.390884 -5.376592 23.427416 207 207 207 0
-4.301547 -5.376934 23.428905 207 207 207 0
-4.232015 -5.402572 23.540620 208 208 208 0
-4.167883 -5.436369 23.687884 207 207 207 0
-4.092404 -5.456539 23.775768 207 207 207 0
-3.991377 -5.442787 23.715848 208 208 208 0
-3.891132 -5.429486 23.657891 208 208 208 0
-3.802543 -5.432204 23.669734 208 208 208 0
-3.750418 -5.488416 23.914668 208 208 208 0
-3.673512 -5.510269 24.009885 208 208 208 0
-3.575318 -5.500489 23.967272 207 207 207 0
-3.462134 -5.466527 23.819289 208 208 208 0
-3.372673 -5.469200 23.830938 208 208 208 0
-3.299903 -5.499839 23.964440 208 208 208 0
-3.218455 -5.517352 24.040749 208 208 208 0
-3.118533 -5.503294 23.979493 208 208 208 0
-3.011369 -5.475216 23.857152 208 208 208 0
-2.921444 -5.477708 23.868008 208 208 208 0
-2.830362 -5.478121 23.869807 208 208 208 0
-2.743939 -5.487879 23.912327 208 208 208 0
-2.657024 -5.497292 23.953341 209 209 209 0
-2.567448 -5.501674 23.972434 209 209 209 0
-2.470876 -5.490835 23.925206 209 209 209 0
-2.382955 -5.499126 23.961334 208 208 208 0
-2.299281 -5.518274 24.044766 208 208 208 0
-2.209498 -5.523745 24.068606 209 209 209 0
-2.117131 -5.522952 24.065149 209 209 209 0
-2.029907 -5.536111 24.122489 209 209 209 0
-1.939634 -5.541811 24.147323 210 210 210 0
-1.850255 -5.550766 24.186343 209 209 209 0
-1.758616 -5.553523 24.198358 209 209 209 0
-1.670642 -5.568806 24.264949 210 210 210 0
-1.581097 -5.580344 24.315223 209 209 209 0
-1.486152 -5.573069 24.283524 209 209 209 0
-1.389207 -5.556829 24.212761 210 210 210 0
-1.295344 -5.551474 24.189427 209 209 209 0
-1.207688 -5.573945 24.287341 209 209 209 0
-1.114860 -5.574300 24.288887 209 209 209 0
-1.022088 -5.575023 24.292041 210 210 210 0
-0.926611 -5.559665 24.225119 210 210 210 0
-0.831696 -5.544638 24.159641 210 210 210 0
-0.738345 -5.537587 24.128919 209 209 209 0
-0.648925 -5.562213 24.236224 210 210 210 0
-0.557772 -5.577717 24.303778 210 210 210 0
-0.464090 -5.569084 24.266159 210 210 210 0
-0.370612 -5.559176 24.222990 210 210 210 0
-0.278047 -5.560936 24.230658 210 210 210 0
-0.185854 -5.575618 24.294634 210 210 210 0
-0.093228 -5.593704 24.373437 210 210 210 0
0.000000 -5.591627 24.364386 210 210 210 0
0.092997 -5.579840 24.313028 210 210 210 0
0.185894 -5.576825 24.299891 210 210 210 0
0.279966 -5.599324 24.397928 210 210 210 0
0.375066 -5.625983 24.514087 210 210 210 0
0.468227 -5.618721 24.482443 210 210 210 0
0.559693 -5.596928 24.387487 211 211 211 0
0.651462 -5.583961 24.330983 211 211 211 0
0.745773 -5.593297 24.371666 210 210 210 0
0.843186 -5.621238 24.493411 210 210 210 0
0.935153 -5.610920 24.448453 211 211 211 0
1.025355 -5.592844 24.369691 211 211 211 0
1.116238 -5.581191 24.318915 211 211 211 0
1.209669 -5.583090 24.327188 211 211 211 0
1.309042 -5.610180 24.445229 211 211 211 0
1.404093 -5.616374 24.472218 211 211 211 0
1.494670 -5.605013 24.422714 211 211 211 0
1.586793 -5.600445 24.402811 212 212 212 0
1.681237 -5.604124 24.418839 211 211 211 0
1.778428 -5.616088 24.470970 211 211 211 0
1.872394 -5.617182 24.475740 211 211 211 0
1.965376 -5.615359 24.467794 211 211 211 0
2.058782 -5.614859 24.465618 212 212 212 0
2.154930 -5.621555 24.494794 211 211 211 0
2.251813 -5.629532 24.529553 211 211 211 0
2.348728 -5.636946 24.561857 211 211 211 0
2.443412 -5.638644 24.569253 212 212 212 0
2.536741 -5.637203 24.562974 212 212 212 0
2.627716 -5.630821 24.535166 212 212 212 0
2.722392 -5.632535 24.542634 211 211 211 0
2.864962 -5.729924 24.966990 211 211 211 0
2.911110 -5.634407 24.550794 212 212 212 0
3.003082 -5.630780 24.534988 211 211 211 0
3.090848 -5.619724 24.486816 212 212 212 0
3.182583 -5.616324 24.471998 212 212 212 0
3.279822 -5.622552 24.499139 213 213 213 0
3.374676 -5.624459 24.507448 212 212 212 0
3.469807 -5.626714 24.517273 212 212 212 0
3.568902 -5.635108 24.553848 212 212 212 0
3.657264 -5.626560 24.516603 211 211 211 0
3.753943 -5.630914 24.535572 213 213 213 0
3.847838 -5.630983 24.535874 212 212 212 0
3.950871 -5.644102 24.593036 212 212 212 0
4.046032 -5.645625 24.599675 213 213 213 0
4.138973 -5.644054 24.592829 212 212 212 0
4.230910 -5.641213 24.580449 213 213 213 0
4.337820 -5.658027 24.653711 213 213 213 0
4.439087 -5.666920 24.692463 212 212 212 0
4.526561 -5.658202 24.654474 212 212 212 0
4.610084 -5.645001 24.596955 213 213 213 0
4.703838 -5.644605 24.595229 212 212 212 0
4.812130 -5.661330 24.668103 212 212 212 0
4.905679 -5.660399 24.664047 212 212 212 0
4.988454 -5.647306 24.607000 213 213 213 0
5.072715 -5.636349 24.559257 213 213 213 0
5.159794 -5.628866 24.526649 212 212 212 0
5.269861 -5.646280 24.602526 212 212 212 0
5.372717 -5.655491 24.642664 212 212 212 0
5.460725 -5.649026 24.614493 212 212 212 0
5.542777 -5.636723 24.560883 213 213 213 0
5.640073 -5.640073 24.575483 213 213 213 0
5.741445 -5.647323 24.607072 212 212 212 0
5.837137 -5.648842 24.613692 213 213 213 0
5.933965 -5.651395 24.624814 213 213 213 0
6.023764 -5.647279 24.606881 213 213 213 0
6.122895 -5.651903 24.627027 213 213 213 0
6.229740 -5.663400 24.677125 213 213 213 0
6.332756 -5.671125 24.710783 213 213 213 0
6.425235 -5.669325 24.702941 212 212 212 0
6.502634 -5.654464 24.638189 212 212 212 0
6.593795 -5.651824 24.626686 213 213 213 0
6.698878 -5.661024 24.666770 213 213 213 0
6.806414 -5.672011 24.714647 213 213 213 0
6.882832 -5.657122 24.649770 213 213 213 0
6.966327 -5.648373 24.611648 213 213 213 0
7.061062 -5.648849 24.613723 213 213 213 0
7.157002 -5.650265 24.619889 213 213 213 0
7.262842 -5.659357 24.659508 213 213 213 0
7.348481 -5.652678 24.630404 213 213 213 0
7.467539 -5.671549 24.712631 214 214 214 0
-6.733628 -4.966050 22.005320 205 205 205 0
-6.685577 -4.993026 22.124852 205 205 205 0
-6.597304 -4.990268 22.112631 205 205 205 0
-6.477059 -4.962941 21.991543 205 205 205 0
-6.387595 -4.958791 21.973152 206 206 206 0
-6.369909 -5.010995 22.204475 205 205 205 0
-6.321581 -5.040179 22.333794 206 206 206 0
-6.315709 -5.104477 22.618707 205 205 205 0
-6.219917 -5.096876 22.585028 205 205 205 0
-6.113442 -5.080184 22.511062 205 205 205 0
-6.044840 -5.094937 22.576434 206 206 206 0
-5.965526 -5.100957 22.603112 206 206 206 0
-5.945384 -5.158495 22.858068 207 207 207 0
-5.890520 -5.187174 22.985152 206 206 206 0
-5.802110 -5.186735 22.983205 206 206 206 0
-5.706878 -5.180090 22.953760 206 206 206 0
-5.645299 -5.204260 23.060860 206 206 206 0
-5.604559 -5.248714 23.257845 206 206 206 0
-5.568187 -5.298759 23.479600 207 207 207 0
-5.449969 -5.271282 23.357845 207 207 207 0
-5.329470 -5.240646 23.222092 206 206 206 0
-5.216851 -5.216851 23.116654 206 206 206 0
-5.160224 -5.249193 23.259967 206 206 206 0
-5.149617 -5.330305 23.619388 207 207 207 0
-5.032206 -5.301789 23.493027 206 206 206 0
-4.918406 -5.276108 23.379233 207 207 207 0
-4.802192 -5.246840 23.249540 207 207 207 0
-4.704338 -5.236904 23.205512 207 207 207 0
-4.672543 -5.301539 23.491922 207 207 207 0
-4.611578 -5.334963 23.640025 207 207 207 0
-4.499824 -5.309792 23.528492 207 207 207 0
-4.389544 -5.285369 23.420268 208 208 208 0
-4.297553 -5.282409 23.407154 207 207 207 0
-4.228973 -5.308710 23.523697 208 208 208 0
-4.168263 -5.346250 23.690040 208 208 208 0
-4.090713 -5.363379 23.765942 207 207 207 0
-3.986742 -5.345859 23.688308 208 208 208 0
-3.891572 -5.339599 23.660570 208 208 208 0
-3.800949 -5.339429 23.659815 207 207 207 0
-3.751886 -5.399055 23.924027 208 208 208 0
-3.674882 -5.420451 24.018835 208 208 208 0
-3.575504 -5.409096 23.968523 208 208 208 0
-3.464547 -5.379165 23.835894 208 208 208 0
-3.370920 -5.375251 23.818547 208 208 208 0
-3.298637 -5.406099 23.955240 209 209 209 0
-3.217070 -5.423061 24.030404 209 209 209 0
-3.115534 -5.406368 23.956431 209 209 209 0
-3.013130 -5.387110 23.871100 208 208 208 0
-2.916822 -5.377890 23.830242 208 208 208 0
-2.833269 -5.392351 23.894322 208 208 208 0
-2.742365 -5.393317 23.898603 209 209 209 0
-2.658052 -5.407760 23.962601 208 208 208 0
-2.568283 -5.411739 23.980233 209 209 209 0
-2.472626 -5.403147 23.942159 209 209 209 0
-2.383656 -5.409065 23.968385 209 209 209 0
-2.298773 -5.425105 24.039458 209 209 209 0
-2.209195 -5.430938 24.065305 209 209 209 0
-2.117599 -5.432103 24.070468 210 210 210 0
-2.029366 -5.442390 24.116050 209 209 209 0
-1.939614 -5.449392 24.147080 209 209 209 0
-1.849181 -5.455083 24.172295 210 210 210 0
-1.758620 -5.460979 24.198423 209 209 209 0
-1.670777 -5.476436 24.266915 209 209 209 0
-1.581868 -5.490012 24.327071 209 209 209 0
-1.485285 -5.476988 24.269361 210 210 210 0
-1.389621 -5.465842 24.219971 209 209 209 0
-1.295519 -5.459687 24.192698 209 209 209 0
-1.207880 -5.481917 24.291201 210 210 210 0
-1.114607 -5.480149 24.283369 210 210 210 0
-1.021529 -5.479110 24.278762 210 210 210 0
-0.926923 -5.468847 24.233287 210 210 210 0
-0.831477 -5.450797 24.153304 210 210 210 0
-0.738366 -5.445452 24.129620 209 209 209 0
-0.648608 -5.466840 24.224395 210 210 210 0
-0.557563 -5.482704 24.294688 211 211 211 0
-0.464135 -5.476788 24.268473 210 210 210 0
-0.370636 -5.466880 24.224572 210 210 210 0
-0.278136 -5.470009 24.238438 210 210 210 0
-0.185994 -5.486818 24.312918 210 210 210 0
-0.093278 -5.503383 24.386320 210 210 210 0
0.000000 -5.500475 24.373437 211 211 211 0
0.092964 -5.484872 24.304294 210 210 210 0
0.185830 -5.481984 24.291499 210 210 210 0
0.279952 -5.505718 24.396669 210 210 210 0
0.375024 -5.531602 24.511362 210 210 210 0
0.468385 -5.526940 24.490704 210 210 210 0
0.559516 -5.501904 24.379769 210 210 210 0
0.651339 -5.489854 24.326372 211 211 211 0
0.746184 -5.503110 24.385111 210 210 210 0
0.843056 -5.526697 24.489630 211 211 211 0
0.934498 -5.513537 24.431317 210 210 210 0
1.025688 -5.501416 24.377603 211 211 211 0
1.116334 -5.488642 24.321003 211 211 211 0
1.209769 -5.490488 24.329182 211 211 211 0
1.309055 -5.516733 24.445477 211 211 211 0
1.403328 -5.519757 24.458879 212 212 212 0
1.495600 -5.515025 24.437908 211 211 211 0
1.586972 -5.507727 24.405572 211 211 211 0
1.681925 -5.512977 24.428832 212 212 212 0
1.778024 -5.521232 24.465414 211 211 211 0
1.871307 -5.520355 24.461527 212 212 212 0
1.965117 -5.521042 24.464572 211 211 211 0
2.057898 -5.518907 24.455111 211 211 211 0
2.155190 -5.528530 24.497753 211 211 211 0
2.251473 -5.534871 24.525849 211 211 211 0
2.349152 -5.543999 24.566295 212 212 212 0
2.444067 -5.546152 24.575837 211 211 211 0
2.536391 -5.542484 24.559583 211 211 211 0
2.629506 -5.540745 24.551879 212 212 212 0
2.723530 -5.540975 24.552899 212 212 212 0
2.842044 -5.589353 24.767268 212 212 212 0
2.912310 -5.542784 24.560915 212 212 212 0
3.002597 -5.536038 24.531019 211 211 211 0
3.091205 -5.526700 24.489641 212 212 212 0
3.183507 -5.524322 24.479104 212 212 212 0
3.279465 -5.528241 24.496469 212 212 212 0
3.374903 -5.531091 24.509101 213 213 213 0
3.469113 -5.531829 24.512370 212 212 212 0
3.567558 -5.539104 24.544606 212 212 212 0
3.657912 -5.533765 24.520947 212 212 212 0
3.753458 -5.536350 24.532402 212 212 212 0
3.848528 -5.538126 24.540272 213 213 213 0
3.950336 -5.549282 24.589707 212 212 212 0
4.043580 -5.548167 24.584767 212 212 212 0
4.140280 -5.551739 24.600593 213 213 213 0
4.230516 -5.546676 24.578159 213 213 213 0
4.339957 -5.566467 24.665854 212 212 212 0
4.438672 -5.571950 24.690150 212 212 212 0
4.526133 -5.563372 24.652141 213 213 213 0
4.610445 -5.551352 24.598880 213 213 213 0
4.702880 -5.549398 24.590221 212 212 212 0
4.813557 -5.568625 24.675419 213 213 213 0
4.903586 -5.563685 24.653526 213 213 213 0
4.988077 -5.552765 24.605140 213 213 213 0
5.072107 -5.541747 24.556316 213 213 213 0
5.160710 -5.536035 24.531006 213 213 213 0
5.269064 -5.551335 24.598803 212 212 212 0
5.372129 -5.560625 24.639969 212 212 212 0
5.460704 -5.554855 24.614399 214 214 214 0
5.545389 -5.545389 24.572456 213 213 213 0
5.639123 -5.545138 24.571344 213 213 213 0
5.740353 -5.552145 24.602392 213 213 213 0
5.836260 -5.553860 24.609994 213 213 213 0
5.931991 -5.555357 24.616625 213 213 213 0
6.020483 -5.550133 24.593476 214 214 214 0
6.120940 -5.555930 24.619164 212 212 212 0
6.229350 -5.568661 24.675579 213 213 213 0
6.333339 -5.577119 24.713058 213 213 213 0
6.426622 -5.576040 24.708273 213 213 213 0
6.505758 -5.562895 24.650026 213 213 213 0
6.594905 -5.558563 24.630832 213 213 213 0
6.699459 -5.567156 24.668908 213 213 213 0
6.803752 -5.575297 24.704982 213 213 213 0
6.882691 -5.562723 24.649265 213 213 213 0
6.967249 -5.554969 24.614905 213 213 213 0
7.060912 -5.554584 24.613201 214 214 214 0
7.158960 -5.557614 24.626625 214 214 214 0
7.265155 -5.566807 24.667362 213 213 213 0
7.349485 -5.559226 24.633768 213 213 213 0
7.467096 -5.576692 24.711164 214 214 214 0
-6.735081 -4.882934 22.010068 205 205 205 0
-6.673682 -4.899665 22.085487 205 205 205 0
-6.579683 -4.892585 22.053573 205 205 205 0
-6.491216 -4.889488 22.039610 205 205 205 0
-6.398881 -4.883356 22.011974 205 205 205 0
-6.367369 -4.924098 22.195621 205 205 205 0
-6.321846 -4.954960 22.334732 206 206 206 0
-6.302971 -5.007840 22.573088 206 206 206 0
-6.217086 -5.008209 22.574751 205 205 205 0
-6.109745 -4.991059 22.497448 206 206 206 0
-6.050619 -5.013370 22.598018 206 206 206 0
-5.962114 -5.011632 22.590182 206 206 206 0
-5.944043 -5.069919 22.852915 206 206 206 0
-5.905431 -5.112164 23.043335 207 207 207 0
-5.803791 -5.100301 22.989864 206 206 206 0
-5.708008 -5.093300 22.958304 206 206 206 0
-5.642738 -5.113731 23.050401 206 206 206 0
-5.603798 -5.159052 23.254685 207 207 207 0
-5.571365 -5.211922 23.492999 206 206 206 0
-5.454670 -5.186408 23.377992 206 206 206 0
-5.333275 -5.155499 23.238671 206 206 206 0
-5.216022 -5.127615 23.112980 206 206 206 0
-5.155909 -5.155909 23.240517 207 207 207 0
-5.154877 -5.245313 23.643511 207 207 207 0
-5.028866 -5.208468 23.477431 207 207 207 0
-4.909343 -5.177125 23.336152 207 207 207 0
-4.799450 -5.154965 23.236264 207 207 207 0
-4.702980 -5.146657 23.198816 207 207 207 0
-4.676057 -5.215603 23.509590 208 208 208 0
-4.605777 -5.237942 23.610287 208 208 208 0
-4.499331 -5.219224 23.525913 208 208 208 0
-4.389723 -5.195998 23.421223 207 207 207 0
-4.300454 -5.196382 23.422953 207 207 207 0
-4.234818 -5.225946 23.556212 207 207 207 0
-4.165252 -5.251839 23.672928 207 207 207 0
-4.097448 -5.281155 23.805071 207 207 207 0
-3.988710 -5.257845 23.699998 207 207 207 0
-3.888503 -5.244958 23.641910 208 208 208 0
-3.805776 -5.255595 23.689859 208 208 208 0
-3.752766 -5.308791 23.929643 208 208 208 0
-3.670208 -5.321802 23.988288 208 208 208 0
-3.574989 -5.316650 23.965068 208 208 208 0
-3.463723 -5.286735 23.830222 208 208 208 0
-3.371330 -5.284787 23.821442 208 208 208 0
-3.299732 -5.316235 23.963198 208 208 208 0
-3.217195 -5.331352 24.031337 208 208 208 0
-3.117996 -5.318934 23.975361 208 208 208 0
-3.012289 -5.294326 23.864438 209 209 209 0
-2.918165 -5.289174 23.841216 208 208 208 0
-2.830416 -5.295618 23.870262 208 208 208 0
-2.743376 -5.303861 23.907418 209 209 209 0
-2.657609 -5.315218 23.958612 209 209 209 0
-2.567429 -5.318247 23.972263 209 209 209 0
-2.472677 -5.311676 23.942648 209 209 209 0
-2.384894 -5.320149 23.980839 209 209 209 0
-2.299272 -5.334311 24.044672 209 209 209 0
-2.210476 -5.341984 24.079261 209 209 209 0
-2.118041 -5.341148 24.075492 209 209 209 0
-2.030814 -5.353964 24.133261 209 209 209 0
-1.939416 -5.356482 24.144611 210 210 210 0
-1.850444 -5.366288 24.188815 209 209 209 0
-1.758880 -5.369212 24.201994 209 209 209 0
-1.670673 -5.383279 24.265400 209 209 209 0
-1.581645 -5.396200 24.323643 209 209 209 0
-1.485984 -5.386692 24.280785 209 209 209 0
-1.390153 -5.375258 24.229244 209 209 209 0
-1.295765 -5.368168 24.197285 209 209 209 0
-1.208072 -5.389861 24.295068 210 210 210 0
-1.114614 -5.387299 24.283519 210 210 210 0
-1.020972 -5.383305 24.265516 210 210 210 0
-0.926603 -5.374296 24.224910 209 209 209 0
-0.831994 -5.361739 24.168306 210 210 210 0
-0.738372 -5.353198 24.129807 210 210 210 0
-0.648566 -5.373829 24.222805 209 209 209 0
-0.557621 -5.390336 24.297212 209 209 209 0
-0.464107 -5.383641 24.267030 210 210 210 0
-0.370365 -5.370298 24.206888 210 210 210 0
-0.278178 -5.378104 24.242075 211 211 211 0
-0.185902 -5.391162 24.300931 210 210 210 0
-0.093221 -5.406846 24.371628 210 210 210 0
0.000000 -5.406879 24.371779 210 210 210 0
0.093039 -5.396286 24.324030 210 210 210 0
0.186014 -5.394401 24.315533 210 210 210 0
0.280020 -5.413712 24.402578 211 211 211 0
0.375079 -5.438638 24.514935 210 210 210 0
0.468438 -5.433883 24.493499 210 210 210 0
0.559678 -5.410220 24.386839 210 210 210 0
0.651429 -5.397555 24.329750 211 211 211 0
0.746028 -5.408701 24.379990 211 211 211 0
0.842807 -5.431421 24.482401 211 211 211 0
0.934850 -5.422129 24.440520 210 210 210 0
1.025314 -5.406204 24.368734 211 211 211 0
1.116007 -5.394036 24.313888 211 211 211 0
1.209821 -5.397665 24.330244 212 212 212 0
1.309677 -5.425803 24.457078 211 211 211 0
1.404161 -5.429422 24.473391 211 211 211 0
1.495151 -5.419924 24.430579 210 210 210 0
1.587110 -5.414847 24.407694 211 211 211 0
1.681933 -5.419563 24.428952 211 211 211 0
1.778341 -5.428621 24.469780 211 211 211 0
1.870858 -5.425488 24.455660 211 211 211 0
1.964710 -5.426342 24.459511 211 211 211 0
2.058513 -5.426988 24.462422 211 211 211 0
2.153841 -5.431425 24.482420 211 211 211 0
2.251824 -5.441908 24.529671 211 211 211 0
2.349238 -5.450232 24.567194 212 212 212 0
2.444493 -5.453101 24.580125 212 212 212 0
2.535786 -5.447243 24.553722 212 212 212 0
2.628378 -5.444498 24.541349 212 212 212 0
2.722329 -5.444659 24.542073 212 212 212 0
2.828499 -5.468430 24.649224 211 211 211 0
2.911618 -5.447544 24.555078 212 212 212 0
3.002466 -5.441970 24.529954 212 212 212 0
3.091088 -5.432821 24.488713 212 212 212 0
3.183517 -5.430705 24.479177 212 212 212 0
3.279649 -5.434846 24.497843 212 212 212 0
3.374895 -5.437331 24.509040 212 212 212 0
3.469521 -5.438708 24.515250 212 212 212 0
3.568820 -5.447147 24.553287 212 212 212 0
3.657818 -5.439832 24.520314 212 212 212 0
3.752803 -5.441564 24.528124 212 212 212 0
3.846900 -5.441956 24.529888 212 212 212 0
3.949843 -5.454545 24.586636 213 213 213 0
4.042331 -5.452446 24.577173 213 213 213 0
4.138895 -5.455816 24.592363 213 213 213 0
4.230164 -5.452211 24.576115 212 212 212 0
4.340103 -5.472304 24.666685 212 212 212 0
4.440480 -5.479741 24.700209 212 212 212 0
4.525988 -5.468902 24.651350 212 212 212 0
4.610428 -5.457242 24.598791 213 213 213 0
4.702738 -5.455176 24.589478 212 212 212 0
4.813317 -5.473968 24.674185 213 213 213 0
4.904204 -5.470074 24.656633 213 213 213 0
4.987474 -5.457990 24.602165 213 213 213 0
5.072270 -5.447994 24.557107 212 212 212 0
5.159154 -5.440563 24.523609 212 212 212 0
5.269419 -5.457612 24.600460 213 213 213 0
5.372363 -5.466615 24.641042 212 212 212 0
5.457789 -5.457789 24.601257 212 212 212 0
5.544504 -5.450529 24.568532 212 212 212 0
5.638299 -5.450356 24.567754 213 213 213 0
5.740610 -5.458285 24.603491 213 213 213 0
5.837307 -5.460707 24.614409 213 213 213 0
5.932699 -5.461850 24.619564 213 213 213 0
6.021305 -5.456808 24.596836 213 213 213 0
6.123252 -5.463825 24.628465 213 213 213 0
6.228460 -5.473495 24.672054 213 213 213 0
6.330978 -5.480549 24.703847 213 213 213 0
6.425588 -5.480648 24.704297 213 213 213 0
6.504342 -5.467418 24.644659 213 213 213 0
6.593896 -5.463514 24.627063 213 213 213 0
6.698858 -5.472306 24.666696 213 213 213 0
6.802964 -5.480165 24.702121 213 213 213 0
6.882666 -5.468419 24.649175 214 214 214 0
6.967123 -5.460718 24.614462 213 213 213 0
7.059639 -5.459454 24.608764 214 214 214 0
7.155868 -5.461058 24.615991 214 214 214 0
7.263266 -5.471032 24.660949 214 214 214 0
7.348548 -5.464305 24.630629 213 213 213 0
7.467546 -5.482502 24.712652 214 214 214 0
-6.720940 -4.788670 21.963858 205 205 205 0
-6.679121 -4.819112 22.103485 205 205 205 0
-6.583181 -4.810786 22.065295 205 205 205 0
-6.477707 -4.795186 21.993742 205 205 205 0
-6.392126 -4.794094 21.988736 206 206 206 0
-6.366249 -4.838350 22.191719 206 206 206 0
-6.321809 -4.869502 22.334603 206 206 206 0
-6.307581 -4.925098 22.589601 206 206 206 0
-6.200327 -4.908592 22.513897 206 206 206 0
-6.120565 -4.913693 22.537293 205 205 205 0
-6.037997 -4.916655 22.550877 206 206 206 0
-5.965846 -4.928308 22.604325 205 205 205 0
-5.943535 -4.982081 22.850961 206 206 206 0
-5.891285 -5.011988 22.988136 206 206 206 0
-5.815724 -5.022670 23.037131 206 206 206 0
-5.702736 -5.000861 22.937097 206 206 206 0
-5.644096 -5.026773 23.055948 206 206 206 0
-5.604785 -5.070996 23.258781 207 207 207 0
-5.570049 -5.120852 23.487453 207 207 207 0
-5.455958 -5.098190 23.383513 207 207 207 0
-5.333445 -5.066773 23.239412 207 207 207 0
-5.220447 -5.043482 23.132587 207 207 207 0
-5.156157 -5.067258 23.241636 206 206 206 0
-5.145516 -5.145516 23.600576 207 207 207 0
-5.035731 -5.125654 23.509480 207 207 207 0
-4.909804 -5.088343 23.338344 207 207 207 0
-4.794454 -5.060813 23.212074 207 207 207 0
-4.706214 -5.061400 23.214769 207 207 207 0
-4.673996 -5.123419 23.499228 207 207 207 0
-4.610335 -5.152727 23.633654 207 207 207 0
-4.498956 -5.128810 23.523953 207 207 207 0
-4.389332 -5.105957 23.419136 207 207 207 0
-4.297596 -5.103395 23.407387 207 207 207 0
-4.233180 -5.133856 23.547099 207 207 207 0
-4.166337 -5.162635 23.679094 208 208 208 0
-4.090024 -5.180697 23.761938 207 207 207 0
-3.988361 -5.166740 23.697924 208 208 208 0
-3.889560 -5.155928 23.648335 207 207 207 0
-3.802125 -5.160027 23.667132 207 207 207 0
-3.751582 -5.215613 23.922088 208 208 208 0
-3.673839 -5.235220 24.012018 207 207 207 0
-3.576442 -5.227108 23.974809 208 208 208 0
-3.463427 -5.195140 23.828184 208 208 208 0
-3.373444 -5.196927 23.836381 208 208 208 0
-3.296537 -5.219517 23.939994 208 208 208 0
-3.219944 -5.243909 24.051872 209 209 209 0
-3.116017 -5.223912 23.960149 208 208 208 0
-3.013205 -5.204627 23.871699 209 209 209 0
-2.919159 -5.199752 23.849339 209 209 209 0
-2.834035 -5.210968 23.900783 209 209 209 0
-2.744916 -5.215340 23.920835 208 208 208 0
-2.660423 -5.229107 23.983978 208 208 208 0
-2.568916 -5.229580 23.986148 208 208 208 0
-2.472147 -5.218976 23.937513 209 209 209 0
-2.382491 -5.223152 23.956667 209 209 209 0
-2.298099 -5.239666 24.032408 209 209 209 0
-2.209175 -5.246790 24.065084 209 209 209 0
-2.117830 -5.248535 24.073088 209 209 209 0
-2.030139 -5.259907 24.125246 209 209 209 0
-1.939703 -5.264907 24.148181 209 209 209 0
-1.849081 -5.269882 24.171000 209 209 209 0
-1.758873 -5.276619 24.201901 210 210 210 0
-1.671932 -5.294452 24.283693 210 210 210 0
-1.581454 -5.302522 24.320704 209 209 209 0
-1.485754 -5.292998 24.277023 210 210 210 0
-1.389683 -5.280794 24.221049 209 209 209 0
-1.296064 -5.276831 24.202870 210 210 210 0
-1.206757 -5.291166 24.268620 210 210 210 0
-1.115353 -5.297926 24.299628 210 210 210 0
-1.021659 -5.294052 24.281857 210 210 210 0
-0.926264 -5.279707 24.216063 210 210 210 0
-0.831518 -5.266278 24.154471 210 210 210 0
-0.738239 -5.259951 24.125447 210 210 210 0
-0.648785 -5.282963 24.230998 210 210 210 0
-0.557692 -5.298071 24.300291 211 211 211 0
-0.464127 -5.291048 24.268077 210 210 210 0
-0.370276 -5.276438 24.201070 210 210 210 0
-0.278183 -5.285476 24.242523 210 210 210 0
-0.186041 -5.302170 24.319090 210 210 210 0
-0.093238 -5.314575 24.375989 211 211 211 0
0.000000 -5.315095 24.378376 210 210 210 0
0.093039 -5.303215 24.323887 210 210 210 0
0.185793 -5.295096 24.286644 211 211 211 0
0.280086 -5.321628 24.408338 210 210 210 0
0.375024 -5.344086 24.511347 211 211 211 0
0.468202 -5.337502 24.481145 210 210 210 0
0.559603 -5.316230 24.383580 211 211 211 0
0.651621 -5.306054 24.336908 210 210 210 0
0.745690 -5.313043 24.368962 210 210 210 0
0.842535 -5.336056 24.474516 211 211 211 0
0.934545 -5.326906 24.432549 211 211 211 0
1.025516 -5.314040 24.373534 210 210 210 0
1.116456 -5.303166 24.323661 211 211 211 0
1.209843 -5.304697 24.330684 211 211 211 0
1.309433 -5.331262 24.452524 211 211 211 0
1.404040 -5.335353 24.471292 211 211 211 0
1.495403 -5.327374 24.434695 210 210 210 0
1.586811 -5.320483 24.403085 211 211 211 0
1.681954 -5.326188 24.429251 212 212 212 0
1.777065 -5.331195 24.452220 211 211 211 0
1.870974 -5.332275 24.457172 212 212 212 0
1.964910 -5.333328 24.462001 211 211 211 0
2.059018 -5.334729 24.468429 211 211 211 0
2.154592 -5.339641 24.490956 212 212 212 0
2.250289 -5.344435 24.512947 211 211 211 0
2.348215 -5.353930 24.556495 212 212 212 0
2.445422 -5.361117 24.589458 212 212 212 0
2.536962 -5.355809 24.565116 212 212 212 0
2.627754 -5.349355 24.535514 211 211 211 0
2.721888 -5.349918 24.538094 212 212 212 0
2.827516 -5.372281 24.640666 211 211 211 0
2.912656 -5.355529 24.563829 212 212 212 0
3.003180 -5.349414 24.535781 212 212 212 0
3.092150 -5.340986 24.497126 212 212 212 0
3.183729 -5.337428 24.480807 212 212 212 0
3.279422 -5.340773 24.496152 212 212 212 0
3.376008 -5.345346 24.517124 212 212 212 0
3.470742 -5.346819 24.523878 212 212 212 0
3.567763 -5.351645 24.546014 212 212 212 0
3.655140 -5.342127 24.502360 212 212 212 0
3.752923 -5.347916 24.528910 212 212 212 0
3.846349 -5.347363 24.526374 213 213 213 0
3.950091 -5.360837 24.588177 213 213 213 0
4.044741 -5.361633 24.591828 212 212 212 0
4.138357 -5.361053 24.589167 212 212 212 0
4.229920 -5.357898 24.574696 213 213 213 0
4.338206 -5.375603 24.655904 213 213 213 0
4.439592 -5.384186 24.695269 213 213 213 0
4.526041 -5.374674 24.651639 213 213 213 0
4.610613 -5.363366 24.599775 212 212 212 0
4.706090 -5.364942 24.607005 213 213 213 0
4.810433 -5.376367 24.659404 213 213 213 0
4.905131 -5.376778 24.661293 213 213 213 0
4.987967 -5.364418 24.604600 213 213 213 0
5.070689 -5.352394 24.549451 213 213 213 0
5.159075 -5.346678 24.523235 213 213 213 0
5.269879 -5.363984 24.602610 213 213 213 0
5.372765 -5.372765 24.642883 213 213 213 0
5.459023 -5.364902 24.606822 213 213 213 0
5.542545 -5.354662 24.559855 213 213 213 0
5.637629 -5.355747 24.564830 213 213 213 0
5.743257 -5.366650 24.614836 213 213 213 0
5.837773 -5.366985 24.616374 213 213 213 0
5.932377 -5.367389 24.618228 214 214 214 0
6.025704 -5.366643 24.614805 213 213 213 0
6.123856 -5.370150 24.630892 213 213 213 0
6.228771 -5.379393 24.673284 213 213 213 0
6.333799 -5.388456 24.714852 213 213 213 0
6.425663 -5.386218 24.704588 213 213 213 0
6.505931 -5.374465 24.650682 213 213 213 0
6.595251 -5.370419 24.632125 213 213 213 0
6.698740 -5.377861 24.666261 213 213 213 0
6.804363 -5.386787 24.707199 213 213 213 0
6.882878 -5.374302 24.649933 214 214 214 0
6.966074 -5.365760 24.610755 213 213 213 0
7.058632 -5.364560 24.605252 213 213 213 0
7.159032 -5.369274 24.626874 213 213 213 0
7.264193 -5.377389 24.664095 214 214 214 0
7.350368 -5.371423 24.636730 213 213 213 0
7.468704 -5.388812 24.716487 213 213 213 0
-6.725391 -4.707774 21.978401 205 205 205 0
-6.675168 -4.731765 22.090404 205 205 205 0
-6.572000 -4.718359 22.027819 205 205 205 0
-6.481256 -4.713641 22.005792 205 205 205 0
-6.393922 -4.711311 21.994916 205 205 205 0
-6.357741 -4.747114 22.162062 205 205 205 0
-6.319359 -4.782218 22.325947 206 206 206 0
-6.313027 -4.842870 22.609102 206 206 206 0
-6.222549 -4.839760 22.594586 206 206 206 0
-6.114880 -4.823004 22.516360 206 206 206 0
-6.037414 -4.829932 22.548700 206 206 206 0
-5.961894 -4.838638 22.589348 205 205 205 0
-5.938603 -4.890615 22.832001 206 206 206 0
-5.898880 -4.930407 23.017774 206 206 206 0
-5.807010 -4.927160 23.002613 206 206 206 0
-5.708962 -4.918490 22.962138 206 206 206 0
-5.647163 -4.941268 23.068476 207 207 207 0
-5.601862 -4.979433 23.246654 206 206 206 0
-5.562135 -5.023864 23.454078 206 206 206 0
-5.455371 -5.008209 23.380995 206 206 206 0
-5.327891 -4.972698 23.215210 206 206 206 0
-5.222102 -4.956571 23.139922 207 207 207 0
-5.161200 -4.983227 23.264367 207 207 207 0
-5.150832 -5.060467 23.624963 207 207 207 0
-5.033328 -5.033328 23.498262 207 207 207 0
-4.917950 -5.007367 23.377065 206 206 206 0
-4.800501 -4.978297 23.241351 207 207 207 0
-4.707559 -4.974025 23.221405 207 207 207 0
-4.677888 -5.037725 23.518791 207 207 207 0
-4.609629 -5.061553 23.630033 207 207 207 0
-4.498601 -5.038433 23.522097 208 208 208 0
-4.386330 -5.012949 23.403122 207 207 207 0
-4.299679 -5.016292 23.418728 208 208 208 0
-4.232200 -5.042621 23.541647 207 207 207 0
-4.167240 -5.073162 23.684231 208 208 208 0
-4.091484 -5.091624 23.770421 208 208 208 0
-3.986457 -5.073672 23.686610 207 207 207 0
-3.886843 -5.061935 23.631816 208 208 208 0
-3.803223 -5.070964 23.673968 208 208 208 0
-3.754238 -5.127739 23.939025 208 208 208 0
-3.672833 -5.141966 24.005444 208 208 208 0
-3.577550 -5.136994 23.982233 208 208 208 0
-3.466193 -5.108074 23.847219 208 208 208 0
-3.372401 -5.104174 23.829012 208 208 208 0
-3.295869 -5.126907 23.935141 208 208 208 0
-3.220483 -5.152773 24.055896 209 209 209 0
-3.117622 -5.134907 23.972488 208 208 208 0
-3.014424 -5.115387 23.881356 208 208 208 0
-2.917673 -5.105928 23.837199 209 209 209 0
-2.829448 -5.111262 23.862099 208 208 208 0
-2.743232 -5.120699 23.906157 208 208 208 0
-2.658539 -5.133731 23.966996 209 209 209 0
-2.568644 -5.137288 23.983603 209 209 209 0
-2.472229 -5.127586 23.938312 209 209 209 0
-2.384015 -5.134801 23.971992 209 209 209 0
-2.297908 -5.147314 24.030410 209 209 209 0
-2.209050 -5.154449 24.063723 209 209 209 0
-2.117926 -5.156689 24.074179 209 209 209 0
-2.030085 -5.167489 24.124598 209 209 209 0
-1.938429 -5.169143 24.132321 209 209 209 0
-1.849113 -5.177516 24.171408 209 209 209 0
-1.758754 -5.183696 24.200261 209 209 209 0
-1.670645 -5.197561 24.264992 209 209 209 0
-1.582022 -5.211365 24.329437 209 209 209 0
-1.486116 -5.201404 24.282933 209 209 209 0
-1.390055 -5.189539 24.227542 210 210 210 0
-1.296039 -5.184156 24.202409 210 210 210 0
-1.207451 -5.201328 24.282575 210 210 210 0
-1.114499 -5.200995 24.281021 209 209 209 0
-1.021165 -5.198659 24.270118 210 210 210 0
-0.926841 -5.190308 24.231129 210 210 210 0
-0.831613 -5.174483 24.157252 210 210 210 0
-0.738321 -5.168249 24.128148 210 210 210 0
-0.648717 -5.189733 24.228446 209 209 209 0
-0.557792 -5.206058 24.304658 210 210 210 0
-0.464153 -5.198514 24.269441 210 210 210 0
-0.370502 -5.187025 24.215805 210 210 210 0
-0.278221 -5.193468 24.245881 211 211 211 0
-0.185996 -5.207888 24.313205 210 210 210 0
-0.093304 -5.225046 24.393305 211 211 211 0
0.000000 -5.221160 24.375163 210 210 210 0
0.093051 -5.210830 24.326935 211 211 211 0
0.185877 -5.204555 24.297642 210 210 210 0
0.280165 -5.229739 24.415216 210 210 210 0
0.375161 -5.252254 24.520328 210 210 210 0
0.468574 -5.248030 24.500609 210 210 210 0
0.559861 -5.225370 24.394818 211 211 211 0
0.651431 -5.211451 24.329837 210 210 210 0
0.745897 -5.221277 24.375709 210 210 210 0
0.842571 -5.242662 24.475546 211 211 211 0
0.935018 -5.236099 24.444907 211 211 211 0
1.025121 -5.218800 24.364145 211 211 211 0
1.115975 -5.207885 24.313189 211 211 211 0
1.209466 -5.210007 24.323097 212 212 212 0
1.309652 -5.238610 24.456628 211 211 211 0
1.403739 -5.240625 24.466037 211 211 211 0
1.494290 -5.230014 24.416497 211 211 211 0
1.586257 -5.225317 24.394572 211 211 211 0
1.681295 -5.230695 24.419680 212 212 212 0
1.778244 -5.241141 24.468448 212 212 212 0
1.870508 -5.237424 24.451091 211 211 211 0
1.964886 -5.239697 24.461704 211 211 211 0
2.058428 -5.239636 24.461418 212 212 212 0
2.153672 -5.243724 24.480502 212 212 212 0
2.250373 -5.250870 24.513868 212 212 212 0
2.347921 -5.259344 24.553425 212 212 212 0
2.443974 -5.263944 24.574903 212 212 212 0
2.536707 -5.261318 24.562642 211 211 211 0
2.628050 -5.256100 24.538282 211 211 211 0
2.723265 -5.258718 24.550503 212 212 212 0
2.825610 -5.274471 24.624049 212 212 212 0
2.911722 -5.259885 24.555950 212 212 212 0
3.001697 -5.252970 24.523672 212 212 212 0
3.092802 -5.248391 24.502294 212 212 212 0
3.182596 -5.241923 24.472097 212 212 212 0
3.279714 -5.247542 24.498330 212 212 212 0
3.375195 -5.250304 24.511221 212 212 212 0
3.468312 -5.249337 24.506708 212 212 212 0
3.566913 -5.256503 24.540162 212 212 212 0
3.657361 -5.251596 24.517254 212 212 212 0
3.753092 -5.254329 24.530016 212 212 212 0
3.847105 -5.254582 24.531197 212 212 212 0
3.946068 -5.261424 24.563136 212 212 212 0
4.044689 -5.267501 24.591510 212 212 212 0
4.139236 -5.268118 24.594388 212 212 212 0
4.230273 -5.264339 24.576748 212 212 212 0
4.337703 -5.280681 24.653041 212 212 212 0
4.441060 -5.291475 24.703433 212 212 212 0
4.526327 -5.280715 24.653198 212 212 212 0
4.610686 -5.269356 24.600166 213 213 213 0
4.703219 -5.267605 24.591993 213 213 213 0
4.810408 -5.282017 24.659274 213 213 213 0
4.903317 -5.280495 24.652172 212 212 212 0
4.987859 -5.270191 24.604065 213 213 213 0
5.073532 -5.261441 24.563217 213 213 213 0
5.160032 -5.253850 24.527780 213 213 213 0
5.270977 -5.270977 24.607734 213 213 213 0
5.372718 -5.278460 24.642670 212 212 212 0
5.459167 -5.270919 24.607467 213 213 213 0
5.543682 -5.261800 24.564891 213 213 213 0
5.638050 -5.262180 24.566665 213 213 213 0
5.741369 -5.270765 24.606747 214 214 214 0
5.838021 -5.273051 24.617420 213 213 213 0
5.935484 -5.275986 24.631121 213 213 213 0
6.023186 -5.270288 24.604517 213 213 213 0
6.124156 -5.276196 24.632100 213 213 213 0
