ply
    format ascii 1.0
    element vertex 25597
    property float x
    property float y
    property float z
    property uchar red
    property uchar green
    property uchar blue
    property uchar alpha
    end_header
6.192763 2.772879 24.164523 214 214 214 0
6.292817 2.776243 24.193839 213 213 213 0
6.395273 2.780553 24.231403 214 214 214 0
6.486203 2.779801 24.224847 214 214 214 0
6.563576 2.773342 24.168557 214 214 214 0
6.651907 2.771628 24.153619 214 214 214 0
6.752634 2.775055 24.183486 214 214 214 0
6.850116 2.777074 24.201080 215 215 215 0
6.931089 2.772436 24.160658 215 215 215 0
7.015688 2.769351 24.133775 215 215 215 0
7.108315 2.769473 24.134845 214 214 214 0
7.203321 2.770508 24.143860 215 215 215 0
7.310783 2.776247 24.193870 214 214 214 0
-6.585757 2.551981 21.522081 207 207 207 0
-6.606699 2.592502 21.863817 206 206 206 0
-6.518768 2.590792 21.849397 206 206 206 0
-6.405028 2.578648 21.746976 206 206 206 0
-6.327293 2.580869 21.765714 206 206 206 0
-6.253592 2.584818 21.799013 206 206 206 0
-6.228771 2.609350 22.005903 206 206 206 0
-6.177725 2.623417 22.124540 206 206 206 0
-6.116645 2.633555 22.210038 207 207 207 0
-6.019179 2.628092 22.163965 206 206 206 0
-5.939450 2.630328 22.182818 207 207 207 0
-5.858288 2.631984 22.196789 206 206 206 0
-5.800146 2.644184 22.299678 207 207 207 0
-5.778909 2.673824 22.549642 207 207 207 0
-5.719613 2.686485 22.656419 207 207 207 0
-5.622834 2.681659 22.615721 207 207 207 0
-5.515946 2.671787 22.532461 208 208 208 0
-5.487964 2.700427 22.773997 207 207 207 0
-5.458409 2.729204 23.016693 207 207 207 0
-5.380212 2.734206 23.058874 208 208 208 0
-5.250069 2.712536 22.876117 207 207 207 0
-5.132939 2.696968 22.744827 207 207 207 0
-5.058759 2.703820 22.802612 208 208 208 0
-5.021309 2.730888 23.030889 208 208 208 0
-4.949561 2.739936 23.107195 208 208 208 0
-4.848337 2.732699 23.046163 208 208 208 0
-4.727289 2.713814 22.886901 208 208 208 0
-4.617698 2.700918 22.778140 208 208 208 0
-4.535183 2.703667 22.801321 208 208 208 0
-4.506666 2.739346 23.102225 208 208 208 0
-4.435932 2.750278 23.194413 207 207 207 0
-4.321957 2.734299 23.059660 208 208 208 0
-4.226543 2.729642 23.020385 208 208 208 0
-4.131787 2.725221 22.983102 209 209 209 0
-4.071753 2.744008 23.141536 209 209 209 0
-4.001289 2.756444 23.246415 209 209 209 0
-3.919285 2.761315 23.287495 209 209 209 0
-3.816967 2.751767 23.206976 208 208 208 0
-3.728795 2.752206 23.210675 209 209 209 0
-3.651108 2.760594 23.281419 209 209 209 0
-3.592685 2.784331 23.481598 209 209 209 0
-3.508797 2.789044 23.521345 209 209 209 0
-3.415400 2.786248 23.497765 209 209 209 0
-3.308738 2.772186 23.379175 209 209 209 0
-3.214773 2.768277 23.346211 209 209 209 0
-3.144747 2.785347 23.490171 209 209 209 0
-3.066074 2.795538 23.576118 209 209 209 0
-2.967706 2.787845 23.511239 209 209 209 0
-2.868382 2.778745 23.434490 210 210 210 0
-2.770746 2.770746 23.367035 210 210 210 0
-2.684606 2.774093 23.395263 210 210 210 0
-2.602831 2.782336 23.464780 209 209 209 0
-2.518682 2.788541 23.517110 210 210 210 0
-2.430565 2.790649 23.534881 210 210 210 0
-2.339775 2.789732 23.527150 209 209 209 0
-2.253016 2.793740 23.560954 209 209 209 0
-2.165787 2.797475 23.592451 210 210 210 0
-2.076288 2.798475 23.600888 210 210 210 0
-1.984653 2.796556 23.584701 210 210 210 0
-1.898604 2.802702 23.636532 210 210 210 0
-1.810165 2.805755 23.662283 210 210 210 0
-1.722817 2.810911 23.705766 210 210 210 0
-1.632505 2.811536 23.711034 211 211 211 0
-1.545090 2.817517 23.761475 210 210 210 0
-1.458734 2.826298 23.835531 211 211 211 0
-1.365920 2.822901 23.806883 211 211 211 0
-1.274337 2.821746 23.797145 211 211 211 0
-1.179273 2.812111 23.715888 211 211 211 0
-1.089197 2.813759 23.729780 211 211 211 0
-1.003610 2.828357 23.852893 211 211 211 0
-0.909852 2.820541 23.786980 210 210 210 0
-0.817281 2.815078 23.740907 211 211 211 0
-0.725099 2.809759 23.696045 210 210 210 0
-0.633416 2.805127 23.656983 211 211 211 0
-0.545553 2.818689 23.771360 210 210 210 0
-0.456299 2.829053 23.858763 211 211 211 0
-0.364481 2.824728 23.822290 211 211 211 0
-0.272724 2.818147 23.766786 211 211 211 0
-0.181766 2.817370 23.760232 211 211 211 0
-0.091022 2.821689 23.796664 212 212 212 0
0.000000 2.827418 23.844976 212 212 212 0
0.091418 2.833955 23.900109 211 211 211 0
0.182605 2.830379 23.869945 211 211 211 0
0.273777 2.829029 23.858565 211 211 211 0
0.365756 2.834610 23.905626 212 212 212 0
0.458966 2.845592 23.998244 212 212 212 0
0.551336 2.848570 24.023364 211 211 211 0
0.641637 2.841535 23.964034 212 212 212 0
0.731473 2.834459 23.904356 211 211 211 0
0.821509 2.829642 23.863728 212 212 212 0
0.915155 2.836982 23.925630 212 212 212 0
1.011886 2.851679 24.049578 211 211 211 0
1.098989 2.839054 23.943107 212 212 212 0
1.186608 2.829604 23.863407 211 211 211 0
1.276576 2.826704 23.838952 212 212 212 0
1.369807 2.830934 23.874630 212 212 212 0
1.465761 2.839911 23.950336 212 212 212 0
1.558414 2.841814 23.966388 213 213 213 0
1.647539 2.837428 23.929392 212 212 212 0
1.737399 2.834703 23.906412 212 212 212 0
1.832770 2.840793 23.957773 212 212 212 0
1.927620 2.845534 23.997756 212 212 212 0
2.019281 2.845351 23.996214 212 212 212 0
2.110940 2.845180 23.994773 212 212 212 0
2.200748 2.842633 23.973289 212 212 212 0
2.295526 2.846452 24.005499 212 212 212 0
2.392965 2.853151 24.061993 213 213 213 0
2.487309 2.855799 24.084326 213 213 213 0
2.582022 2.858668 24.108519 212 212 212 0
2.667398 2.851356 24.046858 213 213 213 0
2.758204 2.850145 24.036640 213 213 213 0
2.851015 2.851015 24.043983 213 213 213 0
2.948792 2.856642 24.091435 213 213 213 0
3.037395 2.853310 24.063340 213 213 213 0
3.125878 2.850065 24.035967 213 213 213 0
3.213111 2.845898 24.000830 213 213 213 0
3.303329 2.844533 23.989316 213 213 213 0
3.403080 2.851229 24.045784 213 213 213 0
3.499121 2.854546 24.073759 212 212 212 0
3.588873 2.852694 24.058141 213 213 213 0
3.683060 2.854371 24.072286 213 213 213 0
3.773813 2.853371 24.063847 213 213 213 0
3.867686 2.854721 24.075233 213 213 213 0
3.959861 2.854783 24.075761 213 213 213 0
4.060191 2.860589 24.124724 213 213 213 0
4.147814 2.857383 24.097685 213 213 213 0
4.243834 2.859975 24.119547 214 214 214 0
4.338363 2.861474 24.132183 214 214 214 0
4.441353 2.868374 24.190377 214 214 214 0
4.537627 2.870744 24.210361 214 214 214 0
4.619561 2.864128 24.154567 214 214 214 0
4.703585 2.859042 24.111677 214 214 214 0
4.799201 2.861062 24.128711 214 214 214 0
4.903442 2.868051 24.187652 214 214 214 0
4.991667 2.865587 24.166871 213 213 213 0
5.073812 2.859785 24.117940 214 214 214 0
5.157544 2.855069 24.078169 213 213 213 0
5.246504 2.853362 24.063771 213 213 213 0
5.355302 2.862317 24.139294 213 213 213 0
5.454306 2.865822 24.168853 214 214 214 0
5.538956 2.861794 24.134883 214 214 214 0
5.622414 2.857292 24.096922 214 214 214 0
5.717079 2.858539 24.107438 214 214 214 0
5.815408 2.861550 24.132826 214 214 214 0
5.909161 2.862250 24.138730 214 214 214 0
6.004909 2.863880 24.152474 214 214 214 0
6.093699 2.862192 24.138240 214 214 214 0
6.191738 2.864834 24.160523 214 214 214 0
6.295481 2.869999 24.204078 214 214 214 0
6.395537 2.873357 24.232404 214 214 214 0
6.484306 2.871621 24.217764 214 214 214 0
6.564816 2.866328 24.173122 214 214 214 0
6.649053 2.862787 24.143256 213 213 213 0
6.751760 2.867186 24.180355 214 214 214 0
6.851548 2.870243 24.206141 214 214 214 0
6.934607 2.866304 24.172920 214 214 214 0
7.017286 2.862314 24.139271 214 214 214 0
7.108148 2.861722 24.134278 214 214 214 0
7.202646 2.862590 24.141600 215 215 215 0
7.313619 2.869901 24.203257 214 214 214 0
-6.602961 2.641185 21.578305 206 206 206 0
-6.606311 2.675974 21.862532 206 206 206 0
-6.510503 2.670976 21.821697 206 206 206 0
-6.412626 2.664987 21.772772 205 205 205 0
-6.321820 2.661819 21.746886 206 206 206 0
-6.252814 2.667868 21.796303 206 206 206 0
-6.222745 2.690917 21.984615 206 206 206 0
-6.164516 2.702253 22.077233 207 207 207 0
-6.122270 2.721009 22.230466 207 207 207 0
-6.022177 2.714221 22.175007 207 207 207 0
-5.942457 2.716552 22.194049 206 206 206 0
-5.860211 2.717779 22.204075 207 207 207 0
-5.783847 2.721810 22.237011 207 207 207 0
-5.791163 2.765928 22.597454 207 207 207 0
-5.728875 2.777637 22.693109 207 207 207 0
-5.616191 2.764894 22.589003 207 207 207 0
-5.509491 2.754745 22.506089 208 208 208 0
-5.486556 2.786822 22.768153 208 208 208 0
-5.456372 2.816192 23.008104 207 207 207 0
-5.382263 2.823482 23.067664 208 208 208 0
-5.247211 2.798513 22.863666 207 207 207 0
-5.138219 2.786831 22.768225 207 207 207 0
-5.058326 2.790801 22.800660 208 208 208 0
-5.021183 2.818910 23.030306 207 207 207 0
-4.952314 2.829894 23.120046 208 208 208 0
-4.849378 2.821457 23.051116 207 207 207 0
-4.732864 2.804660 22.913892 208 208 208 0
-4.615767 2.786878 22.768611 207 207 207 0
-4.533564 2.789886 22.793183 207 207 207 0
-4.499746 2.823370 23.066747 208 208 208 0
-4.434202 2.837890 23.185372 208 208 208 0
-4.320505 2.821554 23.051914 208 208 208 0
-4.221555 2.814370 22.993219 209 209 209 0
-4.129519 2.811588 22.970488 209 209 209 0
-4.075012 2.834791 23.160057 208 208 208 0
-4.001385 2.845429 23.246973 208 208 208 0
-3.919705 2.850695 23.289990 209 209 209 0
-3.816229 2.839985 23.202489 208 208 208 0
-3.727897 2.840303 23.205088 208 208 208 0
-3.655274 2.852897 23.307979 208 208 208 0
-3.592252 2.873801 23.478769 209 209 209 0
-3.510203 2.880167 23.530775 209 209 209 0
-3.412498 2.873682 23.477797 209 209 209 0
-3.305821 2.859088 23.358565 209 209 209 0
-3.214574 2.857399 23.344764 209 209 209 0
-3.145045 2.875469 23.492396 209 209 209 0
-3.066982 2.886571 23.583098 210 210 210 0
-2.966597 2.876700 23.502448 209 209 209 0
-2.866402 2.866402 23.418316 209 209 209 0
-2.770631 2.860006 23.366064 210 210 210 0
-2.685617 2.864658 23.404071 210 210 210 0
-2.602861 2.872122 23.465051 210 210 210 0
-2.518669 2.878478 23.516981 209 209 209 0
-2.428805 2.878583 23.517839 209 209 209 0
-2.338864 2.878602 23.517991 210 210 210 0
-2.250743 2.880951 23.537184 210 210 210 0
-2.164706 2.886275 23.580674 210 210 210 0
-2.074369 2.886079 23.579073 210 210 210 0
-1.983039 2.884421 23.565528 211 211 211 0
-1.895710 2.888702 23.600504 210 210 210 0
-1.808323 2.893317 23.638214 209 209 209 0
-1.722565 2.901161 23.702299 210 210 210 0
-1.632842 2.902830 23.715933 210 210 210 0
-1.544613 2.907507 23.754146 210 210 210 0
-1.459516 2.919033 23.848308 210 210 210 0
-1.366892 2.916036 23.823820 211 211 211 0
-1.272979 2.909667 23.771787 211 211 211 0
-1.179644 2.903740 23.723366 211 211 211 0
-1.089104 2.904277 23.727752 210 210 210 0
-1.004118 2.921071 23.864962 211 211 211 0
-0.910651 2.914084 23.807878 211 211 211 0
-0.817045 2.905048 23.734053 211 211 211 0
-0.724915 2.899660 23.690030 210 210 210 0
-0.633741 2.897100 23.669121 211 211 211 0
-0.545561 2.909659 23.771721 211 211 211 0
-0.455999 2.918393 23.843082 211 211 211 0
-0.364488 2.915905 23.822752 211 211 211 0
-0.272457 2.906212 23.743560 211 211 211 0
-0.181739 2.907823 23.756725 211 211 211 0
-0.091028 2.912890 23.798125 211 211 211 0
0.000000 2.920332 23.858925 211 211 211 0
0.091452 2.926456 23.908956 211 211 211 0
0.182659 2.922542 23.876978 211 211 211 0
0.273718 2.919659 23.853424 211 211 211 0
0.365771 2.926165 23.906579 211 211 211 0
0.458810 2.936383 23.990058 211 211 211 0
0.551359 2.940582 24.024363 211 211 211 0
0.641940 2.934585 23.975367 211 211 211 0
0.731458 2.925830 23.903841 212 212 212 0
0.821462 2.920753 23.862359 211 211 211 0
0.914983 2.927946 23.921129 212 212 212 0
1.011669 2.943038 24.044426 212 212 212 0
1.098641 2.929710 23.935541 212 212 212 0
1.186553 2.920747 23.862310 212 212 212 0
1.275896 2.916333 23.826247 212 212 212 0
1.369072 2.920687 23.861825 211 211 211 0
1.466374 2.932747 23.960354 212 212 212 0
1.558391 2.933442 23.966028 213 213 213 0
1.647283 2.928502 23.925673 212 212 212 0
1.737902 2.926992 23.913336 212 212 212 0
1.833446 2.933513 23.966611 213 213 213 0
1.927574 2.937256 23.997191 212 212 212 0
2.018249 2.935635 23.983947 212 212 212 0
2.109114 2.934419 23.974015 212 212 212 0
2.201043 2.934725 23.976508 213 213 213 0
2.295660 2.938445 24.006907 212 212 212 0
2.393322 2.945627 24.065583 213 213 213 0
2.488188 2.948964 24.092842 213 213 213 0
2.581559 2.950353 24.104195 212 212 212 0
2.668984 2.945086 24.061157 212 212 212 0
2.757120 2.940928 24.027189 213 213 213 0
2.851756 2.943748 24.050227 213 213 213 0
2.949125 2.949125 24.094158 212 212 212 0
3.035926 2.943928 24.051702 213 213 213 0
3.125918 2.942040 24.036277 213 213 213 0
3.213647 2.938191 24.004832 213 213 213 0
3.303857 2.936762 23.993152 213 213 213 0
3.403827 2.943851 24.051068 212 212 212 0
3.496953 2.944803 24.058846 213 213 213 0
3.587426 2.943529 24.048439 213 213 213 0
3.683362 2.946690 24.074261 213 213 213 0
3.773526 2.945191 24.062018 213 213 213 0
3.867854 2.946936 24.076277 214 214 214 0
3.957783 2.945327 24.063126 213 213 213 0
4.057165 2.950665 24.106742 212 212 212 0
4.149390 2.950678 24.106843 213 213 213 0
4.243729 2.952159 24.118946 213 213 213 0
4.338676 2.953992 24.133923 213 213 213 0
4.443176 2.962117 24.200305 213 213 213 0
4.538227 2.963740 24.213561 214 214 214 0
4.619919 2.956748 24.156438 214 214 214 0
4.703462 2.951192 24.111044 214 214 214 0
4.799345 2.953443 24.129435 213 213 213 0
4.903468 2.960585 24.187783 214 214 214 0
4.994361 2.959622 24.179914 214 214 214 0
5.075240 2.952867 24.124730 214 214 214 0
5.158358 2.947633 24.081970 213 213 213 0
5.246395 2.945344 24.063271 213 213 213 0
5.353818 2.953830 24.132602 214 214 214 0
5.453964 2.958082 24.167338 213 213 213 0
5.538218 2.953716 24.131670 214 214 214 0
5.622977 2.949758 24.099331 214 214 214 0
5.716661 2.950535 24.105676 214 214 214 0
5.818371 2.955363 24.145124 214 214 214 0
5.907919 2.953959 24.133655 214 214 214 0
6.004206 2.955917 24.149647 214 214 214 0
6.092395 2.953889 24.133078 214 214 214 0
6.191270 2.957024 24.158697 213 213 213 0
6.295101 2.962401 24.202620 214 214 214 0
6.394110 2.965385 24.226998 214 214 214 0
6.485960 2.965010 24.223942 214 214 214 0
6.563623 2.958252 24.168729 214 214 214 0
6.649455 2.955313 24.144717 214 214 214 0
6.750434 2.959094 24.175606 214 214 214 0
6.853601 2.963719 24.213392 215 215 215 0
6.935039 2.958950 24.174429 215 215 215 0
7.018129 2.955002 24.142171 214 214 214 0
7.107466 2.953752 24.131963 214 214 214 0
7.206750 2.956616 24.155356 214 214 214 0
7.312457 2.962008 24.199411 214 214 214 0
-6.629269 2.734574 21.664279 206 206 206 0
-6.603936 2.758606 21.854673 206 206 206 0
-6.511580 2.754899 21.825306 206 206 206 0
-6.421361 2.752012 21.802429 206 206 206 0
-6.322563 2.745323 21.749442 206 206 206 0
-6.261404 2.755018 21.826245 206 206 206 0
-6.218961 2.773320 21.971245 206 206 206 0
-6.166298 2.787505 22.083617 206 206 206 0
-6.118380 2.804257 22.216338 206 206 206 0
-6.015135 2.795767 22.149076 207 207 207 0
-5.943736 2.802047 22.198827 206 206 206 0
-5.859705 2.802467 22.202158 207 207 207 0
-5.786015 2.807919 22.245350 207 207 207 0
-5.783823 2.848749 22.568815 207 207 207 0
-5.717755 2.858878 22.649061 207 207 207 0
-5.612762 2.849556 22.575213 207 207 207 0
-5.507938 2.840031 22.499749 207 207 207 0
-5.482738 2.871910 22.752311 207 207 207 0
-5.454163 2.903022 22.998790 207 207 207 0
-5.384113 2.912717 23.075593 208 208 208 0
-5.243314 2.883823 22.846686 207 207 207 0
-5.130976 2.869868 22.736127 207 207 207 0
-5.059299 2.878566 22.805042 208 208 208 0
-5.011788 2.901561 22.987217 208 208 208 0
-4.953286 2.918901 23.124584 207 207 207 0
-4.848508 2.909105 23.046978 207 207 207 0
-4.732606 2.892148 22.912639 208 208 208 0
-4.619952 2.876574 22.789256 208 208 208 0
-4.531786 2.875941 22.784243 208 208 208 0
-4.502270 2.913233 23.079686 208 208 208 0
-4.434606 2.926840 23.187483 209 209 209 0
-4.320896 2.909991 23.054000 208 208 208 0
-4.222238 2.902789 22.996940 209 209 209 0
-4.129503 2.899439 22.970399 208 208 208 0
-4.072286 2.921422 23.144562 208 208 208 0
-3.999984 2.933321 23.238829 208 208 208 0
-3.917841 2.938380 23.278911 208 208 208 0
-3.815814 2.928415 23.199962 208 208 208 0
-3.724599 2.926471 23.184555 208 208 208 0
-3.650755 2.938412 23.279162 209 209 209 0
-3.591843 2.963271 23.476100 209 209 209 0
-3.508514 2.968742 23.519447 209 209 209 0
-3.414737 2.965429 23.493202 209 209 209 0
-3.306340 2.948898 23.362234 209 209 209 0
-3.213384 2.945602 23.336122 209 209 209 0
-3.143256 2.963642 23.479039 208 208 208 0
-3.069220 2.978949 23.600309 209 209 209 0
-2.966789 2.966789 23.503976 209 209 209 0
-2.866921 2.956512 23.422558 209 209 209 0
-2.768014 2.946595 23.343990 209 209 209 0
-2.685549 2.954104 23.403477 209 209 209 0
-2.604791 2.964072 23.482449 210 210 210 0
-2.518244 2.967931 23.513018 210 210 210 0
-2.430565 2.970690 23.534881 209 209 209 0
-2.339079 2.968830 23.520146 210 210 210 0
-2.251883 2.972486 23.549107 210 210 210 0
-2.164702 2.976466 23.580635 209 209 209 0
-2.075991 2.978596 23.597509 210 210 210 0
-1.982460 2.973690 23.558642 210 210 210 0
-1.896559 2.980307 23.611071 210 210 210 0
-1.809383 2.985482 23.652067 210 210 210 0
-1.723528 2.993496 23.715557 211 211 211 0
-1.633582 2.994901 23.726686 210 210 210 0
-1.544653 2.998445 23.754760 210 210 210 0
-1.458924 3.009031 23.838631 210 210 210 0
-1.366827 3.007020 23.822697 210 210 210 0
-1.273418 3.001628 23.779978 210 210 210 0
-1.179613 2.994403 23.722740 210 210 210 0
-1.088385 2.993058 23.712086 211 211 211 0
-1.003286 3.009858 23.845184 210 210 210 0
-0.910745 3.005457 23.810317 211 211 211 0
-0.816994 2.995645 23.732582 211 211 211 0
-0.724923 2.990307 23.690294 211 211 211 0
-0.633473 2.986372 23.659116 211 211 211 0
-0.545306 2.999185 23.760628 211 211 211 0
-0.456305 3.011610 23.859064 210 210 210 0
-0.364509 3.007201 23.824133 211 211 211 0
-0.272618 2.998797 23.757550 211 211 211 0
-0.181664 2.997450 23.746878 212 212 212 0
-0.091039 3.004284 23.801024 211 211 211 0
0.000000 3.010639 23.851365 211 211 211 0
0.091384 3.015667 23.891200 211 211 211 0
0.182592 3.012772 23.868264 212 212 212 0
0.273695 3.010646 23.851422 211 211 211 0
0.365900 3.018676 23.915044 211 211 211 0
0.459134 3.030284 24.007005 212 212 212 0
0.551415 3.032784 24.026811 211 211 211 0
0.641998 3.026561 23.977512 212 212 212 0
0.731680 3.018179 23.911102 211 211 211 0
0.821705 3.012919 23.869430 211 211 211 0
0.915228 3.020253 23.927534 212 212 212 0
1.011360 3.034080 24.037074 212 212 212 0
1.098907 3.021995 23.941335 212 212 212 0
1.186523 3.011943 23.861697 212 212 212 0
1.276272 3.008356 23.833281 211 211 211 0
1.369779 3.013513 23.874141 211 211 211 0
1.465911 3.023441 23.952791 212 212 212 0
1.558482 3.025289 23.967432 212 212 212 0
1.647197 3.019862 23.924434 212 212 212 0
1.739243 3.020791 23.931799 212 212 212 0
1.833181 3.024749 23.963154 212 212 212 0
1.926503 3.027362 23.983852 212 212 212 0
2.018677 3.028015 23.989030 212 212 212 0
2.110568 3.028207 23.990547 212 212 212 0
2.201084 3.026491 23.976953 212 212 212 0
2.296295 3.031110 24.013545 212 212 212 0
2.392943 3.037196 24.061766 213 213 213 0
2.488231 3.041171 24.093255 212 212 212 0
2.580984 3.041874 24.098823 212 212 212 0
2.668570 3.036649 24.057430 212 212 212 0
2.757073 3.032780 24.026780 213 213 213 0
2.851178 3.035125 24.045357 212 212 212 0
2.949103 3.041262 24.093976 213 213 213 0
3.037014 3.037014 24.060320 213 213 213 0
3.125930 3.033991 24.036371 213 213 213 0
3.213267 3.029651 24.001991 213 213 213 0
3.303809 3.028492 23.992807 213 213 213 0
3.402477 3.034642 24.041527 212 212 212 0
3.498591 3.038250 24.070112 213 213 213 0
3.586901 3.035070 24.044924 213 213 213 0
3.682369 3.037954 24.067770 213 213 213 0
3.772513 3.036413 24.055558 213 213 213 0
3.868105 3.039226 24.077842 213 213 213 0
3.958721 3.038088 24.068830 213 213 213 0
4.055716 3.041787 24.098132 213 213 213 0
4.147905 3.041797 24.098213 214 214 214 0
4.244576 3.045022 24.123760 213 213 213 0
4.337449 3.045443 24.127098 213 213 213 0
4.440254 3.052674 24.184388 213 213 213 0
4.537799 3.056069 24.211278 213 213 213 0
4.619509 3.048876 24.154295 213 213 213 0
4.703204 3.043249 24.109720 213 213 213 0
4.798251 3.045044 24.123934 214 214 214 0
4.904022 3.053448 24.190516 213 213 213 0
4.994606 3.052259 24.181101 214 214 214 0
5.074544 3.044726 24.121420 214 214 214 0
5.158331 3.039731 24.081844 214 214 214 0
5.246594 3.037502 24.064187 213 213 213 0
5.353607 3.046018 24.131653 214 214 214 0
5.454015 3.050551 24.167566 213 213 213 0
5.535987 3.044793 24.121948 214 214 214 0
5.621019 3.040879 24.090940 214 214 214 0
5.715182 3.041952 24.099441 214 214 214 0
5.815678 3.046308 24.133948 214 214 214 0
5.912838 3.048807 24.153749 214 214 214 0
6.003403 3.047881 24.146417 214 214 214 0
6.092945 3.046472 24.135254 214 214 214 0
6.191096 3.049346 24.158018 213 213 213 0
6.295846 3.055337 24.205484 214 214 214 0
6.395563 3.058748 24.232502 215 215 215 0
6.486446 3.057896 24.225755 213 213 213 0
6.563856 3.050806 24.169587 215 215 215 0
6.648849 3.047389 24.142516 214 214 214 0
6.753784 3.053080 24.187604 214 214 214 0
6.852159 3.055692 24.208298 214 214 214 0
6.932431 3.050270 24.165337 214 214 214 0
7.018319 3.047428 24.142825 214 214 214 0
7.109131 3.046770 24.137615 215 215 215 0
7.204679 3.048133 24.148413 214 214 214 0
7.314245 3.055318 24.205329 214 214 214 0
-6.625059 2.815650 21.650518 206 206 206 0
-6.612138 2.845730 21.881818 206 206 206 0
-6.518476 2.841387 21.848419 206 206 206 0
-6.405380 2.828350 21.748172 206 206 206 0
-6.319138 2.826983 21.737661 206 206 206 0
-6.253452 2.834898 21.798526 206 206 206 0
-6.219856 2.857772 21.974406 206 206 206 0
-6.171600 2.874444 22.102605 207 207 207 0
-6.109359 2.884975 22.183583 207 207 207 0
-6.011812 2.878896 22.136839 207 207 207 0
-5.939922 2.885105 22.184582 207 207 207 0
-5.853794 2.884478 22.179762 207 207 207 0
-5.792412 2.896206 22.269942 207 207 207 0
-5.777010 2.931617 22.542230 206 206 206 0
-5.717996 2.945634 22.650014 207 207 207 0
-5.623280 2.941408 22.617515 207 207 207 0
-5.504443 2.924236 22.485471 208 208 208 0
-5.482909 2.959030 22.753019 207 207 207 0
-5.448622 2.987954 22.975425 208 208 208 0
-5.376005 2.996462 23.040843 208 208 208 0
-5.249350 2.974632 22.872986 207 207 207 0
-5.136208 2.959849 22.759313 207 207 207 0
-5.059550 2.965943 22.806177 208 208 208 0
-5.010396 2.988657 22.980831 208 208 208 0
-4.949214 3.004880 23.105574 207 207 207 0
-4.848833 2.997460 23.048523 207 207 207 0
-4.733209 2.980168 22.915558 207 207 207 0
-4.618522 2.962825 22.782200 208 208 208 0
-4.533563 2.964253 22.793179 208 208 208 0
-4.504011 3.002674 23.088610 208 208 208 0
-4.436653 3.016924 23.198188 208 208 208 0
-4.324874 3.000933 23.075225 208 208 208 0
-4.221899 2.990512 22.995091 208 208 208 0
-4.131563 2.988790 22.981853 208 208 208 0
-4.073736 3.011022 23.152805 208 208 208 0
-3.998747 3.021275 23.231644 208 208 208 0
-3.921621 3.030344 23.301373 209 209 209 0
-3.816280 3.017524 23.202798 208 208 208 0
-3.729202 3.018878 23.213209 208 208 208 0
-3.650425 3.027182 23.277061 209 209 209 0
-3.590824 3.052200 23.469436 209 209 209 0
-3.508373 3.058581 23.518504 209 209 209 0
-3.412277 3.053090 23.476275 209 209 209 0
-3.305767 3.037732 23.358183 209 209 209 0
-3.214298 3.035725 23.342756 209 209 209 0
-3.144010 3.054181 23.484668 209 209 209 0
-3.070066 3.070066 23.606813 209 209 209 0
-2.966650 3.056548 23.502871 209 209 209 0
-2.867846 3.047086 23.430111 209 209 209 0
-2.770203 3.038287 23.362453 209 209 209 0
-2.685410 3.043465 23.402267 209 209 209 0
-2.603831 3.052768 23.473801 210 210 210 0
-2.519392 3.059262 23.523739 210 210 210 0
-2.429800 3.059748 23.527475 210 210 210 0
-2.337707 3.057002 23.506358 209 209 209 0
-2.252086 3.062837 23.551225 210 210 210 0
-2.164872 3.066902 23.582483 210 210 210 0
-2.074001 3.065915 23.574893 210 210 210 0
-1.983477 3.065373 23.570726 210 210 210 0
-1.896563 3.070626 23.611121 209 209 209 0
-1.807461 3.072684 23.626947 209 209 209 0
-1.722780 3.082869 23.705260 211 211 211 0
-1.633658 3.085799 23.727791 211 211 211 0
-1.544319 3.088637 23.749612 210 210 210 0
-1.457720 3.097654 23.818950 210 210 210 0
-1.367198 3.098983 23.829164 211 211 211 0
-1.273445 3.092651 23.780477 210 210 210 0
-1.178996 3.083527 23.710320 210 210 210 0
-1.088946 3.085348 23.724323 210 210 210 0
-1.004384 3.104460 23.871281 211 211 211 0
-0.910801 3.096723 23.811788 210 210 210 0
-0.817285 3.087522 23.741035 211 211 211 0
-0.724857 3.080641 23.688131 210 210 210 0
-0.633427 3.076645 23.657403 211 211 211 0
-0.545491 3.091115 23.768666 211 211 211 0
-0.456160 3.101891 23.851527 211 211 211 0
-0.364460 3.097907 23.820891 211 211 211 0
-0.272472 3.088021 23.744874 211 211 211 0
-0.181706 3.089005 23.752442 211 211 211 0
-0.090976 3.093171 23.784475 211 211 211 0
0.000000 3.101686 23.849952 211 211 211 0
0.091407 3.107843 23.897293 211 211 211 0
0.182643 3.104923 23.874837 211 211 211 0
0.273709 3.102033 23.852616 211 211 211 0
0.365738 3.108769 23.904417 211 211 211 0
0.458932 3.120736 23.996434 211 211 211 0
0.551398 3.124588 24.026048 211 211 211 0
0.641952 3.118053 23.975802 212 212 212 0
0.731637 3.109456 23.909694 212 212 212 0
0.822056 3.105545 23.879623 212 212 212 0
0.915469 3.112593 23.933818 212 212 212 0
1.011772 3.127295 24.046865 212 212 212 0
1.098737 3.113089 23.937632 212 212 212 0
1.186976 3.104399 23.870814 212 212 212 0
1.276054 3.098987 23.829198 211 211 211 0
1.370358 3.106144 23.884229 212 212 212 0
1.466332 3.115957 23.959681 212 212 212 0
1.558552 3.117105 23.968511 212 212 212 0
1.648056 3.112995 23.936909 212 212 212 0
1.738261 3.110573 23.918283 212 212 212 0
1.833816 3.117487 23.971453 212 212 212 0
1.926916 3.119768 23.988989 212 212 212 0
2.018089 3.118865 23.982046 212 212 212 0
2.109941 3.119043 23.983410 212 212 212 0
2.200904 3.117948 23.974991 213 213 213 0
2.296507 3.123250 24.015761 213 213 213 0
2.392156 3.128204 24.053852 213 213 213 0
2.487469 3.132369 24.085881 212 212 212 0
2.581216 3.134334 24.100990 212 212 212 0
2.668695 3.128815 24.058553 212 212 212 0
2.756515 3.124050 24.021913 213 213 213 0
2.850690 3.126563 24.041238 213 213 213 0
2.949226 3.133553 24.094984 213 213 213 0
3.036967 3.128996 24.059945 213 213 213 0
3.125028 3.125028 24.029434 213 213 213 0
3.212926 3.121128 23.999448 213 213 213 0
3.302985 3.119486 23.986817 213 213 213 0
3.402396 3.126526 24.040951 213 213 213 0
3.498812 3.130516 24.071632 213 213 213 0
3.586279 3.126499 24.040748 213 213 213 0
3.681798 3.129528 24.064038 213 213 213 0
3.771696 3.127748 24.050351 214 214 214 0
3.865821 3.129474 24.063621 214 214 214 0
3.958723 3.130153 24.068844 213 213 213 0
4.055594 3.133868 24.097407 213 213 213 0
4.147761 3.133864 24.097377 214 214 214 0
4.244768 3.137437 24.124855 214 214 214 0
4.337494 3.137762 24.127348 213 213 213 0
4.439239 3.144461 24.178861 213 213 213 0
4.536871 3.148033 24.206327 214 214 214 0
4.619195 3.141053 24.152654 213 213 213 0
4.703868 3.135912 24.113126 213 213 213 0
4.797424 3.136777 24.119780 213 213 213 0
4.902834 3.145215 24.184656 214 214 214 0
4.993201 3.143867 24.174297 213 213 213 0
5.074293 3.136836 24.120230 214 214 214 0
5.157782 3.131511 24.079281 213 213 213 0
5.245944 3.129160 24.061206 214 214 214 0
5.352455 3.137646 24.126460 214 214 214 0
5.452554 3.142150 24.161089 214 214 214 0
5.535194 3.136610 24.118492 214 214 214 0
5.620476 3.132724 24.088614 214 214 214 0
5.715097 3.134085 24.099081 214 214 214 0
5.818505 3.140146 24.145681 214 214 214 0
5.910511 3.139959 24.144243 213 213 213 0
6.002458 3.139747 24.142616 213 213 213 0
6.094141 3.139406 24.139994 214 214 214 0
6.190872 3.141636 24.157143 214 214 214 0
6.296096 3.148048 24.206444 213 213 213 0
6.395254 3.151285 24.231331 214 214 214 0
6.484318 3.149526 24.217808 214 214 214 0
6.564487 3.143557 24.171913 214 214 214 0
6.650933 3.140718 24.150083 214 214 214 0
6.753556 3.145492 24.186788 215 215 215 0
6.851781 3.148116 24.206964 215 215 215 0
6.933902 3.143369 24.170465 214 214 214 0
7.018158 3.139702 24.142271 214 214 214 0
7.110399 3.139657 24.141919 214 214 214 0
7.204115 3.140255 24.146523 214 214 214 0
7.313920 3.147763 24.204253 214 214 214 0
-6.616750 2.894828 21.623367 206 206 206 0
-6.591542 2.920303 21.813657 206 206 206 0
-6.507357 2.919968 21.811150 206 206 206 0
-6.414090 2.915496 21.777745 206 206 206 0
-6.321565 2.911247 21.746009 206 206 206 0
-6.251635 2.917430 21.792192 206 206 206 0
-6.216027 2.940013 21.960881 206 206 206 0
-6.167151 2.956853 22.086671 207 207 207 0
-6.108442 2.969381 22.180253 206 206 206 0
-6.001921 2.958693 22.100417 206 206 206 0
-5.940788 2.970394 22.187817 206 206 206 0
-5.854038 2.969439 22.180686 206 206 206 0
-5.786791 2.978495 22.248332 206 206 206 0
-5.778891 3.018824 22.549571 207 207 207 0
-5.716714 3.031591 22.644934 207 207 207 0
-5.618866 3.025543 22.599763 206 206 206 0
-5.498672 3.007086 22.461896 207 207 207 0
-5.477464 3.043036 22.730426 207 207 207 0
-5.448809 3.075941 22.976215 207 207 207 0
-5.383454 3.088867 23.072772 207 207 207 0
-5.253589 3.064594 22.891456 207 207 207 0
-5.144468 3.051803 22.795913 208 208 208 0
-5.054305 3.050012 22.782534 208 208 208 0
-5.016058 3.080036 23.006803 208 208 208 0
-4.950022 3.093764 23.109348 208 208 208 0
-4.845586 3.083555 23.033089 208 208 208 0
-4.733853 3.068238 22.918681 208 208 208 0
-4.617130 3.049048 22.775334 207 207 207 0
-4.530073 3.049088 22.775632 208 208 208 0
-4.504374 3.091237 23.090473 207 207 207 0
-4.436758 3.105731 23.198736 207 207 207 0
-4.321984 3.087131 23.059805 208 208 208 0
-4.222911 3.079206 23.000607 208 208 208 0
-4.136145 3.080108 23.007342 209 209 209 0
-4.075042 3.100575 23.160226 208 208 208 0
-4.004116 3.114313 23.262841 208 208 208 0
-3.922473 3.120149 23.306432 209 209 209 0
-3.821053 3.110160 23.231819 209 209 209 0
-3.729208 3.107674 23.213249 208 208 208 0
-3.652022 3.117580 23.287243 208 208 208 0
-3.592092 3.143080 23.477723 208 208 208 0
-3.509112 3.149203 23.523458 209 209 209 0
-3.413894 3.144376 23.487401 209 209 209 0
-3.306514 3.127783 23.363462 209 209 209 0
-3.212490 3.123254 23.329629 209 209 209 0
-3.141335 3.141335 23.464688 209 209 209 0
-3.068546 3.158798 23.595128 209 209 209 0
-2.967126 3.146952 23.506643 209 209 209 0
-2.864366 3.132900 23.401684 210 210 210 0
-2.771519 3.129134 23.373553 209 209 209 0
-2.685518 3.133105 23.403209 209 209 209 0
-2.602858 3.141381 23.465030 209 209 209 0
-2.519375 3.149219 23.523579 209 209 209 0
-2.430289 3.150374 23.532206 209 209 209 0
-2.337637 3.146819 23.505647 209 209 209 0
-2.251984 3.152778 23.550160 209 209 209 0
-2.164707 3.156864 23.580684 210 210 210 0
-2.074293 3.156533 23.578208 209 209 209 0
-1.983254 3.155177 23.568079 210 210 210 0
-1.897469 3.162448 23.622394 210 210 210 0
-1.809027 3.165798 23.647418 210 210 210 0
-1.722574 3.173163 23.702433 210 210 210 0
-1.632522 3.174348 23.711285 210 210 210 0
-1.543452 3.177696 23.736288 210 210 210 0
-1.458195 3.189801 23.826711 210 210 210 0
-1.366696 3.188957 23.820408 210 210 210 0
-1.273462 3.183655 23.780804 211 211 211 0
-1.178924 3.174027 23.708887 210 210 210 0
-1.089368 3.177323 23.733503 210 210 210 0
-1.003905 3.194244 23.859901 210 210 210 0
-0.910520 3.186821 23.804450 211 211 211 0
-0.817181 3.177927 23.738014 210 210 210 0
-0.724651 3.170347 23.681399 210 210 210 0
-0.633069 3.165344 23.644025 210 210 210 0
-0.545569 3.182487 23.772080 211 211 211 0
-0.456077 3.192539 23.847165 211 211 211 0
-0.364478 3.189178 23.822061 212 212 212 0
-0.272532 3.179544 23.750092 211 211 211 0
-0.181753 3.180681 23.758589 211 211 211 0
-0.090949 3.183206 23.777446 211 211 211 0
0.000000 3.194197 23.859549 210 210 210 0
0.091376 3.198147 23.889053 211 211 211 0
0.182614 3.195744 23.871102 211 211 211 0
0.273756 3.193821 23.856740 211 211 211 0
0.365740 3.200226 23.904581 212 212 212 0
0.459079 3.213553 24.004131 212 212 212 0
0.551725 3.218395 24.040297 211 211 211 0
0.641819 3.209093 23.970817 211 211 211 0
0.731762 3.201460 23.913803 212 212 212 0
0.822041 3.196828 23.879199 212 212 212 0
0.914992 3.202473 23.921370 211 211 211 0
1.011638 3.218847 24.043674 211 211 211 0
1.099064 3.205605 23.944760 212 212 212 0
1.186897 3.195492 23.869219 211 211 211 0
1.275122 3.187806 23.811810 211 211 211 0
1.368966 3.194255 23.859979 212 212 212 0
1.466531 3.208036 23.962920 212 212 212 0
1.558522 3.208721 23.968039 213 213 213 0
1.648677 3.205761 23.945926 212 212 212 0
1.738708 3.202883 23.924433 212 212 212 0
1.833805 3.209158 23.971304 212 212 212 0
1.927785 3.212975 23.999814 212 212 212 0
2.018936 3.211943 23.992108 212 212 212 0
2.109727 3.210454 23.980985 212 212 212 0
2.199552 3.207680 23.960263 212 212 212 0
2.296372 3.214920 24.014343 212 212 212 0
2.391759 3.219675 24.049861 212 212 212 0
2.487301 3.224279 24.084250 212 212 212 0
2.580108 3.225135 24.090646 213 213 213 0
2.670005 3.222419 24.070360 212 212 212 0
2.756406 3.215807 24.020967 213 213 213 0
2.851400 3.219322 24.047224 213 213 213 0
2.949088 3.225566 24.093860 213 213 213 0
3.036046 3.220049 24.052654 212 212 212 0
3.125840 3.217777 24.035679 213 213 213 0
3.213927 3.213927 24.006925 213 213 213 0
3.304352 3.212565 23.996748 213 213 213 0
3.402879 3.218940 24.044369 213 213 213 0
3.498669 3.222459 24.070652 213 213 213 0
3.587915 3.219924 24.051719 213 213 213 0
3.681727 3.221511 24.063575 213 213 213 0
3.770902 3.219063 24.045288 213 213 213 0
3.866039 3.221699 24.064981 213 213 213 0
3.958904 3.222364 24.069943 213 213 213 0
4.055379 3.225869 24.096129 213 213 213 0
4.146672 3.225189 24.091049 213 213 213 0
4.242807 3.228223 24.113708 213 213 213 0
4.337456 3.230020 24.127134 213 213 213 0
4.439353 3.237028 24.179480 213 213 213 0
4.537528 3.241091 24.209833 213 213 213 0
4.622151 3.235506 24.168109 214 214 214 0
4.704144 3.228334 24.114541 213 213 213 0
4.796156 3.228182 24.113405 213 213 213 0
4.904625 3.238903 24.193489 213 213 213 0
4.991143 3.235000 24.164334 214 214 214 0
5.073578 3.228641 24.116830 213 213 213 0
5.158178 3.223861 24.081131 213 213 213 0
5.246666 3.221637 24.064516 213 213 213 0
5.353325 3.230455 24.130383 214 214 214 0
5.453664 3.235224 24.166007 214 214 214 0
5.536520 3.229636 24.124268 214 214 214 0
5.620955 3.225138 24.090666 214 214 214 0
5.714800 3.226097 24.097828 214 214 214 0
5.814717 3.230398 24.129958 214 214 214 0
5.908593 3.231262 24.136409 213 213 213 0
6.005126 3.233529 24.153348 214 214 214 0
6.093395 3.231346 24.137036 214 214 214 0
6.192475 3.234875 24.163400 214 214 214 0
6.296370 3.240779 24.207497 214 214 214 0
6.396705 3.244705 24.236828 214 214 214 0
6.486844 3.243422 24.227241 213 213 213 0
6.562515 3.235043 24.164652 214 214 214 0
6.649583 3.232436 24.145180 215 215 215 0
6.751935 3.237229 24.180985 214 214 214 0
6.849557 3.239655 24.199106 214 214 214 0
6.932271 3.235060 24.164779 213 213 213 0
7.016854 3.231446 24.137785 214 214 214 0
7.107316 3.230598 24.131452 213 213 213 0
7.202383 3.231838 24.140717 214 214 214 0
7.311747 3.239382 24.197062 214 214 214 0
-6.619330 2.978699 21.631798 206 206 206 0
-6.601776 3.008404 21.847526 206 206 206 0
-6.498154 2.999148 21.780305 206 206 206 0
-6.404142 2.994144 21.743969 206 206 206 0
-6.323231 2.995215 21.751741 206 206 206 0
-6.249846 2.999926 21.785954 207 207 207 0
-6.213004 3.022543 21.950200 207 207 207 0
-6.165760 3.040649 22.081689 207 207 207 0
-6.109345 3.054672 22.183533 207 207 207 0
-6.020177 3.052484 22.167640 206 206 206 0
-5.945071 3.057465 22.203815 206 206 206 0
-5.857333 3.056000 22.193172 207 207 207 0
-5.785243 3.062776 22.242381 206 206 206 0
-5.778495 3.104863 22.548023 207 207 207 0
-5.716751 3.118228 22.645084 206 206 206 0
-5.616958 3.110930 22.592087 207 207 207 0
-5.499106 3.093247 22.463670 207 207 207 0
-5.481071 3.132041 22.745393 207 207 207 0
-5.455139 3.167500 23.002905 207 207 207 0
-5.384981 3.178022 23.079315 207 207 207 0
-5.250022 3.150013 22.875915 207 207 207 0
-5.134988 3.133213 22.753905 208 208 208 0
-5.052382 3.135961 22.773865 207 207 207 0
-5.018865 3.169810 23.019679 207 207 207 0
-4.948999 3.181499 23.104571 208 208 208 0
-4.851226 3.175348 23.059896 208 208 208 0
-4.729424 3.152949 22.897236 208 208 208 0
-4.619256 3.137608 22.785821 208 208 208 0
-4.531767 3.137377 22.784148 208 208 208 0
-4.508304 3.182333 23.110621 208 208 208 0
-4.435785 3.193765 23.193646 209 209 209 0
-4.326155 3.178400 23.082060 209 209 209 0
-4.226442 3.169832 23.019838 208 208 208 0
-4.139742 3.170866 23.027350 208 208 208 0
-4.076238 3.190100 23.167027 208 208 208 0
-3.999548 3.199639 23.236302 209 209 209 0
-3.921849 3.208786 23.302729 208 208 208 0
-3.820200 3.198307 23.226632 208 208 208 0
-3.731012 3.198010 23.224477 209 209 209 0
-3.655688 3.209872 23.310619 209 209 209 0
-3.592122 3.232910 23.477921 208 208 208 0
-3.510098 3.240091 23.530072 209 209 209 0
-3.411705 3.232142 23.472343 209 209 209 0
-3.304458 3.215148 23.348935 209 209 209 0
-3.212634 3.212634 23.330676 209 209 209 0
-3.145689 3.235566 23.497211 209 209 209 0
-3.069184 3.249724 23.600029 209 209 209 0
-2.967883 3.237690 23.512637 210 210 210 0
-2.868095 3.226607 23.432150 209 209 209 0
-2.772748 3.219966 23.383921 210 210 210 0
-2.684348 3.221218 23.393012 209 209 209 0
-2.602811 3.231076 23.464602 209 209 209 0
-2.519057 3.238787 23.520603 209 209 209 0
-2.430057 3.240076 23.529964 209 209 209 0
-2.336908 3.235719 23.498325 210 210 210 0
-2.251454 3.242094 23.544619 210 210 210 0
-2.163857 3.245786 23.571427 210 210 210 0
-2.074051 3.246341 23.575464 209 209 209 0
-1.982982 3.244879 23.564846 210 210 210 0
-1.895554 3.249521 23.598558 210 210 210 0
-1.808176 3.254716 23.636283 210 210 210 0
-1.722614 3.263900 23.702981 210 210 210 0
-1.631354 3.262709 23.694326 210 210 210 0
-1.543210 3.267974 23.732565 210 210 210 0
-1.458791 3.282280 23.836454 210 210 210 0
-1.366954 3.280689 23.824899 210 210 210 0
-1.272959 3.273322 23.771403 210 210 210 0
-1.178389 3.263231 23.698118 211 211 211 0
-1.089319 3.267957 23.732438 211 211 211 0
-1.003967 3.285711 23.861372 210 210 210 0
-0.910654 3.278355 23.807955 210 210 210 0
-0.817259 3.269035 23.740265 210 210 210 0
-0.725299 3.263845 23.702578 211 211 211 0
-0.633486 3.257929 23.659615 211 211 211 0
-0.545117 3.270699 23.752355 211 211 211 0
-0.455989 3.283123 23.842576 211 211 211 0
-0.364502 3.280516 23.823647 210 210 210 0
-0.272686 3.272235 23.763506 210 210 210 0
-0.181728 3.271100 23.755267 211 211 211 0
-0.090986 3.275488 23.787131 211 211 211 0
0.000000 3.286499 23.867095 211 211 211 0
0.091428 3.291392 23.902627 211 211 211 0
0.182604 3.286878 23.869846 211 211 211 0
0.273721 3.284648 23.853655 211 211 211 0
0.365740 3.291662 23.904589 212 212 212 0
0.459244 3.306560 24.012778 212 212 212 0
0.551915 3.311489 24.048579 211 211 211 0
0.641998 3.301705 23.977526 211 211 211 0
0.731680 3.292558 23.911097 212 212 212 0
0.822154 3.288616 23.882468 212 212 212 0
0.914767 3.293160 23.915470 211 211 211 0
1.011877 3.311597 24.049360 211 211 211 0
1.098658 3.295973 23.935895 211 211 211 0
1.186254 3.285010 23.856281 212 212 212 0
1.275481 3.279807 23.818498 212 212 212 0
1.369167 3.286002 23.863484 212 212 212 0
1.466073 3.298665 23.955446 212 212 212 0
1.559488 3.302446 23.982905 212 212 212 0
1.648569 3.297137 23.944350 211 211 211 0
1.738157 3.293350 23.916847 212 212 212 0
1.833862 3.300951 23.972047 212 212 212 0
1.927355 3.304037 23.994459 212 212 212 0
2.018733 3.303381 23.989697 213 213 213 0
2.110463 3.303334 23.989354 212 212 212 0
2.200349 3.300523 23.968942 212 212 212 0
2.296214 3.306548 24.012691 212 212 212 0
2.393308 3.313811 24.065442 212 212 212 0
2.487228 3.316305 24.083548 213 213 213 0
2.580689 3.318028 24.096066 213 213 213 0
2.667569 3.311465 24.048400 213 213 213 0
2.757489 3.308987 24.030409 213 213 213 0
2.852012 3.312015 24.052393 213 213 213 0
2.950315 3.319104 24.103879 213 213 213 0
3.036671 3.312732 24.057603 213 213 213 0
3.126894 3.310829 24.043780 213 213 213 0
3.213607 3.305424 24.004532 212 212 212 0
3.304575 3.304575 23.998364 213 213 213 0
3.403324 3.311342 24.047511 213 213 213 0
3.499969 3.315760 24.079595 213 213 213 0
3.586914 3.310998 24.045008 213 213 213 0
3.682325 3.314093 24.067485 213 213 213 0
3.771032 3.311150 24.046116 213 213 213 0
3.866629 3.314254 24.068655 213 213 213 0
3.958961 3.314479 24.070290 213 213 213 0
4.058559 3.320639 24.115028 213 213 213 0
4.147256 3.317805 24.094443 213 213 213 0
4.244316 3.321638 24.122283 214 214 214 0
4.337094 3.322030 24.125124 213 213 213 0
4.440022 3.330017 24.183127 213 213 213 0
4.538218 3.334201 24.213517 213 213 213 0
4.619530 3.326061 24.154404 213 213 213 0
4.703622 3.320204 24.111865 214 214 214 0
4.796965 3.320976 24.117471 214 214 214 0
4.903917 3.330963 24.189997 213 213 213 0
4.991897 3.327931 24.167983 213 213 213 0
5.073385 3.320761 24.115912 213 213 213 0
5.157110 3.315285 24.076142 214 214 214 0
5.245921 3.313213 24.061100 214 214 214 0
5.352101 3.321994 24.124864 214 214 214 0
5.453235 3.327398 24.164110 214 214 214 0
5.537130 3.322278 24.126930 213 213 213 0
5.620675 3.317120 24.089467 213 213 213 0
5.714257 3.317956 24.095541 214 214 214 0
5.816252 3.323572 24.136328 214 214 214 0
5.911767 3.325369 24.149376 214 214 214 0
6.005710 3.326239 24.155695 214 214 214 0
6.092942 3.323423 24.135244 214 214 214 0
6.192835 3.327493 24.164803 214 214 214 0
6.296040 3.333198 24.206229 214 214 214 0
6.399645 3.338945 24.247969 214 214 214 0
6.487667 3.336514 24.230315 214 214 214 0
6.563479 3.327961 24.168201 214 214 214 0
6.647797 3.323898 24.138696 214 214 214 0
6.753454 3.330471 24.186425 214 214 214 0
6.849287 3.332086 24.198152 214 214 214 0
6.933471 3.328066 24.168962 214 214 214 0
7.016818 3.323756 24.137659 214 214 214 0
7.107848 3.323150 24.133259 215 215 215 0
7.202717 3.324331 24.141836 214 214 214 0
7.310726 3.331470 24.193681 215 215 215 0
-6.594764 3.050078 21.551517 205 205 205 0
-6.608558 3.095147 21.869969 205 205 205 0
-6.504926 3.085670 21.803002 206 206 206 0
-6.413618 3.081869 21.776143 206 206 206 0
-6.330086 3.081753 21.775323 206 206 206 0
-6.249291 3.082983 21.784020 206 206 206 0
-6.218376 3.109188 21.969180 206 206 206 0
-6.171627 3.128085 22.102702 207 207 207 0
-6.116386 3.143143 22.209099 206 206 206 0
-6.019256 3.136795 22.164248 206 206 206 0
-5.945894 3.142830 22.206888 207 207 207 0
-5.857214 3.140825 22.192723 207 207 207 0
-5.790712 3.150829 22.263407 207 207 207 0
-5.776928 3.190244 22.541909 206 206 206 0
-5.712200 3.202294 22.627053 206 206 206 0
-5.606180 3.191210 22.548739 207 207 207 0
-5.503308 3.181600 22.480833 207 207 207 0
-5.476861 3.216569 22.727921 207 207 207 0
-5.452598 3.253970 22.992189 207 207 207 0
-5.386689 3.267336 23.086633 207 207 207 0
-5.256736 3.241654 22.905169 208 208 208 0
-5.142054 3.224678 22.785217 208 208 208 0
-5.056417 3.225646 22.792055 207 207 207 0
-5.024226 3.261340 23.044266 208 208 208 0
-4.947096 3.268617 23.095688 208 208 208 0
-4.849790 3.262586 23.053073 208 208 208 0
-4.736809 3.245591 22.932989 208 208 208 0
-4.619633 3.225027 22.787684 208 208 208 0
-4.533325 3.225635 22.791981 208 208 208 0
-4.509969 3.271939 23.119156 208 208 208 0
-4.436224 3.282806 23.195944 207 207 207 0
-4.322523 3.263946 23.062683 208 208 208 0
-4.222171 3.254590 22.996575 208 208 208 0
-4.137467 3.257155 23.014697 208 208 208 0
-4.076219 3.278698 23.166918 208 208 208 0
-3.999627 3.288582 23.236758 208 208 208 0
-3.921629 3.297734 23.301420 209 209 209 0
-3.817645 3.284951 23.211097 208 208 208 0
-3.730942 3.286782 23.224041 209 209 209 0
-3.653623 3.297172 23.297454 209 209 209 0
-3.590371 3.321093 23.466476 208 208 208 0
-3.509163 3.329206 23.523800 209 209 209 0
-3.411329 3.321557 23.469756 209 209 209 0
-3.307008 3.307008 23.366952 209 209 209 0
-3.214035 3.303314 23.340853 209 209 209 0
-3.145376 3.325112 23.494870 209 209 209 0
-3.067726 3.338408 23.588822 210 210 210 0
-2.968932 3.328803 23.520953 210 210 210 0
-2.867095 3.315078 23.423977 209 209 209 0
-2.770561 3.306799 23.365473 209 209 209 0
-2.685728 3.312397 23.405034 209 209 209 0
-2.604092 3.322462 23.476149 209 209 209 0
-2.518720 3.328308 23.517459 209 209 209 0
-2.428248 3.327600 23.512450 210 210 210 0
-2.336094 3.324441 23.490136 210 210 210 0
-2.249244 3.328881 23.521503 210 210 210 0
-2.164466 3.336885 23.578064 210 210 210 0
-2.075176 3.338327 23.588251 210 210 210 0
-1.982382 3.334006 23.557715 210 210 210 0
-1.896095 3.340740 23.605297 210 210 210 0
-1.808304 3.345362 23.637957 210 210 210 0
-1.722225 3.353808 23.697633 209 209 209 0
-1.631453 3.353542 23.695754 210 210 210 0
-1.543788 3.360008 23.741447 210 210 210 0
-1.458716 3.373281 23.835230 211 211 211 0
-1.366649 3.371067 23.819589 211 211 211 0
-1.273591 3.365920 23.783219 210 210 210 0
-1.178861 3.355219 23.707608 211 211 211 0
-1.088769 3.357039 23.720466 210 210 210 0
-1.004048 3.377252 23.863288 210 210 210 0
-0.909989 3.366960 23.790569 210 210 210 0
-0.817717 3.361727 23.753592 210 210 210 0
-0.724969 3.352982 23.691801 210 210 210 0
-0.633355 3.347732 23.654707 211 211 211 0
-0.545629 3.364710 23.774668 210 210 210 0
-0.456151 3.375516 23.851023 211 211 211 0
-0.364566 3.372236 23.827845 211 211 211 0
-0.272622 3.362332 23.757868 210 210 210 0
-0.181721 3.361832 23.754330 211 211 211 0
-0.090973 3.365997 23.783765 211 211 211 0
0.000000 3.376242 23.856153 212 212 212 0
0.091431 3.382960 23.903620 211 211 211 0
0.182654 3.379092 23.876289 212 212 212 0
0.273775 3.376558 23.858386 211 211 211 0
0.365966 3.385185 23.919344 211 211 211 0
0.459362 3.399281 24.018943 211 211 211 0
0.551951 3.403695 24.050132 212 212 212 0
0.642183 3.394394 23.984412 212 212 212 0
0.731743 3.384310 23.913157 211 211 211 0
0.821892 3.378890 23.874864 212 212 212 0
0.914607 3.384046 23.911297 211 211 211 0
1.011526 3.402406 24.041022 211 211 211 0
1.098777 3.387897 23.938503 212 212 212 0
1.186694 3.377515 23.865145 211 211 211 0
1.275611 3.371259 23.820941 212 212 212 0
1.369090 3.377089 23.862135 212 212 212 0
1.466634 3.391591 23.964605 212 212 212 0
1.558731 3.392533 23.971260 211 211 211 0
1.648453 3.388487 23.942674 212 212 212 0
1.738789 3.386064 23.925552 212 212 212 0
1.833561 3.392088 23.968116 213 213 213 0
1.927349 3.395805 23.994383 212 212 212 0
2.019301 3.396097 23.996444 212 212 212 0
2.110259 3.394765 23.987035 212 212 212 0
2.200569 3.392544 23.971341 212 212 212 0
2.296263 3.398469 24.013206 212 212 212 0
2.394396 3.407409 24.076378 212 212 212 0
2.488014 3.409501 24.091154 212 212 212 0
2.581257 3.410946 24.101370 213 213 213 0
2.668826 3.405054 24.059738 213 213 213 0
2.757069 3.400385 24.026747 213 213 213 0
2.851716 3.403661 24.049892 213 213 213 0
2.949775 3.410677 24.099468 212 212 212 0
3.037975 3.406214 24.067934 213 213 213 0
3.126820 3.402716 24.043216 213 213 213 0
3.214611 3.398303 24.012033 212 212 212 0
3.303744 3.395514 23.992329 213 213 213 0
3.402406 3.402406 24.041025 213 213 213 0
3.499137 3.407054 24.073868 213 213 213 0
3.587051 3.403100 24.045927 213 213 213 0
3.680716 3.404662 24.056964 213 213 213 0
3.773196 3.405079 24.059911 214 214 214 0
3.866252 3.405984 24.066304 213 213 213 0
3.957176 3.405012 24.059439 213 213 213 0
4.057511 3.411998 24.108799 213 213 213 0
4.147257 3.409967 24.094448 213 213 213 0
4.243372 3.413147 24.116921 214 214 214 0
4.337856 3.414908 24.129363 213 213 213 0
4.443946 3.425542 24.204498 214 214 214 0
4.539669 3.427914 24.221258 214 214 214 0
4.620523 3.419187 24.159598 213 213 213 0
4.702666 3.411738 24.106967 214 214 214 0
4.797977 3.413945 24.122561 213 213 213 0
4.901314 3.421672 24.177155 213 213 213 0
4.990481 3.419404 24.161128 213 213 213 0
5.074603 3.413824 24.121703 213 213 213 0
5.157945 3.407928 24.080040 213 213 213 0
5.245032 3.404670 24.057019 214 214 214 0
5.353111 3.414916 24.129418 213 213 213 0
5.452588 3.419419 24.161240 214 214 214 0
5.536386 3.414105 24.123688 214 214 214 0
5.621219 3.409592 24.091798 213 213 213 0
5.717652 3.412147 24.109855 214 214 214 0
5.817775 3.416788 24.142648 214 214 214 0
5.914138 3.419111 24.159060 214 214 214 0
6.006482 3.419074 24.158800 214 214 214 0
6.091842 3.415124 24.130885 214 214 214 0
6.191546 3.419212 24.159773 214 214 214 0
6.296295 3.425925 24.207208 213 213 213 0
6.397820 3.430715 24.241054 214 214 214 0
6.488931 3.429864 24.235037 214 214 214 0
