ply
    format ascii 1.0
    element vertex 25597
    property float x
    property float y
    property float z
    property uchar red
    property uchar green
    property uchar blue
    property uchar alpha
    end_header
0.179202 0.000000 23.425119 211 211 211 0
0.268553 0.000000 23.403314 212 212 212 0
0.357518 0.000000 23.367178 212 212 212 0
0.446747 0.000000 23.359295 213 213 213 0
0.538734 0.000000 23.474262 212 212 212 0
0.630304 0.000000 23.540779 212 212 212 0
0.720224 0.000000 23.536733 212 212 212 0
0.807320 0.000000 23.451551 212 212 212 0
0.894508 0.000000 23.385834 213 213 213 0
0.986449 0.000000 23.445004 213 213 213 0
1.080795 0.000000 23.546730 213 213 213 0
1.168659 0.000000 23.502439 213 213 213 0
1.256357 0.000000 23.461373 213 213 213 0
1.341262 0.000000 23.377122 212 212 212 0
1.432235 0.000000 23.402539 212 212 212 0
1.529528 0.000000 23.522155 213 213 213 0
1.619301 0.000000 23.519255 213 213 213 0
1.704851 0.000000 23.458567 213 213 213 0
1.793093 0.000000 23.439121 213 213 213 0
1.884110 0.000000 23.456089 213 213 213 0
1.977836 0.000000 23.503701 212 212 212 0
2.069191 0.000000 23.520215 213 213 213 0
2.159281 0.000000 23.521584 213 213 213 0
2.248149 0.000000 23.510056 213 213 213 0
2.339638 0.000000 23.525770 213 213 213 0
2.430925 0.000000 23.538366 212 212 212 0
2.527120 0.000000 23.595893 213 213 213 0
2.621572 0.000000 23.633736 213 213 213 0
2.710404 0.000000 23.620075 213 213 213 0
2.798367 0.000000 23.599971 213 213 213 0
2.885603 0.000000 23.575189 213 213 213 0
2.979894 0.000000 23.607798 213 213 213 0
3.075571 0.000000 23.649141 213 213 213 0
3.158850 0.000000 23.595522 214 214 214 0
3.242713 0.000000 23.549112 214 214 214 0
3.332341 0.000000 23.545950 214 214 214 0
3.421879 0.000000 23.542339 213 213 213 0
3.516387 0.000000 23.572229 214 214 214 0
3.610408 0.000000 23.597435 213 213 213 0
3.698065 0.000000 23.580836 214 214 214 0
3.788869 0.000000 23.584620 214 214 214 0
3.878700 0.000000 23.582308 214 214 214 0
3.972556 0.000000 23.604017 213 213 213 0
4.064957 0.000000 23.616308 214 214 214 0
4.156822 0.000000 23.625021 214 214 214 0
4.247539 0.000000 23.626975 213 213 213 0
4.340846 0.000000 23.642951 214 214 214 0
4.436432 0.000000 23.670438 214 214 214 0
4.535571 0.000000 23.715405 214 214 214 0
4.629626 0.000000 23.732543 214 214 214 0
4.709761 0.000000 23.679037 215 215 215 0
4.791522 0.000000 23.635577 214 214 214 0
4.885227 0.000000 23.651545 215 215 215 0
4.989000 0.000000 23.714794 214 214 214 0
5.072669 0.000000 23.681927 214 214 214 0
5.154874 0.000000 23.643498 214 214 214 0
5.236839 0.000000 23.605312 214 214 214 0
5.324712 0.000000 23.594604 214 214 214 0
5.426458 0.000000 23.644698 215 215 215 0
5.524667 0.000000 23.677989 215 215 215 0
5.609294 0.000000 23.652936 214 214 214 0
5.695120 0.000000 23.633657 214 214 214 0
5.783960 0.000000 23.627290 214 214 214 0
5.883465 0.000000 23.664011 215 215 215 0
5.972048 0.000000 23.656360 214 214 214 0
6.066252 0.000000 23.670870 215 215 215 0
6.154885 0.000000 23.663534 215 215 215 0
6.249727 0.000000 23.679937 215 215 215 0
6.349170 0.000000 23.713052 215 215 215 0
6.450882 0.000000 23.753592 215 215 215 0
6.544715 0.000000 23.764398 214 214 214 0
6.621990 0.000000 23.715605 215 215 215 0
6.709050 0.000000 23.702703 215 215 215 0
6.803212 0.000000 23.714900 215 215 215 0
6.906665 0.000000 23.758736 215 215 215 0
6.988733 0.000000 23.728828 215 215 215 0
7.076947 0.000000 23.720286 215 215 215 0
7.156981 0.000000 23.684888 215 215 215 0
-10.713723 0.133922 35.012165 206 206 206 0
-6.403554 0.081058 21.191540 207 207 207 0
-6.349999 0.081410 21.283723 207 207 207 0
-6.195343 0.080459 21.035032 206 206 206 0
-6.138178 0.080766 21.115164 207 207 207 0
-6.072685 0.080969 21.168401 207 207 207 0
-6.014490 0.081277 21.248862 207 207 207 0
-5.996500 0.082144 21.475513 207 207 207 0
-5.964341 0.082838 21.657012 207 207 207 0
-5.891734 0.082982 21.694683 207 207 207 0
-5.812357 0.083034 21.708150 207 207 207 0
-5.736532 0.083138 21.735464 208 208 208 0
-5.668040 0.083354 21.791773 207 207 207 0
-5.630878 0.084043 21.972015 208 208 208 0
-5.583880 0.084604 22.118755 207 207 207 0
-5.507343 0.084728 22.151205 208 208 208 0
-5.421286 0.084708 22.145778 208 208 208 0
-5.352501 0.084960 22.211850 208 208 208 0
-5.296944 0.085435 22.335838 208 208 208 0
-5.264877 0.086309 22.564564 208 208 208 0
-5.169554 0.086159 22.525290 208 208 208 0
-5.040358 0.085430 22.334586 208 208 208 0
-4.922768 0.084875 22.189625 209 209 209 0
-4.867975 0.085403 22.327599 208 208 208 0
-4.839938 0.086427 22.595417 208 208 208 0
-4.757001 0.086491 22.612007 208 208 208 0
-4.654918 0.086202 22.536520 208 208 208 0
-4.544556 0.085746 22.417346 208 208 208 0
-4.439795 0.085381 22.321743 209 209 209 0
-4.374269 0.085770 22.423523 209 209 209 0
-4.338679 0.086774 22.685901 209 209 209 0
-4.259750 0.086934 22.727759 208 208 208 0
-4.150447 0.086468 22.605921 209 209 209 0
-4.051067 0.086193 22.534093 209 209 209 0
-3.973102 0.086372 22.580858 208 208 208 0
-3.908751 0.086861 22.708793 209 209 209 0
-3.833448 0.087124 22.777468 209 209 209 0
-3.757090 0.087374 22.842926 209 209 209 0
-3.659816 0.087138 22.781303 209 209 209 0
-3.576371 0.087229 22.804854 209 209 209 0
-3.500110 0.087503 22.876535 209 209 209 0
-3.437886 0.088151 23.045993 210 210 210 0
-3.353714 0.088256 23.073370 210 210 210 0
-3.255904 0.087997 23.005859 210 210 210 0
-3.155560 0.087654 22.916196 210 210 210 0
-3.067023 0.087629 22.909600 210 210 210 0
-2.995100 0.088091 23.030373 209 209 209 0
-2.915978 0.088363 23.101428 210 210 210 0
-2.818037 0.088064 23.023176 210 210 210 0
-2.721838 0.087801 22.954565 210 210 210 0
-2.629642 0.087655 22.916268 210 210 210 0
-2.547150 0.087833 22.962808 210 210 210 0
-2.462813 0.087958 22.995455 210 210 210 0
-2.380216 0.088156 23.047357 210 210 210 0
-2.292143 0.088159 23.048200 210 210 210 0
-2.201019 0.088041 23.017189 211 211 211 0
-2.116025 0.088168 23.050386 211 211 211 0
-2.033177 0.088399 23.110847 211 211 211 0
-1.947269 0.088512 23.140448 210 210 210 0
-1.858363 0.088493 23.135555 211 211 211 0
-1.772646 0.088632 23.171839 211 211 211 0
-1.686000 0.088737 23.199176 210 210 210 0
-1.602752 0.089042 23.278896 211 211 211 0
-1.513476 0.089028 23.275293 211 211 211 0
-1.426675 0.089167 23.311676 211 211 211 0
-1.341932 0.089462 23.388796 211 211 211 0
-1.252109 0.089436 23.382061 211 211 211 0
-1.160294 0.089253 23.334217 211 211 211 0
-1.067459 0.088955 23.256193 211 211 211 0
-0.980344 0.089122 23.299905 211 211 211 0
-0.895506 0.089551 23.411914 211 211 211 0
-0.804425 0.089381 23.367451 211 211 211 0
-0.713317 0.089165 23.311014 211 211 211 0
-0.622532 0.088933 23.250482 212 212 212 0
-0.532892 0.088815 23.219681 212 212 212 0
-0.445661 0.089132 23.302534 212 212 212 0
-0.357328 0.089332 23.354765 211 211 211 0
-0.267827 0.089276 23.340035 212 212 212 0
-0.178317 0.089159 23.309453 212 212 212 0
-0.088941 0.088941 23.252638 211 211 211 0
0.000000 0.089169 23.312223 211 211 211 0
0.089358 0.089358 23.361609 212 212 212 0
0.179159 0.089579 23.419471 212 212 212 0
0.268497 0.089499 23.398445 211 211 211 0
0.357636 0.089409 23.374890 213 213 213 0
0.446611 0.089322 23.352209 212 212 212 0
0.538802 0.089800 23.477215 213 213 213 0
0.630647 0.090092 23.553592 212 212 212 0
0.720058 0.090007 23.531299 213 213 213 0
0.807024 0.089669 23.442958 213 213 213 0
0.894532 0.089453 23.386464 213 213 213 0
0.986195 0.089654 23.438977 213 213 213 0
1.081093 0.090091 23.553226 213 213 213 0
1.169148 0.089934 23.512280 213 213 213 0
1.255850 0.089704 23.451915 212 212 212 0
1.341944 0.089463 23.389000 212 212 212 0
1.432234 0.089515 23.402510 213 213 213 0
1.529342 0.089961 23.519299 213 213 213 0
1.619765 0.089987 23.525994 212 212 212 0
1.705521 0.089764 23.467788 213 213 213 0
1.793006 0.089650 23.437986 213 213 213 0
1.883392 0.089685 23.447148 213 213 213 0
1.977881 0.089904 23.504231 212 212 212 0
2.067872 0.089907 23.505228 212 212 212 0
2.158826 0.089951 23.516618 213 213 213 0
2.247787 0.089911 23.506273 213 213 213 0
2.340848 0.090033 23.537937 213 213 213 0
2.430782 0.090029 23.536984 213 213 213 0
2.527585 0.090271 23.600238 214 214 214 0
2.621118 0.090383 23.629646 213 213 213 0
2.709943 0.090331 23.616059 213 213 213 0
2.799376 0.090302 23.608486 213 213 213 0
2.885497 0.090172 23.574318 213 213 213 0
2.980508 0.090318 23.612658 213 213 213 0
3.077179 0.090505 23.661504 214 214 214 0
3.159329 0.090267 23.599098 214 214 214 0
3.242376 0.090066 23.546666 213 213 213 0
3.332053 0.090055 23.543919 213 213 213 0
3.420110 0.090003 23.530168 214 214 214 0
3.516637 0.090170 23.573902 214 214 214 0
3.611007 0.090275 23.601351 214 214 214 0
3.696126 0.090149 23.568477 214 214 214 0
3.789587 0.090228 23.589087 214 214 214 0
3.880319 0.090240 23.592150 214 214 214 0
3.972252 0.090278 23.602213 214 214 214 0
4.064070 0.090313 23.611157 214 214 214 0
4.156056 0.090349 23.620663 214 214 214 0
4.248324 0.090390 23.631337 214 214 214 0
4.341491 0.090448 23.646468 214 214 214 0
4.436311 0.090537 23.669794 214 214 214 0
4.534689 0.090694 23.710791 214 214 214 0
4.628746 0.090760 23.728033 214 214 214 0
4.708412 0.090546 23.672258 214 214 214 0
4.791089 0.090398 23.633438 214 214 214 0
4.884641 0.090456 23.648711 214 214 214 0
4.990314 0.090733 23.721040 214 214 214 0
5.071472 0.090562 23.676341 214 214 214 0
5.156048 0.090457 23.648886 215 215 215 0
5.238022 0.090311 23.610645 215 215 215 0
5.326307 0.090276 23.601672 214 214 214 0
5.428203 0.090470 23.652302 214 214 214 0
5.524869 0.090572 23.678855 215 215 215 0
5.611077 0.090501 23.660456 215 215 215 0
5.694422 0.090388 23.630759 214 214 214 0
5.784781 0.090387 23.630640 214 214 214 0
5.880993 0.090477 23.654068 214 214 214 0
5.972881 0.090498 23.659658 214 214 214 0
6.064464 0.090514 23.663893 214 214 214 0
6.154750 0.090511 23.663014 215 215 215 0
6.252479 0.090616 23.690363 214 214 214 0
6.349312 0.090704 23.713583 215 215 215 0
6.453706 0.090897 23.763990 215 215 215 0
6.544758 0.090899 23.764554 215 215 215 0
6.622108 0.090714 23.716029 215 215 215 0
6.709435 0.090668 23.704064 215 215 215 0
6.804008 0.090720 23.717674 215 215 215 0
6.908153 0.090897 23.763857 215 215 215 0
6.988219 0.090756 23.727082 215 215 215 0
7.075143 0.090707 23.714238 215 215 215 0
7.158131 0.090609 23.688693 214 214 214 0
-10.713721 0.267843 35.012161 206 206 206 0
-6.387309 0.161704 21.137781 207 207 207 0
-6.343269 0.162648 21.261165 207 207 207 0
-6.210526 0.161312 21.086583 207 207 207 0
-6.129721 0.161308 21.086072 207 207 207 0
-6.074317 0.161982 21.174090 206 206 206 0
-6.021254 0.162737 21.272757 207 207 207 0
-6.001980 0.164438 21.495140 207 207 207 0
-5.960787 0.165577 21.644107 207 207 207 0
-5.885705 0.165795 21.672485 207 207 207 0
-5.811366 0.166039 21.704448 207 207 207 0
-5.749167 0.166643 21.783337 207 207 207 0
-5.676670 0.166961 21.824953 207 207 207 0
-5.632320 0.168129 21.977641 208 208 208 0
-5.597153 0.169611 22.171332 207 207 207 0
-5.497214 0.169145 22.110465 208 208 208 0
-5.422469 0.169452 22.150609 208 208 208 0
-5.340057 0.169526 22.160213 208 208 208 0
-5.294188 0.170780 22.324218 208 208 208 0
-5.257457 0.172376 22.532762 208 208 208 0
-5.168214 0.172274 22.519449 208 208 208 0
-5.045657 0.171039 22.358068 208 208 208 0
-4.922595 0.169745 22.188846 208 208 208 0
-4.863359 0.170644 22.306429 208 208 208 0
-4.835889 0.172710 22.576513 209 209 209 0
-4.754438 0.172889 22.599823 208 208 208 0
-4.654462 0.172387 22.534312 209 209 209 0
-4.542642 0.171420 22.407902 209 209 209 0
-4.440126 0.170774 22.323411 209 209 209 0
-4.371332 0.171425 22.408466 209 209 209 0
-4.337723 0.173509 22.680904 209 209 209 0
-4.258475 0.173815 22.720954 208 208 208 0
-4.147057 0.172794 22.587457 209 209 209 0
-4.048497 0.172276 22.519802 209 209 209 0
-3.972086 0.172699 22.575083 209 209 209 0
-3.906731 0.173632 22.697058 209 209 209 0
-3.832251 0.174193 22.770359 209 209 209 0
-3.757722 0.174778 22.846766 209 209 209 0
-3.659066 0.174241 22.776632 209 209 209 0
-3.577845 0.174529 22.814251 209 209 209 0
-3.502023 0.175101 22.889038 210 210 210 0
-3.438795 0.176348 23.052084 209 209 209 0
-3.351214 0.176380 23.056168 210 210 210 0
-3.255529 0.175975 23.003207 209 209 209 0
-3.152752 0.175153 22.895801 210 210 210 0
-3.068801 0.175360 22.922883 210 210 210 0
-2.994213 0.176130 23.023550 210 210 210 0
-2.917544 0.176821 23.113839 210 210 210 0
-2.817485 0.176093 23.018671 210 210 210 0
-2.722048 0.175616 22.956344 210 210 210 0
-2.631747 0.175450 22.934615 210 210 210 0
-2.546018 0.175587 22.952605 210 210 210 0
-2.462036 0.175860 22.988198 210 210 210 0
-2.378385 0.176177 23.029628 210 210 210 0
-2.291615 0.176278 23.042884 210 210 210 0
-2.199983 0.175999 23.006358 210 210 210 0
-2.116500 0.176375 23.055555 211 211 211 0
-2.035436 0.176994 23.136531 210 210 210 0
-1.948402 0.177127 23.153916 210 210 210 0
-1.858306 0.176982 23.134844 211 211 211 0
-1.773300 0.177330 23.180398 211 211 211 0
-1.686118 0.177486 23.200794 210 210 210 0
-1.601939 0.177993 23.267094 211 211 211 0
-1.514542 0.178181 23.291681 211 211 211 0
-1.426173 0.178272 23.303482 211 211 211 0
-1.341298 0.178840 23.377738 211 211 211 0
-1.251877 0.178840 23.377713 211 211 211 0
-1.160299 0.178508 23.334321 211 211 211 0
-1.067549 0.177925 23.258140 211 211 211 0
-0.979645 0.178117 23.283305 211 211 211 0
-0.895055 0.179011 23.400130 211 211 211 0
-0.804005 0.178668 23.355254 212 212 212 0
-0.712987 0.178247 23.300243 211 211 211 0
-0.622857 0.177959 23.262623 211 211 211 0
-0.532924 0.177641 23.221083 211 211 211 0
-0.445559 0.178224 23.297217 211 211 211 0
-0.357494 0.178747 23.365602 211 211 211 0
-0.267879 0.178586 23.344597 212 212 212 0
-0.178382 0.178382 23.317970 212 212 212 0
-0.088977 0.177954 23.261954 212 212 212 0
0.000000 0.178234 23.298588 212 212 212 0
0.089362 0.178724 23.362612 212 212 212 0
0.179116 0.179116 23.413916 212 212 212 0
0.268495 0.178997 23.398285 212 212 212 0
0.357479 0.178739 23.364612 212 212 212 0
0.446368 0.178547 23.339497 212 212 212 0
0.538773 0.179591 23.475962 212 212 212 0
0.630273 0.180078 23.539608 212 212 212 0
0.720192 0.180048 23.535684 212 212 212 0
0.806690 0.179264 23.433247 213 213 213 0
0.894019 0.178804 23.373058 212 212 212 0
0.986096 0.179290 23.436623 213 213 213 0
1.081079 0.180180 23.552921 212 212 212 0
1.169398 0.179907 23.517312 212 212 212 0
1.255945 0.179421 23.453680 212 212 212 0
1.341958 0.178928 23.389246 212 212 212 0
1.431754 0.178969 23.394675 213 213 213 0
1.529086 0.179892 23.515354 212 212 212 0
1.619180 0.179909 23.517498 213 213 213 0
1.706001 0.179579 23.474383 213 213 213 0
1.792865 0.179286 23.436140 212 212 212 0
1.883120 0.179345 23.443754 213 213 213 0
1.977051 0.179732 23.494361 213 213 213 0
2.068258 0.179849 23.509608 213 213 213 0
2.158519 0.179877 23.513275 213 213 213 0
2.248640 0.179891 23.515186 213 213 213 0
2.340374 0.180029 23.533177 214 214 214 0
2.429853 0.179989 23.527986 213 213 213 0
2.528012 0.180572 23.604216 213 213 213 0
2.620096 0.180696 23.620428 213 213 213 0
2.710176 0.180678 23.618089 213 213 213 0
2.798285 0.180535 23.599283 213 213 213 0
2.885532 0.180346 23.574608 213 213 213 0
2.980255 0.180622 23.610655 213 213 213 0
3.075885 0.180934 23.651555 213 213 213 0
3.158428 0.180482 23.592367 213 213 213 0
3.243080 0.180171 23.551781 213 213 213 0
3.333344 0.180181 23.553037 213 213 213 0
3.419610 0.179979 23.526729 214 214 214 0
3.516596 0.180338 23.573627 214 214 214 0
3.610298 0.180515 23.596716 214 214 214 0
3.698276 0.180404 23.582184 213 213 213 0
3.786800 0.180324 23.571740 213 213 213 0
3.879615 0.180447 23.587870 214 214 214 0
3.970761 0.180489 23.593349 215 215 215 0
4.063820 0.180614 23.609702 213 213 213 0
4.156636 0.180723 23.623963 214 214 214 0
4.247856 0.180760 23.628738 214 214 214 0
4.341538 0.180897 23.646722 214 214 214 0
4.436346 0.181075 23.669979 214 214 214 0
4.535908 0.181436 23.717168 214 214 214 0
4.630022 0.181570 23.734575 214 214 214 0
4.708197 0.181084 23.671176 214 214 214 0
4.791693 0.180819 23.636417 214 214 214 0
4.884702 0.180915 23.649005 214 214 214 0
4.989910 0.181451 23.719121 215 215 215 0
5.072754 0.181170 23.682324 214 214 214 0
5.157088 0.180950 23.653657 214 214 214 0
5.237731 0.180611 23.609337 214 214 214 0
5.325725 0.180533 23.599093 214 214 214 0
5.428214 0.180940 23.652350 214 214 214 0
5.526195 0.181187 23.684537 214 214 214 0
5.608580 0.180922 23.649928 214 214 214 0
5.693205 0.180737 23.625707 215 215 215 0
5.783129 0.180723 23.623894 214 214 214 0
5.881730 0.180976 23.657032 215 215 215 0
5.972561 0.180987 23.658390 215 215 215 0
6.065369 0.181056 23.667425 215 215 215 0
6.155499 0.181044 23.665892 214 214 214 0
6.251076 0.181191 23.685047 215 215 215 0
6.349952 0.181427 23.715975 215 215 215 0
6.450082 0.181692 23.750648 215 215 215 0
6.544907 0.181803 23.765093 215 215 215 0
6.623962 0.181478 23.722670 215 215 215 0
6.707225 0.181276 23.696257 215 215 215 0
6.802480 0.181399 23.712348 215 215 215 0
6.906198 0.181742 23.757130 215 215 215 0
6.987481 0.181493 23.724575 215 215 215 0
7.073421 0.181370 23.708468 214 214 214 0
7.154409 0.181124 23.676378 214 214 214 0
-10.713735 0.401765 35.012205 207 207 207 0
-6.400097 0.243042 21.180099 207 207 207 0
-6.340484 0.243865 21.251832 207 207 207 0
-6.211430 0.242004 21.089654 207 207 207 0
-6.124905 0.241773 21.069505 207 207 207 0
-6.072579 0.242903 21.168032 207 207 207 0
-6.020573 0.244077 21.270353 207 207 207 0
-5.995919 0.246408 21.473430 207 207 207 0
-5.961855 0.248411 21.647986 207 207 207 0
-5.889511 0.248853 21.686498 207 207 207 0
-5.800791 0.248605 21.664953 208 208 208 0
-5.742501 0.249674 21.758078 207 207 207 0
-5.672341 0.250250 21.808308 207 207 207 0
-5.632845 0.252217 21.979690 207 207 207 0
-5.581749 0.253716 22.110315 207 207 207 0
-5.507152 0.254176 22.150434 208 208 208 0
-5.419165 0.254023 22.137112 208 208 208 0
-5.343910 0.254472 22.176203 208 208 208 0
-5.295695 0.256243 22.330572 208 208 208 0
-5.254700 0.258428 22.520948 208 208 208 0
-5.168885 0.258444 22.522375 208 208 208 0
-5.041397 0.256342 22.339189 208 208 208 0
-4.926964 0.254843 22.208535 208 208 208 0
-4.863653 0.255982 22.307777 209 209 209 0
-4.838020 0.259180 22.586461 209 209 209 0
-4.753678 0.259292 22.596213 208 208 208 0
-4.659620 0.258868 22.559285 208 208 208 0
-4.542571 0.257127 22.407550 208 208 208 0
-4.435841 0.255914 22.301867 209 209 209 0
-4.378765 0.257574 22.446573 208 208 208 0
-4.337771 0.260266 22.681154 209 209 209 0
-4.261301 0.260896 22.736035 209 209 209 0
-4.149541 0.259346 22.600988 208 208 208 0
-4.045042 0.258194 22.500582 209 209 209 0
-3.967562 0.258754 22.549372 210 210 210 0
-3.911302 0.260753 22.723615 209 209 209 0
-3.837749 0.261665 22.803027 209 209 209 0
-3.756048 0.262050 22.836591 210 210 210 0
-3.660241 0.261446 22.783947 209 209 209 0
-3.578242 0.261823 22.816785 209 209 209 0
-3.501358 0.262602 22.884694 209 209 209 0
-3.438792 0.264522 23.052066 209 209 209 0
-3.353605 0.264758 23.072621 210 210 210 0
-3.255932 0.263994 23.006053 209 209 209 0
-3.154655 0.262888 22.909620 210 210 210 0
-3.065417 0.262750 22.897609 210 210 210 0
-2.993080 0.264095 23.014840 210 210 210 0
-2.914903 0.264991 23.092915 210 210 210 0
-2.819571 0.264335 23.035708 210 210 210 0
-2.722363 0.263454 22.958993 210 210 210 0
-2.629598 0.262960 22.915890 210 210 210 0
-2.546511 0.263432 22.957056 210 210 210 0
-2.460990 0.263677 22.978428 210 210 210 0
-2.379854 0.264428 23.043852 211 211 211 0
-2.292823 0.264556 23.055030 210 210 210 0
-2.199409 0.263929 23.000355 210 210 210 0
-2.116359 0.264545 23.054018 211 211 211 0
-2.033341 0.265218 23.112713 210 210 210 0
-1.948260 0.265672 23.152226 211 211 211 0
-1.857754 0.265393 23.127970 210 210 210 0
-1.773795 0.266069 23.186862 210 210 210 0
-1.687262 0.266410 23.216535 210 210 210 0
-1.602689 0.267115 23.277986 211 211 211 0
-1.513381 0.267067 23.273838 211 211 211 0
-1.425693 0.267317 23.295638 211 211 211 0
-1.341473 0.268295 23.380792 211 211 211 0
-1.252452 0.268382 23.388451 212 212 212 0
-1.160559 0.267821 23.339551 211 211 211 0
-1.067094 0.266773 23.248231 210 210 210 0
-0.979976 0.267266 23.291178 212 212 212 0
-0.894267 0.268280 23.379540 212 212 212 0
-0.803438 0.267813 23.338807 211 211 211 0
-0.713481 0.267555 23.316366 212 212 212 0
-0.622702 0.266872 23.256830 211 211 211 0
-0.532785 0.266393 23.215052 212 212 212 0
-0.445741 0.267445 23.306712 212 212 212 0
-0.357512 0.268134 23.366777 211 211 211 0
-0.267864 0.267864 23.343228 212 212 212 0
-0.178288 0.267433 23.305670 212 212 212 0
-0.088965 0.266896 23.258881 212 212 212 0
0.000000 0.267339 23.297541 212 212 212 0
0.089336 0.268008 23.355857 212 212 212 0
0.179063 0.268594 23.406908 211 211 211 0
0.268571 0.268571 23.404903 211 211 211 0
0.357447 0.268086 23.362580 212 212 212 0
0.446669 0.268001 23.355223 212 212 212 0
0.538886 0.269443 23.480872 212 212 212 0
0.630419 0.270180 23.545077 212 212 212 0
0.720173 0.270065 23.535057 212 212 212 0
0.807025 0.269008 23.442994 212 212 212 0
0.893983 0.268195 23.372115 213 213 213 0
0.985861 0.268871 23.431048 212 212 212 0
1.081203 0.270301 23.555628 213 213 213 0
1.169008 0.269771 23.509469 213 213 213 0
1.255912 0.269124 23.453072 213 213 213 0
1.341979 0.268396 23.389606 213 213 213 0
1.432103 0.268519 23.400382 212 212 212 0
1.528805 0.269789 23.511035 213 213 213 0
1.618289 0.269715 23.504563 213 213 213 0
1.705503 0.269290 23.467540 213 213 213 0
1.793653 0.269048 23.446439 213 213 213 0
1.884004 0.269143 23.454771 213 213 213 0
1.977392 0.269644 23.498417 213 213 213 0
2.068434 0.269796 23.511608 213 213 213 0
2.159187 0.269898 23.520559 213 213 213 0
2.246990 0.269639 23.497934 213 213 213 0
2.341213 0.270140 23.541613 213 213 213 0
2.431108 0.270123 23.540137 213 213 213 0
2.526642 0.270712 23.591432 214 214 214 0
2.620738 0.271111 23.626213 213 213 213 0
2.711143 0.271114 23.626515 213 213 213 0
2.798632 0.270835 23.602210 213 213 213 0
2.885356 0.270502 23.573168 214 214 214 0
2.980649 0.270968 23.613777 214 214 214 0
3.075669 0.271383 23.649894 214 214 214 0
3.158374 0.270718 23.591962 213 213 213 0
3.242808 0.270234 23.549803 213 213 213 0
3.332803 0.270227 23.549216 214 214 214 0
3.419093 0.269928 23.523170 213 213 213 0
3.517403 0.270569 23.579035 213 213 213 0
3.609566 0.270717 23.591933 214 214 214 0
3.697807 0.270571 23.579194 213 213 213 0
3.787801 0.270557 23.577974 214 214 214 0
3.879510 0.270663 23.587233 213 213 213 0
3.971732 0.270800 23.599120 213 213 213 0
4.063575 0.270905 23.608279 214 214 214 0
4.157076 0.271114 23.626460 214 214 214 0
4.248400 0.271174 23.631763 214 214 214 0
4.340228 0.271264 23.639587 214 214 214 0
4.436026 0.271593 23.668274 214 214 214 0
4.537826 0.272270 23.727197 215 215 215 0
4.628839 0.272285 23.728510 214 214 214 0
4.707865 0.271608 23.669509 213 213 213 0
4.791941 0.271242 23.637640 215 215 215 0
4.883933 0.271330 23.645281 215 215 215 0
4.988823 0.272118 23.713954 214 214 214 0
5.074071 0.271825 23.688475 215 215 215 0
5.156211 0.271380 23.649631 214 214 214 0
5.237878 0.270925 23.609998 215 215 215 0
5.327869 0.270909 23.608594 214 214 214 0
5.427638 0.271382 23.649839 214 214 214 0
5.527084 0.271824 23.688351 214 214 214 0
5.607637 0.271337 23.645951 215 215 215 0
5.693150 0.271102 23.625481 215 215 215 0
5.782275 0.271044 23.620404 215 215 215 0
5.880507 0.271408 23.652114 215 215 215 0
5.972394 0.271472 23.657732 214 214 214 0
6.066686 0.271643 23.672561 214 214 214 0
6.155598 0.271570 23.666274 215 215 215 0
6.253003 0.271870 23.692349 215 215 215 0
6.348633 0.272084 23.711047 215 215 215 0
6.451890 0.272615 23.757304 215 215 215 0
6.545248 0.272719 23.766334 215 215 215 0
6.624757 0.272250 23.725515 215 215 215 0
6.706860 0.271900 23.694967 215 215 215 0
6.803396 0.272136 23.715540 214 214 214 0
6.907353 0.272659 23.761105 215 215 215 0
6.984460 0.272122 23.714321 216 216 216 0
7.072204 0.272008 23.704387 215 215 215 0
7.147681 0.271431 23.654110 215 215 215 0
-10.713747 0.535687 35.012246 207 207 207 0
-6.391967 0.323644 21.153197 207 207 207 0
-6.342294 0.325246 21.257899 207 207 207 0
-6.192049 0.321665 21.023849 207 207 207 0
-6.127933 0.322523 21.079922 207 207 207 0
-6.072380 0.323860 21.167338 207 207 207 0
-6.025017 0.325677 21.286051 207 207 207 0
-6.003100 0.328937 21.499151 208 208 208 0
-5.969006 0.331611 21.673950 207 207 207 0
-5.883512 0.331465 21.664408 207 207 207 0
-5.803660 0.331638 21.675669 208 208 208 0
-5.741209 0.332824 21.753185 207 207 207 0
-5.668865 0.333463 21.794946 207 207 207 0
-5.623643 0.335740 21.943782 207 207 207 0
-5.586586 0.338581 22.129474 208 208 208 0
-5.491344 0.337929 22.086854 208 208 208 0
-5.415007 0.338438 22.120127 207 207 207 0
-5.341152 0.339121 22.164756 208 208 208 0
-5.299374 0.341895 22.346084 207 207 207 0
-5.258525 0.344821 22.537339 208 208 208 0
-5.172879 0.344859 22.539778 207 207 207 0
-5.040447 0.341725 22.334980 208 208 208 0
-4.926387 0.339751 22.205936 208 208 208 0
-4.862582 0.341234 22.302862 208 208 208 0
-4.846159 0.346154 22.624459 208 208 208 0
-4.751984 0.345599 22.588158 209 209 209 0
-4.659278 0.345132 22.557628 209 209 209 0
-4.540325 0.342666 22.396471 208 208 208 0
-4.439609 0.341508 22.320811 208 208 208 0
-4.378625 0.343422 22.445857 208 208 208 0
-4.338649 0.347092 22.685747 209 209 209 0
-4.260275 0.347778 22.730557 209 209 209 0
-4.152821 0.346068 22.618852 209 209 209 0
-4.049090 0.344603 22.523098 210 210 210 0
-3.971050 0.345309 22.569198 209 209 209 0
-3.910048 0.347560 22.716327 209 209 209 0
-3.835762 0.348706 22.791221 209 209 209 0
-3.752925 0.349109 22.817599 209 209 209 0
-3.660726 0.348641 22.786967 209 209 209 0
-3.579605 0.349230 22.825475 209 209 209 0
-3.500918 0.350092 22.881815 210 210 210 0
-3.439137 0.352732 23.054382 209 209 209 0
-3.351154 0.352753 23.055758 210 210 210 0
-3.258489 0.352269 23.024123 210 210 210 0
-3.153139 0.350349 22.898612 209 209 209 0
-3.067058 0.350521 22.909866 210 210 210 0
-2.991205 0.351906 23.000420 209 209 209 0
-2.914981 0.353331 23.093530 210 210 210 0
-2.819951 0.352494 23.038814 210 210 210 0
-2.720939 0.351089 22.946987 210 210 210 0
-2.629351 0.350580 22.913731 210 210 210 0
-2.546878 0.351293 22.960356 210 210 210 0
-2.462064 0.351723 22.988461 211 211 211 0
-2.378807 0.352416 23.033714 211 211 211 0
-2.294612 0.353017 23.073021 210 210 210 0
-2.201010 0.352162 23.017103 210 210 210 0
-2.116115 0.352686 23.051359 211 211 211 0
-2.035813 0.354054 23.140813 210 210 210 0
-1.949264 0.354412 23.164160 211 211 211 0
-1.858055 0.353915 23.131720 211 211 211 0
-1.771370 0.354274 23.155169 211 211 211 0
-1.686583 0.355070 23.207195 211 211 211 0
-1.601926 0.355984 23.266904 211 211 211 0
-1.513125 0.356029 23.269889 211 211 211 0
-1.425918 0.356479 23.299311 211 211 211 0
-1.340292 0.357411 23.360212 210 210 210 0
-1.252329 0.357808 23.386162 211 211 211 0
-1.159998 0.356922 23.328259 211 211 211 0
-1.067294 0.355765 23.252587 212 212 212 0
-0.979815 0.356296 23.287347 211 211 211 0
-0.895347 0.358139 23.407767 211 211 211 0
-0.804082 0.357370 23.357503 211 211 211 0
-0.713507 0.356753 23.317221 211 211 211 0
-0.622711 0.355835 23.257183 211 211 211 0
-0.532921 0.355281 23.220967 211 211 211 0
-0.445793 0.356635 23.309455 211 211 211 0
-0.357420 0.357420 23.360783 211 211 211 0
-0.267865 0.357153 23.343329 212 212 212 0
-0.178271 0.356542 23.303431 212 212 212 0
-0.088945 0.355781 23.253680 212 212 212 0
0.000000 0.356466 23.298433 212 212 212 0
0.089394 0.357575 23.370916 211 211 211 0
0.179175 0.358349 23.421522 212 212 212 0
0.268543 0.358057 23.402445 212 212 212 0
0.357647 0.357647 23.375635 213 213 213 0
0.446435 0.357148 23.342999 212 212 212 0
0.538420 0.358947 23.460566 211 211 211 0
0.630457 0.360261 23.546482 212 212 212 0
0.720116 0.360058 23.533201 212 212 212 0
0.807052 0.358690 23.443789 212 212 212 0
0.893777 0.357511 23.366713 213 213 213 0
0.986173 0.358609 23.438465 212 212 212 0
1.081362 0.360454 23.559096 212 212 212 0
1.169091 0.359720 23.511138 213 213 213 0
1.255969 0.358848 23.454130 212 212 212 0
1.341736 0.357796 23.385377 213 213 213 0
1.431221 0.357805 23.385964 213 213 213 0
1.528529 0.359654 23.506795 213 213 213 0
1.618886 0.359753 23.513238 212 212 212 0
1.705487 0.359050 23.467308 213 213 213 0
1.793737 0.358747 23.447548 212 212 212 0
1.883723 0.358804 23.451271 213 213 213 0
1.977655 0.359574 23.501551 212 212 212 0
2.068885 0.359806 23.516736 213 213 213 0
2.158542 0.359757 23.513526 213 213 213 0
2.247929 0.359669 23.507755 213 213 213 0
2.339620 0.359942 23.525595 213 213 213 0
2.431106 0.360164 23.540122 213 213 213 0
2.527760 0.361109 23.601864 213 213 213 0
2.621043 0.361523 23.628967 213 213 213 0
2.710774 0.361437 23.623301 213 213 213 0
2.799185 0.361185 23.606870 214 214 214 0
2.884866 0.360608 23.569170 213 213 213 0
2.979477 0.361149 23.604492 213 213 213 0
3.075252 0.361794 23.646691 213 213 213 0
3.158247 0.360943 23.591015 213 213 213 0
3.243129 0.360348 23.552134 214 214 214 0
3.332192 0.360237 23.544902 214 214 214 0
3.420607 0.360064 23.533589 213 213 213 0
3.517745 0.360794 23.581331 213 213 213 0
3.610716 0.361072 23.599448 214 214 214 0
3.697255 0.360708 23.575674 213 213 213 0
3.787452 0.360710 23.575798 214 214 214 0
3.879664 0.360899 23.588168 214 214 214 0
3.971448 0.361041 23.597433 214 214 214 0
4.063377 0.361189 23.607129 214 214 214 0
4.158392 0.361599 23.633942 214 214 214 0
4.247775 0.361513 23.628287 214 214 214 0
4.340551 0.361713 23.641343 214 214 214 0
4.434584 0.362007 23.660577 213 213 213 0
4.534726 0.362778 23.710985 214 214 214 0
4.627713 0.362958 23.722737 214 214 214 0
4.708024 0.362156 23.670307 215 215 215 0
4.791903 0.361653 23.637456 214 214 214 0
4.883463 0.361738 23.643004 214 214 214 0
4.989542 0.362876 23.717372 214 214 214 0
5.073484 0.362392 23.685733 214 214 214 0
5.156796 0.361880 23.652314 214 214 214 0
5.238447 0.361272 23.612564 214 214 214 0
5.326194 0.361098 23.601169 214 214 214 0
5.429561 0.361971 23.658220 214 214 214 0
5.526596 0.362400 23.686258 215 215 215 0
5.607475 0.361773 23.645268 215 215 215 0
5.692535 0.361431 23.622927 214 214 214 0
5.783298 0.361456 23.624584 214 214 214 0
5.882519 0.362001 23.660209 214 214 214 0
5.972486 0.361969 23.658093 215 215 215 0
6.067230 0.362223 23.674686 215 215 215 0
6.156532 0.362149 23.669864 215 215 215 0
6.252563 0.362467 23.690682 215 215 215 0
6.349405 0.362823 23.713931 214 214 214 0
6.453615 0.363584 23.763658 215 215 215 0
6.543179 0.363510 23.758820 214 214 214 0
6.623111 0.362910 23.719622 215 215 215 0
6.707574 0.362572 23.697488 215 215 215 0
6.801555 0.362750 23.709124 214 214 214 0
6.906210 0.363485 23.757173 214 214 214 0
6.986049 0.362912 23.719715 215 215 215 0
7.068308 0.362477 23.691330 214 214 214 0
7.141952 0.361618 23.635151 215 215 215 0
-10.713741 0.669609 35.012227 206 206 206 0
-6.399343 0.405022 21.177604 207 207 207 0
-6.347591 0.406897 21.275653 207 207 207 0
-6.205929 0.402982 21.070974 207 207 207 0
-6.129243 0.403240 21.084426 206 206 206 0
-6.074027 0.404935 21.173077 207 207 207 0
-6.018395 0.406648 21.262657 206 206 206 0
-6.003914 0.411227 21.502066 207 207 207 0
-5.972958 0.414789 21.688300 207 207 207 0
-5.885693 0.414485 21.672441 207 207 207 0
-5.812343 0.415167 21.708096 207 207 207 0
-5.747630 0.416495 21.777514 208 208 208 0
-5.671740 0.417040 21.805998 208 208 208 0
-5.624447 0.419735 21.946922 207 207 207 0
-5.576878 0.422491 22.091019 207 207 207 0
-5.503576 0.423352 22.136052 207 207 207 0
-5.411781 0.422795 22.106950 208 208 208 0
-5.337449 0.423607 22.149390 208 208 208 0
-5.297666 0.427231 22.338881 208 208 208 0
-5.265505 0.431599 22.567257 208 208 208 0
-5.169939 0.430828 22.526967 208 208 208 0
-5.046823 0.427697 22.363236 207 207 207 0
-4.926815 0.424725 22.207868 208 208 208 0
-4.862443 0.426530 22.302226 208 208 208 0
-4.835032 0.431699 22.572510 208 208 208 0
-4.760069 0.432734 22.626592 208 208 208 0
-4.659218 0.431409 22.557337 208 208 208 0
-4.542481 0.428536 22.407108 209 209 209 0
-4.441287 0.427047 22.329245 208 208 208 0
-4.373002 0.428726 22.417029 209 209 209 0
-4.337566 0.433757 22.680081 209 209 209 0
-4.260088 0.434703 22.729561 208 208 208 0
-4.147663 0.432048 22.590758 208 208 208 0
-4.051395 0.430999 22.535920 208 208 208 0
-3.969455 0.431462 22.560129 209 209 209 0
-3.911179 0.434575 22.722901 209 209 209 0
-3.836477 0.435963 22.795469 209 209 209 0
-3.757028 0.436864 22.842550 209 209 209 0
-3.661385 0.435879 22.791068 210 210 210 0
-3.579234 0.436492 22.823110 209 209 209 0
-3.500671 0.437584 22.880202 209 209 209 0
-3.438046 0.440775 23.047065 209 209 209 0
-3.353153 0.441204 23.069507 209 209 209 0
-3.256058 0.440008 23.006946 210 210 210 0
-3.154752 0.438160 22.910325 210 210 210 0
-3.066257 0.438037 22.903877 209 209 209 0
-2.992201 0.440030 23.008082 209 209 209 0
-2.915049 0.441674 23.094072 210 210 210 0
-2.820305 0.440673 23.041705 210 210 210 0
-2.723155 0.439218 22.965672 210 210 210 0
-2.629712 0.438285 22.916878 210 210 210 0
-2.546104 0.438983 22.953379 210 210 210 0
-2.463325 0.439879 23.000235 210 210 210 0
-2.380836 0.440896 23.053364 210 210 210 0
-2.292104 0.440789 23.047806 210 210 210 0
-2.203693 0.440739 23.045157 211 211 211 0
-2.117317 0.441108 23.064458 211 211 211 0
-2.035191 0.442433 23.133739 211 211 211 0
-1.948183 0.442769 23.151310 211 211 211 0
-1.856497 0.442023 23.112324 210 210 210 0
-1.771064 0.442766 23.151169 210 210 210 0
-1.686297 0.443762 23.203259 210 210 210 0
-1.602961 0.445267 23.281938 211 211 211 0
-1.513740 0.445218 23.279349 210 210 210 0
-1.425811 0.445566 23.297572 211 211 211 0
-1.340878 0.446959 23.370431 211 211 211 0
-1.251735 0.447048 23.375076 211 211 211 0
-1.160076 0.446183 23.329824 211 211 211 0
-1.067560 0.444816 23.258378 211 211 211 0
-0.980154 0.445524 23.295393 212 212 212 0
-0.895002 0.447501 23.398740 211 211 211 0
-0.804096 0.446720 23.357906 211 211 211 0
-0.713371 0.445857 23.312765 211 211 211 0
-0.622736 0.444812 23.258129 212 212 212 0
-0.533000 0.444167 23.224399 211 211 211 0
-0.445710 0.445710 23.305088 211 211 211 0
-0.357670 0.447087 23.377121 212 212 212 0
-0.267760 0.446267 23.334222 212 212 212 0
-0.178234 0.445584 23.298500 212 212 212 0
-0.088975 0.444876 23.261515 212 212 212 0
0.000000 0.445568 23.297656 212 212 212 0
0.089294 0.446469 23.344804 212 212 212 0
0.179154 0.447885 23.418828 212 212 212 0
0.268468 0.447447 23.395918 212 212 212 0
0.357499 0.446873 23.365920 212 212 212 0
0.446728 0.446728 23.358320 212 212 212 0
0.538259 0.448549 23.453557 212 212 212 0
0.630641 0.450458 23.553349 213 213 213 0
0.720175 0.450109 23.535120 213 213 213 0
0.807039 0.448355 23.443408 212 212 212 0
0.894426 0.447213 23.383673 212 212 212 0
0.986265 0.448302 23.440653 213 213 213 0
1.081455 0.450606 23.561116 212 212 212 0
1.169222 0.449701 23.513764 212 212 212 0
1.255848 0.448517 23.451885 212 212 212 0
1.341824 0.447275 23.386914 212 212 212 0
1.431631 0.447385 23.392664 212 212 212 0
1.529055 0.449722 23.514876 212 212 212 0
1.618745 0.449651 23.511183 213 213 213 0
1.704675 0.448599 23.456145 213 213 213 0
1.793367 0.448342 23.442700 213 213 213 0
1.883486 0.448449 23.448311 213 213 213 0
1.977270 0.449380 23.496968 213 213 213 0
2.068236 0.449617 23.509365 213 213 213 0
2.158274 0.449640 23.510606 213 213 213 0
2.247514 0.449503 23.503411 212 212 212 0
2.338931 0.449794 23.518666 213 213 213 0
2.431088 0.450202 23.539949 213 213 213 0
2.527908 0.451412 23.603245 213 213 213 0
2.621677 0.452013 23.634677 213 213 213 0
2.710430 0.451738 23.620306 213 213 213 0
2.799179 0.451480 23.606821 213 213 213 0
2.885606 0.450876 23.575209 213 213 213 0
2.979020 0.451367 23.600871 213 213 213 0
3.074836 0.452182 23.643491 213 213 213 0
3.157185 0.451026 23.583081 213 213 213 0
3.243742 0.450520 23.556586 214 214 214 0
3.331411 0.450191 23.539385 213 213 213 0
3.420604 0.450079 23.533566 213 213 213 0
3.516058 0.450777 23.570023 214 214 214 0
3.610384 0.451298 23.597283 214 214 214 0
3.697185 0.450876 23.575226 214 214 214 0
3.788709 0.451037 23.583623 214 214 214 0
3.879770 0.451136 23.588814 213 213 213 0
3.970788 0.451226 23.593509 214 214 214 0
4.061884 0.451320 23.598454 213 213 213 0
4.156089 0.451749 23.620852 214 214 214 0
4.246524 0.451758 23.621327 213 213 213 0
4.339495 0.452031 23.635591 214 214 214 0
4.436159 0.452669 23.668984 214 214 214 0
4.536923 0.453692 23.722473 214 214 214 0
4.630793 0.453999 23.738528 214 214 214 0
4.709343 0.452821 23.676937 214 214 214 0
4.792240 0.452098 23.639118 215 215 215 0
4.885336 0.452346 23.652073 214 214 214 0
4.988789 0.453526 23.713791 214 214 214 0
5.073751 0.453014 23.686982 214 214 214 0
5.156840 0.452354 23.652516 215 215 215 0
5.237845 0.451538 23.609850 214 214 214 0
5.325500 0.451314 23.598094 214 214 214 0
5.426707 0.452226 23.645782 214 214 214 0
5.524781 0.452851 23.678480 214 214 214 0
5.605898 0.452089 23.638616 215 215 215 0
5.691684 0.451721 23.619394 215 215 215 0
5.783683 0.451850 23.626158 215 215 215 0
5.881207 0.452401 23.654931 215 215 215 0
5.972553 0.452466 23.658361 215 215 215 0
6.066441 0.452719 23.671607 215 215 215 0
6.155909 0.452640 23.667471 215 215 215 0
6.253586 0.453158 23.694558 215 215 215 0
6.349952 0.453568 23.715974 215 215 215 0
6.452102 0.454373 23.758087 215 215 215 0
6.543288 0.454395 23.759217 215 215 215 0
6.622701 0.453610 23.718154 214 214 214 0
6.709607 0.453352 23.704670 214 214 214 0
6.805131 0.453675 23.721589 215 215 215 0
6.908490 0.454506 23.765017 215 215 215 0
6.982859 0.453432 23.708884 215 215 215 0
7.067199 0.453026 23.687612 214 214 214 0
7.143811 0.452140 23.641303 214 214 214 0
-10.713700 0.803527 35.012090 206 206 206 0
-6.393298 0.485567 21.157602 207 207 207 0
-6.352989 0.488691 21.293745 206 206 206 0
-6.190006 0.482338 21.016913 207 207 207 0
-6.137945 0.484575 21.114363 207 207 207 0
-6.071692 0.485735 21.164940 207 207 207 0
-6.027151 0.488688 21.293592 207 207 207 0
-6.006765 0.493707 21.512276 207 207 207 0
-5.960363 0.496697 21.642566 207 207 207 0
-5.877037 0.496651 21.640566 207 207 207 0
-5.814452 0.498382 21.715975 207 207 207 0
-5.749684 0.499973 21.785294 207 207 207 0
-5.675440 0.500774 21.820224 208 208 208 0
-5.621059 0.503378 21.933702 207 207 207 0
-5.583832 0.507621 22.118565 208 208 208 0
-5.502630 0.507935 22.132247 207 207 207 0
-5.412090 0.507383 22.108212 208 208 208 0
-5.337433 0.508327 22.149322 208 208 208 0
-5.292337 0.512162 22.316412 208 208 208 0
-5.258117 0.517192 22.535591 208 208 208 0
-5.170326 0.517033 22.528652 208 208 208 0
-5.047301 0.513285 22.365353 208 208 208 0
-4.928928 0.509889 22.217391 209 209 209 0
-4.862878 0.511882 22.304224 208 208 208 0
-4.838141 0.518372 22.587027 208 208 208 0
-4.756618 0.518904 22.610186 208 208 208 0
-4.663468 0.518163 22.577914 208 208 208 0
-4.542126 0.514203 22.405357 209 209 209 0
-4.441030 0.512426 22.327951 209 209 209 0
-4.376690 0.514905 22.435933 208 208 208 0
-4.338415 0.520610 22.684522 208 208 208 0
-4.260455 0.521688 22.731519 209 209 209 0
-4.151346 0.518918 22.610815 209 209 209 0
-4.047735 0.516732 22.515562 209 209 209 0
-3.970974 0.517953 22.568763 209 209 209 0
-3.908799 0.521173 22.709070 209 209 209 0
-3.834749 0.522920 22.785197 209 209 209 0
-3.756905 0.524219 22.841798 209 209 209 0
-3.661408 0.523058 22.791210 210 210 210 0
-3.579036 0.523761 22.821845 210 210 210 0
-3.502950 0.525443 22.895101 209 209 209 0
-3.440944 0.529376 23.066495 210 210 210 0
-3.354744 0.529696 23.080454 209 209 209 0
-3.255981 0.527997 23.006403 209 209 209 0
-3.155530 0.525922 22.915976 209 209 209 0
-3.064424 0.525330 22.890188 210 210 210 0
-2.994652 0.528468 23.026928 210 210 210 0
-2.916285 0.530234 23.103866 210 210 210 0
-2.820435 0.528832 23.042772 210 210 210 0
-2.722475 0.526931 22.959943 210 210 210 0
-2.629981 0.525996 22.919221 210 210 210 0
-2.545022 0.526556 22.943625 210 210 210 0
-2.463845 0.527967 23.005089 210 210 210 0
-2.379594 0.528799 23.041338 210 210 210 0
-2.291945 0.528910 23.046205 210 210 210 0
-2.199971 0.527993 23.006237 210 210 210 0
-2.117550 0.529387 23.066989 210 210 210 0
-2.034354 0.530701 23.124223 211 211 211 0
-1.949082 0.531568 23.161998 211 211 211 0
-1.858535 0.531010 23.137685 210 210 210 0
-1.771611 0.531483 23.158311 210 210 210 0
-1.686478 0.532572 23.205751 211 211 211 0
-1.603091 0.534364 23.283813 211 211 211 0
-1.512689 0.533890 23.263190 211 211 211 0
-1.426319 0.534870 23.305865 211 211 211 0
-1.340498 0.536199 23.363803 211 211 211 0
-1.251458 0.536339 23.369906 210 210 210 0
-1.160134 0.535446 23.330996 211 211 211 0
-1.066935 0.533467 23.244764 211 211 211 0
-0.979651 0.534355 23.283452 211 211 211 0
-0.894847 0.536908 23.394693 211 211 211 0
-0.804160 0.536107 23.359767 211 211 211 0
-0.713519 0.535139 23.317605 211 211 211 0
-0.622638 0.533690 23.254466 212 212 212 0
-0.532907 0.532907 23.220347 211 211 211 0
-0.445751 0.534901 23.307234 211 211 211 0
-0.357630 0.536444 23.374478 211 211 211 0
-0.267760 0.535520 23.334212 212 212 212 0
-0.178329 0.534986 23.310940 212 212 212 0
-0.088962 0.533772 23.258045 212 212 212 0
0.000000 0.534643 23.296010 211 211 211 0
0.089313 0.535881 23.349931 212 212 212 0
0.179047 0.537141 23.404827 211 211 211 0
0.268411 0.536822 23.390942 211 211 211 0
0.357471 0.536206 23.364104 212 212 212 0
0.446568 0.535882 23.349963 212 212 212 0
0.538617 0.538617 23.469137 212 212 212 0
0.630472 0.540405 23.547043 212 212 212 0
0.719824 0.539868 23.523655 212 212 212 0
0.806998 0.537999 23.442212 212 212 212 0
0.893899 0.536339 23.369901 212 212 212 0
0.986366 0.538018 23.443033 212 212 212 0
1.082369 0.541184 23.581023 212 212 212 0
1.169142 0.539604 23.512167 212 212 212 0
1.255695 0.538155 23.449029 212 212 212 0
1.341749 0.536700 23.385601 213 213 213 0
1.431555 0.536833 23.391428 213 213 213 0
1.528067 0.539318 23.499688 212 212 212 0
1.619280 0.539760 23.518957 213 213 213 0
1.704703 0.538327 23.456519 213 213 213 0
1.793347 0.538004 23.442439 213 213 213 0
1.883897 0.538256 23.453431 212 212 212 0
1.977688 0.539370 23.501940 213 213 213 0
2.069130 0.539773 23.519527 214 214 214 0
2.158247 0.539562 23.510313 213 213 213 0
2.247213 0.539331 23.500270 213 213 213 0
2.339061 0.539783 23.519969 213 213 213 0
2.429865 0.539970 23.528107 213 213 213 0
2.527545 0.541617 23.599864 213 213 213 0
2.620382 0.542148 23.623009 213 213 213 0
2.710149 0.542030 23.617855 214 214 214 0
2.798672 0.541678 23.602547 213 213 213 0
2.884466 0.540837 23.565895 214 214 214 0
2.979374 0.541704 23.603672 213 213 213 0
3.074571 0.542571 23.641453 214 214 214 0
3.158127 0.541393 23.590117 213 213 213 0
3.243176 0.540529 23.552480 213 213 213 0
3.331638 0.540266 23.540983 213 213 213 0
3.420738 0.540117 23.534491 214 214 214 0
3.517651 0.541177 23.580701 214 214 214 0
3.611271 0.541691 23.603080 213 213 213 0
3.698059 0.541179 23.580802 214 214 214 0
3.789579 0.541368 23.589037 214 214 214 0
3.879776 0.541364 23.588850 213 213 213 0
3.972139 0.541655 23.601538 213 213 213 0
4.066013 0.542135 23.622442 214 214 214 0
4.157450 0.542276 23.628590 214 214 214 0
4.247991 0.542297 23.629488 214 214 214 0
4.341659 0.542707 23.647380 214 214 214 0
4.435460 0.543118 23.665253 214 214 214 0
4.536406 0.544369 23.719772 213 213 213 0
4.629676 0.544668 23.732800 214 214 214 0
4.708276 0.543263 23.671572 214 214 214 0
4.792686 0.542568 23.641319 214 214 214 0
4.883964 0.542663 23.645433 214 214 214 0
4.986964 0.544032 23.705115 214 214 214 0
5.071672 0.543393 23.677274 214 214 214 0
5.156540 0.542794 23.651141 214 214 214 0
5.237465 0.541807 23.608136 214 214 214 0
5.324929 0.541518 23.595564 214 214 214 0
5.426723 0.542672 23.645852 214 214 214 0
5.522176 0.543165 23.667314 215 215 215 0
5.607386 0.542650 23.644890 215 215 215 0
5.691118 0.542011 23.617048 215 215 215 0
5.782280 0.542089 23.620426 214 214 214 0
5.879105 0.542687 23.646475 214 214 214 0
5.970836 0.542803 23.651559 214 214 214 0
6.066657 0.543283 23.672448 214 214 214 0
6.155628 0.543144 23.666391 214 214 214 0
6.251993 0.543652 23.688522 214 214 214 0
6.351901 0.544449 23.723252 215 215 215 0
6.451488 0.545196 23.755823 215 215 215 0
6.542859 0.545238 23.757659 214 214 214 0
6.623208 0.544373 23.719967 215 215 215 0
6.706222 0.543748 23.692712 215 215 215 0
6.806996 0.544560 23.728090 215 215 215 0
6.908751 0.545428 23.765912 215 215 215 0
6.987475 0.544479 23.724557 214 214 214 0
7.069954 0.543843 23.696847 214 214 214 0
7.144624 0.542630 23.643993 215 215 215 0
-10.713718 0.937450 35.012149 207 207 207 0
-6.402554 0.567315 21.188232 206 206 206 0
-6.341000 0.569064 21.253560 207 207 207 0
-6.211663 0.564697 21.090445 207 207 207 0
-6.139730 0.565501 21.120503 207 207 207 0
-6.076630 0.567152 21.182151 206 206 206 0
-6.031323 0.570531 21.308331 206 206 206 0
-6.001141 0.575452 21.492135 208 208 208 0
-5.951867 0.578654 21.611717 207 207 207 0
-5.885351 0.580246 21.671181 207 207 207 0
-5.802525 0.580252 21.671428 208 208 208 0
-5.747180 0.583047 21.775809 207 207 207 0
-5.668698 0.583542 21.794302 207 207 207 0
-5.617508 0.586904 21.919844 208 208 208 0
-5.575183 0.591307 22.084308 207 207 207 0
-5.493071 0.591562 22.093801 207 207 207 0
-5.416602 0.592441 22.126641 208 208 208 0
-5.343637 0.593737 22.175070 208 208 208 0
-5.296275 0.597967 22.333019 208 208 208 0
-5.256814 0.603241 22.530006 208 208 208 0
-5.168887 0.603037 22.522383 207 207 207 0
-5.045335 0.598599 22.356643 208 208 208 0
-4.928817 0.594857 22.216888 208 208 208 0
-4.861974 0.597085 22.300077 208 208 208 0
-4.835815 0.604477 22.576168 208 208 208 0
-4.761968 0.606069 22.635615 208 208 208 0
-4.659224 0.603974 22.557368 209 209 209 0
-4.540688 0.599713 22.398262 208 208 208 0
-4.440826 0.597803 22.326928 208 208 208 0
-4.375301 0.600532 22.428815 208 208 208 0
-4.343635 0.608109 22.711816 208 208 208 0
-4.259698 0.608528 22.727482 208 208 208 0
-4.147232 0.604805 22.588409 209 209 209 0
-4.048867 0.603023 22.521857 209 209 209 0
-3.969636 0.604075 22.561161 210 210 210 0
-3.910135 0.608243 22.716832 209 209 209 0
-3.837715 0.610546 22.802820 209 209 209 0
-3.756976 0.611601 22.842229 210 210 210 0
-3.664274 0.610712 22.809051 210 210 210 0
-3.575172 0.610395 22.797206 209 209 209 0
-3.501642 0.612787 22.886549 209 209 209 0
-3.438999 0.617256 23.053457 210 210 210 0
-3.351195 0.617325 23.056038 209 209 209 0
-3.256127 0.616024 23.007431 209 209 209 0
-3.154627 0.613400 22.909418 210 210 210 0
-3.066456 0.613291 22.905368 209 209 209 0
-2.994759 0.616568 23.027753 209 209 209 0
-2.917620 0.618889 23.114439 210 210 210 0
-2.819936 0.616861 23.038694 210 210 210 0
-2.721225 0.614470 22.949396 210 210 210 0
-2.629727 0.613603 22.917012 210 210 210 0
-2.544849 0.614274 22.942067 210 210 210 0
-2.461135 0.615284 22.979784 209 209 209 0
-2.379142 0.616815 23.036962 211 211 211 0
-2.292917 0.617324 23.055978 210 210 210 0
-2.200984 0.616275 23.016822 210 210 210 0
-2.117696 0.617661 23.068587 210 210 210 0
-2.035956 0.619639 23.142434 210 210 210 0
-1.949483 0.620290 23.166761 210 210 210 0
-1.858477 0.619492 23.136970 211 211 211 0
-1.772661 0.620431 23.172033 211 211 211 0
-1.685806 0.621087 23.196510 210 210 210 0
-1.603337 0.623520 23.287392 211 211 211 0
-1.513114 0.623047 23.269726 211 211 211 0
-1.426772 0.624213 23.313271 211 211 211 0
-1.340694 0.625657 23.367210 211 211 211 0
-1.251921 0.625960 23.378540 211 211 211 0
-1.159983 0.624606 23.327960 212 212 212 0
-1.067727 0.622841 23.262020 211 211 211 0
-0.979370 0.623235 23.276764 211 211 211 0
-0.894870 0.626409 23.395302 211 211 211 0
-0.804185 0.625477 23.360503 211 211 211 0
-0.713324 0.624158 23.311240 211 211 211 0
-0.622641 0.622641 23.254579 211 211 211 0
-0.533143 0.622000 23.230636 211 211 211 0
-0.445656 0.623918 23.302275 212 212 212 0
-0.357264 0.625213 23.350617 212 212 212 0
-0.267998 0.625328 23.354930 212 212 212 0
-0.178305 0.624067 23.307825 211 211 211 0
-0.089032 0.623226 23.276427 212 212 212 0
0.000000 0.623784 23.297256 212 212 212 0
0.089351 0.625456 23.359692 211 211 211 0
0.179200 0.627201 23.424867 212 212 212 0
0.268494 0.626485 23.398128 211 211 211 0
0.357558 0.625727 23.369836 212 212 212 0
0.446545 0.625163 23.348765 212 212 212 0
