ply
    format ascii 1.0
    element vertex 25599
    property float x
    property float y
    property float z
    property uchar red
    property uchar green
    property uchar blue
    property uchar alpha
    end_header
5.756960 6.199803 23.155194 214 214 214 0
5.847323 6.201706 23.162302 214 214 214 0
5.938331 6.204227 23.171715 214 214 214 0
6.030082 6.207437 23.183706 214 214 214 0
6.121789 6.210511 23.195185 214 214 214 0
6.209480 6.209480 23.191334 214 214 214 0
6.296442 6.207760 23.184911 214 214 214 0
6.386388 6.208988 23.189500 214 214 214 0
6.497018 6.230018 23.268040 214 214 214 0
6.591040 6.234767 23.285778 214 214 214 0
6.677526 6.232357 23.276778 214 214 214 0
6.761500 6.227698 23.259375 214 214 214 0
6.850842 6.228039 23.260648 215 215 215 0
6.288191 5.643248 21.076556 214 214 214 0
6.995891 6.198891 23.151786 215 215 215 0
-10.713608 9.508327 35.011791 206 206 206 0
-6.314659 5.675200 20.897358 206 206 206 0
-6.216003 5.658157 20.834602 206 206 206 0
-6.084041 5.609960 20.657130 206 206 206 0
-6.024327 5.627989 20.723518 206 206 206 0
-5.969889 5.651495 20.810069 206 206 206 0
-5.889269 5.650514 20.806460 206 206 206 0
-5.879121 5.718049 21.055137 207 207 207 0
-5.845597 5.764408 21.225841 206 206 206 0
-5.773089 5.773089 21.257808 207 207 207 0
-5.711311 5.792901 21.330758 207 207 207 0
-5.631327 5.794554 21.336845 207 207 207 0
-5.565933 5.811489 21.399205 207 207 207 0
-5.496705 5.824866 21.448463 207 207 207 0
-5.470681 5.885126 21.670353 207 207 207 0
-5.409482 5.908819 21.757597 207 207 207 0
-5.312654 5.893725 21.702017 207 207 207 0
-5.219740 5.882564 21.660919 207 207 207 0
-5.166815 5.916836 21.787116 208 208 208 0
-5.135395 5.977263 22.009622 207 207 207 0
-5.086061 6.018506 22.161488 207 207 207 0
-4.986336 6.000506 22.095208 208 208 208 0
-4.866313 5.957038 21.935150 208 208 208 0
-4.760674 5.929963 21.835452 208 208 208 0
-4.697775 5.956107 21.931722 208 208 208 0
-4.674970 6.034961 22.222079 208 208 208 0
-4.576328 6.017024 22.156030 208 208 208 0
-4.469401 5.987311 22.046621 208 208 208 0
-4.361190 5.954701 21.926545 207 207 207 0
-4.268512 5.942439 21.881391 208 208 208 0
-4.204315 5.970127 21.983344 208 208 208 0
-4.165151 6.035219 22.223028 209 209 209 0
-4.085637 6.043337 22.252922 208 208 208 0
-3.977450 6.008488 22.124600 208 208 208 0
-3.885975 5.997918 22.085678 208 208 208 0
-3.811006 6.012921 22.140922 209 209 209 0
-3.758935 6.065555 22.334731 209 209 209 0
-3.679599 6.075618 22.371785 208 208 208 0
-3.595837 6.078677 22.383051 209 209 209 0
-3.499439 6.060005 22.314295 209 209 209 0
-3.424049 6.077687 22.379404 209 209 209 0
-3.356022 6.109681 22.497216 209 209 209 0
-3.286611 6.140773 22.611701 209 209 209 0
-3.201301 6.143038 22.620041 209 209 209 0
-3.108404 6.130463 22.573740 210 210 210 0
-3.006343 6.098582 22.456345 209 209 209 0
-2.917003 6.091388 22.429857 209 209 209 0
-2.851400 6.134829 22.589816 209 209 209 0
-2.779425 6.166849 22.707719 209 209 209 0
-2.682498 6.143786 22.622797 209 209 209 0
-2.585384 6.118743 22.530583 210 210 210 0
-2.494525 6.107286 22.488394 210 210 210 0
-2.409681 6.110262 22.499354 209 209 209 0
-2.327051 6.119282 22.532566 210 210 210 0
-2.248872 6.141149 22.613088 209 209 209 0
-2.161847 6.139645 22.607547 210 210 210 0
-2.071573 6.128403 22.566152 209 209 209 0
-1.989383 6.141140 22.613053 210 210 210 0
-1.907045 6.154556 22.662453 210 210 210 0
-1.821803 6.159429 22.680396 210 210 210 0
-1.733217 6.152921 22.656435 210 210 210 0
-1.650254 6.166739 22.707315 210 210 210 0
-1.566324 6.178279 22.749809 210 210 210 0
-1.482194 6.190341 22.794222 210 210 210 0
-1.393500 6.183658 22.769615 211 211 211 0
-1.308582 6.193953 22.807521 210 210 210 0
-1.225439 6.214727 22.884016 210 210 210 0
-1.138556 6.218269 22.897061 211 211 211 0
-1.048472 6.203457 22.842518 211 211 211 0
-0.958843 6.188894 22.788894 211 211 211 0
-0.871653 6.188739 22.788325 211 211 211 0
-0.787132 6.209597 22.865127 210 210 210 0
-0.699798 6.210705 22.869208 211 211 211 0
-0.611545 6.202817 22.840162 210 210 210 0
-0.523011 6.188964 22.789151 211 211 211 0
-0.435156 6.179215 22.753255 211 211 211 0
-0.347759 6.172726 22.729359 211 211 211 0
-0.262097 6.202970 22.840724 211 211 211 0
-0.175219 6.220259 22.904387 211 211 211 0
-0.087430 6.207547 22.857578 211 211 211 0
0.000000 6.201710 22.836086 211 211 211 0
0.087387 6.204454 22.846190 212 212 212 0
0.175279 6.222418 22.912339 212 212 212 0
0.263238 6.229978 22.940174 211 211 211 0
0.351079 6.231656 22.946353 211 211 211 0
0.438609 6.228249 22.933807 211 211 211 0
0.525989 6.224202 22.918905 212 212 212 0
0.616212 6.250154 23.014466 212 212 212 0
0.706957 6.274243 23.103169 211 211 211 0
0.795346 6.274397 23.103734 211 211 211 0
0.879582 6.245033 22.995611 212 212 212 0
0.966507 6.238362 22.971047 211 211 211 0
1.053475 6.233060 22.951522 213 213 213 0
1.144994 6.253431 23.026536 211 211 211 0
1.237602 6.276410 23.111147 212 212 212 0
1.321037 6.252906 23.024602 213 213 213 0
1.403440 6.227766 22.932031 212 212 212 0
1.490232 6.223910 22.917832 212 212 212 0
1.579932 6.231952 22.947444 212 212 212 0
1.674769 6.258347 23.044634 212 212 212 0
1.762553 6.257064 23.039913 212 212 212 0
1.845859 6.240762 22.979885 212 212 212 0
1.934039 6.241671 22.983230 212 212 212 0
2.025622 6.253007 23.024972 213 213 213 0
2.117201 6.263385 23.063187 213 213 213 0
2.205284 6.263007 23.061795 213 213 213 0
2.292616 6.260606 23.052956 212 212 212 0
2.379420 6.256995 23.039656 213 213 213 0
2.473682 6.272551 23.096937 213 213 213 0
2.566070 6.282446 23.133375 212 212 212 0
2.659265 6.293594 23.174424 213 213 213 0
2.746950 6.291401 23.166349 213 213 213 0
2.832766 6.285199 23.143512 213 213 213 0
2.920647 6.283817 23.138423 212 212 212 0
3.006910 6.279136 23.121186 213 213 213 0
3.097209 6.282910 23.135083 213 213 213 0
3.192947 6.297201 23.187707 213 213 213 0
3.271063 6.276904 23.112967 213 213 213 0
3.353566 6.265873 23.072350 213 213 213 0
3.442005 6.266214 23.073604 213 213 213 0
3.527837 6.261910 23.057755 212 212 212 0
3.623203 6.274328 23.103481 213 213 213 0
3.714601 6.279444 23.122321 213 213 213 0
3.802010 6.277737 23.116034 214 214 214 0
3.889824 6.276761 23.112440 213 213 213 0
3.979691 6.279068 23.120933 213 213 213 0
4.068980 6.280382 23.125773 214 214 214 0
4.158390 6.281823 23.131081 213 213 213 0
4.249731 6.286060 23.146682 214 214 214 0
4.340500 6.289296 23.158598 213 213 213 0
4.431346 6.292512 23.170438 213 213 213 0
4.525408 6.300078 23.198299 214 214 214 0
4.622205 6.311088 23.238840 214 214 214 0
4.714595 6.315779 23.256113 214 214 214 0
4.792002 6.300596 23.200205 214 214 214 0
4.873264 6.290941 23.164655 213 213 213 0
4.966821 6.297219 23.187773 214 214 214 0
5.070651 6.316074 23.257198 213 213 213 0
5.152276 6.307097 23.224144 214 214 214 0
5.230704 6.294576 23.178040 214 214 214 0
5.312871 6.286897 23.149765 214 214 214 0
5.397874 6.282772 23.134573 214 214 214 0
5.495826 6.293607 23.174472 213 213 213 0
5.590002 6.299843 23.197434 214 214 214 0
5.673810 6.294383 23.177330 214 214 214 0
5.757816 6.289306 23.158635 214 214 214 0
5.844191 6.286932 23.149894 214 214 214 0
5.938710 6.293260 23.173192 214 214 214 0
6.029063 6.295051 23.179790 214 214 214 0
6.122278 6.299735 23.197035 214 214 214 0
6.208837 6.297535 23.188934 214 214 214 0
6.297143 6.297143 23.187490 214 214 214 0
6.387529 6.298813 23.193642 214 214 214 0
6.493883 6.315968 23.256810 213 213 213 0
6.589056 6.321932 23.278770 214 214 214 0
6.675927 6.319878 23.271206 214 214 214 0
6.760496 6.315727 23.255921 215 215 215 0
6.838768 6.305877 23.219650 214 214 214 0
6.442514 5.864340 21.593814 215 215 215 0
10.556482 9.487471 34.934995 215 215 215 0
-10.713613 9.642252 35.011808 206 206 206 0
-6.312999 5.753619 20.891864 206 206 206 0
-6.223109 5.744409 20.858419 206 206 206 0
-6.092576 5.696954 20.686109 207 207 207 0
-6.022921 5.705925 20.718682 206 206 206 0
-5.963299 5.724767 20.787100 207 207 207 0
-5.887740 5.728612 20.801059 206 206 206 0
-5.875176 5.794694 21.041011 207 207 207 0
-5.856740 5.856740 21.266302 207 207 207 0
-5.768963 5.850216 21.242613 206 206 206 0
-5.719087 5.882490 21.359802 206 206 206 0
-5.634130 5.879092 21.347464 207 207 207 0
-5.553130 5.879784 21.349980 207 207 207 0
-5.488342 5.897919 21.415829 206 206 206 0
-5.477709 5.975683 21.698195 207 207 207 0
-5.395033 5.976036 21.699479 208 208 208 0
-5.316144 5.980662 21.716275 207 207 207 0
-5.214615 5.959560 21.639652 208 208 208 0
-5.166285 5.999556 21.784882 207 207 207 0
-5.132501 6.058034 21.997217 208 208 208 0
-5.087107 6.104528 22.166042 207 207 207 0
-4.977789 6.074590 22.057336 208 208 208 0
-4.863085 6.036934 21.920601 208 208 208 0
-4.765229 6.019237 21.856342 208 208 208 0
-4.694869 6.036261 21.918158 208 208 208 0
-4.673200 6.117643 22.213664 208 208 208 0
-4.577592 6.103456 22.162151 208 208 208 0
-4.473661 6.077427 22.067635 208 208 208 0
-4.357698 6.033735 21.908988 208 208 208 0
-4.263988 6.019747 21.858196 208 208 208 0
-4.203298 6.052749 21.978029 208 208 208 0
-4.165651 6.120956 22.225695 209 209 209 0
-4.087983 6.131974 22.265701 208 208 208 0
-3.977635 6.093398 22.125628 208 208 208 0
-3.887422 6.084660 22.093901 208 208 208 0
-3.812357 6.099770 22.148767 209 209 209 0
-3.758114 6.149640 22.329849 209 209 209 0
-3.679584 6.161164 22.371691 209 209 209 0
-3.593956 6.161068 22.371344 209 209 209 0
-3.495210 6.137930 22.287328 209 209 209 0
-3.422309 6.160157 22.368034 209 209 209 0
-3.358354 6.200037 22.512844 209 209 209 0
-3.286127 6.226346 22.608375 209 209 209 0
-3.203348 6.233541 22.634500 209 209 209 0
-3.107051 6.214102 22.563916 209 209 209 0
-3.007789 6.187451 22.467142 209 209 209 0
-2.918840 6.181072 22.443981 209 209 209 0
-2.851252 6.220913 22.588647 209 209 209 0
-2.778199 6.250947 22.697702 209 209 209 0
-2.682791 6.230998 22.625264 210 210 210 0
-2.587035 6.208883 22.544964 210 210 210 0
-2.493455 6.190647 22.478748 209 209 209 0
-2.408186 6.192477 22.485392 210 210 210 0
-2.330142 6.213711 22.562496 209 209 209 0
-2.247819 6.224730 22.602504 209 209 209 0
-2.162330 6.227510 22.612601 210 210 210 0
-2.072564 6.217692 22.576950 210 210 210 0
-1.987848 6.222829 22.595601 210 210 210 0
-1.907684 6.243330 22.670043 209 209 209 0
-1.820327 6.241121 22.662023 209 209 209 0
-1.733348 6.240052 22.658141 210 210 210 0
-1.651037 6.256560 22.718084 210 210 210 0
-1.566829 6.267317 22.757144 211 211 211 0
-1.481783 6.275786 22.787893 211 211 211 0
-1.393046 6.268707 22.762190 210 210 210 0
-1.309401 6.285123 22.821796 210 210 210 0
-1.224772 6.298829 22.871567 210 210 210 0
-1.138405 6.305013 22.894019 211 211 211 0
-1.048630 6.291781 22.845974 211 211 211 0
-0.958329 6.272696 22.776674 211 211 211 0
-0.871883 6.277559 22.794330 210 210 210 0
-0.787000 6.296000 22.861294 211 211 211 0
-0.699446 6.295017 22.857725 211 211 211 0
-0.611203 6.286662 22.827387 211 211 211 0
-0.523289 6.279471 22.801275 211 211 211 0
-0.435228 6.267283 22.757018 211 211 211 0
-0.348095 6.265710 22.751309 211 211 211 0
-0.262039 6.288933 22.835632 211 211 211 0
-0.175261 6.309413 22.909998 211 211 211 0
-0.087448 6.296272 22.862280 212 212 212 0
0.000000 6.287571 22.830687 211 211 211 0
0.087377 6.291138 22.843639 212 212 212 0
0.175062 6.302239 22.883947 212 212 212 0
0.263342 6.320208 22.949195 212 212 212 0
0.351361 6.324498 22.964770 211 211 211 0
0.438576 6.315492 22.932071 211 211 211 0
0.526100 6.313201 22.923751 211 211 211 0
0.616441 6.340533 23.022996 212 212 212 0
0.706845 6.361605 23.099510 211 211 211 0
0.795399 6.363192 23.105272 212 212 212 0
0.880753 6.341425 23.026233 212 212 212 0
0.967287 6.331330 22.989579 212 212 212 0
1.054141 6.324846 22.966035 212 212 212 0
1.145349 6.343471 23.033664 212 212 212 0
1.237334 6.363431 23.106140 212 212 212 0
1.321109 6.341322 23.025859 212 212 212 0
1.403242 6.314588 22.928787 212 212 212 0
1.489857 6.309984 22.912071 212 212 212 0
1.579033 6.316131 22.934391 212 212 212 0
1.673904 6.343216 23.032737 212 212 212 0
1.762428 6.344742 23.038278 212 212 212 0
1.845000 6.325714 22.969188 212 212 212 0
1.934125 6.329862 22.984250 212 212 212 0
2.026668 6.344351 23.036859 213 213 213 0
2.119154 6.357462 23.084465 212 212 212 0
2.205101 6.350691 23.059881 212 212 212 0
2.292033 6.347167 23.047084 212 212 212 0
2.379137 6.344366 23.036914 213 213 213 0
2.474648 6.363382 23.105961 212 212 212 0
2.565413 6.369302 23.127459 212 212 212 0
2.659227 6.382145 23.174091 212 212 212 0
2.747458 6.381194 23.170639 213 213 213 0
2.831639 6.371188 23.134306 213 213 213 0
2.921860 6.374967 23.148028 213 213 213 0
3.007389 6.368589 23.124870 213 213 213 0
3.096974 6.370918 23.133326 212 212 212 0
3.191754 6.383508 23.179041 213 213 213 0
3.272961 6.369006 23.126383 212 212 212 0
3.353235 6.353497 23.070070 213 213 213 0
3.441074 6.352751 23.067361 213 213 213 0
3.529018 6.352232 23.065477 213 213 213 0
3.621817 6.360263 23.094639 213 213 213 0
3.715458 6.369357 23.127657 213 213 213 0
3.800481 6.363597 23.106742 213 213 213 0
3.889717 6.364991 23.111805 213 213 213 0
3.979933 6.367893 23.122343 213 213 213 0
4.068810 6.368572 23.124806 214 214 214 0
4.159046 6.371305 23.134731 214 214 214 0
4.249112 6.373667 23.143309 213 213 213 0
4.339761 6.376792 23.154654 213 213 213 0
4.431469 6.381315 23.171080 213 213 213 0
4.524940 6.388151 23.195901 214 214 214 0
4.622192 6.399958 23.238774 213 213 213 0
4.714593 6.404730 23.256102 214 214 214 0
4.792190 6.389587 23.201115 213 213 213 0
4.875444 6.382399 23.175014 214 214 214 0
4.966724 6.385788 23.187320 214 214 214 0
5.068884 6.402801 23.249096 213 213 213 0
5.150203 6.393356 23.214799 214 214 214 0
5.230593 6.383097 23.177548 214 214 214 0
5.313448 6.376138 23.152280 214 214 214 0
5.397855 6.371239 23.134491 214 214 214 0
5.496657 6.383215 23.177977 214 214 214 0
5.590191 6.388789 23.198218 214 214 214 0
5.669870 6.378603 23.161233 214 214 214 0
5.756573 6.376512 23.153637 214 214 214 0
5.843254 6.374459 23.146183 214 214 214 0
5.938407 6.381572 23.172012 214 214 214 0
6.028527 6.383146 23.177728 214 214 214 0
6.124060 6.390324 23.203791 214 214 214 0
6.208594 6.385983 23.188027 214 214 214 0
6.300838 6.389583 23.201099 214 214 214 0
6.388041 6.388041 23.195500 214 214 214 0
6.497818 6.408807 23.270902 214 214 214 0
6.592245 6.414076 23.290038 214 214 214 0
6.677054 6.409972 23.275134 214 214 214 0
6.759412 6.403653 23.252190 215 215 215 0
6.834729 6.390915 23.205938 214 214 214 0
6.530936 6.028556 21.890182 215 215 215 0
6.973754 6.355827 23.078529 215 215 215 0
-10.713588 9.776149 35.011725 206 206 206 0
-6.317074 5.837296 20.905348 206 206 206 0
-6.229327 5.830011 20.879259 207 207 207 0
-6.090727 5.774326 20.679831 207 207 207 0
-6.026094 5.788222 20.729598 206 206 206 0
-5.961018 5.802058 20.779149 207 207 207 0
-5.890858 5.811252 20.812075 207 207 207 0
-5.881125 5.881125 21.062316 206 206 206 0
-5.850216 5.931469 21.242614 207 207 207 0
-5.771995 5.934587 21.253780 207 207 207 0
-5.722793 5.968055 21.373642 207 207 207 0
-5.630615 5.957027 21.334147 206 206 206 0
-5.547215 5.955099 21.327241 207 207 207 0
-5.488664 5.980186 21.417088 207 207 207 0
-5.471741 6.052077 21.674553 207 207 207 0
-5.407516 6.073056 21.749686 207 207 207 0
-5.315477 6.062966 21.713550 208 208 208 0
-5.212501 6.039882 21.630879 207 207 207 0
-5.164624 6.080929 21.777880 207 207 207 0
-5.131292 6.140726 21.992036 207 207 207 0
-5.090072 6.192921 22.178964 207 207 207 0
-4.975621 6.156277 22.047729 208 208 208 0
-4.863908 6.121816 21.924310 208 208 208 0
-4.765569 6.103273 21.857901 208 208 208 0
-4.696243 6.121888 21.924570 208 208 208 0
-4.676831 6.207430 22.230925 208 208 208 0
-4.571399 6.179855 22.132168 209 209 209 0
-4.467773 6.153725 22.038590 208 208 208 0
-4.360378 6.121300 21.922463 208 208 208 0
-4.264720 6.104402 21.861948 208 208 208 0
-4.201245 6.133818 21.967295 208 208 208 0
-4.164872 6.204809 22.221539 208 208 208 0
-4.081859 6.207828 22.232349 208 208 208 0
-3.979584 6.181056 22.136471 208 208 208 0
-3.886097 6.167067 22.086372 208 208 208 0
-3.812528 6.184768 22.149765 209 209 209 0
-3.755453 6.230639 22.314043 208 208 208 0
-3.683012 6.252556 22.392535 209 209 209 0
-3.594663 6.247866 22.375740 209 209 209 0
-3.497504 6.227264 22.301957 209 209 209 0
-3.422795 6.246601 22.371209 208 208 208 0
-3.355200 6.280246 22.491704 209 209 209 0
-3.284276 6.309266 22.595635 209 209 209 0
-3.200554 6.314607 22.614761 209 209 209 0
-3.104479 6.295194 22.545239 209 209 209 0
-3.008207 6.274261 22.470270 210 210 210 0
-2.918107 6.265347 22.438344 210 210 210 0
-2.850719 6.306137 22.584427 209 209 209 0
-2.778570 6.338613 22.700736 209 209 209 0
-2.683346 6.318846 22.629945 209 209 209 0
-2.585357 6.291035 22.530345 209 209 209 0
-2.492565 6.274387 22.470721 210 210 210 0
-2.409218 6.281175 22.495031 210 210 210 0
-2.328386 6.295267 22.545497 210 210 210 0
-2.247611 6.310600 22.600412 209 209 209 0
-2.161395 6.311273 22.602821 209 209 209 0
-2.072733 6.304562 22.578789 210 210 210 0
-1.988480 6.311263 22.602788 210 210 210 0
-1.906121 6.324857 22.651470 210 210 210 0
-1.821511 6.331919 22.676764 210 210 210 0
-1.732523 6.323708 22.647357 211 211 211 0
-1.650574 6.341679 22.711715 210 210 210 0
-1.566626 6.353537 22.754185 210 210 210 0
-1.480997 6.359576 22.775813 210 210 210 0
-1.393488 6.357788 22.769408 210 210 210 0
-1.309713 6.373938 22.827245 211 211 211 0
-1.224251 6.383596 22.861834 210 210 210 0
-1.139130 6.396650 22.908588 210 210 210 0
-1.047748 6.373798 22.826746 211 211 211 0
-0.958764 6.362708 22.787028 210 210 210 0
-0.871622 6.362838 22.787495 210 210 210 0
-0.787126 6.384467 22.864955 211 211 211 0
-0.699469 6.382655 22.858466 210 210 210 0
-0.611570 6.377804 22.841093 211 211 211 0
-0.523463 6.368803 22.808856 210 210 210 0
-0.435187 6.353735 22.754893 211 211 211 0
-0.348080 6.352464 22.750340 211 211 211 0
-0.261934 6.373738 22.826532 211 211 211 0
-0.175205 6.394982 22.902613 211 211 211 0
-0.087451 6.383925 22.863014 211 211 211 0
0.000000 6.375370 22.832376 211 211 211 0
0.087428 6.382280 22.857121 212 212 212 0
0.175186 6.394276 22.900083 212 212 212 0
0.263445 6.410483 22.958128 211 211 211 0
0.351086 6.407324 22.946815 211 211 211 0
0.438613 6.403749 22.934010 212 212 212 0
0.525785 6.397050 22.910018 211 211 211 0
0.616502 6.429238 23.025295 212 212 212 0
0.707205 6.453249 23.111286 212 212 212 0
0.795358 6.451235 23.104074 212 212 212 0
0.880883 6.430446 23.029622 212 212 212 0
0.966351 6.413057 22.967344 212 212 212 0
1.053738 6.410238 22.957251 212 212 212 0
1.145205 6.430765 23.030763 212 212 212 0
1.237382 6.452065 23.107046 212 212 212 0
1.321187 6.429775 23.027220 212 212 212 0
1.403602 6.403932 22.934666 212 212 212 0
1.490096 6.398646 22.915735 212 212 212 0
1.579979 6.407693 22.948136 212 212 212 0
1.673767 6.430788 23.030846 212 212 212 0
1.761689 6.430164 23.028612 212 212 212 0
1.845620 6.415726 22.976904 213 213 213 0
1.933733 6.416478 22.979598 212 212 212 0
2.026662 6.432448 23.036791 213 213 213 0
2.118266 6.443059 23.074794 212 212 212 0
2.204624 6.437501 23.054887 213 213 213 0
2.292564 6.436815 23.052429 213 213 213 0
2.378182 6.429899 23.027662 213 213 213 0
2.473388 6.448476 23.094192 213 213 213 0
2.565900 6.458990 23.131846 213 213 213 0
2.658254 6.468418 23.165613 213 213 213 0
2.749089 6.473660 23.184387 213 213 213 0
2.833078 6.462960 23.146064 213 213 213 0
2.921392 6.462473 23.144321 213 213 213 0
3.007055 6.456325 23.122303 212 212 212 0
3.097416 6.460324 23.136625 213 213 213 0
3.191923 6.472511 23.180271 213 213 213 0
3.271374 6.454332 23.115164 213 213 213 0
3.355792 6.446654 23.087667 212 212 212 0
3.440941 6.440735 23.066470 212 212 212 0
3.528206 6.438976 23.060172 213 213 213 0
3.620735 6.446674 23.087740 213 213 213 0
3.714423 6.456022 23.121216 213 213 213 0
3.801407 6.453551 23.112368 213 213 213 0
3.890904 6.455363 23.118859 214 214 214 0
3.980726 6.457622 23.126948 213 213 213 0
4.069549 6.458197 23.129006 213 213 213 0
4.159083 6.459852 23.134935 213 213 213 0
4.249164 6.462270 23.143594 213 213 213 0
4.340837 6.466962 23.160397 214 214 214 0
4.430001 6.467802 23.163406 213 213 213 0
4.525196 6.477241 23.197210 213 213 213 0
4.623313 6.490421 23.244411 214 214 214 0
4.714272 6.493243 23.254518 213 213 213 0
4.792483 6.478727 23.202533 213 213 213 0
4.876225 6.472080 23.178727 214 214 214 0
4.965794 6.473267 23.182976 213 213 213 0
5.070384 6.493649 23.255973 214 214 214 0
5.151120 6.483306 23.218931 213 213 213 0
5.232899 6.474603 23.187764 214 214 214 0
5.314354 6.465797 23.156226 214 214 214 0
5.399074 6.461187 23.139715 214 214 214 0
5.494682 6.469545 23.169648 214 214 214 0
5.589572 6.476806 23.195653 214 214 214 0
5.672247 6.469906 23.170942 214 214 214 0
5.757718 6.466360 23.158242 214 214 214 0
5.843473 6.463235 23.147051 215 215 215 0
5.939321 6.471200 23.175575 214 214 214 0
6.029273 6.472602 23.180596 214 214 214 0
6.122421 6.477344 23.197580 215 215 215 0
6.207971 6.474027 23.185699 214 214 214 0
6.299409 6.476857 23.195834 214 214 214 0
6.388840 6.477573 23.198401 215 215 215 0
6.495981 6.495981 23.264325 214 214 214 0
6.592537 6.503448 23.291068 214 214 214 0
6.676282 6.498247 23.272441 214 214 214 0
6.758554 6.491769 23.249239 214 214 214 0
6.834125 6.479106 23.203888 214 214 214 0
10.440621 9.771350 34.994540 214 214 214 0
10.786574 9.967341 35.696448 214 214 214 0
-10.713595 9.910076 35.011750 207 207 207 0
-6.314548 5.914893 20.896991 206 206 206 0
-6.225574 5.906314 20.866680 206 206 206 0
-6.091354 5.854028 20.681958 206 206 206 0
-6.032368 5.873622 20.751181 206 206 206 0
-5.964034 5.884514 20.789662 206 206 206 0
-5.893115 5.893115 20.820051 206 206 206 0
-5.880260 5.960811 21.059216 206 206 206 0
-5.847020 6.009437 21.231009 206 206 206 0
-5.780541 6.024789 21.285246 207 207 207 0
-5.720126 6.046990 21.363682 207 207 207 0
-5.621192 6.028525 21.298446 207 207 207 0
-5.551921 6.041796 21.345332 207 207 207 0
-5.482194 6.054961 21.391843 207 207 207 0
-5.456092 6.117436 21.612563 207 207 207 0
-5.401877 6.149829 21.727006 207 207 207 0
-5.313665 6.143926 21.706150 207 207 207 0
-5.209001 6.118509 21.616353 207 207 207 0
-5.163428 6.162801 21.772835 207 207 207 0
-5.134722 6.229007 22.006736 208 208 208 0
-5.090156 6.277859 22.179327 207 207 207 0
-4.974929 6.239741 22.044661 208 208 208 0
-4.864125 6.205952 21.925286 208 208 208 0
-4.760937 6.180866 21.836657 208 208 208 0
-4.699972 6.210678 21.941981 208 208 208 0
-4.676723 6.292318 22.230413 208 208 208 0
-4.570795 6.263682 22.129241 209 209 209 0
-4.470173 6.241373 22.050426 208 208 208 0
-4.361832 6.207222 21.929773 208 208 208 0
-4.267599 6.192203 21.876709 209 209 209 0
-4.201432 6.218119 21.968272 208 208 208 0
-4.171518 6.299843 22.256997 208 208 208 0
-4.088348 6.302870 22.267692 208 208 208 0
-3.980032 6.266434 22.138963 209 209 209 0
-3.887562 6.253904 22.094697 209 209 209 0
-3.815925 6.275076 22.169497 208 208 208 0
-3.759093 6.322111 22.335668 209 209 209 0
-3.675682 6.325592 22.347966 209 209 209 0
-3.592262 6.329224 22.360798 209 209 209 0
-3.494061 6.306355 22.280003 209 209 209 0
-3.418361 6.323968 22.342230 209 209 209 0
-3.354145 6.364275 22.484632 209 209 209 0
-3.285161 6.397419 22.601728 209 209 209 0
-3.199817 6.399635 22.609557 209 209 209 0
-3.105037 6.382577 22.549290 209 209 209 0
-3.007922 6.359606 22.468137 209 209 209 0
-2.918674 6.352408 22.442705 209 209 209 0
-2.852660 6.396873 22.599799 209 209 209 0
-2.779144 6.426771 22.705427 209 209 209 0
-2.683608 6.406033 22.632159 209 209 209 0
-2.585417 6.377361 22.530864 209 209 209 0
-2.492725 6.360745 22.472161 210 210 210 0
-2.408723 6.365911 22.490411 209 209 209 0
-2.327307 6.378545 22.535047 210 210 210 0
-2.248422 6.399354 22.608563 210 210 210 0
-2.161088 6.396821 22.599617 210 210 210 0
-2.073116 6.392107 22.582961 210 210 210 0
-1.989139 6.399840 22.610280 210 210 210 0
-1.907527 6.416229 22.668182 210 210 210 0
-1.820488 6.415053 22.664027 210 210 210 0
-1.732331 6.409623 22.644844 210 210 210 0
-1.650781 6.429356 22.714559 210 210 210 0
-1.567258 6.443171 22.763365 210 210 210 0
-1.481039 6.446876 22.776456 210 210 210 0
-1.393457 6.444740 22.768911 210 210 210 0
-1.309042 6.457941 22.815547 210 210 210 0
-1.224888 6.474407 22.873721 211 211 211 0
-1.138641 6.481495 22.898762 210 210 210 0
-1.047616 6.460297 22.823874 211 211 211 0
-0.958206 6.446114 22.773763 211 211 211 0
-0.872007 6.452854 22.797576 211 211 211 0
-0.786846 6.469623 22.856822 211 211 211 0
-0.699137 6.467017 22.847615 210 210 210 0
-0.611478 6.464200 22.837662 210 210 210 0
-0.523160 6.452305 22.795637 211 211 211 0
-0.435326 6.442827 22.762150 212 212 212 0
-0.348106 6.439957 22.752012 211 211 211 0
-0.262069 6.464360 22.838228 212 212 212 0
-0.175213 6.482897 22.903717 211 211 211 0
-0.087495 6.474601 22.874409 211 211 211 0
0.000000 6.463006 22.833445 211 211 211 0
0.087440 6.470531 22.860028 211 211 211 0
0.175242 6.483971 22.907511 212 212 212 0
0.263239 6.493230 22.940221 211 211 211 0
0.351307 6.499173 22.961218 211 211 211 0
0.438530 6.490245 22.929677 212 212 212 0
0.525941 6.486612 22.916841 212 212 212 0
0.616242 6.514559 23.015578 211 211 211 0
0.706822 6.538103 23.098758 212 212 212 0
0.795351 6.539551 23.103874 212 212 212 0
0.880585 6.516332 23.021842 212 212 212 0
0.967308 6.507341 22.990077 212 212 212 0
1.053928 6.499222 22.961390 212 212 212 0
1.145067 6.518072 23.027988 211 211 211 0
1.237439 6.540750 23.108110 211 211 211 0
1.320754 6.515717 23.019669 211 211 211 0
1.404357 6.495150 22.947005 212 212 212 0
1.490285 6.487123 22.918648 213 213 213 0
1.579731 6.494449 22.944529 212 212 212 0
1.673371 6.517339 23.025399 212 212 212 0
1.762385 6.520826 23.037717 212 212 212 0
1.845679 6.503820 22.977636 212 212 212 0
1.934079 6.505539 22.983710 212 212 212 0
2.025971 6.518340 23.028936 212 212 212 0
2.117224 6.528109 23.063446 212 212 212 0
2.205322 6.527754 23.062195 213 213 213 0
2.293734 6.528319 23.064191 212 212 212 0
2.378077 6.517692 23.026647 212 212 212 0
2.473124 6.536114 23.091728 212 212 212 0
2.565581 6.546656 23.128973 212 212 212 0
2.658001 6.556403 23.163410 213 213 213 0
2.748452 6.560820 23.179015 212 212 212 0
2.833085 6.551510 23.146123 213 213 213 0
2.920235 6.548405 23.135152 213 213 213 0
3.006785 6.544179 23.120221 213 213 213 0
3.097642 6.549299 23.138313 213 213 213 0
3.193236 6.563875 23.189806 213 213 213 0
3.271332 6.542664 23.114871 214 214 214 0
3.354285 6.532028 23.077294 213 213 213 0
3.440940 6.528964 23.066468 213 213 213 0
3.527399 6.525688 23.054896 213 213 213 0
3.621441 6.536260 23.092246 213 213 213 0
3.712908 6.541790 23.111781 213 213 213 0
3.801364 6.541883 23.112111 214 214 214 0
3.890291 6.542763 23.115219 213 213 213 0
3.980007 6.544900 23.122771 213 213 213 0
4.069310 6.546282 23.127651 213 213 213 0
4.158018 6.546666 23.129010 213 213 213 0
4.249193 6.550839 23.143753 213 213 213 0
4.340616 6.555216 23.159217 213 213 213 0
4.430962 6.557824 23.168428 214 214 214 0
4.526497 6.567858 23.203879 213 213 213 0
4.622128 6.577643 23.238449 213 213 213 0
4.715040 6.583264 23.258308 214 214 214 0
4.791777 6.566510 23.199115 214 214 214 0
4.876625 6.561277 23.180628 214 214 214 0
4.965454 6.561492 23.181390 213 213 213 0
5.068418 6.580052 23.246960 213 213 213 0
5.149787 6.570418 23.212925 214 214 214 0
5.231747 6.561852 23.182659 214 214 214 0
5.312717 6.552351 23.149095 214 214 214 0
5.398128 6.548549 23.135663 214 214 214 0
5.494475 6.557921 23.168774 214 214 214 0
5.589365 6.565286 23.194791 214 214 214 0
5.672943 6.559340 23.173785 214 214 214 0
5.756467 6.553516 23.153210 214 214 214 0
5.844280 6.552678 23.150247 214 214 214 0
5.939086 6.559587 23.174659 214 214 214 0
6.029167 6.561153 23.180189 214 214 214 0
6.124402 6.568200 23.205086 215 215 215 0
6.208639 6.563419 23.188195 214 214 214 0
6.298683 6.564824 23.193161 214 214 214 0
6.389627 6.567117 23.201260 214 214 214 0
6.498249 6.587266 23.272446 214 214 214 0
6.591302 6.591302 23.286705 215 215 215 0
6.677800 6.588763 23.277734 215 215 215 0
6.759729 6.581841 23.253281 214 214 214 0
6.833783 6.567532 23.202726 214 214 214 0
10.611643 10.067456 35.567765 214 214 214 0
10.568200 9.899327 34.973775 214 214 214 0
-10.713571 10.043973 35.011671 205 205 205 0
-6.325681 6.005394 20.933834 206 206 206 0
-6.235563 5.995734 20.900162 206 206 206 0
-6.117697 5.958795 20.771400 206 206 206 0
-6.042829 5.963318 20.787166 206 206 206 0
-5.969420 5.969420 20.808437 206 206 206 0
-5.901288 5.981035 20.848923 207 207 207 0
-5.876006 6.036993 21.043983 207 207 207 0
-5.841142 6.084523 21.209668 206 206 206 0
-5.772390 6.097595 21.255234 207 207 207 0
-5.723236 6.132038 21.375297 206 206 206 0
-5.628454 6.117885 21.325960 207 207 207 0
-5.546779 6.117771 21.325563 207 207 207 0
-5.481324 6.135811 21.388448 207 207 207 0
-5.463300 6.208295 21.641117 207 207 207 0
-5.406576 6.238357 21.745907 207 207 207 0
-5.319469 6.233753 21.729858 207 207 207 0
-5.208735 6.200875 21.615249 207 207 207 0
-5.167802 6.251373 21.791278 207 207 207 0
-5.128426 6.305442 21.979753 208 208 208 0
-5.085135 6.356419 22.157451 208 208 208 0
-4.971818 6.320107 22.030875 208 208 208 0
-4.863869 6.289486 21.924133 208 208 208 0
-4.764541 6.269133 21.853186 208 208 208 0
-4.693600 6.286071 21.912230 208 208 208 0
-4.677122 6.377893 22.232308 208 208 208 0
-4.573590 6.352209 22.142776 209 209 209 0
-4.470604 6.326327 22.052556 209 209 209 0
-4.360078 6.288574 21.920954 209 209 209 0
-4.264180 6.270853 21.859182 208 208 208 0
-4.204131 6.306197 21.982386 208 208 208 0
-4.169231 6.381476 22.244798 209 209 209 0
-4.081275 6.376992 22.229164 208 208 208 0
-3.980104 6.351230 22.139363 208 208 208 0
-3.891621 6.345034 22.117764 209 209 209 0
-3.812420 6.354034 22.149138 209 209 209 0
-3.754969 6.400516 22.311166 208 208 208 0
-3.675464 6.410692 22.346641 209 209 209 0
-3.588280 6.407642 22.336008 209 209 209 0
-3.494846 6.393010 22.285003 208 208 208 0
-3.419643 6.411830 22.350605 209 209 209 0
-3.354056 6.450108 22.484038 209 209 209 0
-3.284328 6.482226 22.595995 209 209 209 0
-3.201829 6.490194 22.623770 209 209 209 0
-3.106031 6.470898 22.556508 209 209 209 0
-3.006705 6.442940 22.459050 209 209 209 0
-2.919460 6.439986 22.448752 209 209 209 0
-2.852819 6.483679 22.601061 209 209 209 0
-2.778160 6.511313 22.697387 210 210 210 0
-2.685325 6.496754 22.646637 209 209 209 0
-2.585939 6.464847 22.535416 209 209 209 0
-2.494754 6.451951 22.490461 209 209 209 0
-2.412611 6.462352 22.526717 209 209 209 0
-2.328051 6.466808 22.542252 209 209 209 0
-2.247515 6.483216 22.599446 210 210 210 0
-2.163779 6.491338 22.627758 210 210 210 0
-2.071492 6.473411 22.565267 210 210 210 0
-1.987058 6.479536 22.586618 210 210 210 0
-1.906448 6.499254 22.655352 210 210 210 0
-1.819806 6.499305 22.655531 210 210 210 0
-1.732463 6.496735 22.646572 211 211 211 0
-1.650015 6.513218 22.704028 210 210 210 0
-1.565931 6.524713 22.744096 210 210 210 0
-1.481018 6.533902 22.776130 210 210 210 0
-1.393141 6.530350 22.763748 211 211 211 0
-1.309190 6.545951 22.818131 210 210 210 0
-1.224810 6.561480 22.872263 210 210 210 0
-1.138741 6.569661 22.900780 210 210 210 0
-1.048114 6.550710 22.834719 210 210 210 0
-0.958433 6.534772 22.779161 210 210 210 0
-0.872033 6.540248 22.798250 211 211 211 0
-0.787532 6.562764 22.876738 211 211 211 0
-0.699243 6.555403 22.851077 210 210 210 0
-0.611616 6.553033 22.842815 211 211 211 0
-0.523289 6.541119 22.801285 211 211 211 0
-0.435328 6.529917 22.762238 212 212 212 0
-0.348253 6.529751 22.761661 211 211 211 0
-0.262149 6.553726 22.845234 211 211 211 0
-0.175224 6.570887 22.905052 211 211 211 0
-0.087407 6.555525 22.851504 211 211 211 0
0.000000 6.547829 22.824676 211 211 211 0
0.087426 6.556965 22.856521 211 211 211 0
0.175267 6.572516 22.910733 211 211 211 0
0.263658 6.591453 22.976741 212 212 212 0
0.351381 6.588403 22.966110 211 211 211 0
0.438887 6.583299 22.948319 212 212 212 0
0.525761 6.572014 22.908981 212 212 212 0
0.616142 6.601522 23.011841 212 212 212 0
0.706933 6.627495 23.102378 212 212 212 0
0.795883 6.632359 23.119333 212 212 212 0
0.880607 6.604550 23.022398 212 212 212 0
0.967085 6.593764 22.984800 212 212 212 0
1.053573 6.584830 22.953655 212 212 212 0
1.144611 6.603524 23.018819 212 212 212 0
1.236876 6.626120 23.097585 212 212 212 0
1.321588 6.607939 23.034211 212 212 212 0
1.403373 6.578311 22.930932 212 212 212 0
1.490513 6.575791 22.922146 211 211 211 0
1.580064 6.583600 22.949369 212 212 212 0
1.673234 6.604870 23.023512 212 212 212 0
1.763262 6.612231 23.049170 212 212 212 0
1.845962 6.592721 22.981162 212 212 212 0
1.934637 6.595355 22.990344 212 212 212 0
2.027348 6.610916 23.044588 212 212 212 0
2.118110 6.619093 23.073093 212 212 212 0
2.204737 6.614212 23.056077 212 212 212 0
2.292629 6.613354 23.053085 212 212 212 0
2.377522 6.604227 23.021270 212 212 212 0
2.472951 6.623975 23.090107 212 212 212 0
2.565909 6.635972 23.131930 213 213 213 0
2.656882 6.642206 23.153660 212 212 212 0
2.748029 6.648456 23.175447 213 213 213 0
2.833160 6.640218 23.146728 213 213 213 0
2.921131 6.638935 23.142257 212 212 212 0
3.006359 6.631675 23.116948 213 213 213 0
3.097312 6.637098 23.135854 213 213 213 0
3.192166 6.650345 23.182031 213 213 213 0
3.273261 6.634989 23.128502 212 212 212 0
3.354805 6.621326 23.080875 213 213 213 0
3.441242 6.617773 23.068489 213 213 213 0
3.529031 6.616932 23.065559 213 213 213 0
3.621992 6.625596 23.095759 213 213 213 0
3.713361 6.631001 23.114601 214 214 214 0
3.800671 6.629077 23.107894 213 213 213 0
3.890127 6.630899 23.114243 214 214 214 0
3.979642 6.632736 23.120649 213 213 213 0
4.069411 6.634909 23.128225 213 213 213 0
4.160880 6.639702 23.144930 213 213 213 0
4.253033 6.645364 23.164667 214 214 214 0
4.340782 6.644053 23.160099 213 213 213 0
4.430132 6.645199 23.164091 213 213 213 0
4.525763 6.655534 23.200119 213 213 213 0
4.622746 6.667423 23.241560 213 213 213 0
4.714863 6.671975 23.257431 213 213 213 0
4.794270 6.658709 23.211186 214 214 214 0
4.878939 6.653098 23.191628 214 214 214 0
4.964745 6.649212 23.178082 213 213 213 0
5.070609 6.671853 23.257005 214 214 214 0
5.150438 6.660049 23.215858 214 214 214 0
5.234544 6.654081 23.195054 214 214 214 0
5.313969 6.642461 23.154547 213 213 213 0
5.397746 6.636573 23.134023 214 214 214 0
5.495127 6.647331 23.171523 214 214 214 0
5.589777 6.654496 23.196501 214 214 214 0
5.675031 6.650427 23.182316 213 213 213 0
5.756664 6.642305 23.154004 214 214 214 0
5.844454 6.641425 23.150938 214 214 214 0
5.939110 6.648257 23.174754 214 214 214 0
6.032363 6.653341 23.192474 213 213 213 0
6.124719 6.657304 23.206288 215 215 215 0
6.208394 6.651850 23.187278 214 214 214 0
6.301483 6.656496 23.203473 215 215 215 0
6.389938 6.656186 23.202390 215 215 215 0
6.493869 6.671784 23.256762 215 215 215 0
6.588561 6.677596 23.277022 214 214 214 0
6.673986 6.673986 23.264438 214 214 214 0
6.757655 6.668738 23.246146 214 214 214 0
0.318548 0.310274 1.081566 214 214 214 0
10.332125 9.934736 34.630887 214 214 214 0
10.751112 10.206752 35.579092 215 215 215 0
-10.713568 10.177890 35.011660 205 205 205 0
-6.322054 6.081976 20.921831 206 206 206 0
-6.209333 6.050120 20.812245 206 206 206 0
-6.109472 6.030128 20.743474 206 206 206 0
-6.035926 6.035926 20.763419 206 206 206 0
-5.977637 6.057339 20.837078 207 207 207 0
-5.895926 6.055275 20.829981 206 206 206 0
-5.873309 6.114678 21.034323 206 206 206 0
-5.845020 6.169744 21.223749 206 206 206 0
-5.774530 6.181188 21.263115 207 207 207 0
-5.714415 6.204222 21.342354 206 206 206 0
-5.628528 6.199539 21.326242 206 206 206 0
-5.551235 6.204321 21.342694 208 208 208 0
-5.473946 6.209252 21.359657 207 207 207 0
-5.459598 6.286810 21.626452 207 207 207 0
-5.405053 6.319755 21.739783 207 207 207 0
-5.319694 6.317137 21.730777 207 207 207 0
-5.209082 6.283972 21.616691 208 208 208 0
-5.163093 6.328952 21.771422 207 207 207 0
-5.128491 6.389595 21.980032 208 208 208 0
-5.085838 6.442062 22.160515 208 208 208 0
-4.972606 6.405391 22.034369 207 207 207 0
-4.856062 6.363116 21.888945 207 207 207 0
-4.761272 6.348363 21.838195 207 207 207 0
-4.689798 6.364726 21.894481 208 208 208 0
-4.674451 6.459241 22.219611 208 208 208 0
-4.574947 6.438814 22.149343 208 208 208 0
-4.467243 6.405858 22.035976 207 207 207 0
-4.361555 6.374580 21.928379 208 208 208 0
-4.267275 6.359076 21.875046 209 209 209 0
-4.200547 6.384832 21.963647 208 208 208 0
-4.164292 6.458902 22.218444 208 208 208 0
-4.084137 6.466551 22.244756 208 208 208 0
-3.979986 6.435722 22.138706 208 208 208 0
-3.888891 6.425125 22.102253 208 208 208 0
-3.820619 6.452601 22.196769 209 209 209 0
-3.752485 6.481565 22.296405 209 209 209 0
-3.681106 6.506141 22.380947 209 209 209 0
-3.594216 6.503820 22.372963 209 209 209 0
-3.496956 6.482162 22.298458 208 208 208 0
-3.421661 6.501156 22.363797 209 209 209 0
-3.352144 6.532383 22.471217 209 209 209 0
-3.285041 6.570082 22.600900 209 209 209 0
-3.201372 6.575791 22.620539 209 209 209 0
-3.104869 6.554724 22.548070 209 209 209 0
-3.007115 6.529735 22.462109 209 209 209 0
-2.918806 6.524389 22.443720 209 209 209 0
-2.851864 6.567928 22.593492 209 209 209 0
-2.779654 6.601679 22.709593 209 209 209 0
-2.687425 6.588525 22.664345 209 209 209 0
-2.585363 6.549586 22.530396 210 210 210 0
-2.496577 6.542754 22.506895 209 209 209 0
-2.413637 6.551300 22.536291 210 210 210 0
-2.330476 6.559858 22.565730 209 209 209 0
-2.249035 6.574103 22.614734 209 209 209 0
-2.162517 6.574052 22.614558 209 209 209 0
-2.072651 6.563394 22.577895 210 210 210 0
-1.986297 6.563417 22.577975 211 211 211 0
-1.905660 6.583188 22.645986 210 210 210 0
-1.820760 6.589417 22.667413 210 210 210 0
-1.730682 6.576592 22.623297 210 210 210 0
-1.649812 6.599248 22.701232 210 210 210 0
-1.565285 6.608981 22.734711 210 210 210 0
-1.480733 6.619749 22.771754 210 210 210 0
-1.392197 6.612934 22.748309 210 210 210 0
-1.308455 6.629508 22.805323 210 210 210 0
-1.225272 6.651477 22.880896 210 210 210 0
-1.138435 6.655465 22.894615 211 211 211 0
-1.047827 6.636236 22.828471 211 211 211 0
-0.958584 6.622947 22.782756 210 210 210 0
-0.871309 6.621946 22.779311 210 210 210 0
-0.786955 6.645397 22.859982 211 211 211 0
-0.699059 6.641065 22.845080 211 211 211 0
-0.611757 6.641937 22.848081 211 211 211 0
-0.523542 6.631535 22.812299 211 211 211 0
-0.435394 6.617994 22.765716 211 211 211 0
-0.348526 6.621989 22.779460 211 211 211 0
-0.262034 6.638195 22.835209 211 211 211 0
-0.175138 6.655237 22.893831 211 211 211 0
-0.087396 6.642071 22.848543 211 211 211 0
0.000000 6.635535 22.826059 211 211 211 0
0.087416 6.643623 22.853880 211 211 211 0
0.175230 6.658754 22.905930 211 211 211 0
0.263447 6.673987 22.958333 211 211 211 0
0.351558 6.679593 22.977617 211 211 211 0
0.438787 6.669559 22.943100 212 212 212 0
0.526117 6.664151 22.924496 212 212 212 0
0.616199 6.690158 23.013959 211 211 211 0
0.706919 6.715735 23.101944 212 212 212 0
0.795170 6.714773 23.098633 211 211 211 0
0.880224 6.689703 23.012394 211 211 211 0
0.966809 6.679768 22.978218 212 212 212 0
1.052551 6.666154 22.931385 212 212 212 0
1.142884 6.681475 22.984091 212 212 212 0
1.237328 6.716926 23.106041 212 212 212 0
1.321244 6.694303 23.028218 212 212 212 0
1.405341 6.675371 22.963094 212 212 212 0
1.490423 6.663065 22.920761 211 211 211 0
1.579665 6.669695 22.943567 212 212 212 0
1.673762 6.695048 23.030782 212 212 212 0
1.762483 6.697434 23.038987 212 212 212 0
1.845689 6.679636 22.977763 212 212 212 0
1.933731 6.680163 22.979578 212 212 212 0
2.026673 6.696834 23.036925 212 212 212 0
2.118132 6.707417 23.073330 212 212 212 0
2.204943 6.703026 23.058226 212 212 212 0
2.292293 6.700548 23.049702 212 212 212 0
2.377760 6.692954 23.023577 213 213 213 0
2.473520 6.713841 23.095428 213 213 213 0
2.564742 6.721393 23.121408 212 212 212 0
2.657091 6.731298 23.155480 213 213 213 0
2.748300 6.737768 23.177737 212 212 212 0
2.832238 6.726566 23.139201 213 213 213 0
2.918760 6.721994 23.123473 212 212 212 0
3.004804 6.716620 23.104988 213 213 213 0
3.095857 6.722433 23.124986 213 213 213 0
3.191321 6.737234 23.175899 213 213 213 0
3.272591 6.722080 23.123769 212 212 212 0
3.354547 6.709093 23.079097 212 212 212 0
3.444002 6.711388 23.086991 212 212 212 0
3.529900 6.706809 23.071240 213 213 213 0
3.621405 6.712848 23.092011 214 214 214 0
3.713982 6.720539 23.118470 213 213 213 0
3.801597 6.719102 23.113525 213 213 213 0
3.889750 6.718659 23.112003 213 213 213 0
3.979821 6.721475 23.121688 213 213 213 0
4.068832 6.722418 23.124933 213 213 213 0
4.158050 6.723655 23.129190 213 213 213 0
4.249919 6.729039 23.147709 213 213 213 0
4.343066 6.736184 23.172289 213 213 213 0
4.429766 6.733244 23.162175 213 213 213 0
4.524257 6.742029 23.192396 214 214 214 0
4.622454 6.755895 23.240091 214 214 214 0
4.715221 6.761449 23.259197 213 213 213 0
4.792590 6.745127 23.203050 213 213 213 0
4.877031 6.739170 23.182558 214 214 214 0
4.964428 6.737438 23.176601 214 214 214 0
5.073609 6.764812 23.270768 214 214 214 0
5.152362 6.751370 23.224528 214 214 214 0
5.233786 6.741826 23.191697 213 213 213 0
5.313811 6.730827 23.153861 214 214 214 0
5.398743 6.726303 23.138296 213 213 213 0
5.492606 6.732872 23.160894 214 214 214 0
5.591083 6.744798 23.201920 214 214 214 0
5.673508 6.737290 23.176094 214 214 214 0
5.756016 6.730111 23.151395 214 214 214 0
5.843813 6.729239 23.148396 214 214 214 0
5.940926 6.738961 23.181842 214 214 214 0
6.030293 6.739739 23.184517 214 214 214 0
6.127289 6.748898 23.216024 214 214 214 0
6.212196 6.744669 23.201477 214 214 214 0
6.299999 6.743661 23.198009 214 214 214 0
6.388075 6.742968 23.195625 214 214 214 0
6.494075 6.760955 23.257499 214 214 214 0
6.585629 6.763619 23.266664 214 214 214 0
6.670703 6.759646 23.252996 215 215 215 0
8.651343 8.651343 29.760383 214 214 214 0
11.133935 10.989338 37.803022 214 214 214 0
12.070810 11.761302 40.458554 214 214 214 0
16.060207 15.450326 53.148695 214 214 214 0
-10.713557 10.311798 35.011623 206 206 206 0
-6.286065 6.126924 20.802730 206 206 206 0
-6.208346 6.128752 20.808937 206 206 206 0
-6.117736 6.117736 20.771535 206 206 206 0
-6.049786 6.129389 20.811099 206 206 206 0
-5.991180 6.150945 20.884287 206 206 206 0
-5.901510 6.140761 20.849709 207 207 207 0
-5.872178 6.193941 21.030274 207 207 207 0
-5.830429 6.235319 21.170765 207 207 207 0
-5.777756 6.266017 21.274991 206 206 206 0
-5.707218 6.277940 21.315474 207 207 207 0
-5.624356 6.276455 21.310432 207 207 207 0
-5.541979 6.275476 21.307108 207 207 207 0
-5.458430 6.273121 21.299113 207 207 207 0
-5.452904 6.361722 21.599937 207 207 207 0
-5.398167 6.394752 21.712084 206 206 206 0
-5.320553 6.401290 21.734284 208 208 208 0
-5.210549 6.368449 21.622778 208 208 208 0
-5.176456 6.428825 21.827773 207 207 207 0
-5.123553 6.467436 21.958869 207 207 207 0
-5.078345 6.517209 22.127865 207 207 207 0
-4.975661 6.493660 22.047907 207 207 207 0
-4.863847 6.457176 21.924033 208 208 208 0
-4.771543 6.445768 21.885300 207 207 207 0
-4.696147 6.457202 21.924121 207 207 207 0
-4.654646 6.516505 22.125473 207 207 207 0
-4.570206 6.516775 22.126388 208 208 208 0
-4.466333 6.488823 22.031484 208 208 208 0
-4.362241 6.459472 21.931828 208 208 208 0
-4.264983 6.439288 21.863297 208 208 208 0
-4.198276 6.465345 21.951771 208 208 208 0
-4.165734 6.546154 22.226139 208 208 208 0
-4.087144 6.556460 22.261131 208 208 208 0
-3.979648 6.519850 22.136829 209 209 209 0
-3.888665 6.509287 22.100967 209 209 209 0
-3.814827 6.527593 22.163120 208 208 208 0
-3.748095 6.559166 22.270320 208 208 208 0
-3.678033 6.586245 22.362262 209 209 209 0
-3.596527 6.593633 22.387347 209 209 209 0
-3.497134 6.567789 22.299598 209 209 209 0
-3.418001 6.579652 22.339876 209 209 209 0
-3.346008 6.606220 22.430083 209 209 209 0
-3.285716 6.657898 22.605546 209 209 209 0
-3.196926 6.653063 22.589128 209 209 209 0
-3.103287 6.637585 22.536577 209 209 209 0
-3.009162 6.620157 22.477402 209 209 209 0
-2.925371 6.625105 22.494202 209 209 209 0
-2.853455 6.658061 22.606098 210 210 210 0
-2.777886 6.684288 22.695146 209 209 209 0
-2.684815 6.668735 22.642339 210 210 210 0
-2.587305 6.640749 22.547318 210 210 210 0
-2.498106 6.632903 22.520679 209 209 209 0
-2.414580 6.640095 22.545099 209 209 209 0
-2.332146 6.650936 22.581906 210 210 210 0
-2.248388 6.658688 22.608226 210 210 210 0
-2.161441 6.657237 22.603301 210 210 210 0
-2.070538 6.642977 22.554883 209 209 209 0
-1.990301 6.663182 22.623485 210 210 210 0
-1.905792 6.670274 22.647564 211 211 211 0
-1.819376 6.671044 22.650181 210 210 210 0
-1.732427 6.669842 22.646099 210 210 210 0
-1.650508 6.688903 22.710815 210 210 210 0
-1.565088 6.695098 22.731851 210 210 210 0
-1.480677 6.706598 22.770894 210 210 210 0
-1.391655 6.697341 22.739465 210 210 210 0
-1.309116 6.720128 22.816836 211 211 211 0
-1.224668 6.735671 22.869609 211 211 211 0
-1.138547 6.743701 22.896872 211 211 211 0
-1.049336 6.733242 22.861361 210 210 210 0
-0.960762 6.725334 22.834508 210 210 210 0
-0.872349 6.717090 22.806518 211 211 211 0
-0.785699 6.722095 22.823512 211 211 211 0
-0.699262 6.730400 22.851709 211 211 211 0
-0.611830 6.730133 22.850804 210 210 210 0
-0.523176 6.714096 22.796353 211 211 211 0
-0.435540 6.707322 22.773353 210 210 210 0
-0.348440 6.707471 22.773861 211 211 211 0
-0.262191 6.729558 22.848851 211 211 211 0
-0.175262 6.747600 22.910108 211 211 211 0
-0.087468 6.735058 22.867524 210 210 210 0
0.000000 6.719730 22.815484 211 211 211 0
0.087345 6.725555 22.835261 211 211 211 0
0.175058 6.739739 22.883418 212 212 212 0
0.263447 6.761805 22.958340 211 211 211 0
0.351529 6.766932 22.975748 212 212 212 0
0.438619 6.754736 22.934340 212 212 212 0
0.525589 6.745059 22.901481 212 212 212 0
0.615577 6.771346 22.990733 212 212 212 0
0.706992 6.804793 23.104298 211 211 211 0
0.795374 6.804866 23.104546 212 212 212 0
0.880684 6.781270 23.024430 211 211 211 0
0.968392 6.778744 23.015853 211 211 211 0
1.054639 6.767265 22.976877 213 213 213 0
1.138916 6.745889 22.904299 212 212 212 0
1.236404 6.800225 23.088785 212 212 212 0
1.322606 6.789377 23.051954 212 212 212 0
1.404739 6.760308 22.953257 212 212 212 0
1.490816 6.752522 22.926820 212 212 212 0
1.580015 6.758954 22.948661 212 212 212 0
1.673921 6.783784 23.032963 212 212 212 0
1.762062 6.783938 23.033487 212 212 212 0
1.846400 6.770134 22.986620 212 212 212 0
1.934243 6.769849 22.985652 212 212 212 0
2.024580 6.777941 23.013127 212 212 212 0
2.116331 6.789895 23.053713 212 212 212 0
2.203808 6.787728 23.046356 212 212 212 0
2.292407 6.789051 23.050847 212 212 212 0
2.378264 6.782455 23.028454 212 212 212 0
2.470901 6.794976 23.070967 213 213 213 0
2.563724 6.807130 23.112233 213 213 213 0
2.656994 6.819617 23.154628 213 213 213 0
2.747797 6.825173 23.173494 213 213 213 0
2.831909 6.814280 23.136508 213 213 213 0
2.921089 6.815873 23.141917 213 213 213 0
3.007860 6.811919 23.128492 213 213 213 0
3.095860 6.810893 23.125008 212 212 212 0
3.188842 6.820578 23.157893 212 212 212 0
3.273706 6.812848 23.131645 213 213 213 0
3.354947 6.798181 23.081847 213 213 213 0
3.442006 6.795756 23.073613 213 213 213 0
3.528228 6.791839 23.060312 212 212 212 0
3.621965 6.802228 23.095586 213 213 213 0
3.714840 6.810541 23.123811 214 214 214 0
3.802425 6.808993 23.118557 213 213 213 0
3.888793 6.805387 23.106315 213 213 213 0
3.978183 6.807114 23.112176 213 213 213 0
4.067692 6.808962 23.118452 213 213 213 0
4.159689 6.814810 23.138309 213 213 213 0
4.252430 6.821607 23.161385 213 213 213 0
4.341301 6.822045 23.162872 214 214 214 0
4.430686 6.823256 23.166985 214 214 214 0
4.525878 6.833188 23.200708 214 214 214 0
4.623438 6.846244 23.245036 213 213 213 0
4.715362 6.850621 23.259895 213 213 213 0
4.794407 6.836469 23.211846 214 214 214 0
4.882688 6.835764 23.209452 214 214 214 0
4.967446 6.830239 23.190693 213 213 213 0
5.067875 6.846077 23.244467 213 213 213 0
5.152239 6.840041 23.223975 214 214 214 0
5.235592 6.832891 23.199699 213 213 213 0
5.312329 6.817489 23.147405 213 213 213 0
5.400056 6.816465 23.143926 214 214 214 0
5.491824 6.820491 23.157598 214 214 214 0
5.590922 6.833349 23.201253 213 213 213 0
5.677384 6.830603 23.191929 214 214 214 0
5.758252 6.821314 23.160391 213 213 213 0
5.843609 6.817544 23.147590 214 214 214 0
5.939292 6.825754 23.175464 213 213 213 0
