ply
    format ascii 1.0
    element vertex 25599
    property float x
    property float y
    property float z
    property uchar red
    property uchar green
    property uchar blue
    property uchar alpha
    end_header
4.872278 5.742328 22.746396 214 214 214 0
4.952695 5.734699 22.716179 215 215 215 0
5.042283 5.737771 22.728345 215 215 215 0
5.138575 5.748236 22.769800 214 214 214 0
5.222149 5.744364 22.754462 215 215 215 0
5.300905 5.735406 22.718977 214 214 214 0
5.379368 5.726424 22.683399 214 214 214 0
5.461282 5.721344 22.663274 214 214 214 0
5.548963 5.722368 22.667333 215 215 215 0
5.648298 5.735195 22.718141 215 215 215 0
5.738592 5.738592 22.731600 215 215 215 0
5.817967 5.731132 22.702046 215 215 215 0
5.900578 5.727032 22.685806 215 215 215 0
5.992542 5.731997 22.705474 214 214 214 0
6.089694 5.741712 22.743956 215 215 215 0
6.173890 5.739109 22.733645 214 214 214 0
6.258907 5.737331 22.726603 214 214 214 0
6.341020 5.732977 22.709355 215 215 215 0
6.432277 5.736895 22.724878 215 215 215 0
6.533811 5.749754 22.775811 215 215 215 0
6.624862 5.753170 22.789344 215 215 215 0
6.713672 5.754576 22.794914 215 215 215 0
6.795728 5.750231 22.777704 215 215 215 0
6.874702 5.743422 22.750732 214 214 214 0
-10.713558 8.972605 35.011628 207 207 207 0
-10.577392 8.970699 35.004192 206 206 206 0
-6.061660 5.206811 20.317280 207 207 207 0
-6.009899 5.229393 20.405395 207 207 207 0
-5.931779 5.229332 20.405157 207 207 207 0
-5.867042 5.241224 20.451563 207 207 207 0
-5.806886 5.257586 20.515407 207 207 207 0
-5.767932 5.293855 20.656932 207 207 207 0
-5.715483 5.318574 20.753386 208 208 208 0
-5.650186 5.331865 20.805250 207 207 207 0
-5.602911 5.362786 20.925906 208 208 208 0
-5.521589 5.361543 20.921053 207 207 207 0
-5.450040 5.369893 20.953635 207 207 207 0
-5.378621 5.378621 20.987692 208 208 208 0
-5.325862 5.406557 21.096702 208 208 208 0
-5.306264 5.469533 21.342438 208 208 208 0
-5.227478 5.472516 21.354079 207 207 207 0
-5.131492 5.457301 21.294709 207 207 207 0
-5.039434 5.445839 21.249983 208 208 208 0
-5.011014 5.503900 21.476541 208 208 208 0
-4.972454 5.552573 21.666465 208 208 208 0
-4.896476 5.560405 21.697025 208 208 208 0
-4.783342 5.525585 21.561154 208 208 208 0
-4.684663 5.506534 21.486817 208 208 208 0
-4.587067 5.488098 21.414878 209 209 209 0
-4.543701 5.535054 21.598105 209 209 209 0
-4.510201 5.595990 21.835880 209 209 209 0
-4.408964 5.573596 21.748496 209 209 209 0
-4.294528 5.533334 21.591393 209 209 209 0
-4.190937 5.505741 21.483723 209 209 209 0
-4.111275 5.509108 21.496862 209 209 209 0
-4.073681 5.570135 21.734993 209 209 209 0
-4.010432 5.597894 21.843310 208 208 208 0
-3.916050 5.582454 21.783063 210 210 210 0
-3.820326 5.564387 21.712565 210 210 210 0
-3.729194 5.552356 21.665615 208 208 208 0
-3.658034 5.570188 21.735197 210 210 210 0
-3.600942 5.610770 21.893553 209 209 209 0
-3.521246 5.617226 21.918744 209 209 209 0
-3.436420 5.615613 21.912450 209 209 209 0
-3.342680 5.598990 21.847585 210 210 210 0
-3.268243 5.614675 21.908788 210 210 210 0
-3.199327 5.640919 22.011195 210 210 210 0
-3.133998 5.675077 22.144481 209 209 209 0
-3.047287 5.671339 22.129897 210 210 210 0
-2.959062 5.664491 22.103173 210 210 210 0
-2.859761 5.635411 21.989702 210 210 210 0
-2.775488 5.635081 21.988414 210 210 210 0
-2.707097 5.667984 22.116803 210 210 210 0
-2.630306 5.684855 22.182634 210 210 210 0
-2.540254 5.673234 22.137291 210 210 210 0
-2.446560 5.652397 22.055981 210 210 210 0
-2.359329 5.645538 22.029219 210 210 210 0
-2.274694 5.644611 22.025600 210 210 210 0
-2.194836 5.655924 22.069746 210 210 210 0
-2.117842 5.675817 22.147371 210 210 210 0
-2.034051 5.678392 22.157418 211 211 211 0
-1.944345 5.663960 22.101104 210 210 210 0
-1.865492 5.681272 22.168653 210 210 210 0
-1.781274 5.683112 22.175833 211 211 211 0
-1.699321 5.692724 22.213341 210 210 210 0
-1.613754 5.690606 22.205077 211 211 211 0
-1.530542 5.697018 22.230098 211 211 211 0
-1.446540 5.701068 22.245901 211 211 211 0
-1.363450 5.709445 22.278588 211 211 211 0
-1.279406 5.714679 22.299010 210 210 210 0
-1.194519 5.716628 22.306617 210 210 210 0
-1.113340 5.737984 22.389949 211 211 211 0
-1.030416 5.753154 22.449144 212 212 212 0
-0.943415 5.746253 22.422213 211 211 211 0
-0.855090 5.729102 22.355288 211 211 211 0
-0.769941 5.731782 22.365748 211 211 211 0
-0.688003 5.762022 22.483747 212 212 212 0
-0.601783 5.759921 22.475548 212 212 212 0
-0.514978 5.750592 22.439146 212 212 212 0
-0.427652 5.730539 22.360898 211 211 211 0
-0.341336 5.717384 22.309567 211 211 211 0
-0.255632 5.709124 22.277333 212 212 212 0
-0.171224 5.736015 22.382266 211 211 211 0
-0.085888 5.754522 22.454482 211 211 211 0
0.000000 5.750152 22.437427 211 211 211 0
0.085570 5.733182 22.371209 212 212 212 0
0.171120 5.732523 22.368641 212 212 212 0
0.257089 5.741662 22.404298 213 213 213 0
0.343252 5.749476 22.434792 212 212 212 0
0.430035 5.762468 22.485485 212 212 212 0
0.515676 5.758377 22.469524 212 212 212 0
0.600974 5.752183 22.445352 213 213 213 0
0.686437 5.748913 22.432592 212 212 212 0
0.775490 5.773089 22.526929 213 213 213 0
0.865550 5.799188 22.628771 212 212 212 0
0.951115 5.793152 22.605218 213 213 213 0
1.033488 5.770306 22.516070 213 213 213 0
1.118102 5.762526 22.485711 212 212 212 0
1.205773 5.770485 22.516768 212 212 212 0
1.297110 5.793757 22.607576 212 212 212 0
1.381065 5.783208 22.566415 212 212 212 0
1.463723 5.768791 22.510160 213 213 213 0
1.546587 5.756740 22.463136 213 213 213 0
1.632030 5.755052 22.456550 212 212 212 0
1.720055 5.762183 22.484376 213 213 213 0
1.811118 5.778330 22.547381 213 213 213 0
1.896993 5.777206 22.542996 213 213 213 0
1.980610 5.769603 22.513329 213 213 213 0
2.066616 5.769303 22.512156 213 213 213 0
2.158732 5.785402 22.574977 213 213 213 0
2.247833 5.792492 22.602642 213 213 213 0
2.332600 5.788304 22.586299 213 213 213 0
2.417074 5.783712 22.568380 213 213 213 0
2.504210 5.785589 22.575706 213 213 213 0
2.595744 5.797161 22.620860 214 214 214 0
2.688819 5.811319 22.676107 213 213 213 0
2.778556 5.817601 22.700617 213 213 213 0
2.864100 5.814991 22.690432 214 214 214 0
2.947051 5.807425 22.660910 213 213 213 0
3.036826 5.813352 22.684040 213 213 213 0
3.129072 5.823551 22.723835 214 214 214 0
2.795389 5.061920 19.751908 214 214 214 0
3.292179 5.804631 22.650009 213 213 213 0
3.375530 5.798988 22.627989 213 213 213 0
3.461540 5.798080 22.624447 214 214 214 0
3.546478 5.795464 22.614239 213 213 213 0
3.631745 5.793497 22.606564 213 213 213 0
3.722384 5.799994 22.631915 214 214 214 0
3.814005 5.807690 22.661944 213 213 213 0
3.897206 5.802507 22.641721 214 214 214 0
3.987101 5.807299 22.660421 214 214 214 0
4.072208 5.805062 22.651692 214 214 214 0
4.161597 5.808895 22.666648 214 214 214 0
4.248714 5.809465 22.668873 213 213 213 0
4.336878 5.811417 22.676487 213 213 213 0
4.429106 5.818630 22.704632 213 213 213 0
4.516244 5.819007 22.706106 214 214 214 0
4.607735 5.824872 22.728991 214 214 214 0
4.704691 5.837302 22.777492 214 214 214 0
4.794369 5.840413 22.789631 214 214 214 0
4.873801 5.831154 22.753505 214 214 214 0
4.953661 5.822724 22.720610 215 215 215 0
5.044184 5.826902 22.736912 214 214 214 0
5.139528 5.836413 22.774023 214 214 214 0
5.221945 5.831172 22.753574 214 214 214 0
5.300511 5.821873 22.717288 214 214 214 0
5.380124 5.814005 22.686587 214 214 214 0
5.460809 5.807527 22.661310 214 214 214 0
5.548088 5.808155 22.663758 214 214 214 0
5.646992 5.820745 22.712888 215 215 215 0
5.737063 5.823988 22.725540 214 214 214 0
5.818867 5.818867 22.705559 215 215 215 0
5.903041 5.816232 22.695276 214 214 214 0
5.995389 5.821610 22.716261 215 215 215 0
6.087776 5.826871 22.736792 215 215 215 0
6.175332 5.827426 22.738955 215 215 215 0
6.255953 5.821512 22.715878 214 214 214 0
6.342342 5.821054 22.714091 215 215 215 0
6.434544 5.825871 22.732889 215 215 215 0
6.532822 5.835987 22.772363 215 215 215 0
6.624886 5.840360 22.789427 215 215 215 0
6.713230 5.841382 22.793414 215 215 215 0
6.794271 5.836104 22.772820 214 214 214 0
6.875335 5.830980 22.752824 215 215 215 0
-10.713541 9.106510 35.011573 206 206 206 0
-10.577671 9.104831 35.005117 207 207 207 0
-6.083099 5.303214 20.389135 207 207 207 0
-6.015190 5.312116 20.423359 207 207 207 0
-5.943021 5.317440 20.443830 207 207 207 0
-5.868155 5.320460 20.455442 207 207 207 0
-5.799759 5.329508 20.490227 207 207 207 0
-5.766152 5.371210 20.650557 207 207 207 0
-5.710286 5.393048 20.734518 207 207 207 0
-5.647661 5.409027 20.795952 207 207 207 0
-5.601674 5.441627 20.921287 208 208 208 0
-5.517173 5.437214 20.904321 208 208 208 0
-5.449333 5.449333 20.950915 207 207 207 0
-5.377117 5.457373 20.981825 208 208 208 0
-5.313509 5.474524 21.047766 208 208 208 0
-5.301381 5.546060 21.322800 208 208 208 0
-5.227649 5.554377 21.354776 208 208 208 0
-5.131465 5.538724 21.294593 208 208 208 0
-5.041599 5.529496 21.259116 207 207 207 0
-5.005608 5.580022 21.453372 208 208 208 0
-4.978823 5.642666 21.694216 208 208 208 0
-4.902174 5.649964 21.722275 208 208 208 0
-4.789854 5.615690 21.590505 208 208 208 0
-4.680635 5.583916 21.468342 208 208 208 0
-4.580907 5.562530 21.386121 209 209 209 0
-4.546492 5.621117 21.611368 208 208 208 0
-4.511311 5.680910 21.841255 208 208 208 0
-4.406390 5.653481 21.735799 209 209 209 0
-4.298130 5.620632 21.609503 209 209 209 0
-4.196791 5.595721 21.513728 208 208 208 0
-4.106795 5.585242 21.473440 208 208 208 0
-4.075959 5.656433 21.747146 209 209 209 0
-4.004949 5.673677 21.813445 209 209 209 0
-3.915349 5.664760 21.779164 209 209 209 0
-3.818392 5.644580 21.701576 209 209 209 0
-3.728740 5.634541 21.662979 209 209 209 0
-3.662110 5.659624 21.759416 209 209 209 0
-3.602037 5.696245 21.900213 210 210 210 0
-3.522612 5.703277 21.927246 209 209 209 0
-3.439843 5.705105 21.934274 210 210 210 0
-3.346110 5.688386 21.869998 210 210 210 0
-3.267069 5.696429 21.900918 210 210 210 0
-3.199552 5.725515 22.012745 209 209 209 0
-3.133731 5.759289 22.142594 209 209 209 0
-3.047181 5.755787 22.129132 209 209 209 0
-2.959073 5.749056 22.103252 210 210 210 0
-2.860973 5.721946 21.999024 210 210 210 0
-2.776998 5.722298 22.000377 210 210 210 0
-2.704276 5.746586 22.093755 210 210 210 0
-2.630141 5.769342 22.181244 210 210 210 0
-2.540087 5.757531 22.135838 210 210 210 0
-2.446548 5.736733 22.055873 210 210 210 0
-2.358757 5.728411 22.023878 210 210 210 0
-2.276487 5.733374 22.042960 210 210 210 0
-2.195282 5.741507 22.074228 210 210 210 0
-2.115494 5.754144 22.122814 211 211 211 0
-2.034466 5.764321 22.161943 211 211 211 0
-1.945011 5.750468 22.108682 210 210 210 0
-1.865285 5.765426 22.166190 210 210 210 0
-1.782492 5.771880 22.191003 211 211 211 0
-1.698614 5.775289 22.204109 211 211 211 0
-1.614484 5.778152 22.215118 211 211 211 0
-1.530974 5.783678 22.236365 210 210 210 0
-1.447243 5.788972 22.256715 211 211 211 0
-1.364237 5.798005 22.291447 211 211 211 0
-1.278934 5.797833 22.290784 211 211 211 0
-1.195370 5.806081 22.322494 211 211 211 0
-1.113880 5.826448 22.400799 211 211 211 0
-1.030951 5.842054 22.460799 211 211 211 0
-0.942891 5.828783 22.409775 211 211 211 0
-0.855323 5.816194 22.361376 211 211 211 0
-0.770380 5.820649 22.378504 212 212 212 0
-0.687924 5.847352 22.481170 211 211 211 0
-0.601795 5.846007 22.475996 212 212 212 0
-0.514709 5.833370 22.427411 211 211 211 0
-0.427976 5.820476 22.377839 212 212 212 0
-0.341394 5.803702 22.313348 211 211 211 0
-0.255698 5.795827 22.283073 211 211 211 0
-0.171141 5.818802 22.371404 212 212 212 0
-0.085923 5.842791 22.463633 212 212 212 0
0.000000 5.835406 22.435239 212 212 212 0
0.085595 5.820461 22.377781 212 212 212 0
0.171153 5.819208 22.372965 212 212 212 0
0.257083 5.827211 22.403732 212 212 212 0
0.343447 5.838594 22.447499 212 212 212 0
0.430267 5.851629 22.497612 212 212 212 0
0.515743 5.845087 22.472462 213 213 213 0
0.601063 5.838900 22.448672 212 212 212 0
0.686462 5.834924 22.433387 212 212 212 0
0.775729 5.861063 22.533884 212 212 212 0
0.865467 5.885175 22.626586 212 212 212 0
0.950983 5.878802 22.602083 212 212 212 0
1.033644 5.857317 22.519481 212 212 212 0
1.118067 5.848350 22.485006 212 212 212 0
1.206282 5.859083 22.526271 213 213 213 0
1.297266 5.880941 22.610306 213 213 213 0
1.380960 5.869082 22.564713 213 213 213 0
1.463335 5.853339 22.504185 212 212 212 0
1.546681 5.843017 22.464504 213 213 213 0
1.631168 5.837865 22.444695 213 213 213 0
1.719243 5.845426 22.473762 213 213 213 0
1.812154 5.867926 22.560268 213 213 213 0
1.897681 5.865558 22.551165 213 213 213 0
1.981417 5.858104 22.522506 213 213 213 0
2.067313 5.857388 22.519753 213 213 213 0
2.158828 5.872012 22.575979 213 213 213 0
2.246785 5.876207 22.592108 213 213 213 0
2.331951 5.873062 22.580017 213 213 213 0
2.417380 5.870779 22.571237 212 212 212 0
2.504683 5.873050 22.579969 213 213 213 0
2.595219 5.882496 22.616287 214 214 214 0
2.688608 5.897591 22.674321 213 213 213 0
2.778619 5.904565 22.701133 213 213 213 0
2.864467 5.902539 22.693345 213 213 213 0
2.947404 5.894809 22.663624 213 213 213 0
3.037352 5.901141 22.687972 213 213 213 0
3.129944 5.912116 22.730164 213 213 213 0
2.758255 5.069226 19.489526 214 214 214 0
3.291837 5.890655 22.647656 213 213 213 0
3.377837 5.889562 22.643452 214 214 214 0
3.460787 5.883338 22.619522 214 214 214 0
3.545880 5.880972 22.610427 213 213 213 0
3.632689 5.881496 22.612441 213 213 213 0
3.721497 5.885157 22.626519 214 214 214 0
3.813743 5.893966 22.660386 214 214 214 0
3.897614 5.889728 22.644091 214 214 214 0
3.986168 5.892597 22.655120 213 213 213 0
4.071091 5.890090 22.645482 214 214 214 0
4.159846 5.893115 22.657114 214 214 214 0
4.248125 5.895357 22.665731 214 214 214 0
4.340223 5.902703 22.693977 214 214 214 0
4.425145 5.900193 22.684325 214 214 214 0
4.515050 5.904296 22.700098 214 214 214 0
4.607568 5.911597 22.728170 214 214 214 0
4.703878 5.923402 22.773555 214 214 214 0
4.795123 5.928516 22.793216 214 214 214 0
4.873966 5.918388 22.754279 214 214 214 0
4.954221 5.910299 22.723180 214 214 214 0
5.041258 5.910441 22.723724 214 214 214 0
5.139045 5.922967 22.771885 214 214 214 0
5.222370 5.918686 22.755425 214 214 214 0
5.300714 5.908992 22.718156 214 214 214 0
5.378395 5.898884 22.679294 214 214 214 0
5.460740 5.894132 22.661024 215 215 215 0
5.547258 5.893961 22.660366 214 214 214 0
5.647689 5.908352 22.715694 215 215 215 0
5.739008 5.912918 22.733248 214 214 214 0
5.817441 5.904268 22.699994 214 214 214 0
5.902064 5.902064 22.691520 214 214 214 0
5.990174 5.903359 22.696499 214 214 214 0
6.085950 5.912066 22.729973 215 215 215 0
6.172112 5.911318 22.727098 215 215 215 0
6.257296 5.909669 22.720756 214 214 214 0
6.341121 5.906798 22.709718 215 215 215 0
6.431630 5.910147 22.722593 215 215 215 0
6.532659 5.922944 22.771797 215 215 215 0
6.623907 5.926654 22.786058 215 215 215 0
6.711588 5.927117 22.787839 214 214 214 0
6.795436 5.924226 22.776726 215 215 215 0
6.874847 5.917590 22.751210 215 215 215 0
-10.713560 9.240446 35.011636 207 207 207 0
-10.577869 9.238898 35.005772 206 206 206 0
-6.088956 5.386384 20.408768 206 206 206 0
-5.996620 5.373594 20.360308 207 207 207 0
-5.939387 5.392338 20.431329 206 206 206 0
-5.864637 5.395466 20.443179 207 207 207 0
-5.804550 5.412351 20.507154 206 206 206 0
-5.768524 5.452441 20.659054 207 207 207 0
-5.715680 5.477526 20.754102 207 207 207 0
-5.640490 5.481603 20.769549 208 208 208 0
-5.602261 5.522229 20.923478 207 207 207 0
-5.519553 5.519553 20.913339 207 207 207 0
-5.457852 5.538115 20.983668 207 207 207 0
-5.371946 5.532302 20.961646 207 207 207 0
-5.318867 5.560634 21.068991 207 207 207 0
-5.290013 5.615552 21.277075 208 208 208 0
-5.228854 5.637358 21.359697 208 208 208 0
-5.136476 5.625665 21.315391 208 208 208 0
-5.041952 5.611204 21.260602 209 209 209 0
-5.007507 5.664229 21.461509 207 207 207 0
-4.974362 5.720516 21.674779 208 208 208 0
-4.891780 5.720895 21.676216 209 209 209 0
-4.783611 5.690848 21.562369 209 209 209 0
-4.683653 5.669685 21.482183 208 208 208 0
-4.579876 5.643061 21.381307 208 208 208 0
-4.540107 5.695771 21.581020 209 209 209 0
-4.507185 5.759181 21.821277 208 208 208 0
-4.412229 5.744222 21.764601 209 209 209 0
-4.296477 5.701094 21.601190 208 208 208 0
-4.191230 5.670488 21.485224 209 209 209 0
-4.105279 5.665285 21.465511 209 209 209 0
-4.077666 5.742020 21.756257 208 208 208 0
-4.004260 5.756124 21.809694 209 209 209 0
-3.914997 5.747549 21.777206 210 210 210 0
-3.820238 5.730357 21.712066 209 209 209 0
-3.729158 5.718043 21.665407 209 209 209 0
-3.658109 5.736580 21.735646 209 209 209 0
-3.598251 5.773938 21.877193 209 209 209 0
-3.521815 5.785839 21.922285 209 209 209 0
-3.437556 5.785156 21.919696 209 209 209 0
-3.342596 5.765978 21.847032 210 210 210 0
-3.268190 5.782182 21.908430 209 209 209 0
-3.198477 5.807761 22.005345 210 210 210 0
-3.134044 5.844569 22.144810 210 210 210 0
-3.048246 5.842471 22.136862 210 210 210 0
-2.958591 5.832651 22.099653 209 209 209 0
-2.861196 5.806544 22.000735 209 209 209 0
-2.777404 5.807298 22.003594 209 209 209 0
-2.705555 5.833854 22.104211 210 210 210 0
-2.632136 5.858625 22.198068 210 210 210 0
-2.536027 5.832862 22.100454 210 210 210 0
-2.445217 5.817931 22.043879 210 210 210 0
-2.361792 5.820130 22.052213 210 210 210 0
-2.276315 5.817249 22.041295 210 210 210 0
-2.194098 5.822799 22.062323 210 210 210 0
-2.117548 5.844432 22.144292 210 210 210 0
-2.033823 5.847242 22.154938 211 211 211 0
-1.945092 5.835275 22.109595 210 210 210 0
-1.865022 5.849388 22.163067 210 210 210 0
-1.782310 5.856160 22.188729 210 210 210 0
-1.700840 5.867897 22.233200 210 210 210 0
-1.614852 5.864462 22.220184 210 210 210 0
-1.531422 5.870451 22.242876 211 211 211 0
-1.448153 5.877797 22.270709 211 211 211 0
-1.363844 5.881576 22.285029 211 211 211 0
-1.279115 5.883931 22.293950 211 211 211 0
-1.195280 5.891025 22.320829 211 211 211 0
-1.113217 5.908616 22.387480 211 211 211 0
-1.031028 5.928410 22.462479 211 211 211 0
-0.942950 5.914870 22.411179 212 212 212 0
-0.855209 5.900944 22.358411 211 211 211 0
-0.770276 5.905447 22.375475 211 211 211 0
-0.687709 5.931494 22.474166 212 212 212 0
-0.601652 5.930570 22.470665 211 211 211 0
-0.514945 5.921872 22.437708 212 212 212 0
-0.427723 5.902572 22.364582 212 212 212 0
-0.341406 5.889247 22.314095 211 211 211 0
-0.255681 5.880653 22.281532 212 212 212 0
-0.171188 5.905971 22.377459 211 211 211 0
-0.085921 5.928531 22.462937 211 211 211 0
0.000000 5.920537 22.432650 211 211 211 0
0.085613 5.907264 22.382359 212 212 212 0
0.171123 5.903735 22.368986 211 211 211 0
0.256959 5.910049 22.392913 212 212 212 0
0.343263 5.921285 22.435484 212 212 212 0
0.430086 5.935188 22.488160 212 212 212 0
0.515820 5.931934 22.475831 212 212 212 0
0.601148 5.925601 22.451839 212 212 212 0
0.686571 5.921677 22.436969 212 212 212 0
0.776121 5.950261 22.545273 212 212 212 0
0.865029 5.968702 22.615146 212 212 212 0
0.950912 5.964809 22.600393 212 212 212 0
1.033184 5.940808 22.509457 212 212 212 0
1.117482 5.931253 22.473251 213 213 213 0
1.205860 5.943165 22.518386 212 212 212 0
1.296567 5.964209 22.598120 212 212 212 0
1.380369 5.952842 22.555050 213 213 213 0
1.463369 5.939558 22.504720 213 213 213 0
1.546857 5.929619 22.467061 213 213 213 0
1.632745 5.929443 22.466396 212 212 212 0
1.719670 5.932862 22.479349 213 213 213 0
1.811426 5.951829 22.551215 212 212 212 0
1.897256 5.950486 22.546125 213 213 213 0
1.980145 5.940434 22.508037 213 213 213 0
2.067433 5.943870 22.521056 213 213 213 0
2.157987 5.956043 22.567181 212 212 212 0
2.248006 5.965862 22.604382 213 213 213 0
2.331832 5.959125 22.578858 213 213 213 0
2.415847 5.953338 22.556930 214 214 214 0
2.502429 5.954054 22.559645 212 212 212 0
2.594646 5.967685 22.611290 213 213 213 0
2.688334 5.983711 22.672012 213 213 213 0
2.779976 5.994323 22.712222 213 213 213 0
2.865334 5.991154 22.700213 213 213 213 0
2.947981 5.982668 22.668062 214 214 214 0
3.037776 5.988758 22.691135 214 214 214 0
3.128948 5.997151 22.722935 213 213 213 0
4.945433 9.222564 34.943884 213 213 213 0
3.291477 5.976629 22.645180 214 214 214 0
3.376284 5.973425 22.633039 214 214 214 0
3.460699 5.969705 22.618946 214 214 214 0
3.545081 5.966112 22.605332 213 213 213 0
3.631588 5.966180 22.605587 213 213 213 0
3.720556 5.970195 22.620801 213 213 213 0
3.812925 5.979360 22.655527 213 213 213 0
3.895588 5.973234 22.632317 213 213 213 0
3.985126 5.977690 22.649199 214 214 214 0
4.072591 5.978911 22.653825 214 214 214 0
4.161855 5.982667 22.668055 214 214 214 0
4.246687 5.980029 22.658061 214 214 214 0
4.337632 5.985932 22.680429 214 214 214 0
4.426811 5.989215 22.692867 214 214 214 0
4.515464 5.991674 22.702184 214 214 214 0
4.608478 5.999717 22.732657 215 215 215 0
4.703548 6.010089 22.771958 214 214 214 0
4.794617 6.015066 22.790814 213 213 213 0
4.873874 6.005309 22.753847 215 215 215 0
4.954954 5.998103 22.726543 214 214 214 0
5.042468 5.998798 22.729178 215 215 215 0
5.139557 6.010669 22.774154 215 215 215 0
5.220913 6.004050 22.749076 214 214 214 0
5.300150 5.995252 22.715740 215 215 215 0
5.380199 5.987640 22.686901 214 214 214 0
5.460424 5.980464 22.659710 214 214 214 0
5.549761 5.983336 22.670592 214 214 214 0
5.647259 5.994783 22.713964 214 214 214 0
5.737808 5.998617 22.728491 214 214 214 0
5.817491 5.991147 22.700187 215 215 215 0
5.900740 5.987516 22.686430 215 215 215 0
5.994383 5.994383 22.712447 214 214 214 0
6.086355 5.999407 22.731485 214 214 214 0
6.170741 5.996918 22.722052 215 215 215 0
6.254200 5.993608 22.709513 215 215 215 0
6.337769 5.990494 22.697712 214 214 214 0
6.431201 5.996660 22.721076 215 215 215 0
6.531893 6.009342 22.769127 215 215 215 0
6.624347 6.014210 22.787573 215 215 215 0
6.709327 6.012254 22.780160 215 215 215 0
6.792792 6.009008 22.767863 215 215 215 0
6.878381 6.007700 22.762905 214 214 214 0
-10.713556 9.374361 35.011619 207 207 207 0
-10.577947 9.372865 35.006031 207 207 207 0
-6.088466 5.464008 20.407127 207 207 207 0
-5.986591 5.442355 20.326257 207 207 207 0
-5.939801 5.470869 20.432752 207 207 207 0
-5.866533 5.475431 20.449788 207 207 207 0
-5.795819 5.482531 20.476307 208 208 208 0
-5.771537 5.534350 20.669842 207 207 207 0
-5.716152 5.557370 20.755816 207 207 207 0
-5.654743 5.575098 20.822029 207 207 207 0
-5.600772 5.600772 20.917915 208 208 208 0
-5.523731 5.603785 20.929170 207 207 207 0
-5.448816 5.609075 20.948927 208 208 208 0
-5.372663 5.613230 20.964443 207 207 207 0
-5.315226 5.637361 21.054571 208 208 208 0
-5.291382 5.698412 21.282583 208 208 208 0
-5.227086 5.717126 21.352478 208 208 208 0
-5.134216 5.704684 21.306009 207 207 207 0
-5.042105 5.692699 21.261246 208 208 208 0
-5.006168 5.744783 21.455772 208 208 208 0
-4.962038 5.789044 21.621081 209 209 209 0
-4.891715 5.803730 21.675929 209 209 209 0
-4.788215 5.778880 21.583120 209 209 209 0
-4.683400 5.751544 21.481025 208 208 208 0
-4.583925 5.729907 21.400212 208 208 208 0
-4.527677 5.762499 21.521937 209 209 209 0
-4.515737 5.853733 21.862683 209 209 209 0
-4.408543 5.822604 21.746421 208 208 208 0
-4.297628 5.785269 21.606979 208 208 208 0
-4.198735 5.762969 21.523694 209 209 209 0
-4.108039 5.751254 21.479941 209 209 209 0
-4.077784 5.825406 21.756884 209 209 209 0
-4.004895 5.840472 21.813153 209 209 209 0
-3.913145 5.828088 21.766902 209 209 209 0
-3.817548 5.809311 21.696775 209 209 209 0
-3.726916 5.797425 21.652382 209 209 209 0
-3.658875 5.820938 21.740198 210 210 210 0
-3.600081 5.860597 21.888317 209 209 209 0
-3.523080 5.871799 21.930156 209 209 209 0
-3.436275 5.866811 21.911526 209 209 209 0
-3.345572 5.854752 21.866486 209 209 209 0
-3.268626 5.866764 21.911352 210 210 210 0
-3.200951 5.896488 22.022364 210 210 210 0
-3.135248 5.931551 22.153318 209 209 209 0
-3.050066 5.930685 22.150083 209 209 209 0
-2.960173 5.920347 22.111473 210 210 210 0
-2.861707 5.891749 22.004664 210 210 210 0
-2.776030 5.888548 21.992710 210 210 210 0
-2.703384 5.913652 22.086467 210 210 210 0
-2.630130 5.939003 22.181150 210 210 210 0
-2.541356 5.929832 22.146897 210 210 210 0
-2.446337 5.904952 22.053977 210 210 210 0
-2.359978 5.899944 22.035273 210 210 210 0
-2.276963 5.903238 22.047573 210 210 210 0
-2.193469 5.905494 22.055999 210 210 210 0
-2.118711 5.932391 22.156457 210 210 210 0
-2.034897 5.935116 22.166633 210 210 210 0
-1.944856 5.919126 22.106914 211 211 211 0
-1.865231 5.934825 22.165546 210 210 210 0
-1.781341 5.937803 22.176667 210 210 210 0
-1.699463 5.948122 22.215207 211 211 211 0
-1.613519 5.944544 22.201847 211 211 211 0
-1.530488 5.951899 22.229314 210 210 210 0
-1.446912 5.957874 22.251631 211 211 211 0
-1.364691 5.970522 22.298867 211 211 211 0
-1.279226 5.969719 22.295870 211 211 211 0
-1.195144 5.975718 22.318276 211 211 211 0
-1.112916 5.992626 22.381422 210 210 210 0
-1.030246 6.009767 22.445443 211 211 211 0
-0.942748 5.999304 22.406362 211 211 211 0
-0.855575 5.989022 22.367961 211 211 211 0
-0.770199 5.990436 22.373245 212 212 212 0
-0.687517 6.015772 22.467870 211 211 211 0
-0.601931 6.019311 22.481085 212 212 212 0
-0.514705 6.004891 22.427231 211 211 211 0
-0.427544 5.985617 22.355246 212 212 212 0
-0.341412 5.974705 22.314489 212 212 212 0
-0.255721 5.966834 22.285096 212 212 212 0
-0.171202 5.992085 22.379404 211 211 211 0
-0.085901 6.013084 22.457830 212 212 212 0
0.000000 6.006924 22.434824 212 212 212 0
0.085632 5.994274 22.387577 212 212 212 0
0.171215 5.992508 22.380981 211 211 211 0
0.256987 5.996364 22.395383 212 212 212 0
0.343306 6.007859 22.438317 212 212 212 0
0.430276 6.023866 22.498098 212 212 212 0
0.515996 6.019950 22.483474 212 212 212 0
0.601087 6.010873 22.449572 212 212 212 0
0.686481 6.006712 22.434033 212 212 212 0
0.776349 6.038274 22.551910 212 212 212 0
0.865264 6.056847 22.621278 212 212 212 0
0.950974 6.051653 22.601877 212 212 212 0
1.033166 6.026803 22.509069 212 212 212 0
1.117456 6.017071 22.472723 213 213 213 0
1.205644 6.028218 22.514354 212 212 212 0
1.297004 6.052684 22.605730 213 213 213 0
1.381033 6.042020 22.565900 213 213 213 0
1.463841 6.027582 22.511977 213 213 213 0
1.546717 6.015009 22.465019 213 213 213 0
1.631650 6.011343 22.451326 213 213 213 0
1.720647 6.022264 22.492115 213 213 213 0
1.812532 6.041773 22.564978 213 213 213 0
1.897289 6.036828 22.546510 213 213 213 0
1.980551 6.027765 22.512661 213 213 213 0
2.067720 6.030851 22.524188 213 213 213 0
2.158706 6.044376 22.574700 213 213 213 0
2.247683 6.051454 22.601136 213 213 213 0
2.331903 6.045675 22.579550 213 213 213 0
2.416558 6.041395 22.563565 213 213 213 0
2.503914 6.043931 22.573039 214 214 214 0
2.595515 6.056201 22.618866 213 213 213 0
2.688578 6.070982 22.674068 213 213 213 0
2.778426 6.077807 22.699559 214 214 214 0
2.867117 6.081763 22.714336 213 213 213 0
2.947837 6.069076 22.666951 213 213 213 0
3.037699 6.075397 22.690560 213 213 213 0
3.129875 6.085869 22.729669 213 213 213 0
3.467914 6.560919 24.503900 214 214 214 0
3.291579 6.063435 22.645884 214 214 214 0
3.376194 6.059835 22.632438 213 213 213 0
3.460687 6.056203 22.618872 214 214 214 0
3.545558 6.053391 22.608371 214 214 214 0
3.631915 6.053192 22.607626 213 213 213 0
3.722326 6.059600 22.631561 213 213 213 0
3.812822 6.065853 22.654912 214 214 214 0
3.897536 6.062833 22.643635 214 214 214 0
3.985626 6.065083 22.652038 213 213 213 0
4.071846 6.064451 22.649678 214 214 214 0
4.159252 6.065576 22.653879 214 214 214 0
4.246315 6.066165 22.656077 214 214 214 0
4.338778 6.074289 22.686420 214 214 214 0
4.427193 6.076540 22.694826 213 213 213 0
4.516090 6.079353 22.705332 214 214 214 0
4.607396 6.085240 22.727321 214 214 214 0
4.703519 6.097154 22.771817 213 213 213 0
4.793987 6.101438 22.787819 214 214 214 0
4.872116 6.090145 22.745640 214 214 214 0
4.953224 6.082907 22.718608 215 215 215 0
5.042181 6.085391 22.727885 214 214 214 0
5.140802 6.099257 22.779671 215 215 215 0
5.220206 6.090240 22.745995 214 214 214 0
5.300672 6.082739 22.717979 215 215 215 0
5.379821 6.073991 22.685307 214 214 214 0
5.460358 6.067064 22.659437 215 215 215 0
5.549712 6.069997 22.670390 215 215 215 0
5.646566 6.080917 22.711175 214 214 214 0
5.739493 6.087341 22.735169 214 214 214 0
5.817112 6.077580 22.698712 215 215 215 0
5.900582 6.074129 22.685822 215 215 215 0
5.992939 6.079793 22.706977 215 215 215 0
6.087028 6.087028 22.733998 214 214 214 0
6.173905 6.086948 22.733701 214 214 214 0
6.256586 6.082792 22.718176 215 215 215 0
6.339105 6.078594 22.702497 214 214 214 0
6.433801 6.086028 22.730264 215 215 215 0
6.532636 6.097126 22.771714 215 215 215 0
6.624156 6.101196 22.786914 215 215 215 0
6.711744 6.101586 22.788369 215 215 215 0
6.794307 6.097455 22.772940 215 215 215 0
6.879360 6.095636 22.766147 215 215 215 0
-10.713530 9.508258 35.011536 206 206 206 0
-10.578004 9.506814 35.006218 207 207 207 0
-6.079411 5.533823 20.376775 206 206 206 0
-5.977687 5.511893 20.296026 207 207 207 0
-5.930833 5.540646 20.401902 207 207 207 0
-5.876217 5.562819 20.483545 207 207 207 0
-5.797105 5.562088 20.480853 207 207 207 0
-5.770136 5.612050 20.664827 207 207 207 0
-5.709795 5.630492 20.732734 207 207 207 0
-5.646514 5.646514 20.791728 208 208 208 0
-5.599129 5.679117 20.911780 207 207 207 0
-5.510265 5.669983 20.878147 208 208 208 0
-5.453736 5.694342 20.967844 207 207 207 0
-5.377982 5.699055 20.985198 208 208 208 0
-5.303478 5.705257 21.008033 208 208 208 0
-5.287085 5.775123 21.265297 207 207 207 0
-5.222458 5.793665 21.333571 207 207 207 0
-5.137099 5.789429 21.317976 208 208 208 0
-5.046125 5.778627 21.278200 208 208 208 0
-5.003923 5.824238 21.446148 208 208 208 0
-4.968807 5.879755 21.650577 208 208 208 0
-4.901209 5.898065 21.717996 208 208 208 0
-4.782149 5.854010 21.555776 208 208 208 0
-4.679587 5.828959 21.463534 208 208 208 0
-4.584543 5.812546 21.403095 209 209 209 0
-4.525184 5.841601 21.510085 208 208 208 0
-4.510227 5.930114 21.836007 208 208 208 0
-4.412391 5.910939 21.765401 208 208 208 0
-4.299292 5.870187 21.615345 208 208 208 0
-4.195680 5.841045 21.508035 208 208 208 0
-4.104638 5.828585 21.462157 208 208 208 0
-4.074431 5.903768 21.738996 209 209 209 0
-4.014028 5.937417 21.862899 209 209 209 0
-3.916260 5.916053 21.784232 209 209 209 0
-3.821074 5.897745 21.716817 208 208 208 0
-3.727287 5.880831 21.654537 209 209 209 0
-3.662745 5.910338 21.763188 209 209 209 0
-3.599606 5.943535 21.885428 209 209 209 0
-3.521019 5.952199 21.917330 209 209 209 0
-3.437389 5.952552 21.918629 209 209 209 0
-3.345927 5.939020 21.868801 210 210 210 0
-3.268964 5.951191 21.913620 210 210 210 0
-3.199846 5.978660 22.014767 209 209 209 0
-3.132329 6.010686 22.132692 210 210 210 0
-3.050254 6.015779 22.151446 210 210 210 0
-2.960280 6.005140 22.112272 209 209 209 0
-2.860536 5.973471 21.995660 210 210 210 0
-2.777939 5.976777 22.007834 210 210 210 0
-2.705713 6.003300 22.105495 210 210 210 0
-2.631363 6.026669 22.191546 209 209 209 0
-2.538570 6.007949 22.122616 210 210 210 0
-2.447239 5.991515 22.062101 210 210 210 0
-2.359374 5.982699 22.029636 210 210 210 0
-2.274461 5.980989 22.023343 210 210 210 0
-2.194396 5.992390 22.065322 210 210 210 0
-2.117725 6.014338 22.146142 211 211 211 0
-2.033565 6.015964 22.152126 210 210 210 0
-1.945303 6.005066 22.111997 210 210 210 0
-1.864869 6.018440 22.161246 211 211 211 0
-1.781669 6.023739 22.180756 211 211 211 0
-1.700877 6.038112 22.233680 211 211 211 0
-1.613607 6.029794 22.203051 211 211 211 0
-1.530650 6.037563 22.231659 211 211 211 0
-1.447607 6.045888 22.262314 210 210 210 0
-1.364355 6.054324 22.293376 211 211 211 0
-1.279075 6.054288 22.293244 210 210 210 0
-1.195847 6.064651 22.331403 211 211 211 0
-1.113176 6.079651 22.386638 211 211 211 0
-1.030817 6.098998 22.457877 211 211 211 0
-0.943078 6.087140 22.414214 211 211 211 0
-0.855234 6.072160 22.359054 212 212 212 0
-0.770140 6.075545 22.371519 211 211 211 0
-0.687565 6.102137 22.469435 211 211 211 0
-0.601745 6.103410 22.474123 211 211 211 0
-0.514682 6.090406 22.426240 211 211 211 0
-0.427646 6.072573 22.360576 212 212 212 0
-0.341212 6.056508 22.301420 211 211 211 0
-0.255691 6.051356 22.282449 212 212 212 0
-0.171181 6.076912 22.376551 211 211 211 0
-0.085919 6.100260 22.462524 212 212 212 0
0.000000 6.093293 22.436872 212 212 212 0
0.085628 6.079577 22.386365 212 212 212 0
0.171181 6.076917 22.376570 212 212 212 0
0.256986 6.081997 22.395276 212 212 212 0
0.343458 6.096371 22.448205 212 212 212 0
0.430341 6.110836 22.501466 212 212 212 0
0.515856 6.104292 22.477370 212 212 212 0
0.601182 6.097703 22.453110 212 212 212 0
0.686568 6.093287 22.436849 212 212 212 0
0.776735 6.127576 22.563109 211 211 211 0
0.865172 6.142724 22.618886 212 212 212 0
0.951041 6.138535 22.603462 212 212 212 0
1.033247 6.113381 22.510838 213 213 213 0
1.117660 6.104141 22.476813 212 212 212 0
1.206061 6.116454 22.522153 213 213 213 0
1.297096 6.139589 22.607344 213 213 213 0
1.381703 6.131306 22.576842 212 212 212 0
1.464150 6.114980 22.516727 212 212 212 0
1.546770 6.101147 22.465788 212 212 212 0
1.632591 6.100736 22.464277 213 213 213 0
1.719770 6.105182 22.480649 213 213 213 0
1.811820 6.125679 22.556122 212 212 212 0
1.897208 6.122807 22.545545 213 213 213 0
1.980538 6.113834 22.512507 213 213 213 0
2.066450 6.113247 22.510343 213 213 213 0
2.159690 6.133521 22.584998 213 213 213 0
2.247704 6.137962 22.601350 213 213 213 0
2.332464 6.133517 22.584985 213 213 213 0
2.418344 6.132230 22.580245 213 213 213 0
2.505035 6.133018 22.583145 213 213 213 0
2.596908 6.146015 22.631003 213 213 213 0
2.688096 6.156607 22.670005 213 213 213 0
2.778907 6.165700 22.703488 213 213 213 0
2.865399 6.164949 22.700725 213 213 213 0
2.947386 6.154836 22.663487 214 214 214 0
3.038022 6.162846 22.692978 214 214 214 0
3.130316 6.173679 22.732869 213 213 213 0
3.453374 6.626745 24.401158 213 213 213 0
3.291717 6.150313 22.646831 213 213 213 0
3.378040 6.149765 22.644811 214 214 214 0
3.460023 6.141540 22.614528 213 213 213 0
3.546031 6.140687 22.611387 213 213 213 0
3.632075 6.139936 22.608621 214 214 214 0
3.721470 6.144753 22.626359 214 214 214 0
3.811882 6.150992 22.649329 214 214 214 0
3.898252 6.150575 22.647795 214 214 214 0
3.984183 6.149500 22.643835 214 214 214 0
4.071522 6.150598 22.647878 214 214 214 0
4.159474 6.152555 22.655087 214 214 214 0
4.247255 6.154186 22.661090 213 213 213 0
4.337651 6.159465 22.680528 214 214 214 0
4.426722 6.162691 22.692408 214 214 214 0
4.515944 6.166000 22.704594 214 214 214 0
4.608124 6.173147 22.730909 214 214 214 0
4.703602 6.184366 22.772220 215 215 215 0
4.792063 6.186118 22.778674 214 214 214 0
4.872504 6.177640 22.747453 214 214 214 0
4.954283 6.171124 22.723462 214 214 214 0
5.041355 6.171314 22.724161 214 214 214 0
5.139656 6.185010 22.774594 214 214 214 0
5.221746 6.179066 22.752707 214 214 214 0
5.300951 6.169959 22.719171 214 214 214 0
5.377991 6.158668 22.677594 214 214 214 0
5.460206 6.153566 22.658807 214 214 214 0
5.549912 6.156934 22.671210 214 214 214 0
5.647657 6.168979 22.715564 215 215 215 0
5.737906 6.172596 22.728883 215 215 215 0
5.816959 6.164240 22.698114 214 214 214 0
5.899998 6.160292 22.683576 214 214 214 0
5.992088 6.165772 22.703754 214 214 214 0
6.087062 6.174020 22.734124 215 215 215 0
6.174035 6.174035 22.734180 215 215 215 0
6.256071 6.169181 22.716307 214 214 214 0
6.336537 6.162933 22.693301 214 214 214 0
6.429163 6.168521 22.713877 215 215 215 0
6.531365 6.183026 22.767285 214 214 214 0
6.623635 6.187869 22.785121 215 215 215 0
6.710802 6.187883 22.785170 214 214 214 0
6.795192 6.185367 22.775908 215 215 215 0
10.561838 9.492284 34.952718 215 215 215 0
-10.713538 9.642184 35.011562 207 207 207 0
-10.577984 9.640694 35.006152 207 207 207 0
-6.090156 5.621683 20.412791 207 207 207 0
-5.986430 5.597701 20.325710 207 207 207 0
-5.943042 5.630250 20.443901 207 207 207 0
-5.873756 5.638806 20.474966 207 207 207 0
-5.792821 5.636259 20.465717 207 207 207 0
-5.758348 5.679466 20.622608 207 207 207 0
-5.706871 5.706871 20.722117 208 208 208 0
-5.647938 5.727487 20.796974 207 207 207 0
-5.594046 5.753876 20.892794 207 207 207 0
-5.510187 5.749760 20.877852 207 207 207 0
-5.453102 5.773872 20.965405 208 208 208 0
-5.378190 5.779547 20.986009 207 207 207 0
-5.317042 5.800410 21.061764 208 208 208 0
-5.271100 5.838757 21.201006 208 208 208 0
-5.216590 5.868664 21.309601 208 208 208 0
-5.126853 5.859260 21.275454 208 208 208 0
-5.039188 5.851960 21.248949 208 208 208 0
-5.001026 5.902850 21.433733 209 209 209 0
-4.963819 5.956583 21.628841 208 208 208 0
-4.899830 5.979454 21.711887 209 209 209 0
-4.784250 5.939068 21.565245 208 208 208 0
-4.679268 5.910655 21.462073 209 209 209 0
-4.579882 5.888420 21.381337 209 209 209 0
-4.510155 5.904203 21.438645 209 209 209 0
-4.516324 6.021765 21.865524 208 208 208 0
-4.417979 6.001783 21.792966 209 209 209 0
-4.295226 5.947235 21.594900 208 208 208 0
-4.195215 5.922656 21.505651 209 209 209 0
-4.109221 5.917279 21.486125 208 208 208 0
-4.078557 5.992982 21.761008 209 209 209 0
-4.011695 6.017543 21.850191 209 209 209 0
-3.915943 5.998891 21.782464 209 209 209 0
-3.821794 5.981938 21.720909 209 209 209 0
-3.728117 5.964987 21.659358 209 209 209 0
-3.659927 5.988971 21.746446 209 209 209 0
-3.599072 6.026353 21.882181 209 209 209 0
-3.518221 6.031235 21.899910 209 209 209 0
-3.437366 6.036350 21.918482 210 210 210 0
-3.345600 6.022081 21.866670 209 209 209 0
-3.271435 6.039572 21.930181 209 209 209 0
-3.199664 6.062521 22.013513 209 209 209 0
-3.134643 6.099846 22.149042 210 210 210 0
-3.050204 6.100407 22.151080 209 209 209 0
-2.961269 6.091753 22.119653 209 209 209 0
-2.861700 6.060071 22.004613 210 210 210 0
-2.775307 6.055214 21.986980 210 210 210 0
-2.704754 6.085696 22.097663 210 210 210 0
-2.631474 6.111811 22.192488 211 211 211 0
-2.540076 6.096182 22.135738 210 210 210 0
-2.445474 6.071521 22.046192 209 209 209 0
-2.358752 6.065362 22.023828 210 210 210 0
-2.278240 6.075306 22.059935 210 210 210 0
-2.194062 6.075864 22.061962 210 210 210 0
-2.118185 6.100373 22.150955 210 210 210 0
-2.033613 6.100839 22.152647 211 211 211 0
-1.945403 6.089957 22.113134 211 211 211 0
-1.865207 6.104313 22.165260 210 210 210 0
-1.784065 6.116793 22.210577 210 210 210 0
-1.700064 6.120232 22.223065 211 211 211 0
-1.614619 6.118557 22.216982 211 211 211 0
-1.531081 6.124325 22.237926 211 211 211 0
-1.448098 6.133122 22.269869 211 211 211 0
-1.364188 6.138845 22.290649 210 210 210 0
-1.279578 6.141974 22.302011 211 211 211 0
-1.195317 6.147346 22.321518 211 211 211 0
-1.113368 6.166346 22.390508 211 211 211 0
-1.030528 6.183168 22.451590 211 211 211 0
-0.942773 6.170876 22.406956 211 211 211 0
-0.855410 6.158950 22.363655 210 210 210 0
-0.770554 6.164436 22.383572 212 212 212 0
-0.687663 6.188967 22.472645 212 212 212 0
-0.601168 6.183447 22.452603 211 211 211 0
-0.514796 6.177552 22.431198 211 211 211 0
-0.427676 6.158537 22.362153 212 212 212 0
-0.341386 6.144948 22.312812 212 212 212 0
-0.255723 6.137346 22.285208 212 212 212 0
-0.171282 6.166154 22.389811 212 212 212 0
-0.085942 6.187826 22.468503 212 212 212 0
0.000000 6.177085 22.429503 211 211 211 0
0.085596 6.162944 22.378155 212 212 212 0
0.171002 6.156057 22.353149 212 212 212 0
0.256935 6.166443 22.390862 212 212 212 0
0.343331 6.179966 22.439964 212 212 212 0
0.430278 6.196002 22.498190 212 212 212 0
0.516107 6.193282 22.488315 211 211 211 0
0.601191 6.183676 22.453436 212 212 212 0
0.686460 6.178136 22.433318 212 212 212 0
0.776619 6.212951 22.559735 212 212 212 0
0.865578 6.232162 22.629490 212 212 212 0
0.951157 6.225755 22.606226 212 212 212 0
1.033732 6.202393 22.521398 213 213 213 0
1.117820 6.191002 22.480038 212 212 212 0
1.206472 6.204714 22.529826 213 213 213 0
1.297806 6.229468 22.619711 213 213 213 0
1.380659 6.212966 22.559788 212 212 212 0
1.463926 6.200156 22.513275 213 213 213 0
1.546261 6.185044 22.458401 212 212 212 0
1.632388 6.185890 22.461473 213 213 213 0
1.721368 6.196924 22.501541 213 213 213 0
1.811850 6.212057 22.556489 213 213 213 0
1.897147 6.208843 22.544819 213 213 213 0
1.980969 6.201295 22.517410 213 213 213 0
2.068332 6.204995 22.530847 213 213 213 0
2.159296 6.218773 22.580876 213 213 213 0
2.247977 6.225167 22.604092 213 213 213 0
2.332825 6.220866 22.588473 213 213 213 0
2.417697 6.216935 22.574202 213 213 213 0
2.504854 6.218947 22.581506 213 213 213 0
2.595712 6.229708 22.620580 213 213 213 0
2.688661 6.244632 22.674773 213 213 213 0
2.779075 6.252920 22.704864 213 213 213 0
2.866027 6.253149 22.705697 214 214 214 0
2.947924 6.242663 22.667623 213 213 213 0
3.038283 6.250182 22.694922 213 213 213 0
3.129572 6.259143 22.727462 213 213 213 0
3.431908 6.678308 24.249484 213 213 213 0
3.291945 6.237369 22.648398 213 213 213 0
3.377414 6.235226 22.640616 213 213 213 0
3.461637 6.230947 22.625080 214 214 214 0
3.545515 6.226271 22.608100 214 214 214 0
3.632092 6.226443 22.608727 213 213 213 0
3.721280 6.230980 22.625199 213 213 213 0
3.813016 6.239481 22.656069 214 214 214 0
3.898371 6.237394 22.648488 214 214 214 0
3.985582 6.238302 22.651785 214 214 214 0
4.071865 6.237750 22.649782 214 214 214 0
4.160604 6.240906 22.661242 213 213 213 0
4.244956 6.237486 22.648824 214 214 214 0
4.338674 6.247690 22.685876 214 214 214 0
4.427218 6.250191 22.694955 214 214 214 0
4.515669 6.252465 22.703212 214 214 214 0
4.608228 6.260235 22.731427 214 214 214 0
4.704266 6.272355 22.775434 213 213 213 0
4.794109 6.275925 22.788397 215 215 215 0
4.872708 6.264910 22.748403 214 214 214 0
4.952490 6.255777 22.715240 214 214 214 0
5.040835 6.257589 22.721818 214 214 214 0
5.140506 6.273160 22.778359 215 215 215 0
5.221647 6.265977 22.752276 214 214 214 0
5.300638 6.256491 22.717831 214 214 214 0
5.379442 6.247094 22.683709 214 214 214 0
5.460546 6.240624 22.660217 215 215 215 0
5.545934 6.239176 22.654961 214 214 214 0
5.646937 6.255069 22.712669 215 215 215 0
5.737444 6.259030 22.727051 215 215 215 0
5.816999 6.251104 22.698270 215 215 215 0
5.900350 6.247429 22.684929 214 214 214 0
5.995937 6.256630 22.718336 214 214 214 0
6.087678 6.261611 22.736424 214 214 214 0
6.177819 6.264831 22.748115 215 215 215 0
6.257049 6.257049 22.719858 214 214 214 0
6.339298 6.252458 22.703188 214 214 214 0
6.431785 6.257953 22.723141 215 215 215 0
6.531445 6.270187 22.767565 215 215 215 0
6.622567 6.274011 22.781448 215 215 215 0
6.711047 6.275265 22.786001 214 214 214 0
6.796228 6.273441 22.779379 215 215 215 0
6.879198 6.269649 22.765610 215 215 215 0
-10.713521 9.776088 35.011508 206 206 206 0
-10.577770 9.774395 35.005444 207 207 207 0
-6.089439 5.699091 20.410388 207 207 207 0
-6.000248 5.688547 20.372627 207 207 207 0
-5.941138 5.706619 20.437351 207 207 207 0
-5.871342 5.714773 20.466551 207 207 207 0
-5.793385 5.715096 20.467709 208 208 208 0
-5.766655 5.766655 20.652360 207 207 207 0
-5.707713 5.786987 20.725175 207 207 207 0
-5.647498 5.806582 20.795353 207 207 207 0
-5.598359 5.838289 20.908904 207 207 207 0
-5.513074 5.832672 20.888789 207 207 207 0
-5.444583 5.844919 20.932651 208 208 208 0
-5.368065 5.848787 20.946502 208 208 208 0
-5.306389 5.869188 21.019565 208 208 208 0
-5.284886 5.935333 21.256454 207 207 207 0
-5.215643 5.949092 21.305729 208 208 208 0
-5.121503 5.934440 21.253255 207 207 207 0
-5.031107 5.923723 21.214873 208 208 208 0
-4.993344 5.975642 21.400812 208 208 208 0
-4.963727 6.039201 21.628438 208 208 208 0
-4.895343 6.056949 21.692003 208 208 208 0
-4.783239 6.020283 21.560689 208 208 208 0
-4.677986 5.991104 21.456189 209 209 209 0
-4.582641 5.973800 21.394216 209 209 209 0
-4.482726 5.949800 21.308265 208 208 208 0
-4.515335 6.104065 21.860738 209 209 209 0
-4.410271 6.074525 21.754945 209 209 209 0
-4.299705 6.036124 21.617421 209 209 209 0
-4.195986 6.006019 21.509603 209 209 209 0
-4.111697 6.003078 21.499071 209 209 209 0
-4.078371 6.075941 21.760018 209 209 209 0
-4.008353 6.096037 21.831989 208 208 208 0
-3.915269 6.081162 21.778716 209 209 209 0
-3.816206 6.056153 21.689149 209 209 209 0
-3.726865 6.045804 21.652086 209 209 209 0
-3.657510 6.068142 21.732088 209 209 209 0
-3.594418 6.102152 21.853889 210 210 210 0
-3.521413 6.120552 21.919785 209 209 209 0
-3.437791 6.120944 21.921189 210 210 210 0
-3.348414 6.110856 21.885061 209 209 209 0
-3.269643 6.120100 21.918167 210 210 210 0
-3.199281 6.145987 22.010876 210 210 210 0
-3.132558 6.180452 22.134308 210 210 210 0
-3.048345 6.181366 22.137581 210 210 210 0
-2.960069 6.173857 22.110690 210 210 210 0
-2.861495 6.143799 22.003041 210 210 210 0
-2.778135 6.145572 22.009390 210 210 210 0
-2.706560 6.174339 22.112416 210 210 210 0
-2.630222 6.193749 22.181930 210 210 210 0
-2.538404 6.176783 22.121166 210 210 210 0
-2.445978 6.157118 22.050740 210 210 210 0
-2.358433 6.148772 22.020850 210 210 210 0
-2.276759 6.155682 22.045598 210 210 210 0
-2.194350 6.161059 22.064856 210 210 210 0
-2.117167 6.182129 22.140312 210 210 210 0
-2.033449 6.185075 22.150864 210 210 210 0
-1.945230 6.173992 22.111173 211 211 211 0
-1.863573 6.183674 22.145848 211 211 211 0
-1.783624 6.200217 22.205092 211 211 211 0
-1.699921 6.204712 22.221192 211 211 211 0
-1.613297 6.198459 22.198796 211 211 211 0
-1.531591 6.211451 22.245326 210 210 210 0
-1.446761 6.212560 22.249298 210 210 210 0
-1.364408 6.225111 22.294246 211 211 211 0
-1.279665 6.227705 22.303537 211 211 211 0
-1.195494 6.233645 22.324811 211 211 211 0
-1.113336 6.251811 22.389868 210 210 210 0
-1.030200 6.267049 22.444440 211 211 211 0
-0.943159 6.259146 22.416139 211 211 211 0
-0.855173 6.242761 22.357456 210 210 210 0
-0.770689 6.251146 22.387488 211 211 211 0
-0.687287 6.271498 22.460376 211 211 211 0
-0.601446 6.272224 22.462975 211 211 211 0
-0.514821 6.263658 22.432297 211 211 211 0
-0.427658 6.243806 22.361200 211 211 211 0
-0.341378 6.230150 22.312294 211 211 211 0
-0.255600 6.219608 22.274539 212 212 212 0
-0.171270 6.251359 22.388250 212 212 212 0
-0.085919 6.272051 22.462354 212 212 212 0
0.000000 6.262827 22.429320 211 211 211 0
0.085606 6.249264 22.380746 212 212 212 0
0.171138 6.246552 22.371033 212 212 212 0
0.256959 6.252659 22.392905 212 212 212 0
0.343245 6.264218 22.434302 212 212 212 0
0.430273 6.281992 22.497956 212 212 212 0
0.515586 6.272961 22.465614 211 211 211 0
0.601403 6.271771 22.461353 212 212 212 0
0.686751 6.266605 22.442853 213 213 213 0
0.776787 6.300603 22.564610 212 212 212 0
0.865934 6.321320 22.638804 212 212 212 0
0.950860 6.310254 22.599173 212 212 212 0
1.033442 6.286775 22.515086 212 212 212 0
1.117339 6.274289 22.470371 212 212 212 0
1.206184 6.289391 22.524453 212 212 212 0
1.297292 6.313490 22.610761 212 212 212 0
1.381080 6.301178 22.566667 212 212 212 0
1.463889 6.286111 22.512707 212 212 212 0
1.546932 6.273670 22.468152 212 212 212 0
1.632907 6.273799 22.468616 213 213 213 0
1.720545 6.279990 22.490788 213 213 213 0
1.812722 6.301368 22.567347 213 213 213 0
1.897169 6.295150 22.545080 213 213 213 0
1.981017 6.287577 22.517957 213 213 213 0
2.067692 6.289229 22.523875 212 212 212 0
2.159271 6.305072 22.580615 213 213 213 0
2.247147 6.309298 22.595749 213 213 213 0
2.332932 6.307557 22.589515 213 213 213 0
2.417769 6.303469 22.574872 213 213 213 0
2.506880 6.310422 22.599776 214 214 214 0
2.595591 6.315939 22.619533 213 213 213 0
2.689961 6.334425 22.685737 213 213 213 0
2.779169 6.339979 22.705628 213 213 213 0
2.865056 6.337852 22.698009 213 213 213 0
2.946995 6.327371 22.660476 213 213 213 0
3.039026 6.338539 22.700472 213 213 213 0
3.130768 6.348502 22.736151 214 214 214 0
3.434236 6.775654 24.265929 213 213 213 0
3.294772 6.329430 22.667847 213 213 213 0
3.375826 6.318855 22.629975 213 213 213 0
3.461115 6.316536 22.621669 213 213 213 0
3.545506 6.312731 22.608042 214 214 214 0
3.633235 6.314908 22.615841 214 214 214 0
3.722314 6.319278 22.631491 214 214 214 0
3.812414 6.325141 22.652489 214 214 214 0
3.896823 6.321513 22.639494 214 214 214 0
3.984375 6.323029 22.644926 213 213 213 0
4.072111 6.324768 22.651154 213 213 213 0
4.159411 6.325771 22.654745 214 214 214 0
4.249147 6.330362 22.671186 214 214 214 0
4.338034 6.333530 22.682532 214 214 214 0
4.426706 6.336266 22.692330 213 213 213 0
4.515736 6.339398 22.703548 214 214 214 0
4.608208 6.347154 22.731325 214 214 214 0
4.703090 6.357881 22.769742 213 213 213 0
4.794091 6.363067 22.788313 214 214 214 0
4.872451 6.351588 22.747203 214 214 214 0
4.954348 6.345042 22.723761 214 214 214 0
5.041495 6.345330 22.724792 214 214 214 0
