ply
    format ascii 1.0
    element vertex 25599
    property float x
    property float y
    property float z
    property uchar red
    property uchar green
    property uchar blue
    property uchar alpha
    end_header
-4.325008 -4.977839 21.334358 209 209 209 0
-4.226287 -4.957760 21.248302 209 209 209 0
-4.123235 -4.931712 21.136663 209 209 209 0
-4.020413 -4.904904 21.021770 210 210 210 0
-3.942612 -4.908150 21.035678 209 209 209 0
-3.906510 -4.964523 21.277287 209 209 209 0
-3.848266 -4.994557 21.406011 210 210 210 0
-3.748986 -4.971481 21.307107 210 210 210 0
-3.651230 -4.949445 21.212666 210 210 210 0
-3.564555 -4.941770 21.179769 210 210 210 0
-3.502199 -4.968235 21.293197 209 209 209 0
-3.447244 -5.006712 21.458104 209 209 209 0
-3.368951 -5.012342 21.482234 211 211 211 0
-3.285175 -5.009892 21.471734 210 210 210 0
-3.197772 -5.001643 21.436379 210 210 210 0
-3.123165 -5.013502 21.487204 210 210 210 0
-3.059367 -5.043821 21.617147 210 210 210 0
-2.988827 -5.064402 21.705353 210 210 210 0
-2.905352 -5.063614 21.701977 210 210 210 0
-2.814933 -5.050321 21.645008 211 211 211 0
-2.722831 -5.033111 21.571247 211 211 211 0
-2.637564 -5.027856 21.548724 211 211 211 0
-2.571840 -5.060716 21.689559 210 210 210 0
-2.499174 -5.081654 21.779296 210 210 210 0
-2.407134 -5.063283 21.700558 210 210 210 0
-2.314242 -5.041741 21.608232 211 211 211 0
-2.227856 -5.033305 21.572078 211 211 211 0
-2.143082 -5.028001 21.549346 211 211 211 0
-2.065158 -5.038985 21.596422 211 211 211 0
-1.991618 -5.062028 21.695181 211 211 211 0
-1.909837 -5.065220 21.708860 211 211 211 0
-1.823345 -5.055639 21.667796 211 211 211 0
-1.739972 -5.054205 21.661652 211 211 211 0
-1.659540 -5.061596 21.693331 211 211 211 0
-1.578559 -5.068005 21.720796 211 211 211 0
-1.497116 -5.073559 21.744603 211 211 211 0
-1.416611 -5.083134 21.785638 212 212 212 0
-1.336371 -5.094915 21.836130 212 212 212 0
-1.253016 -5.095596 21.839050 211 211 211 0
-1.170513 -5.100092 21.858316 211 211 211 0
-1.088624 -5.108158 21.892887 212 212 212 0
-1.007724 -5.122598 21.954777 212 212 212 0
-0.925212 -5.130723 21.989599 211 211 211 0
-0.840057 -5.124349 21.962280 212 212 212 0
-0.755059 -5.117622 21.933449 211 211 211 0
-0.669425 -5.104362 21.876618 211 211 211 0
-0.586683 -5.112524 21.911602 212 212 212 0
-0.505318 -5.137398 22.018207 213 213 213 0
-0.419791 -5.121446 21.949840 213 213 213 0
-0.335253 -5.112604 21.911944 212 212 212 0
-0.251075 -5.105199 21.880207 212 212 212 0
-0.167071 -5.095679 21.839406 212 212 212 0
-0.083800 -5.111813 21.908553 212 212 212 0
0.000000 -5.122948 21.956276 212 212 212 0
0.083993 -5.123558 21.958889 212 212 212 0
0.167916 -5.121439 21.949807 212 212 212 0
0.251305 -5.109874 21.900241 213 213 213 0
0.335456 -5.115711 21.925260 213 213 213 0
0.419973 -5.123677 21.959398 213 213 213 0
0.505114 -5.135325 22.009321 213 213 213 0
0.589766 -5.139391 22.026749 213 213 213 0
0.672865 -5.130595 21.989048 213 213 213 0
0.757154 -5.131824 21.994316 213 213 213 0
0.843201 -5.143528 22.044478 213 213 213 0
0.930396 -5.159467 22.112792 213 213 213 0
1.016578 -5.167605 22.147671 213 213 213 0
1.099135 -5.157479 22.104273 213 213 213 0
1.181425 -5.147639 22.062100 213 213 213 0
1.264705 -5.143133 22.042784 213 213 213 0
1.351868 -5.153999 22.089354 213 213 213 0
1.443029 -5.177929 22.191916 214 214 214 0
1.521339 -5.155650 22.096432 213 213 213 0
1.601455 -5.141513 22.035845 213 213 213 0
1.683082 -5.133401 22.001075 213 213 213 0
1.768419 -5.136835 22.015795 213 213 213 0
1.858693 -5.153648 22.087851 213 213 213 0
1.944477 -5.157091 22.102608 214 214 214 0
2.026178 -5.149870 22.071658 213 213 213 0
2.109645 -5.147533 22.061643 213 213 213 0
2.194872 -5.149508 22.070110 213 213 213 0
2.282331 -5.156378 22.099551 214 214 214 0
2.369943 -5.163090 22.128319 214 214 214 0
2.452171 -5.158015 22.106569 213 213 213 0
2.536871 -5.158304 22.107805 214 214 214 0
2.621837 -5.159098 22.111210 214 214 214 0
2.709236 -5.164481 22.134280 214 214 214 0
2.801913 -5.179293 22.197764 213 213 213 0
2.889664 -5.184397 22.219639 214 214 214 0
2.975308 -5.185537 22.224522 214 214 214 0
3.054505 -5.175690 22.182320 214 214 214 0
3.141265 -5.178842 22.195830 214 214 214 0
3.224995 -5.176966 22.187789 215 215 215 0
3.324474 -5.199818 22.285732 215 215 215 0
3.396673 -5.179927 22.200480 214 214 214 0
3.478386 -5.175159 22.180046 214 214 214 0
3.559247 -5.169382 22.155287 215 215 215 0
3.642833 -5.167740 22.148248 214 214 214 0
3.723909 -5.162692 22.126613 214 214 214 0
3.813030 -5.168775 22.152682 214 214 214 0
3.902525 -5.175087 22.179736 214 214 214 0
3.987468 -5.175224 22.180325 215 215 215 0
4.073660 -5.176943 22.187690 215 215 215 0
4.158071 -5.176375 22.185255 214 214 214 0
4.243271 -5.176790 22.187036 214 214 214 0
4.328688 -5.177450 22.189865 215 215 215 0
4.420154 -5.185181 22.222999 215 215 215 0
4.504146 -5.184017 22.218009 214 214 214 0
4.594781 -5.190401 22.245370 214 214 214 0
4.681666 -5.192394 22.253911 214 214 214 0
4.774468 -5.200760 22.289767 214 214 214 0
4.865232 -5.206651 22.315018 215 215 215 0
4.945180 -5.200965 22.290645 215 215 215 0
5.024650 -5.194977 22.264983 215 215 215 0
5.101916 -5.186948 22.230570 215 215 215 0
5.195532 -5.195532 22.267361 215 215 215 0
5.291390 -5.206045 22.312419 215 215 215 0
5.365738 -5.195397 22.266782 215 215 215 0
5.436978 -5.182120 22.209878 214 214 214 0
5.515220 -5.175822 22.182885 215 215 215 0
5.599645 -5.175430 22.181205 214 214 214 0
5.698391 -5.188087 22.235454 215 215 215 0
5.790097 -5.194058 22.261042 215 215 215 0
5.868366 -5.187976 22.234975 215 215 215 0
5.944683 -5.180367 22.202365 216 216 216 0
6.035796 -5.185684 22.225153 215 215 215 0
6.128459 -5.192167 22.252937 216 216 216 0
6.216228 -5.194383 22.262435 215 215 215 0
6.299818 -5.193093 22.256907 216 216 216 0
6.378720 -5.188025 22.235189 215 215 215 0
6.468152 -5.191543 22.250265 215 215 215 0
6.570326 -5.205063 22.308210 216 216 216 0
6.653883 -5.203678 22.302272 216 216 216 0
6.748078 -5.210541 22.331688 215 215 215 0
-10.713336 -8.035002 35.010901 208 208 208 0
-10.579334 -8.034938 35.010621 207 207 207 0
-5.996132 -4.612409 20.097643 208 208 208 0
-5.907409 -4.603176 20.057410 207 207 207 0
-5.815105 -4.590872 20.003801 207 207 207 0
-5.727890 -4.582312 19.966501 208 208 208 0
-5.661353 -4.590286 20.001247 207 207 207 0
-5.587416 -4.592397 20.010442 208 208 208 0
-5.576688 -4.647240 20.249412 208 208 208 0
-5.541438 -4.682905 20.404815 209 209 209 0
-5.486985 -4.703130 20.492943 208 208 208 0
-5.409690 -4.704078 20.497073 207 207 207 0
-5.336589 -4.708755 20.517453 209 209 209 0
-5.258199 -4.708835 20.517801 209 209 209 0
-5.190195 -4.718359 20.559297 209 209 209 0
-5.140523 -4.745098 20.675810 208 208 208 0
-5.108031 -4.788779 20.866140 209 209 209 0
-5.031141 -4.791563 20.878270 208 208 208 0
-4.941366 -4.781967 20.836456 209 209 209 0
-4.880960 -4.800945 20.919148 208 208 208 0
-4.831421 -4.831421 21.051943 208 208 208 0
-4.793280 -4.874522 21.239747 209 209 209 0
-4.711678 -4.874150 21.238127 209 209 209 0
-4.601032 -4.843192 21.103232 209 209 209 0
-4.495590 -4.816704 20.987817 209 209 209 0
-4.437631 -4.841052 21.093908 209 209 209 0
-4.400786 -4.889762 21.306152 209 209 209 0
-4.327321 -4.898854 21.345770 209 209 209 0
-4.228465 -4.878998 21.259252 209 209 209 0
-4.123924 -4.851675 21.140198 209 209 209 0
-4.019347 -4.823216 21.016191 209 209 209 0
-3.948009 -4.834297 21.064475 210 210 210 0
-3.905869 -4.882336 21.273797 209 209 209 0
-3.844366 -4.907702 21.384321 210 210 210 0
-3.749135 -4.890176 21.307958 210 210 210 0
-3.654478 -4.872638 21.231537 209 209 209 0
-3.565539 -4.862098 21.185614 210 210 210 0
-3.498208 -4.881221 21.268937 210 210 210 0
-3.445771 -4.922530 21.448932 210 210 210 0
-3.368798 -4.929949 21.481257 210 210 210 0
-3.289921 -4.934881 21.502750 210 210 210 0
-3.199772 -4.922726 21.449788 210 210 210 0
-3.122714 -4.930601 21.484099 210 210 210 0
-3.058550 -4.959811 21.611377 210 210 210 0
-2.986654 -4.977757 21.689573 210 210 210 0
-2.907456 -4.984211 21.717695 210 210 210 0
-2.815905 -4.969244 21.652477 210 210 210 0
-2.720761 -4.946838 21.554851 211 211 211 0
-2.636573 -4.943575 21.540630 210 210 210 0
-2.569528 -4.973279 21.670063 211 211 211 0
-2.500535 -5.001070 21.791154 210 210 210 0
-2.405280 -4.976442 21.683844 211 211 211 0
-2.314561 -4.959773 21.611213 211 211 211 0
-2.226780 -4.948399 21.561653 211 211 211 0
-2.144937 -4.949854 21.567993 211 211 211 0
-2.066663 -4.959990 21.612157 210 210 210 0
-1.992281 -4.980701 21.702403 211 211 211 0
-1.910691 -4.984411 21.718565 211 211 211 0
-1.822677 -4.970937 21.659857 211 211 211 0
-1.739760 -4.970743 21.659012 212 212 212 0
-1.661325 -4.983976 21.716673 211 211 211 0
-1.579732 -4.988626 21.736934 212 212 212 0
-1.496996 -4.989986 21.742859 212 212 212 0
-1.415826 -4.997032 21.773559 211 211 211 0
-1.333625 -5.001095 21.791262 211 211 211 0
-1.253247 -5.012988 21.843086 212 212 212 0
-1.170379 -5.015910 21.855819 211 211 211 0
-1.089250 -5.027308 21.905480 212 212 212 0
-1.006964 -5.034819 21.938210 212 212 212 0
-0.925362 -5.047430 21.993160 212 212 212 0
-0.840125 -5.040752 21.964061 212 212 212 0
-0.755128 -5.034186 21.935453 212 212 212 0
-0.669107 -5.018302 21.866241 211 211 211 0
-0.586763 -5.029399 21.914591 212 212 212 0
-0.504943 -5.049434 22.001892 212 212 212 0
-0.419493 -5.033921 21.934295 212 212 212 0
-0.335057 -5.025857 21.899160 212 212 212 0
-0.251007 -5.020146 21.874273 212 212 212 0
-0.167063 -5.011883 21.838270 212 212 212 0
-0.083797 -5.027798 21.907616 213 213 213 0
0.000000 -5.038284 21.953305 212 212 212 0
0.084023 -5.041372 21.966764 212 212 212 0
0.167930 -5.037910 21.951677 212 212 212 0
0.251475 -5.029502 21.915041 213 213 213 0
0.335493 -5.032389 21.927620 212 212 212 0
0.420167 -5.042007 21.969529 212 212 212 0
0.504801 -5.048008 21.995678 213 213 213 0
0.589629 -5.053966 22.021639 213 213 213 0
0.672721 -5.045406 21.984339 212 212 212 0
0.757197 -5.047981 21.995560 212 212 212 0
0.843311 -5.059868 22.047355 213 213 213 0
0.931193 -5.079234 22.131740 213 213 213 0
1.016933 -5.084666 22.155409 213 213 213 0
1.099582 -5.074994 22.113263 213 213 213 0
1.181163 -5.062127 22.057196 213 213 213 0
1.265018 -5.060070 22.048237 213 213 213 0
1.352562 -5.072106 22.100680 213 213 213 0
1.442561 -5.091393 22.184717 214 214 214 0
1.521986 -5.073288 22.105830 213 213 213 0
1.601361 -5.056931 22.034556 213 213 213 0
1.683433 -5.050299 22.005661 214 214 214 0
1.767811 -5.050888 22.008227 214 214 214 0
1.858732 -5.069268 22.088315 214 214 214 0
1.944859 -5.073545 22.106951 213 213 213 0
2.026479 -5.066196 22.074930 214 214 214 0
2.108816 -5.061158 22.052977 213 213 213 0
2.193867 -5.062771 22.060004 214 214 214 0
2.282690 -5.072645 22.103026 214 214 214 0
2.367181 -5.072531 22.102531 214 214 214 0
2.451680 -5.072442 22.102144 213 213 213 0
2.536418 -5.072836 22.103862 213 213 213 0
2.622967 -5.076711 22.120745 214 214 214 0
2.710018 -5.081284 22.140671 214 214 214 0
2.801919 -5.094398 22.197811 214 214 214 0
2.888808 -5.097896 22.213055 214 214 214 0
2.974378 -5.098933 22.217574 215 215 215 0
3.055578 -5.092630 22.190109 214 214 214 0
3.140871 -5.093305 22.193049 214 214 214 0
3.224846 -5.091863 22.186765 214 214 214 0
3.324206 -5.114164 22.283937 213 213 213 0
3.397028 -5.095543 22.202800 215 215 215 0
3.477737 -5.089371 22.175907 215 215 215 0
3.559989 -5.085699 22.159909 215 215 215 0
3.642623 -5.082729 22.146969 215 215 215 0
3.723678 -5.077743 22.125243 214 214 214 0
3.813163 -5.084217 22.153450 215 215 215 0
3.904251 -5.092501 22.189548 215 215 215 0
3.988334 -5.091490 22.185143 214 214 214 0
4.072873 -5.091091 22.183405 214 214 214 0
4.156603 -5.089718 22.177421 215 215 215 0
4.243258 -5.091909 22.186968 214 214 214 0
4.328611 -5.092484 22.189471 215 215 215 0
4.421085 -5.101252 22.227679 214 214 214 0
4.503878 -5.098730 22.216688 215 215 215 0
4.594235 -5.104705 22.242724 215 215 215 0
4.680641 -5.106154 22.249039 215 215 215 0
4.772937 -5.113861 22.282618 214 214 214 0
4.865079 -5.121136 22.314318 214 214 214 0
4.945288 -5.115816 22.291136 214 214 214 0
5.022975 -5.108110 22.257559 215 215 215 0
5.101239 -5.101239 22.227622 215 215 215 0
5.194164 -5.109013 22.261496 215 215 215 0
5.292174 -5.121459 22.315725 215 215 215 0
5.365219 -5.109732 22.264628 215 215 215 0
5.438381 -5.098483 22.215610 215 215 215 0
5.514036 -5.089879 22.178124 215 215 215 0
5.600736 -5.091579 22.185528 215 215 215 0
5.699931 -5.104416 22.241465 215 215 215 0
5.791555 -5.110196 22.266648 214 214 214 0
5.867934 -5.102551 22.233337 215 215 215 0
5.944585 -5.095359 22.201998 215 215 215 0
6.035392 -5.100331 22.223667 215 215 215 0
6.130726 -5.108938 22.261169 215 215 215 0
6.214324 -5.107663 22.255614 215 215 215 0
6.299235 -5.107488 22.254849 215 215 215 0
6.381744 -5.105395 22.245730 215 215 215 0
6.471464 -5.109051 22.261658 215 215 215 0
6.566494 -5.116749 22.295202 215 215 215 0
6.651364 -5.116434 22.293830 215 215 215 0
6.746274 -5.123752 22.325718 216 216 216 0
-10.713359 -7.901102 35.010978 208 208 208 0
-10.579354 -7.901037 35.010687 207 207 207 0
-6.010378 -4.546312 20.145393 208 208 208 0
-5.906139 -4.525483 20.053098 208 208 208 0
-5.805749 -4.507095 19.971617 208 208 208 0
-5.741017 -4.516267 20.012259 207 207 207 0
-5.661918 -4.514232 20.003242 208 208 208 0
-5.601121 -4.526933 20.059525 208 208 208 0
-5.582530 -4.574573 20.270624 208 208 208 0
-5.535067 -4.599562 20.381355 208 208 208 0
-5.480938 -4.619648 20.470356 208 208 208 0
-5.411775 -4.627459 20.504972 208 208 208 0
-5.331100 -4.625513 20.496346 209 209 209 0
-5.257141 -4.629423 20.513672 208 208 208 0
-5.190379 -4.639884 20.560026 209 209 209 0
-5.162319 -4.685797 20.763475 208 208 208 0
-5.114017 -4.714485 20.890594 209 209 209 0
-5.040976 -4.720914 20.919081 209 209 209 0
-4.942868 -4.703697 20.842792 209 209 209 0
-4.878811 -4.718850 20.909937 209 209 209 0
-4.826124 -4.745688 21.028861 208 208 208 0
-4.788443 -4.788443 21.218313 209 209 209 0
-4.711136 -4.792362 21.235681 209 209 209 0
-4.600261 -4.761674 21.099694 209 209 209 0
-4.491725 -4.732353 20.969772 208 208 208 0
-4.436963 -4.759652 21.090735 209 209 209 0
-4.406077 -4.814047 21.331769 209 209 209 0
-4.321879 -4.811148 21.318924 209 209 209 0
-4.224002 -4.792617 21.236810 209 209 209 0
-4.126509 -4.773805 21.153449 210 210 210 0
-4.022509 -4.746561 21.032727 209 209 209 0
-3.942153 -4.746674 21.033230 210 210 210 0
-3.909051 -4.804875 21.291126 210 210 210 0
-3.849694 -4.832595 21.413957 210 210 210 0
-3.750074 -4.809878 21.313295 210 210 210 0
-3.651582 -4.787629 21.214708 210 210 210 0
-3.565429 -4.780917 21.184963 210 210 210 0
-3.502383 -4.805595 21.294319 210 210 210 0
-3.446797 -4.841930 21.455322 209 209 209 0
-3.369568 -4.848891 21.486168 210 210 210 0
-3.286295 -4.847285 21.479050 210 210 210 0
-3.197573 -4.837354 21.435045 210 210 210 0
-3.124388 -4.851024 21.495620 210 210 210 0
-3.056428 -4.873764 21.596384 210 210 210 0
-2.985420 -4.892771 21.680608 211 211 211 0
-2.905828 -4.898396 21.705534 211 211 211 0
-2.815011 -4.884872 21.645607 211 211 211 0
-2.720820 -4.864496 21.555317 210 210 210 0
-2.637590 -4.863057 21.548939 210 210 210 0
-2.571201 -4.893576 21.684173 210 210 210 0
-2.499472 -4.915628 21.781892 211 211 211 0
-2.407635 -4.898292 21.705073 211 211 211 0
-2.315505 -4.879100 21.620028 211 211 211 0
-2.228358 -4.869375 21.576934 211 211 211 0
-2.143230 -4.863484 21.550830 211 211 211 0
-2.065028 -4.873466 21.595064 211 211 211 0
-1.992526 -4.898293 21.705077 211 211 211 0
-1.910804 -4.901628 21.719854 212 212 212 0
-1.823537 -4.890395 21.670080 211 211 211 0
-1.739927 -4.888366 21.661089 211 211 211 0
-1.660092 -4.897273 21.700555 212 212 212 0
-1.579412 -4.904491 21.732541 212 212 212 0
-1.498009 -4.910142 21.757581 211 211 211 0
-1.415864 -4.913880 21.774144 211 211 211 0
-1.335841 -4.925913 21.827464 212 212 212 0
-1.252996 -4.928453 21.838719 212 212 212 0
-1.170069 -4.931006 21.850034 211 211 211 0
-1.089358 -4.944008 21.907646 212 212 212 0
-1.007116 -4.951654 21.941528 212 212 212 0
-0.925136 -4.962095 21.987792 212 212 212 0
-0.840338 -4.957992 21.969611 212 212 212 0
-0.755328 -4.951592 21.941253 213 213 213 0
-0.669223 -4.935520 21.870034 212 212 212 0
-0.586625 -4.944415 21.909448 212 212 212 0
-0.505089 -4.966710 22.008240 213 213 213 0
-0.419694 -4.952383 21.944759 212 212 212 0
-0.335127 -4.943126 21.903736 212 212 212 0
-0.251003 -4.936392 21.873897 212 212 212 0
-0.167128 -4.930289 21.846854 212 212 212 0
-0.083789 -4.943552 21.905626 213 213 213 0
0.000000 -4.956663 21.963723 213 213 213 0
0.084027 -4.957610 21.967917 212 212 212 0
0.167971 -4.955145 21.956996 213 213 213 0
0.251396 -4.944119 21.908136 213 213 213 0
0.335583 -4.949856 21.933559 212 212 212 0
0.420231 -4.958732 21.972889 212 212 212 0
0.504957 -4.965409 22.002476 213 213 213 0
0.589780 -4.971007 22.027281 213 213 213 0
0.672782 -4.961767 21.986338 212 212 212 0
0.757315 -4.964622 21.998991 213 213 213 0
0.843215 -4.974970 22.044841 213 213 213 0
0.931250 -4.994889 22.133107 213 213 213 0
1.017316 -5.001803 22.163745 213 213 213 0
1.099227 -4.988801 22.106130 213 213 213 0
1.181373 -4.978642 22.061113 213 213 213 0
1.265131 -4.976184 22.050221 214 214 214 0
1.352998 -4.989178 22.107802 213 213 213 0
1.443176 -5.008671 22.194177 213 213 213 0
1.521832 -4.988228 22.103591 214 214 214 0
1.601623 -4.973460 22.038152 213 213 213 0
1.683110 -4.965174 22.001434 214 214 214 0
1.767745 -4.966521 22.007406 213 213 213 0
1.858198 -4.983350 22.081975 213 213 213 0
1.945023 -4.989406 22.108812 214 214 214 0
2.025378 -4.979055 22.062946 213 213 213 0
2.108737 -4.976620 22.052155 214 214 214 0
2.194665 -4.980200 22.068019 213 213 213 0
2.282284 -4.987212 22.099090 213 213 213 0
2.369247 -4.992341 22.121817 214 214 214 0
2.453297 -4.991191 22.116719 214 214 214 0
2.536675 -4.988794 22.106101 214 214 214 0
2.623186 -4.992516 22.122591 214 214 214 0
2.709845 -4.996276 22.139255 213 213 213 0
2.801700 -5.009100 22.196080 214 214 214 0
2.889720 -5.014515 22.220072 214 214 214 0
2.973235 -5.012026 22.209042 214 214 214 0
3.057327 -5.010618 22.202807 215 215 215 0
3.139643 -5.006458 22.184373 214 214 214 0
3.224553 -5.006543 22.184747 214 214 214 0
3.324686 -5.029653 22.287152 214 214 214 0
3.396380 -5.009660 22.198559 215 215 215 0
3.477851 -5.004713 22.176639 215 215 215 0
3.561232 -5.002683 22.167642 214 214 214 0
3.642659 -4.998068 22.147192 214 214 214 0
3.724765 -4.994572 22.131702 215 215 215 0
3.812715 -4.998893 22.150849 215 215 215 0
3.904013 -5.007320 22.188193 214 214 214 0
3.985512 -5.003089 22.169443 214 214 214 0
4.072155 -5.005358 22.179496 215 215 215 0
4.156555 -5.004831 22.177163 215 215 215 0
4.243842 -5.007734 22.190024 214 214 214 0
4.330116 -5.009349 22.197183 215 215 215 0
4.421028 -5.016166 22.227388 215 215 215 0
4.505514 -5.015572 22.224758 215 215 215 0
4.594823 -5.020270 22.245574 215 215 215 0
4.680735 -5.021152 22.249482 215 215 215 0
4.774323 -5.030090 22.289089 214 214 214 0
4.864764 -5.035458 22.312875 214 214 214 0
4.943941 -5.029181 22.285061 216 216 216 0
5.021136 -5.021136 22.249410 215 215 215 0
5.102000 -5.016967 22.230938 215 215 215 0
5.194133 -5.023833 22.261365 215 215 215 0
5.292778 -5.036675 22.318269 215 215 215 0
5.366301 -5.025583 22.269117 215 215 215 0
5.436608 -5.011873 22.208366 216 216 216 0
5.515680 -5.006541 22.184738 214 214 214 0
5.600783 -5.006761 22.185712 215 215 215 0
5.698884 -5.018420 22.237379 215 215 215 0
5.792645 -5.025972 22.270840 215 215 215 0
5.867397 -5.017050 22.231305 215 215 215 0
5.945534 -5.011236 22.205542 215 215 215 0
6.034905 -5.014921 22.221872 216 216 216 0
6.129064 -5.022428 22.255135 215 215 215 0
6.213474 -5.021849 22.252569 215 215 215 0
6.298696 -5.021933 22.252945 215 215 215 0
6.382028 -5.020529 22.246721 216 216 216 0
6.472309 -5.024556 22.264566 216 216 216 0
6.568613 -5.033093 22.302394 215 215 215 0
6.652237 -5.031821 22.296757 215 215 215 0
6.748676 -5.040151 22.333668 216 216 216 0
-10.713357 -7.767184 35.010970 207 207 207 0
-10.579341 -7.767111 35.010641 207 207 207 0
-5.997726 -4.459848 20.102986 207 207 207 0
-5.906467 -4.449027 20.054212 207 207 207 0
-5.811292 -4.434934 19.990685 208 208 208 0
-5.745436 -4.443137 20.027664 208 208 208 0
-5.668068 -4.442540 20.024971 208 208 208 0
-5.587315 -4.439237 20.010082 208 208 208 0
-5.580817 -4.495658 20.264403 208 208 208 0
-5.543898 -4.528818 20.413873 208 208 208 0
-5.492249 -4.550721 20.512602 209 209 209 0
-5.408134 -4.545968 20.491178 209 209 209 0
-5.331930 -4.547822 20.499537 208 208 208 0
-5.257399 -4.551181 20.514676 209 209 209 0
-5.193091 -4.563625 20.570770 208 208 208 0
-5.159045 -4.603456 20.750308 208 208 208 0
-5.112556 -4.633254 20.884626 209 209 209 0
-5.037686 -4.637870 20.905432 209 209 209 0
-4.943918 -4.624956 20.847219 209 209 209 0
-4.884644 -4.644416 20.934937 208 208 208 0
-4.826846 -4.665951 21.032009 208 208 208 0
-4.780770 -4.699740 21.184315 208 208 208 0
-4.714900 -4.714900 21.252648 209 209 209 0
-4.601103 -4.681824 21.103556 209 209 209 0
-4.495415 -4.655966 20.987000 209 209 209 0
-4.433181 -4.674991 21.072755 209 209 209 0
-4.398555 -4.724374 21.295351 209 209 209 0
-4.321900 -4.729627 21.319030 209 209 209 0
-4.224181 -4.711586 21.237711 210 210 210 0
-4.121750 -4.687480 21.129052 210 210 210 0
-4.019786 -4.662951 21.018486 210 210 210 0
-3.944633 -4.669157 21.046460 210 210 210 0
-3.906533 -4.720394 21.277414 209 209 209 0
-3.848472 -4.749178 21.407159 210 210 210 0
-3.748883 -4.726852 21.306523 210 210 210 0
-3.657618 -4.714263 21.249776 210 210 210 0
-3.566301 -4.701033 21.190143 210 210 210 0
-3.503399 -4.725515 21.300497 210 210 210 0
-3.444955 -4.757318 21.443851 210 210 210 0
-3.368923 -4.765793 21.482050 210 210 210 0
-3.285899 -4.764554 21.476464 210 210 210 0
-3.194785 -4.751219 21.416357 210 210 210 0
-3.123233 -4.767039 21.487668 210 210 210 0
-3.058826 -4.794916 21.613324 210 210 210 0
-2.984246 -4.807952 21.672087 210 210 210 0
-2.905281 -4.814465 21.701444 211 211 211 0
-2.815626 -4.803127 21.650334 210 210 210 0
-2.721218 -4.782747 21.558470 211 211 211 0
-2.636793 -4.779187 21.542424 210 210 210 0
-2.570593 -4.809497 21.679050 211 211 211 0
-2.501667 -4.836557 21.801023 211 211 211 0
-2.407467 -4.814935 21.703559 211 211 211 0
-2.314775 -4.794892 21.613215 211 211 211 0
-2.228122 -4.786337 21.574653 211 211 211 0
-2.146105 -4.787466 21.579741 211 211 211 0
-2.066937 -4.795294 21.615027 211 211 211 0
-1.992639 -4.815545 21.706312 211 211 211 0
-1.909647 -4.815633 21.706706 211 211 211 0
-1.822953 -4.805967 21.663138 212 212 212 0
-1.739556 -4.804489 21.656475 212 212 212 0
-1.660814 -4.816362 21.709993 212 212 212 0
-1.580518 -4.824739 21.747751 211 211 211 0
-1.497324 -4.824711 21.747627 211 211 211 0
-1.416431 -4.832529 21.782869 211 211 211 0
-1.334758 -4.838496 21.809765 211 211 211 0
-1.254058 -4.849023 21.857214 212 212 212 0
-1.170795 -4.850437 21.863589 211 211 211 0
-1.089546 -4.861052 21.911437 212 212 212 0
-1.007130 -4.867797 21.941837 212 212 212 0
-0.925420 -4.879487 21.994533 212 212 212 0
-0.840363 -4.874108 21.970286 212 212 212 0
-0.755028 -4.865736 21.932549 212 212 212 0
-0.669530 -4.854092 21.880062 212 212 212 0
-0.586699 -4.861219 21.912190 212 212 212 0
-0.505402 -4.885548 22.021853 211 211 211 0
-0.419937 -4.871273 21.957508 212 212 212 0
-0.335162 -4.859848 21.906008 213 213 213 0
-0.251154 -4.855637 21.887025 213 213 213 0
-0.166977 -4.842325 21.827024 212 212 212 0
-0.083794 -4.860042 21.906882 212 212 212 0
0.000000 -4.870092 21.952186 212 212 212 0
0.084007 -4.872428 21.962713 212 212 212 0
0.167963 -4.870924 21.955934 212 212 212 0
0.251464 -4.861645 21.914110 213 213 213 0
0.335546 -4.865418 21.931116 213 213 213 0
0.420030 -4.872343 21.962328 213 213 213 0
0.504661 -4.878387 21.989575 212 212 212 0
0.589525 -4.884636 22.017742 213 213 213 0
0.672842 -4.878101 21.988286 213 213 213 0
0.757318 -4.880491 21.999060 213 213 213 0
0.843504 -4.892323 22.052392 212 212 212 0
0.931104 -4.909458 22.129630 213 213 213 0
1.017300 -4.916949 22.163394 213 213 213 0
1.099256 -4.904372 22.106705 214 214 214 0
1.181715 -4.895675 22.067502 213 213 213 0
1.265261 -4.892342 22.052476 213 213 213 0
1.352847 -4.904071 22.105346 213 213 213 0
1.442639 -4.921944 22.185909 213 213 213 0
1.521554 -4.902784 22.099544 213 213 213 0
1.601510 -4.888820 22.036601 213 213 213 0
1.683492 -4.882126 22.006426 213 213 213 0
1.768158 -4.883483 22.012546 213 213 213 0
1.859014 -4.901038 22.091673 213 213 213 0
1.944334 -4.903104 22.100988 213 213 213 0
2.025504 -4.894967 22.064310 213 213 213 0
2.108536 -4.891803 22.050047 214 214 214 0
2.194894 -4.896302 22.070326 214 214 214 0
2.281535 -4.901076 22.091846 214 214 214 0
2.367910 -4.904957 22.109339 214 214 214 0
2.453948 -4.907896 22.122589 214 214 214 0
2.537398 -4.905637 22.112405 213 213 213 0
2.620967 -4.903744 22.103874 214 214 214 0
2.710134 -4.912118 22.141618 214 214 214 0
2.801754 -4.924295 22.196505 214 214 214 0
2.889383 -4.928947 22.217478 214 214 214 0
2.973929 -4.928225 22.214223 214 214 214 0
3.056152 -4.923801 22.194281 214 214 214 0
3.140870 -4.923526 22.193040 215 215 215 0
3.223598 -4.920229 22.178179 214 214 214 0
3.327381 -4.948413 22.305219 215 215 215 0
3.395003 -4.922755 22.189564 214 214 214 0
3.477318 -4.919132 22.173235 214 214 214 0
3.561320 -4.918013 22.168190 215 215 215 0
3.641298 -4.911518 22.138914 215 215 215 0
3.723326 -4.908021 22.123149 215 215 215 0
3.813725 -4.915467 22.156715 214 214 214 0
3.902734 -4.920839 22.180926 214 214 214 0
3.985858 -4.918718 22.171369 214 214 214 0
4.072413 -4.920833 22.180901 214 214 214 0
4.156410 -4.919833 22.176393 215 215 215 0
4.244341 -4.923436 22.192633 214 214 214 0
4.331513 -4.926035 22.204349 215 215 215 0
4.422444 -4.932726 22.234509 215 215 215 0
4.505592 -4.930648 22.225143 215 215 215 0
4.595069 -4.935444 22.246763 214 214 214 0
4.682303 -4.937701 22.256936 214 214 214 0
4.774716 -4.945242 22.290924 215 215 215 0
4.864732 -4.950078 22.312724 214 214 214 0
4.944483 -4.944483 22.287505 214 214 214 0
5.024031 -4.938878 22.262240 214 214 214 0
5.099798 -4.929805 22.221342 215 215 215 0
5.193852 -4.938417 22.260161 215 215 215 0
5.291952 -4.950536 22.314788 215 215 215 0
5.364843 -4.939062 22.263068 215 215 215 0
5.436589 -4.926909 22.208290 215 215 215 0
5.514196 -4.920360 22.178769 215 215 215 0
5.599564 -4.920829 22.180881 215 215 215 0
5.698802 -4.933292 22.237059 215 215 215 0
5.790436 -4.938901 22.262346 215 215 215 0
5.866991 -4.931674 22.229767 215 215 215 0
5.946546 -4.927138 22.209323 215 215 215 0
6.035386 -4.930315 22.223642 215 215 215 0
6.126189 -4.934986 22.244696 215 215 215 0
6.212234 -4.935747 22.248128 216 216 216 0
6.299257 -4.937255 22.254926 215 215 215 0
6.379919 -4.933804 22.239369 216 216 216 0
6.471734 -4.938955 22.262586 216 216 216 0
6.568490 -4.947694 22.301977 216 216 216 0
6.652192 -4.946502 22.296605 215 215 215 0
6.750655 -4.956177 22.340216 216 216 216 0
-10.713326 -7.633245 35.010871 207 207 207 0
-10.579346 -7.633199 35.010660 207 207 207 0
-6.004601 -4.387977 20.126029 207 207 207 0
-5.912335 -4.376664 20.074138 208 208 208 0
-5.808483 -4.356362 19.981021 208 208 208 0
-5.748885 -4.369153 20.039687 208 208 208 0
-5.665818 -4.364211 20.017023 208 208 208 0
-5.587006 -4.362456 20.008974 208 208 208 0
-5.572106 -4.411250 20.232773 208 208 208 0
-5.541274 -4.448629 20.404214 208 208 208 0
-5.487853 -4.468680 20.496183 208 208 208 0
-5.404622 -4.464688 20.477871 208 208 208 0
-5.334058 -4.471196 20.507720 209 209 209 0
-5.258765 -4.473874 20.520007 208 208 208 0
-5.192546 -4.484472 20.568612 209 209 209 0
-5.152874 -4.518674 20.725485 209 209 209 0
-5.113942 -4.554605 20.890288 208 208 208 0
-5.038924 -4.559027 20.910569 209 209 209 0
-4.944769 -4.545998 20.850809 209 209 209 0
-4.885092 -4.564758 20.936854 209 209 209 0
-4.828741 -4.587304 21.040266 209 209 209 0
-4.787786 -4.625489 21.215404 209 209 209 0
-4.709932 -4.628726 21.230254 209 209 209 0
-4.604003 -4.604003 21.116859 210 210 210 0
-4.491109 -4.571308 20.966896 209 209 209 0
-4.434143 -4.595384 21.077327 209 209 209 0
-4.394559 -4.638702 21.276008 209 209 209 0
-4.315280 -4.640962 21.286375 209 209 209 0
-4.223500 -4.629606 21.234289 210 210 210 0
-4.123507 -4.608626 21.138060 209 209 209 0
-4.020046 -4.582852 21.019848 210 210 210 0
-3.946897 -4.591288 21.058538 209 209 209 0
-3.904457 -4.636543 21.266107 209 209 209 0
-3.846987 -4.665494 21.398896 209 209 209 0
-3.750106 -4.646871 21.313476 210 210 210 0
-3.650890 -4.624460 21.210688 210 210 210 0
-3.567400 -4.621405 21.196675 210 210 210 0
-3.503692 -4.644429 21.302276 210 210 210 0
-3.444300 -4.674407 21.439776 210 210 210 0
-3.369469 -4.684383 21.485532 210 210 210 0
-3.282858 -4.678073 21.456591 210 210 210 0
-3.195556 -4.670427 21.421522 210 210 210 0
-3.126267 -4.689400 21.508545 210 210 210 0
-3.058628 -4.711940 21.611926 211 211 211 0
-2.984064 -4.724769 21.670765 210 210 210 0
-2.904500 -4.730186 21.695611 211 211 211 0
-2.816748 -4.722196 21.658965 210 210 210 0
-2.720368 -4.698817 21.551736 211 211 211 0
-2.638498 -4.699825 21.556357 211 211 211 0
-2.572587 -4.730241 21.695867 211 211 211 0
-2.502842 -4.755400 21.811262 210 210 210 0
-2.407677 -4.732331 21.705450 210 210 210 0
-2.315043 -4.712766 21.615713 211 211 211 0
-2.227314 -4.702108 21.566831 211 211 211 0
-2.144972 -4.702439 21.568348 211 211 211 0
-2.066327 -4.711225 21.608646 211 211 211 0
-1.991726 -4.730349 21.696360 211 211 211 0
-1.910569 -4.734888 21.717180 211 211 211 0
-1.824839 -4.727993 21.685554 212 212 212 0
-1.741000 -4.725572 21.674451 211 211 211 0
-1.659599 -4.729858 21.694109 211 211 211 0
-1.578486 -4.735458 21.719794 212 212 212 0
-1.498422 -4.745002 21.763568 212 212 212 0
-1.415749 -4.746924 21.772382 212 212 212 0
-1.335576 -4.757988 21.823133 212 212 212 0
-1.252642 -4.760041 21.832548 211 211 211 0
-1.170524 -4.765705 21.858526 212 212 212 0
-1.088440 -4.772391 21.889190 212 212 212 0
-1.007082 -4.783640 21.940788 212 212 212 0
-0.925510 -4.795824 21.996669 212 212 212 0
-0.840164 -4.788937 21.965083 212 212 212 0
-0.754961 -4.781422 21.930614 212 212 212 0
-0.669238 -4.768321 21.870523 212 212 212 0
-0.586922 -4.779223 21.920525 212 212 212 0
-0.504873 -4.796296 21.998835 213 213 213 0
-0.419664 -4.784172 21.943227 212 212 212 0
-0.335212 -4.776773 21.909289 212 212 212 0
-0.250989 -4.768794 21.872694 212 212 212 0
-0.167048 -4.760877 21.836381 212 212 212 0
-0.083759 -4.774242 21.897680 213 213 213 0
0.000000 -4.785429 21.948994 212 212 212 0
0.083983 -4.787053 21.956440 212 212 212 0
0.167888 -4.784794 21.946080 213 213 213 0
0.251480 -4.778129 21.915511 213 213 213 0
0.335571 -4.781889 21.932754 213 213 213 0
0.420009 -4.788099 21.961238 212 212 212 0
0.504836 -4.795938 21.997193 213 213 213 0
0.589677 -4.801654 22.023408 213 213 213 0
0.672828 -4.793896 21.987829 212 212 212 0
0.757350 -4.796550 22.000001 213 213 213 0
0.843340 -4.807039 22.048111 213 213 213 0
0.930951 -4.824018 22.125984 213 213 213 0
1.017351 -4.832419 22.164516 213 213 213 0
1.099545 -4.821084 22.112528 213 213 213 0
1.181344 -4.809759 22.060585 213 213 213 0
1.265181 -4.807687 22.051081 213 213 213 0
1.352552 -4.818467 22.100524 213 213 213 0
1.442579 -4.836882 22.184986 213 213 213 0
1.522536 -4.821364 22.113815 214 214 214 0
1.600978 -4.802933 22.029276 213 213 213 0
1.683616 -4.798307 22.008057 214 214 214 0
1.768044 -4.798976 22.011126 213 213 213 0
1.859727 -4.818384 22.100146 213 213 213 0
1.944582 -4.819182 22.103803 214 214 214 0
2.025133 -4.809691 22.060271 213 213 213 0
2.108126 -4.806528 22.045763 214 214 214 0
2.192472 -4.806573 22.045972 214 214 214 0
2.283556 -4.820839 22.111407 214 214 214 0
2.370048 -4.824741 22.129303 213 213 213 0
2.453592 -4.822578 22.119380 214 214 214 0
2.536460 -4.819274 22.104227 213 213 213 0
2.622497 -4.822010 22.116774 214 214 214 0
2.711032 -4.829025 22.148951 214 214 214 0
2.802717 -4.841056 22.204135 214 214 214 0
2.889356 -4.843920 22.217270 214 214 214 0
2.972515 -4.840953 22.203662 214 214 214 0
3.055705 -4.838199 22.191029 214 214 214 0
3.139066 -4.835859 22.180296 214 214 214 0
3.221738 -4.832607 22.165381 215 215 215 0
3.329788 -4.866614 22.321356 214 214 214 0
3.397128 -4.840907 22.203449 214 214 214 0
3.477729 -4.834892 22.175861 215 215 215 0
3.560544 -4.832166 22.163359 215 215 215 0
3.642817 -4.828851 22.148151 214 214 214 0
3.724692 -4.825169 22.131264 214 214 214 0
3.812813 -4.829563 22.151418 215 215 215 0
3.902930 -4.836239 22.182041 215 215 215 0
3.987992 -4.836501 22.183240 215 215 215 0
4.073427 -4.837194 22.186419 215 215 215 0
4.156296 -4.834876 22.175785 214 214 214 0
4.244238 -4.838432 22.192096 215 215 215 0
4.328237 -4.837441 22.187554 215 215 215 0
4.420916 -4.846004 22.226827 215 215 215 0
4.506033 -4.846111 22.227319 215 215 215 0
4.593941 -4.849160 22.241301 215 215 215 0
4.680780 -4.850991 22.249699 215 215 215 0
4.773291 -4.858528 22.284272 215 215 215 0
4.865513 -4.865513 22.316308 215 215 215 0
4.944085 -4.858842 22.285712 215 215 215 0
5.024119 -4.853810 22.262631 215 215 215 0
5.100109 -4.845103 22.222696 215 215 215 0
5.196085 -4.855358 22.269732 215 215 215 0
5.291986 -4.865213 22.314931 215 215 215 0
5.364052 -4.853190 22.259787 216 216 216 0
5.437783 -4.843025 22.213165 215 215 215 0
5.513875 -4.835244 22.177477 215 215 215 0
5.599513 -4.835943 22.180683 215 215 215 0
5.699547 -4.848868 22.239965 215 215 215 0
5.788681 -4.852276 22.255596 215 215 215 0
5.866922 -4.846587 22.229503 215 215 215 0
5.946149 -4.841864 22.207840 215 215 215 0
6.033571 -4.843853 22.216961 215 215 215 0
6.128041 -4.851365 22.251418 215 215 215 0
6.213133 -4.851350 22.251348 216 216 216 0
6.300690 -4.853234 22.259988 216 216 216 0
6.380216 -4.848964 22.240405 215 215 215 0
6.474642 -4.855982 22.272592 215 215 215 0
6.569009 -4.862773 22.303741 216 216 216 0
6.654262 -4.862730 22.303544 216 216 216 0
6.750584 -4.870674 22.339980 215 215 215 0
-10.713347 -7.499343 35.010938 207 207 207 0
-10.579345 -7.499283 35.010657 208 208 208 0
-6.005605 -4.311716 20.129395 207 207 207 0
-5.910917 -4.298849 20.069322 208 208 208 0
-5.805037 -4.277395 19.969166 208 208 208 0
-5.741097 -4.286686 20.012540 207 207 207 0
-5.660690 -4.283766 19.998906 208 208 208 0
-5.596037 -4.292850 20.041318 208 208 208 0
-5.577020 -4.337682 20.250617 208 208 208 0
-5.545919 -4.374246 20.421315 208 208 208 0
-5.483633 -4.386907 20.480423 208 208 208 0
-5.415984 -4.395581 20.520920 208 208 208 0
-5.329549 -4.389040 20.490383 208 208 208 0
-5.258153 -4.394874 20.517619 208 208 208 0
-5.187901 -4.401855 20.550211 208 208 208 0
-5.145179 -4.432770 20.694536 208 208 208 0
-5.106901 -4.468538 20.861524 209 209 209 0
-5.035525 -4.476022 20.896463 209 209 209 0
-4.944431 -4.465938 20.849382 209 209 209 0
-4.883111 -4.482856 20.928366 209 209 209 0
-4.820397 -4.499037 21.003908 208 208 208 0
-4.788699 -4.545206 21.219450 209 209 209 0
-4.708646 -4.546279 21.224459 210 210 210 0
-4.600915 -4.520197 21.102696 209 209 209 0
-4.495154 -4.495154 20.985780 209 209 209 0
-4.435907 -4.516559 21.085712 208 208 208 0
-4.398526 -4.561434 21.295211 209 209 209 0
-4.320853 -4.565430 21.313866 209 209 209 0
-4.229319 -4.554651 21.263544 209 209 209 0
-4.123179 -4.527413 21.136380 210 210 210 0
-4.019787 -4.502162 21.018495 210 210 210 0
-3.943411 -4.506756 21.039943 209 209 209 0
-3.907963 -4.559290 21.285199 210 210 210 0
-3.847530 -4.584291 21.401917 210 210 210 0
-3.748306 -4.563155 21.303243 210 210 210 0
-3.651950 -4.544649 21.216849 210 210 210 0
-3.565799 -4.538290 21.187161 209 209 209 0
-3.504335 -4.563785 21.306188 210 210 210 0
-3.443825 -4.591767 21.436822 210 210 210 0
-3.370486 -4.603591 21.492022 210 210 210 0
-3.285108 -4.599152 21.471297 210 210 210 0
-3.199364 -4.593959 21.447053 210 210 210 0
-3.123320 -4.602788 21.488273 210 210 210 0
-3.059804 -4.631054 21.620233 210 210 210 0
-2.986095 -4.645037 21.685515 210 210 210 0
-2.905694 -4.649111 21.704532 211 211 211 0
-2.816536 -4.639000 21.657329 211 211 211 0
-2.722931 -4.620731 21.572040 211 211 211 0
-2.640839 -4.621468 21.575483 211 211 211 0
-2.570559 -4.643591 21.678764 211 211 211 0
-2.502447 -4.671235 21.807821 210 210 210 0
-2.407979 -4.649891 21.708176 211 211 211 0
-2.316123 -4.632246 21.625799 211 211 211 0
-2.227990 -4.621015 21.573368 211 211 211 0
-2.145285 -4.620614 21.571493 211 211 211 0
-2.064775 -4.625096 21.592420 211 211 211 0
-1.992139 -4.648324 21.700859 211 211 211 0
-1.911573 -4.654265 21.728594 211 211 211 0
-1.825452 -4.646605 21.692836 211 211 211 0
-1.741127 -4.643006 21.676034 211 211 211 0
-1.662072 -4.653802 21.726435 211 211 211 0
-1.579809 -4.656278 21.737992 211 211 211 0
-1.498158 -4.660936 21.759740 211 211 211 0
-1.415085 -4.661456 21.762168 211 211 211 0
-1.334774 -4.671708 21.810028 212 212 212 0
-1.254096 -4.681957 21.857876 212 212 212 0
-1.170504 -4.682014 21.858144 212 212 212 0
-1.088755 -4.690020 21.895520 212 212 212 0
-1.007109 -4.699842 21.941374 212 212 212 0
-0.925372 -4.710986 21.993400 212 212 212 0
-0.840226 -4.705265 21.966688 212 212 212 0
-0.755014 -4.697864 21.932137 212 212 212 0
-0.669618 -4.687327 21.882948 212 212 212 0
-0.586589 -4.692716 21.908103 211 211 211 0
-0.505112 -4.714378 22.009232 212 212 212 0
-0.419922 -4.703129 21.956718 212 212 212 0
-0.335256 -4.693585 21.912163 212 212 212 0
-0.251075 -4.686731 21.880164 213 213 213 0
-0.167042 -4.677171 21.835531 212 212 212 0
-0.083795 -4.692502 21.907105 213 213 213 0
0.000000 -4.701056 21.947040 212 212 212 0
0.083985 -4.703169 21.956906 213 213 213 0
0.167973 -4.703240 21.957234 212 212 212 0
0.251387 -4.692557 21.907361 212 212 212 0
0.335418 -4.695854 21.922756 212 212 212 0
0.420128 -4.705434 21.967478 213 213 213 0
0.505396 -4.717032 22.021625 213 213 213 0
0.589776 -4.718210 22.027123 212 212 212 0
0.672831 -4.709814 21.987929 212 212 212 0
0.757548 -4.713634 22.005761 213 213 213 0
0.843827 -4.725433 22.060847 213 213 213 0
0.930745 -4.738339 22.121099 213 213 213 0
1.016888 -4.745479 22.154431 213 213 213 0
1.099249 -4.735227 22.106570 214 214 214 0
1.181678 -4.726711 22.066812 213 213 213 0
1.264681 -4.721474 22.042362 213 213 213 0
1.352244 -4.732854 22.095491 213 213 213 0
1.443372 -4.754639 22.197192 213 213 213 0
1.521924 -4.734875 22.104927 214 214 214 0
1.601616 -4.720554 22.038067 214 214 214 0
1.683368 -4.713430 22.004808 213 213 213 0
1.767781 -4.714084 22.007861 213 213 213 0
1.859163 -4.732415 22.093439 214 214 214 0
1.944504 -4.734446 22.102920 214 214 214 0
2.024760 -4.724441 22.056213 214 214 214 0
2.108202 -4.722372 22.046554 214 214 214 0
2.192995 -4.723374 22.051232 214 214 214 0
2.284162 -4.737520 22.117275 213 213 213 0
2.369429 -4.738859 22.123524 213 213 213 0
2.453700 -4.738180 22.120356 214 214 214 0
2.537073 -4.735870 22.109570 214 214 214 0
2.622458 -4.737343 22.116445 214 214 214 0
2.709152 -4.741017 22.133597 214 214 214 0
2.802704 -4.756104 22.204033 214 214 214 0
2.887989 -4.756688 22.206760 214 214 214 0
2.975087 -4.760139 22.222873 214 214 214 0
3.055546 -4.753071 22.189874 214 214 214 0
3.139737 -4.752035 22.185035 214 214 214 0
3.221645 -4.747688 22.164742 214 214 214 0
3.330511 -4.782272 22.326201 214 214 214 0
3.398372 -4.757720 22.211579 214 214 214 0
3.478742 -4.751452 22.182317 214 214 214 0
3.560721 -4.747628 22.164463 214 214 214 0
3.641509 -4.742431 22.140200 214 214 214 0
3.724631 -4.740439 22.130902 214 214 214 0
3.813740 -4.745988 22.156807 214 214 214 0
3.902830 -4.751271 22.181473 214 214 214 0
3.989063 -4.752926 22.189198 214 214 214 0
4.074571 -4.753666 22.192651 214 214 214 0
4.156250 -4.750000 22.175535 215 215 215 0
4.243543 -4.752768 22.188459 215 215 215 0
4.327553 -4.751823 22.184046 215 215 215 0
4.419708 -4.759685 22.220752 214 214 214 0
4.503021 -4.757909 22.212460 215 215 215 0
4.594996 -4.765181 22.246412 215 215 215 0
4.681115 -4.766227 22.251291 215 215 215 0
4.774231 -4.774231 22.288661 215 215 215 0
4.865633 -4.780271 22.316860 214 214 214 0
4.944269 -4.773777 22.286540 215 215 215 0
5.024607 -4.769118 22.264790 215 215 215 0
5.102105 -4.761965 22.231395 215 215 215 0
5.195641 -4.769769 22.267827 216 216 216 0
5.291199 -4.779147 22.311612 215 215 215 0
5.365278 -4.769136 22.264874 215 215 215 0
5.437768 -4.758047 22.213104 215 215 215 0
5.515709 -4.751995 22.184852 216 216 216 0
5.598894 -4.750577 22.178229 215 215 215 0
5.699773 -4.763990 22.240848 215 215 215 0
5.790706 -4.768817 22.263384 215 215 215 0
5.867180 -4.761769 22.230482 215 215 215 0
5.945896 -4.756717 22.206894 215 215 215 0
6.034292 -4.759442 22.219617 215 215 215 0
6.128250 -4.766417 22.252178 215 215 215 0
6.215338 -4.767931 22.259247 215 215 215 0
6.298155 -4.766172 22.251035 215 215 215 0
6.380744 -4.764289 22.242245 216 216 216 0
6.473171 -4.769705 22.267529 215 215 215 0
6.569780 -4.778022 22.306358 216 216 216 0
6.653817 -4.777100 22.302053 215 215 215 0
6.749823 -4.784685 22.337464 215 215 215 0
-10.713347 -7.365426 35.010937 207 207 207 0
-10.579346 -7.365367 35.010659 207 207 207 0
-5.999144 -4.230166 20.107740 208 208 208 0
-5.902782 -4.216273 20.041701 207 207 207 0
-5.806270 -4.201906 19.973407 208 208 208 0
-5.740274 -4.209534 20.009671 208 208 208 0
-5.669334 -4.213694 20.029443 208 208 208 0
-5.586914 -4.209319 20.008645 208 208 208 0
-5.571517 -4.256020 20.230634 208 208 208 0
-5.539629 -4.291262 20.398157 208 208 208 0
-5.487035 -4.311242 20.493128 208 208 208 0
-5.415014 -4.316316 20.517247 208 208 208 0
-5.331190 -4.311992 20.496693 209 209 209 0
-5.261648 -4.319263 20.531258 209 209 209 0
-5.186762 -4.322302 20.545701 209 209 209 0
-5.146536 -4.354761 20.699994 209 209 209 0
-5.109837 -4.391266 20.873518 209 209 209 0
-5.034167 -4.394907 20.890826 209 209 209 0
-4.945324 -4.386981 20.853149 209 209 209 0
-4.883894 -4.403511 20.931721 209 209 209 0
-4.823093 -4.421169 21.015656 209 209 209 0
-4.781857 -4.457663 21.189129 209 209 209 0
-4.705904 -4.462495 21.212100 209 209 209 0
-4.600058 -4.438653 21.098765 209 209 209 0
-4.494853 -4.414588 20.984374 209 209 209 0
-4.434098 -4.434098 21.077116 210 210 210 0
-4.397071 -4.478498 21.288165 209 209 209 0
-4.326709 -4.489981 21.342748 209 209 209 0
-4.228436 -4.472384 21.259104 210 210 210 0
-4.123333 -4.446732 21.137170 210 210 210 0
-4.019950 -4.421945 21.019347 210 210 210 0
-3.944580 -4.427590 21.046179 209 209 209 0
-3.905837 -4.475438 21.273620 209 209 209 0
-3.846618 -4.501361 21.396844 210 210 210 0
-3.749949 -4.483635 21.312584 210 210 210 0
-3.650197 -4.461352 21.206666 210 210 210 0
-3.564962 -4.456203 21.182189 209 209 209 0
-3.502343 -4.479740 21.294072 210 210 210 0
-3.446484 -4.513253 21.453371 210 210 210 0
-3.370151 -4.520934 21.489882 210 210 210 0
-3.282165 -4.512977 21.452058 210 210 210 0
-3.196212 -4.507478 21.425922 210 210 210 0
-3.125090 -4.523156 21.500445 210 210 210 0
-3.055235 -4.541566 21.587954 210 210 210 0
-2.986396 -4.562549 21.687696 211 211 211 0
-2.905640 -4.566005 21.704126 211 211 211 0
-2.816563 -4.556205 21.657541 211 211 211 0
-2.723879 -4.539798 21.579550 211 211 211 0
-2.639484 -4.536613 21.564409 210 210 210 0
-2.571584 -4.562488 21.687407 211 211 211 0
-2.498540 -4.580656 21.773765 211 211 211 0
-2.407282 -4.565535 21.701888 210 210 210 0
-2.316131 -4.549542 21.625869 211 211 211 0
-2.228647 -4.539837 21.579735 211 211 211 0
-2.143551 -4.534434 21.554056 211 211 211 0
-2.066013 -4.545229 21.605366 211 211 211 0
-1.992289 -4.565663 21.702496 211 211 211 0
-1.911155 -4.570154 21.723847 211 211 211 0
-1.824274 -4.560684 21.678831 211 211 211 0
-1.741084 -4.559981 21.675491 212 212 212 0
-1.661524 -4.569192 21.719274 211 211 211 0
-1.580823 -4.576068 21.751955 212 212 212 0
-1.498024 -4.577296 21.757797 211 211 211 0
-1.415317 -4.578965 21.765729 212 212 212 0
-1.335140 -4.589543 21.816008 211 211 211 0
-1.252266 -4.591642 21.825985 212 212 212 0
-1.169918 -4.596106 21.847206 212 212 212 0
-1.089453 -4.609224 21.909564 212 212 212 0
-1.007322 -4.616891 21.946006 211 211 211 0
-0.925527 -4.627634 21.997071 212 212 212 0
-0.840490 -4.622695 21.973597 211 211 211 0
-0.755013 -4.613969 21.932117 212 212 212 0
-0.669477 -4.602653 21.878325 212 212 212 0
-0.586309 -4.606711 21.897616 212 212 212 0
-0.505050 -4.629624 22.006533 212 212 212 0
-0.420110 -4.621207 21.966522 212 212 212 0
-0.335269 -4.609950 21.913014 213 213 213 0
-0.251164 -4.604665 21.887892 212 212 212 0
-0.167046 -4.593756 21.836034 212 212 212 0
-0.083804 -4.609203 21.909461 213 213 213 0
0.000000 -4.617279 21.947850 212 212 212 0
0.083966 -4.618132 21.951903 212 212 212 0
0.167894 -4.617085 21.946926 213 213 213 0
0.251350 -4.608083 21.904139 213 213 213 0
0.335522 -4.613434 21.929575 213 213 213 0
0.419999 -4.619990 21.960735 213 213 213 0
0.504661 -4.626057 21.989575 212 212 212 0
0.589663 -4.633063 22.022879 213 213 213 0
0.672803 -4.625517 21.987010 213 213 213 0
0.757647 -4.630066 22.008630 213 213 213 0
0.843917 -4.641545 22.063197 213 213 213 0
0.931377 -4.656885 22.136112 214 214 214 0
1.016762 -4.660161 22.151686 213 213 213 0
1.099325 -4.650989 22.108086 213 213 213 0
1.181374 -4.641114 22.061147 213 213 213 0
1.264975 -4.638240 22.047487 213 213 213 0
1.352508 -4.649246 22.099803 213 213 213 0
1.443347 -4.669652 22.196802 213 213 213 0
1.522012 -4.650593 22.106204 213 213 213 0
1.602378 -4.638462 22.048542 213 213 213 0
1.683708 -4.630198 22.009261 213 213 213 0
1.769007 -4.633113 22.023114 214 214 214 0
1.858671 -4.646677 22.087590 214 214 214 0
1.944122 -4.648988 22.098576 213 213 213 0
2.025545 -4.641874 22.064762 214 214 214 0
2.107748 -4.637046 22.041813 214 214 214 0
2.192952 -4.638938 22.050803 214 214 214 0
2.283025 -4.650607 22.106272 214 214 214 0
2.370291 -4.655929 22.131569 214 214 214 0
2.452578 -4.651442 22.110240 214 214 214 0
2.537961 -4.652928 22.117305 214 214 214 0
2.624821 -4.656941 22.136380 214 214 214 0
2.710054 -4.657905 22.140962 214 214 214 0
2.801840 -4.669733 22.197184 214 214 214 0
2.889468 -4.674139 22.218128 214 214 214 0
2.974889 -4.674826 22.221396 214 214 214 0
3.055722 -4.668464 22.191155 214 214 214 0
3.140762 -4.668701 22.192280 214 214 214 0
3.222697 -4.664429 22.171976 214 214 214 0
3.329935 -4.696062 22.322340 214 214 214 0
3.396230 -4.669816 22.197582 214 214 214 0
3.478153 -4.665815 22.178560 215 215 215 0
3.561209 -4.663489 22.167504 214 214 214 0
3.641309 -4.657489 22.138984 215 215 215 0
3.724257 -4.655321 22.128682 214 214 214 0
3.812025 -4.659142 22.146843 215 215 215 0
3.902766 -4.666350 22.181107 214 214 214 0
3.988760 -4.667698 22.187511 215 215 215 0
4.071828 -4.665637 22.177714 214 214 214 0
4.155828 -4.664705 22.173285 215 215 215 0
4.243644 -4.668008 22.188988 215 215 215 0
4.329913 -4.669514 22.196147 215 215 215 0
4.420932 -4.675986 22.226908 214 214 214 0
4.505584 -4.675606 22.225101 215 215 215 0
4.595280 -4.680378 22.247785 214 214 214 0
4.679392 -4.679392 22.243101 215 215 215 0
4.774989 -4.689721 22.292200 215 215 215 0
4.866368 -4.695618 22.320229 215 215 215 0
4.943857 -4.688140 22.284683 215 215 215 0
5.023108 -4.682558 22.258149 215 215 215 0
5.101651 -4.676513 22.229414 215 215 215 0
5.195206 -4.684202 22.265965 215 215 215 0
5.291264 -4.693863 22.311887 215 215 215 0
5.365787 -4.684417 22.266987 215 215 215 0
5.436141 -4.671683 22.206457 215 215 215 0
5.514086 -4.665765 22.178325 215 215 215 0
5.598600 -4.665500 22.177065 215 215 215 0
5.699065 -4.678337 22.238084 216 216 216 0
5.789080 -4.682344 22.257132 216 216 216 0
5.867171 -4.676731 22.230449 215 215 215 0
5.947715 -4.673205 22.213689 215 215 215 0
6.034676 -4.674749 22.221031 215 215 215 0
6.128934 -4.681824 22.254661 215 215 215 0
6.213801 -4.681631 22.253741 216 216 216 0
6.300222 -4.682597 22.258334 215 215 215 0
6.380209 -4.678820 22.240380 216 216 216 0
6.472959 -4.684378 22.266799 215 215 215 0
6.568974 -4.692124 22.303622 216 216 216 0
6.655713 -4.693131 22.308407 216 216 216 0
6.748893 -4.698596 22.334385 215 215 215 0
-10.713325 -7.231495 35.010867 208 208 208 0
-10.579343 -7.231449 35.010649 207 207 207 0
-6.006988 -4.158684 20.134030 208 208 208 0
-5.908876 -4.143887 20.062390 208 208 208 0
-5.796753 -4.118745 19.940670 208 208 208 0
