ply
    format ascii 1.0
    element vertex 25599
    property float x
    property float y
    property float z
    property uchar red
    property uchar green
    property uchar blue
    property uchar alpha
    end_header
4.834800 -4.084572 21.793103 215 215 215 0
4.928109 -4.092837 21.837197 215 215 215 0
5.011361 -4.092611 21.835995 215 215 215 0
5.083774 -4.083687 21.788381 216 216 216 0
5.154240 -4.073512 21.734091 215 215 215 0
5.243765 -4.078484 21.760620 215 215 215 0
5.342797 -4.090579 21.825150 216 216 216 0
5.419243 -4.085275 21.796853 216 216 216 0
5.489257 -4.075358 21.743938 216 216 216 0
5.563874 -4.069102 21.710562 216 216 216 0
5.645119 -4.067806 21.703647 215 215 215 0
5.740299 -4.076444 21.749736 216 216 216 0
5.835624 -4.084937 21.795049 216 216 216 0
5.910807 -4.079289 21.764917 216 216 216 0
5.989012 -4.075856 21.746595 216 216 216 0
6.067551 -4.072740 21.729972 215 215 215 0
6.156067 -4.076315 21.749044 216 216 216 0
6.250749 -4.083823 21.789105 217 217 217 0
6.332885 -4.083044 21.784950 216 216 216 0
6.418156 -4.084281 21.791549 216 216 216 0
6.500422 -4.083598 21.787907 217 217 217 0
6.594402 -4.090198 21.823121 216 216 216 0
-10.713239 -6.427944 35.010586 208 208 208 0
-10.579259 -6.427904 35.010370 208 208 208 0
-5.951285 -3.662329 19.947327 208 208 208 0
-5.816917 -3.626130 19.750164 208 208 208 0
-5.741059 -3.625932 19.749087 208 208 208 0
-5.655106 -3.619268 19.712786 208 208 208 0
-5.554013 -3.602603 19.622020 208 208 208 0
-5.495924 -3.613758 19.682779 209 209 209 0
-5.429787 -3.619858 19.716001 208 208 208 0
-5.405551 -3.654457 19.904452 208 208 208 0
-5.358691 -3.674531 20.013787 209 209 209 0
-5.266190 -3.663437 19.953359 209 209 209 0
-5.214399 -3.680752 20.047669 209 209 209 0
-5.147243 -3.687577 20.084843 209 209 209 0
-5.088219 -3.700523 20.155352 209 209 209 0
-5.012441 -3.701495 20.160648 209 209 209 0
-4.985582 -3.739187 20.365941 209 209 209 0
-4.919888 -3.748486 20.416592 209 209 209 0
-4.841194 -3.748021 20.414057 209 209 209 0
-4.761810 -3.746998 20.408487 209 209 209 0
-4.708013 -3.766411 20.514218 210 210 210 0
-4.667595 -3.797365 20.682818 210 210 210 0
-4.625326 -3.827856 20.848890 209 209 209 0
-4.525769 -3.811174 20.758027 210 210 210 0
-4.414620 -3.783960 20.609803 210 210 210 0
-4.313232 -3.764275 20.502588 210 210 210 0
-4.244869 -3.773217 20.551292 210 210 210 0
-4.210027 -3.812855 20.767183 210 210 210 0
-4.146034 -3.827108 20.844815 210 210 210 0
-4.056439 -3.817825 20.794253 210 210 210 0
-3.960752 -3.802322 20.709817 210 210 210 0
-3.864849 -3.785974 20.620775 210 210 210 0
-3.785629 -3.785629 20.618895 210 210 210 0
-3.759644 -3.839636 20.913052 210 210 210 0
-3.685148 -3.845372 20.944292 210 210 210 0
-3.591726 -3.831174 20.866962 211 211 211 0
-3.497357 -3.815298 20.780493 211 211 211 0
-3.415859 -3.813052 20.768259 210 210 210 0
-3.350981 -3.829692 20.858889 211 211 211 0
-3.289890 -3.851578 20.978095 211 211 211 0
-3.216360 -3.859632 21.021962 210 210 210 0
-3.133697 -3.856857 21.006849 210 210 210 0
-3.050042 -3.852685 20.984123 210 210 210 0
-2.980042 -3.866001 21.056650 211 211 211 0
-2.911575 -3.882100 21.144333 211 211 211 0
-2.844597 -3.901162 21.248159 211 211 211 0
-2.764815 -3.903269 21.259635 211 211 211 0
-2.680062 -3.898271 21.232415 211 211 211 0
-2.589238 -3.883857 21.153908 211 211 211 0
-2.505830 -3.879994 21.132867 211 211 211 0
-2.437259 -3.899614 21.239728 212 212 212 0
-2.366491 -3.916951 21.334158 211 211 211 0
-2.277431 -3.904167 21.264524 211 211 211 0
-2.188409 -3.890505 21.190114 212 212 212 0
-2.103414 -3.883227 21.150473 212 212 212 0
-2.022305 -3.882826 21.148292 211 211 211 0
-1.942791 -3.885581 21.163297 211 211 211 0
-1.871136 -3.904979 21.268950 211 211 211 0
-1.788186 -3.901497 21.249986 212 212 212 0
-1.704140 -3.895177 21.215559 212 212 212 0
-1.623872 -3.897292 21.227079 212 212 212 0
-1.544690 -3.902374 21.254762 212 212 212 0
-1.467603 -3.913607 21.315943 212 212 212 0
-1.386482 -3.914773 21.322296 212 212 212 0
-1.303779 -3.911336 21.303573 212 212 212 0
-1.224196 -3.917429 21.336758 212 212 212 0
-1.144215 -3.923022 21.367221 213 213 213 0
-1.065437 -3.933921 21.426587 212 212 212 0
-0.983385 -3.933539 21.424505 213 213 213 0
-0.902293 -3.937280 21.444879 212 212 212 0
-0.822040 -3.945792 21.491242 212 212 212 0
-0.740991 -3.951952 21.524791 213 213 213 0
-0.656905 -3.941428 21.467471 212 212 212 0
-0.573473 -3.932388 21.418237 213 213 213 0
-0.491839 -3.934715 21.430912 213 213 213 0
-0.410702 -3.942742 21.474628 213 213 213 0
-0.328518 -3.942211 21.471736 213 213 213 0
-0.246448 -3.943173 21.476976 213 213 213 0
-0.164090 -3.938161 21.449681 213 213 213 0
-0.081859 -3.929248 21.401133 213 213 213 0
0.000000 -3.924508 21.375318 213 213 213 0
0.082042 -3.938002 21.448812 213 213 213 0
0.164631 -3.951150 21.520423 213 213 213 0
0.246736 -3.947778 21.502060 213 213 213 0
0.328758 -3.945097 21.487455 213 213 213 0
0.410362 -3.939471 21.456816 213 213 213 0
0.493278 -3.946222 21.493582 214 214 214 0
0.576321 -3.951917 21.524600 213 213 213 0
0.659841 -3.959049 21.563447 213 213 213 0
0.741530 -3.954826 21.540445 214 214 214 0
0.823589 -3.953226 21.531730 214 214 214 0
0.905693 -3.952115 21.525682 213 213 213 0
0.991482 -3.965929 21.600920 213 213 213 0
1.077736 -3.979334 21.673933 213 213 213 0
1.160505 -3.978873 21.671419 213 213 213 0
1.240888 -3.970841 21.627674 213 213 213 0
1.320912 -3.962736 21.583530 214 214 214 0
1.402223 -3.959217 21.564365 213 213 213 0
1.486210 -3.963227 21.586204 214 214 214 0
1.577995 -3.986515 21.713042 214 214 214 0
1.653988 -3.969572 21.620763 214 214 214 0
1.731063 -3.956715 21.550737 213 213 213 0
1.810663 -3.950537 21.517084 214 214 214 0
1.895090 -3.954970 21.541232 214 214 214 0
1.986173 -3.972346 21.635869 214 214 214 0
2.070485 -3.975331 21.652131 214 214 214 0
2.149360 -3.968049 21.612469 214 214 214 0
2.230824 -3.965909 21.600811 214 214 214 0
2.314715 -3.968082 21.612648 214 214 214 0
2.400973 -3.974024 21.645008 214 214 214 0
2.484352 -3.974962 21.650122 214 214 214 0
2.566527 -3.973977 21.644756 215 215 215 0
2.648215 -3.972323 21.635747 215 215 215 0
2.733882 -3.976556 21.658800 214 214 214 0
2.816994 -3.976933 21.660854 215 215 215 0
2.909369 -3.989991 21.731979 214 214 214 0
2.994489 -3.992652 21.746471 214 214 214 0
3.078910 -3.994261 21.755235 215 215 215 0
3.158119 -3.989203 21.727686 215 215 215 0
3.241806 -3.989915 21.731563 214 214 214 0
3.327559 -3.993071 21.748752 214 214 214 0
3.520134 -4.121133 22.446256 215 215 215 0
3.490087 -3.988671 21.724787 215 215 215 0
3.572519 -3.987928 21.720739 215 215 215 0
3.649753 -3.981549 21.685997 215 215 215 0
3.728498 -3.977064 21.661570 215 215 215 0
3.809983 -3.975635 21.653785 215 215 215 0
3.899786 -3.982760 21.692592 215 215 215 0
3.988397 -3.988397 21.723294 215 215 215 0
4.067187 -3.984184 21.700346 215 215 215 0
4.151775 -3.985704 21.708626 216 216 216 0
4.233673 -3.984633 21.702796 215 215 215 0
4.321452 -3.989033 21.726759 215 215 215 0
4.402712 -3.987362 21.717659 215 215 215 0
4.493268 -3.994016 21.753900 215 215 215 0
4.575907 -3.993519 21.751192 215 215 215 0
4.660245 -3.994496 21.756513 215 215 215 0
4.742703 -3.993855 21.753022 216 216 216 0
4.833427 -4.000077 21.786913 216 216 216 0
4.929192 -4.010190 21.841995 216 216 216 0
5.013210 -4.010568 21.844051 216 216 216 0
5.082195 -3.999104 21.781613 215 215 215 0
5.155479 -3.991338 21.739316 216 216 216 0
5.243630 -3.995146 21.760057 216 216 216 0
5.343024 -4.007268 21.826079 216 216 216 0
5.419256 -4.001912 21.796906 216 216 216 0
5.490609 -3.993170 21.749292 216 216 216 0
5.563422 -3.985735 21.708797 216 216 216 0
5.644262 -3.984185 21.700355 215 215 215 0
5.741034 -3.993763 21.752519 216 216 216 0
5.830932 -3.998353 21.777523 216 216 216 0
5.909040 -3.994844 21.758410 216 216 216 0
5.988696 -3.992464 21.745448 216 216 216 0
6.068772 -3.990426 21.734345 216 216 216 0
6.156254 -3.993246 21.749705 216 216 216 0
6.250312 -4.000199 21.787579 216 216 216 0
6.334419 -4.000686 21.790227 216 216 216 0
6.416012 -3.999592 21.784271 216 216 216 0
6.502655 -4.001634 21.795391 216 216 216 0
6.595678 -4.007501 21.827346 216 216 216 0
-10.713235 -6.294025 35.010570 208 208 208 0
-10.579257 -6.293988 35.010364 208 208 208 0
-5.952797 -3.586942 19.952395 208 208 208 0
-5.827841 -3.557253 19.787252 209 209 209 0
-5.728218 -3.542451 19.704914 209 209 209 0
-5.645193 -3.537654 19.678231 209 209 209 0
-5.558173 -3.530191 19.636719 208 208 208 0
-5.496736 -3.538994 19.685686 209 209 209 0
-5.427427 -3.542903 19.707431 208 208 208 0
-5.401622 -3.575722 19.889984 209 209 209 0
-5.350909 -3.592753 19.984722 209 209 209 0
-5.260254 -3.583071 19.930865 209 209 209 0
-5.213871 -3.603705 20.045641 208 208 208 0
-5.147329 -3.610813 20.085179 208 208 208 0
-5.088891 -3.623907 20.158016 209 209 209 0
-5.013429 -3.625094 20.164620 210 210 210 0
-4.985511 -3.661234 20.365648 209 209 209 0
-4.922113 -3.672053 20.425826 210 210 210 0
-4.837961 -3.667486 20.400424 210 210 210 0
-4.753491 -3.662526 20.372833 209 209 209 0
-4.703788 -3.684634 20.495808 210 210 210 0
-4.664053 -3.715432 20.667121 209 209 209 0
-4.620178 -3.743937 20.825682 209 209 209 0
-4.525687 -3.731707 20.757653 209 209 209 0
-4.414258 -3.704823 20.608113 210 210 210 0
-4.316214 -3.688401 20.516763 210 210 210 0
-4.249947 -3.699028 20.575877 210 210 210 0
-4.214768 -3.737625 20.790570 211 211 211 0
-4.146589 -3.747879 20.847609 210 210 210 0
-4.058133 -3.739848 20.802935 210 210 210 0
-3.958249 -3.720754 20.696724 210 210 210 0
-3.863646 -3.705946 20.614357 210 210 210 0
-3.788669 -3.709738 20.635452 210 210 210 0
-3.756805 -3.756805 20.897263 210 210 210 0
-3.682227 -3.762275 20.927689 211 211 211 0
-3.594735 -3.754501 20.884444 210 210 210 0
-3.500515 -3.739187 20.799258 210 210 210 0
-3.416551 -3.734370 20.772466 211 211 211 0
-3.353371 -3.752581 20.873766 210 210 210 0
-3.291927 -3.773672 20.991083 211 211 211 0
-3.215766 -3.778525 21.018076 211 211 211 0
-3.138479 -3.782270 21.038908 211 211 211 0
-3.049927 -3.772278 20.983329 211 211 211 0
-2.977894 -3.782731 21.041472 211 211 211 0
-2.910897 -3.800338 21.139415 210 210 210 0
-2.846509 -3.822455 21.262437 210 210 210 0
-2.767271 -3.825345 21.278516 211 211 211 0
-2.680351 -3.817470 21.234710 212 212 212 0
-2.588368 -3.801665 21.146795 211 211 211 0
-2.507463 -3.801638 21.146643 211 211 211 0
-2.436264 -3.816814 21.231063 212 212 212 0
-2.366653 -3.835610 21.335614 212 212 212 0
-2.277423 -3.822817 21.264455 211 211 211 0
-2.190077 -3.812356 21.206265 212 212 212 0
-2.103886 -3.803179 21.155214 212 212 212 0
-2.023597 -3.804362 21.161794 212 212 212 0
-1.943258 -3.805547 21.168387 212 212 212 0
-1.870737 -3.822810 21.264412 211 211 211 0
-1.789213 -3.822410 21.262187 212 212 212 0
-1.705655 -3.817419 21.234428 211 211 211 0
-1.624371 -3.817272 21.233611 212 212 212 0
-1.543818 -3.818919 21.242770 212 212 212 0
-1.467212 -3.831055 21.310275 212 212 212 0
-1.385746 -3.831179 21.310966 213 213 213 0
-1.303347 -3.828581 21.296517 212 212 212 0
-1.223372 -3.833232 21.322386 212 212 212 0
-1.144368 -3.841808 21.370088 212 212 212 0
-1.065629 -3.852657 21.430441 213 213 213 0
-0.983864 -3.853466 21.434939 213 213 213 0
-0.902723 -3.857087 21.455081 213 213 213 0
-0.822489 -3.865700 21.502991 213 213 213 0
-0.740510 -3.867108 21.510820 213 213 213 0
-0.656937 -3.859504 21.468527 213 213 213 0
-0.573751 -3.852330 21.428619 213 213 213 0
-0.491879 -3.853055 21.432651 213 213 213 0
-0.411024 -3.863625 21.491447 213 213 213 0
-0.328422 -3.858963 21.465515 213 213 213 0
-0.246296 -3.858639 21.463711 212 212 212 0
-0.164056 -3.855319 21.445243 213 213 213 0
-0.081868 -3.847773 21.403270 212 212 212 0
0.000000 -3.844016 21.382372 212 212 212 0
0.082046 -3.856166 21.449958 213 213 213 0
0.164547 -3.866855 21.509416 213 213 213 0
0.246579 -3.863069 21.488357 214 214 214 0
0.328683 -3.862027 21.482558 214 214 214 0
0.410421 -3.857961 21.459943 214 214 214 0
0.493119 -3.862763 21.486650 214 214 214 0
0.576387 -3.870024 21.527044 214 214 214 0
0.660032 -3.877689 21.569678 214 214 214 0
0.741726 -3.873459 21.546150 214 214 214 0
0.823705 -3.871414 21.534775 213 213 213 0
0.905437 -3.868686 21.519602 213 213 213 0
0.992133 -3.885853 21.615091 214 214 214 0
1.077333 -3.894972 21.665816 214 214 214 0
1.160860 -3.897172 21.678052 214 214 214 0
1.240799 -3.887836 21.626124 214 214 214 0
1.321153 -3.880887 21.587468 214 214 214 0
1.401921 -3.875900 21.559728 214 214 214 0
1.486614 -3.881715 21.592074 214 214 214 0
1.577796 -3.902968 21.710295 214 214 214 0
1.653985 -3.886864 21.620714 214 214 214 0
1.731598 -3.875481 21.557397 214 214 214 0
1.811908 -3.870894 21.531883 214 214 214 0
1.894857 -3.872099 21.538583 215 215 215 0
1.986511 -3.890250 21.639551 214 214 214 0
2.070006 -3.891612 21.647123 215 215 215 0
2.149997 -3.886534 21.618877 215 215 215 0
2.230752 -3.883161 21.600119 215 215 215 0
2.315329 -3.886446 21.618389 214 214 214 0
2.399523 -3.888882 21.631942 214 214 214 0
2.484809 -3.892868 21.654112 214 214 214 0
2.568094 -3.893562 21.657974 215 215 215 0
2.649765 -3.891843 21.648410 214 214 214 0
2.733698 -3.893449 21.657342 214 214 214 0
2.818595 -3.896292 21.673160 215 215 215 0
2.908241 -3.905352 21.723557 215 215 215 0
2.995371 -3.910624 21.752877 215 215 215 0
3.079026 -3.911196 21.756059 215 215 215 0
3.157676 -3.905547 21.724641 215 215 215 0
3.242284 -3.907368 21.734771 215 215 215 0
3.329136 -3.911735 21.759061 215 215 215 0
3.538161 -4.055941 22.561208 214 214 214 0
3.490333 -3.905849 21.726317 215 215 215 0
3.572587 -3.904920 21.721153 214 214 214 0
3.649902 -3.898759 21.686883 215 215 215 0
3.729213 -3.894956 21.665726 215 215 215 0
3.810949 -3.893795 21.659270 215 215 215 0
3.900366 -3.900366 21.695820 216 216 216 0
3.986874 -3.903814 21.714998 215 215 215 0
4.067520 -3.901499 21.702119 215 215 215 0
4.152499 -3.903349 21.712412 215 215 215 0
4.233323 -3.901298 21.701002 216 216 216 0
4.321299 -3.905790 21.725990 215 215 215 0
4.404107 -3.905529 21.724539 216 216 216 0
4.496018 -3.913201 21.767212 216 216 216 0
4.575688 -3.910133 21.750149 215 215 215 0
4.661833 -3.912610 21.763927 216 216 216 0
4.739193 -3.907755 21.736924 216 216 216 0
4.833781 -3.917029 21.788509 215 215 215 0
4.928134 -3.925802 21.837306 215 215 215 0
5.010735 -3.925076 21.833267 216 216 216 0
5.083464 -3.916767 21.787052 215 215 215 0
5.154051 -3.907104 21.733297 215 215 215 0
5.245406 -3.913239 21.767429 215 215 215 0
5.344406 -3.924798 21.831724 215 215 215 0
5.419681 -3.918846 21.798616 216 216 216 0
5.491245 -3.910432 21.751813 215 215 215 0
5.563881 -3.903021 21.710589 216 216 216 0
5.645539 -3.902064 21.705263 216 216 216 0
5.743359 -3.912143 21.761330 216 216 216 0
5.832042 -3.915799 21.781669 216 216 216 0
5.910975 -3.912899 21.765534 217 217 217 0
5.990809 -3.910667 21.753117 216 216 216 0
6.068808 -3.907315 21.734471 216 216 216 0
6.158504 -3.911482 21.757655 216 216 216 0
6.251199 -3.917418 21.790670 216 216 216 0
6.337655 -3.919339 21.801357 216 216 216 0
6.417057 -3.916905 21.787817 216 216 216 0
6.505991 -3.920277 21.806573 216 216 216 0
6.597740 -3.925238 21.834170 216 216 216 0
-10.713240 -6.160113 35.010589 208 208 208 0
-10.579242 -6.160065 35.010315 208 208 208 0
-5.941580 -3.504009 19.914797 208 208 208 0
-5.812186 -3.472215 19.734102 208 208 208 0
-5.724721 -3.464963 19.692883 208 208 208 0
-5.649331 -3.464923 19.692657 209 209 209 0
-5.553089 -3.451920 19.618755 209 209 209 0
-5.489300 -3.459011 19.659055 209 209 209 0
-5.429288 -3.468712 19.714191 208 208 208 0
-5.399649 -3.498364 19.882717 208 208 208 0
-5.351361 -3.516609 19.986408 209 209 209 0
-5.265245 -3.510164 19.949779 209 209 209 0
-5.219515 -3.530848 20.067339 209 209 209 0
-5.146834 -3.533647 20.083245 209 209 209 0
-5.087359 -3.545735 20.151949 209 209 209 0
-5.012138 -3.547052 20.159429 209 209 209 0
-4.983704 -3.582037 20.358267 209 209 209 0
-4.919986 -3.592370 20.416996 209 209 209 0
-4.848114 -3.596987 20.443236 209 209 209 0
-4.758903 -3.588681 20.396029 209 209 209 0
-4.703795 -3.606243 20.495841 209 209 209 0
-4.661486 -3.634379 20.655747 210 210 210 0
-4.620070 -3.664193 20.825195 210 210 210 0
-4.524414 -3.651282 20.751815 210 210 210 0
-4.415201 -3.626773 20.612518 210 210 210 0
-4.319441 -3.612623 20.532102 210 210 210 0
-4.245807 -3.616799 20.555833 210 210 210 0
-4.217243 -3.660249 20.802779 210 210 210 0
-4.142531 -3.664546 20.827203 210 210 210 0
-4.055840 -3.658209 20.791183 210 210 210 0
-3.957743 -3.641124 20.694081 210 210 210 0
-3.863689 -3.627136 20.614585 210 210 210 0
-3.785995 -3.628245 20.620885 210 210 210 0
-3.758642 -3.678671 20.907478 210 210 210 0
-3.685816 -3.685816 20.948085 211 211 211 0
-3.593131 -3.672979 20.875127 211 211 211 0
-3.500713 -3.659836 20.800434 211 211 211 0
-3.418666 -3.657178 20.785326 211 211 211 0
-3.352606 -3.671902 20.869010 210 210 210 0
-3.290519 -3.691802 20.982108 211 211 211 0
-3.217657 -3.700306 21.030439 211 211 211 0
-3.134354 -3.696931 21.011257 211 211 211 0
-3.046600 -3.687989 20.960440 211 211 211 0
-2.977228 -3.701418 21.036761 212 212 212 0
-2.913155 -3.722365 21.155812 211 211 211 0
-2.844611 -3.738631 21.248260 211 211 211 0
-2.767508 -3.744276 21.280342 211 211 211 0
-2.680326 -3.736213 21.234513 211 211 211 0
-2.588706 -3.721264 21.149556 211 211 211 0
-2.508146 -3.721766 21.152406 211 211 211 0
-2.434463 -3.732843 21.215361 211 211 211 0
-2.367718 -3.755691 21.345215 211 211 211 0
-2.277029 -3.740833 21.260772 212 212 212 0
-2.188193 -3.728033 21.188023 212 212 212 0
-2.104898 -3.724051 21.165393 212 212 212 0
-2.022529 -3.721453 21.150626 211 211 211 0
-1.943019 -3.724120 21.165787 212 212 212 0
-1.871555 -3.743110 21.273712 212 212 212 0
-1.788799 -3.740217 21.257272 211 211 211 0
-1.705323 -3.735470 21.230292 212 212 212 0
-1.625212 -3.737988 21.244605 213 213 213 0
-1.544680 -3.739752 21.254632 212 212 212 0
-1.466819 -3.748539 21.304567 211 211 211 0
-1.386394 -3.751418 21.320931 212 212 212 0
-1.303399 -3.747273 21.297373 212 212 212 0
-1.224515 -3.755180 21.342313 212 212 212 0
-1.144762 -3.761362 21.377450 213 213 213 0
-1.065524 -3.770314 21.428329 212 212 212 0
-0.983759 -3.771077 21.432664 212 212 212 0
-0.902342 -3.773429 21.446029 213 213 213 0
-0.823259 -3.786993 21.523118 212 212 212 0
-0.741062 -3.787648 21.526844 213 213 213 0
-0.656693 -3.775987 21.460569 212 212 212 0
-0.574071 -3.772470 21.440578 212 212 212 0
-0.492107 -3.772818 21.442557 213 213 213 0
-0.410849 -3.779813 21.482311 213 213 213 0
-0.328517 -3.777940 21.471670 213 213 213 0
-0.246547 -3.780381 21.485542 213 213 213 0
-0.164023 -3.772534 21.440942 213 213 213 0
-0.081876 -3.766318 21.405616 213 213 213 0
0.000000 -3.760703 21.373700 213 213 213 0
0.082036 -3.773670 21.447402 214 214 214 0
0.164602 -3.785845 21.516594 212 212 212 0
0.246572 -3.780776 21.487788 213 213 213 0
0.328664 -3.779637 21.481315 213 213 213 0
0.410335 -3.775083 21.455429 213 213 213 0
0.493256 -3.781627 21.492622 213 213 213 0
0.576828 -3.790584 21.543527 214 214 214 0
0.659727 -3.793433 21.559720 214 214 214 0
0.741318 -3.788959 21.534293 213 213 213 0
0.823142 -3.786455 21.520063 214 214 214 0
0.905387 -3.786163 21.518402 213 213 213 0
0.991441 -3.800522 21.600011 213 213 213 0
1.077377 -3.812258 21.666711 214 214 214 0
1.160935 -3.814502 21.679464 213 213 213 0
1.240995 -3.805718 21.629545 213 213 213 0
1.320937 -3.797693 21.583936 214 214 214 0
1.402166 -3.794096 21.563487 214 214 214 0
1.487247 -3.800742 21.601264 214 214 214 0
1.577188 -3.818455 21.701933 214 214 214 0
1.653792 -3.803722 21.618200 214 214 214 0
1.731766 -3.793392 21.559486 214 214 214 0
1.811730 -3.788162 21.529765 214 214 214 0
1.895322 -3.790644 21.543868 214 214 214 0
1.986747 -3.807932 21.642125 214 214 214 0
2.068752 -3.806503 21.634006 214 214 214 0
2.149267 -3.802548 21.611528 214 214 214 0
2.229653 -3.798668 21.589472 215 215 215 0
2.313748 -3.801158 21.603627 214 214 214 0
2.399743 -3.806489 21.633927 215 215 215 0
2.484125 -3.808992 21.648152 214 214 214 0
2.567147 -3.809314 21.649983 215 215 215 0
2.649323 -3.808401 21.644794 214 214 214 0
2.733595 -3.810466 21.656525 214 214 214 0
2.817219 -3.811532 21.662587 214 214 214 0
2.908165 -3.822159 21.722986 214 214 214 0
2.994550 -3.826369 21.746914 215 215 215 0
3.079182 -3.828172 21.757159 215 215 215 0
3.158653 -3.823632 21.731357 215 215 215 0
3.242137 -3.824058 21.733779 215 215 215 0
3.331689 -3.831442 21.775745 215 215 215 0
3.542423 -3.974426 22.588385 215 215 215 0
3.491470 -3.823991 21.733396 215 215 215 0
3.571470 -3.820642 21.714362 215 215 215 0
3.649723 -3.815620 21.685819 216 216 216 0
3.729440 -3.812316 21.667043 215 215 215 0
3.809916 -3.809916 21.653403 214 214 214 0
3.900322 -3.817336 21.695573 215 215 215 0
3.987011 -3.820885 21.715746 215 215 215 0
4.067951 -3.818893 21.704421 215 215 215 0
4.153045 -3.820802 21.715270 216 216 216 0
4.235726 -3.820459 21.713323 215 215 215 0
4.320618 -3.822086 21.722566 215 215 215 0
4.403244 -3.821683 21.720280 215 215 215 0
4.493370 -3.827686 21.754394 215 215 215 0
4.573410 -3.825033 21.739321 215 215 215 0
4.660453 -3.828230 21.757486 215 215 215 0
4.738675 -3.824194 21.734547 215 215 215 0
4.834258 -3.834067 21.790662 216 216 216 0
4.930093 -3.843801 21.845984 216 216 216 0
5.009587 -3.840684 21.828268 216 216 216 0
5.083549 -3.833496 21.787416 216 216 216 0
5.154922 -3.824619 21.736968 215 215 215 0
5.243482 -3.828574 21.759445 216 216 216 0
5.345948 -3.842400 21.838021 216 216 216 0
5.419905 -3.835625 21.799519 216 216 216 0
5.490186 -3.826494 21.747619 215 215 215 0
5.564394 -3.820330 21.712590 216 216 216 0
5.646117 -3.819432 21.707484 216 216 216 0
5.741828 -3.827885 21.755527 216 216 216 0
5.832998 -3.833113 21.785240 216 216 216 0
5.911035 -3.829685 21.765755 216 216 216 0
5.990925 -3.827536 21.753542 216 216 216 0
6.068588 -3.824041 21.733683 216 216 216 0
6.158365 -3.828173 21.757164 216 216 216 0
6.251696 -3.834374 21.792405 216 216 216 0
6.335228 -3.834480 21.793010 216 216 216 0
6.416431 -3.833192 21.785691 216 216 216 0
6.499680 -3.833145 21.785421 216 216 216 0
6.594696 -3.839950 21.824097 216 216 216 0
-10.713234 -6.026194 35.010568 208 208 208 0
-10.579256 -6.026159 35.010362 208 208 208 0
-5.944043 -3.429255 19.923053 208 208 208 0
-5.807834 -3.394189 19.719324 208 208 208 0
-5.726335 -3.390593 19.698435 209 209 209 0
-5.633764 -3.380258 19.638394 208 208 208 0
-5.548919 -3.374343 19.604025 208 208 208 0
-5.492426 -3.385742 19.670252 209 209 209 0
-5.426886 -3.391804 19.705470 208 208 208 0
-5.391302 -3.417022 19.851981 209 209 209 0
-5.360344 -3.445935 20.019958 209 209 209 0
-5.267367 -3.435239 19.957817 209 209 209 0
-5.214848 -3.451002 20.049396 208 208 208 0
-5.150522 -3.459306 20.097637 209 209 209 0
-5.083046 -3.465713 20.134863 209 209 209 0
-5.016630 -3.473052 20.177497 209 209 209 0
-4.989288 -3.508093 20.381077 209 209 209 0
-4.928447 -3.520319 20.452108 210 210 210 0
-4.841171 -3.513753 20.413960 209 209 209 0
-4.752236 -3.505748 20.367453 210 210 210 0
-4.704264 -3.528198 20.497882 209 209 209 0
-4.666439 -3.559148 20.677695 210 210 210 0
-4.626292 -3.589364 20.853243 210 210 210 0
-4.529238 -3.575714 20.773939 210 210 210 0
-4.415800 -3.548411 20.615312 209 209 209 0
-4.317165 -3.532226 20.521283 210 210 210 0
-4.247769 -3.539808 20.565332 210 210 210 0
-4.216854 -3.580348 20.800858 210 210 210 0
-4.145929 -3.587823 20.844290 210 210 210 0
-4.057746 -3.580365 20.800956 210 210 210 0
-3.960169 -3.564152 20.706767 210 210 210 0
-3.862780 -3.547451 20.609738 210 210 210 0
-3.786966 -3.550281 20.626176 210 210 210 0
-3.755964 -3.596135 20.892580 210 210 210 0
-3.684872 -3.604766 20.942721 211 211 211 0
-3.593546 -3.593546 20.877535 210 210 210 0
-3.499540 -3.579075 20.793465 211 211 211 0
-3.413620 -3.572393 20.754642 211 211 211 0
-3.352936 -3.592431 20.871058 211 211 211 0
-3.291056 -3.612135 20.985533 211 211 211 0
-3.219078 -3.621463 21.039725 211 211 211 0
-3.134425 -3.616645 21.011733 211 211 211 0
-3.046212 -3.607357 20.957773 211 211 211 0
-2.980819 -3.625321 21.062140 211 211 211 0
-2.913421 -3.641777 21.157744 210 210 210 0
-2.844720 -3.657497 21.249074 211 211 211 0
-2.767686 -3.663114 21.281710 212 212 212 0
-2.680948 -3.655838 21.239439 212 212 212 0
-2.589257 -3.641143 21.154061 211 211 211 0
-2.508328 -3.641121 21.153932 211 211 211 0
-2.435684 -3.653525 21.226000 212 212 212 0
-2.369370 -3.676609 21.360111 211 211 211 0
-2.279360 -3.663257 21.282536 211 211 211 0
-2.189463 -3.649105 21.200317 211 211 211 0
-2.103776 -3.641151 21.154108 212 212 212 0
-2.022549 -3.640589 21.150844 212 212 212 0
-1.944060 -3.645113 21.177125 211 211 211 0
-1.871385 -3.661406 21.271783 211 211 211 0
-1.789034 -3.659387 21.260056 212 212 212 0
-1.705233 -3.654070 21.229163 212 212 212 0
-1.623752 -3.653443 21.225520 212 212 212 0
-1.545462 -3.660304 21.265383 212 212 212 0
-1.467570 -3.668926 21.315472 212 212 212 0
-1.387168 -3.671915 21.332837 212 212 212 0
-1.304089 -3.667750 21.308641 212 212 212 0
-1.224050 -3.672151 21.334211 212 212 212 0
-1.144379 -3.678361 21.370289 213 213 213 0
-1.065292 -3.687549 21.423669 213 213 213 0
-0.983915 -3.689682 21.436061 213 213 213 0
-0.902624 -3.692553 21.452742 212 212 212 0
-0.823421 -3.705397 21.527359 213 213 213 0
-0.741010 -3.705050 21.525347 213 213 213 0
-0.657599 -3.698994 21.490160 212 212 212 0
-0.573808 -3.688769 21.430755 213 213 213 0
-0.491828 -3.688709 21.430410 213 213 213 0
-0.411021 -3.699187 21.491285 213 213 213 0
-0.328550 -3.696190 21.473873 213 213 213 0
-0.246515 -3.697727 21.482800 213 213 213 0
-0.164060 -3.691355 21.445783 214 214 214 0
-0.081881 -3.684640 21.406769 213 213 213 0
0.000000 -3.678730 21.372430 213 213 213 0
0.082090 -3.694061 21.461502 212 212 212 0
0.164618 -3.703906 21.518700 213 213 213 0
0.246603 -3.699048 21.490474 213 213 213 0
0.328561 -3.696308 21.474554 214 214 214 0
0.410101 -3.690905 21.443165 213 213 213 0
0.493163 -3.698725 21.488598 213 213 213 0
0.576376 -3.705272 21.526637 213 213 213 0
0.659922 -3.712061 21.566076 214 214 214 0
0.741738 -3.708690 21.546491 214 214 214 0
0.823569 -3.706062 21.531226 213 213 213 0
0.905692 -3.705104 21.525659 213 213 213 0
0.991587 -3.718450 21.603195 213 213 213 0
1.077105 -3.728441 21.661241 214 214 214 0
1.160796 -3.731131 21.676871 214 214 214 0
1.240735 -3.722205 21.625012 214 214 214 0
1.320898 -3.715026 21.583302 214 214 214 0
1.402318 -3.712018 21.565826 213 213 213 0
1.487268 -3.718171 21.601572 214 214 214 0
1.577517 -3.736225 21.706465 214 214 214 0
1.652819 -3.718843 21.605480 214 214 214 0
1.731500 -3.710357 21.556178 214 214 214 0
1.812236 -3.706846 21.535778 214 214 214 0
1.894607 -3.706840 21.535742 214 214 214 0
1.986817 -3.725283 21.642892 214 214 214 0
2.068967 -3.724140 21.636251 215 215 215 0
2.149262 -3.719876 21.611481 215 215 215 0
2.229473 -3.715788 21.587730 214 214 214 0
2.314197 -3.719245 21.607813 214 214 214 0
2.399905 -3.723991 21.635387 214 214 214 0
2.483860 -3.725789 21.645836 215 215 215 0
2.566480 -3.725535 21.644357 215 215 215 0
2.649588 -3.725983 21.646962 214 214 214 0
2.734413 -3.728745 21.663005 214 214 214 0
2.817686 -3.729290 21.666172 215 215 215 0
2.908266 -3.739200 21.723745 215 215 215 0
2.994629 -3.743286 21.747486 215 215 215 0
3.079321 -3.745120 21.758139 215 215 215 0
3.157942 -3.739668 21.726468 215 215 215 0
3.241539 -3.740238 21.729776 215 215 215 0
3.331159 -3.747554 21.772282 214 214 214 0
3.548023 -3.894172 22.624094 214 214 214 0
3.490912 -3.740263 21.729922 215 215 215 0
3.573748 -3.739969 21.728212 215 215 215 0
3.650519 -3.733485 21.690548 215 215 215 0
3.729342 -3.729342 21.666475 215 215 215 0
3.811210 -3.728358 21.660756 215 215 215 0
3.899854 -3.733902 21.692969 215 215 215 0
3.988561 -3.739275 21.724186 215 215 215 0
4.067544 -3.735500 21.702251 215 215 215 0
4.153355 -3.738020 21.716890 215 215 215 0
4.236458 -3.738051 21.717073 216 216 216 0
4.321173 -3.739477 21.725356 216 216 216 0
4.403817 -3.739090 21.723109 215 215 215 0
4.491961 -3.743301 21.747571 215 215 215 0
4.574522 -3.742791 21.744610 216 216 216 0
4.658648 -3.743557 21.749058 215 215 215 0
4.739208 -3.741480 21.736993 215 215 215 0
4.833886 -3.750429 21.788986 215 215 215 0
4.929097 -3.759480 21.841571 216 216 216 0
5.009327 -3.756995 21.827133 215 215 215 0
5.082079 -3.749074 21.781115 216 216 216 0
5.154062 -3.740852 21.733342 216 216 216 0
5.246336 -3.747383 21.771286 216 216 216 0
5.342045 -3.756126 21.822081 216 216 216 0
5.419371 -3.751872 21.797370 215 215 215 0
5.492042 -3.744574 21.754967 216 216 216 0
5.565070 -3.737734 21.715228 216 216 216 0
5.646039 -3.736349 21.707184 216 216 216 0
5.742881 -3.745357 21.759520 216 216 216 0
5.833538 -3.750132 21.787258 216 216 216 0
5.910657 -3.746191 21.764363 216 216 216 0
5.989467 -3.743417 21.748247 216 216 216 0
6.069937 -3.741742 21.738515 216 216 216 0
6.159922 -3.745899 21.762664 216 216 216 0
6.251292 -3.750775 21.790997 216 216 216 0
6.337041 -3.752195 21.799246 216 216 216 0
6.419716 -3.751782 21.796845 216 216 216 0
6.504263 -3.752460 21.800782 216 216 216 0
6.597410 -3.758018 21.833077 216 216 216 0
-10.713268 -5.892297 35.010680 208 208 208 0
-10.579245 -5.892238 35.010325 208 208 208 0
-5.952924 -3.358060 19.952821 208 208 208 0
-5.809548 -3.319742 19.725145 208 208 208 0
-5.720205 -3.311697 19.677346 208 208 208 0
-5.628429 -3.302012 19.619797 209 209 209 0
-5.554098 -3.302437 19.622322 209 209 209 0
-5.486857 -3.307146 19.650306 208 208 208 0
-5.431673 -3.319356 19.722852 209 209 209 0
-5.394112 -3.342830 19.862328 209 209 209 0
-5.354370 -3.365604 19.997647 209 209 209 0
-5.263358 -3.356344 19.942629 209 209 209 0
-5.218018 -3.376365 20.061584 209 209 209 0
-5.153289 -3.384250 20.108435 209 209 209 0
-5.082800 -3.388533 20.133887 209 209 209 0
-5.014144 -3.394190 20.167497 208 208 208 0
-4.988039 -3.429277 20.375977 209 209 209 0
-4.920963 -3.436863 20.421050 209 209 209 0
-4.847399 -3.440090 20.440225 209 209 209 0
-4.756395 -3.430842 20.385276 210 210 210 0
-4.701120 -3.447488 20.484182 210 210 210 0
-4.663682 -3.478000 20.665480 210 210 210 0
-4.625876 -3.509285 20.851369 210 210 210 0
-4.528584 -3.495749 20.770939 210 210 210 0
-4.416933 -3.470448 20.620603 210 210 210 0
-4.317379 -3.453903 20.522301 210 210 210 0
-4.245834 -3.459568 20.555960 209 209 209 0
-4.215371 -3.499553 20.793542 210 210 210 0
-4.143454 -3.505999 20.831844 210 210 210 0
-4.057759 -3.500811 20.801018 210 210 210 0
-3.957074 -3.482225 20.690583 211 211 211 0
-3.865674 -3.471217 20.625176 211 211 211 0
-3.786568 -3.471020 20.624006 210 210 210 0
-3.757063 -3.517250 20.898694 211 211 211 0
-3.688644 -3.528268 20.964158 210 210 210 0
-3.594354 -3.514479 20.882230 210 210 210 0
-3.501696 -3.501696 20.806273 211 211 211 0
-3.413021 -3.492394 20.751003 210 210 210 0
-3.352334 -3.511969 20.867313 211 211 211 0
-3.291030 -3.531837 20.985363 211 211 211 0
-3.215615 -3.537176 21.017089 211 211 211 0
-3.134401 -3.536247 21.011571 211 211 211 0
-3.049159 -3.530605 20.978043 211 211 211 0
-2.977877 -3.541259 21.041351 211 211 211 0
-2.911649 -3.558682 21.144871 211 211 211 0
-2.842856 -3.573877 21.235155 211 211 211 0
-2.765832 -3.579312 21.267449 211 211 211 0
-2.681481 -3.575308 21.243663 211 211 211 0
-2.588557 -3.559266 21.148343 212 212 212 0
-2.509053 -3.561237 21.160054 211 211 211 0
-2.436466 -3.573484 21.232822 212 212 212 0
-2.367488 -3.592051 21.343145 211 211 211 0
-2.277417 -3.578799 21.264402 211 211 211 0
-2.190775 -3.570152 21.213022 212 212 212 0
-2.101845 -3.556968 21.134688 212 212 212 0
-2.022688 -3.559931 21.152292 212 212 212 0
-1.944388 -3.564711 21.180694 212 212 212 0
-1.871730 -3.580700 21.275700 211 211 211 0
-1.789538 -3.579076 21.266052 212 212 212 0
-1.704636 -3.571617 21.221731 212 212 212 0
-1.624502 -3.573905 21.235321 212 212 212 0
-1.543998 -3.575575 21.245247 212 212 212 0
-1.467409 -3.586999 21.313128 212 212 212 0
-1.385673 -3.586447 21.309847 211 211 211 0
-1.304113 -3.586310 21.309034 212 212 212 0
-1.224031 -3.590492 21.333881 212 212 212 0
-1.144425 -3.596763 21.371139 212 212 212 0
-1.065116 -3.605007 21.420127 212 212 212 0
-0.983904 -3.607647 21.435810 213 213 213 0
-0.902657 -3.610630 21.453534 213 213 213 0
-0.823192 -3.622045 21.521358 213 213 213 0
-0.741371 -3.624481 21.535834 213 213 213 0
-0.657297 -3.615132 21.480287 213 213 213 0
-0.573483 -3.604747 21.418582 213 213 213 0
-0.491897 -3.607245 21.433423 212 212 212 0
-0.410892 -3.615851 21.484560 213 213 213 0
-0.328283 -3.611113 21.456406 213 213 213 0
-0.246381 -3.613583 21.471081 213 213 213 0
-0.164043 -3.608955 21.443581 213 213 213 0
-0.081883 -3.602857 21.407351 213 213 213 0
0.000000 -3.598664 21.382438 213 213 213 0
0.082082 -3.611625 21.459447 214 214 214 0
0.164522 -3.619484 21.506142 214 214 214 0
0.246675 -3.617907 21.496774 213 213 213 0
0.328772 -3.616490 21.488353 213 213 213 0
0.410376 -3.611307 21.457561 213 213 213 0
0.493436 -3.618529 21.500467 213 213 213 0
0.576288 -3.622380 21.523352 214 214 214 0
0.659568 -3.627624 21.554507 213 213 213 0
0.741210 -3.623694 21.531157 213 213 213 0
0.823190 -3.622035 21.521302 213 213 213 0
0.905451 -3.621804 21.519930 214 214 214 0
0.991111 -3.634073 21.592829 214 214 214 0
1.077517 -3.646981 21.669527 214 214 214 0
1.160774 -3.648147 21.676452 214 214 214 0
1.241074 -3.640483 21.630915 214 214 214 0
1.320979 -3.632693 21.584631 214 214 214 0
1.403019 -3.631342 21.576602 214 214 214 0
1.488350 -3.638189 21.617287 213 213 213 0
1.578054 -3.654441 21.713850 213 213 213 0
1.653393 -3.637464 21.612980 214 214 214 0
1.731943 -3.628833 21.561691 214 214 214 0
1.812085 -3.624171 21.533991 214 214 214 0
1.894541 -3.624339 21.534992 214 214 214 0
1.985626 -3.640315 21.629917 215 215 215 0
2.069082 -3.641583 21.637454 214 214 214 0
2.149016 -3.636796 21.609009 214 214 214 0
2.229064 -3.632548 21.583769 215 215 215 0
2.315448 -3.638560 21.619492 214 214 214 0
2.399443 -3.640534 21.631216 214 214 214 0
2.484219 -3.643521 21.648966 215 215 215 0
2.567103 -3.643630 21.649611 214 214 214 0
2.648877 -3.642206 21.641155 215 215 215 0
2.733975 -3.645301 21.659540 214 214 214 0
2.818380 -3.647315 21.671507 215 215 215 0
2.909353 -3.657472 21.731862 215 215 215 0
2.994475 -3.659914 21.746372 214 214 214 0
3.078235 -3.660604 21.750470 215 215 215 0
3.159018 -3.657811 21.733873 216 216 216 0
3.241084 -3.656607 21.726721 215 215 215 0
3.330431 -3.663475 21.767526 215 215 215 0
3.544614 -3.803976 22.602353 215 215 215 0
3.492533 -3.658844 21.740014 215 215 215 0
3.572417 -3.655496 21.720121 215 215 215 0
3.650892 -3.650892 21.692763 215 215 215 0
3.729552 -3.646673 21.667695 215 215 215 0
3.811060 -3.645362 21.659905 215 215 215 0
3.899999 -3.651063 21.693777 214 214 214 0
3.988537 -3.656159 21.724057 214 214 214 0
4.069129 -3.653911 21.710704 215 215 215 0
4.151719 -3.653513 21.708334 215 215 215 0
4.235502 -3.654158 21.712171 215 215 215 0
4.322923 -3.657858 21.734154 216 216 216 0
4.405002 -3.656983 21.728952 215 215 215 0
4.494463 -3.662155 21.759685 215 215 215 0
4.573901 -3.659121 21.741659 216 216 216 0
4.658747 -3.660444 21.749518 215 215 215 0
4.737439 -3.656971 21.728881 216 216 216 0
4.833362 -3.666689 21.786623 215 215 215 0
4.927827 -3.674989 21.835944 216 216 216 0
5.011433 -3.675051 21.836308 216 216 216 0
5.083282 -3.666630 21.786273 216 216 216 0
5.153729 -3.657485 21.731937 216 216 216 0
5.244514 -3.662835 21.763728 216 216 216 0
5.341853 -3.672524 21.821295 216 216 216 0
5.419736 -3.668744 21.798837 216 216 216 0
5.488845 -3.659230 21.742305 216 216 216 0
5.565402 -3.654891 21.716523 216 216 216 0
5.646833 -3.653833 21.710237 215 215 215 0
5.743318 -3.662406 21.761175 215 215 215 0
5.834097 -3.667146 21.789343 215 215 215 0
5.910790 -3.663025 21.764855 216 216 216 0
5.989207 -3.660071 21.747304 216 216 216 0
6.068743 -3.657873 21.734241 216 216 216 0
6.160394 -3.662937 21.764331 216 216 216 0
6.253154 -3.668517 21.797486 216 216 216 0
6.337179 -3.668893 21.799720 216 216 216 0
6.414867 -3.665638 21.780380 216 216 216 0
6.505881 -3.669984 21.806203 216 216 216 0
6.596913 -3.674230 21.831432 217 217 217 0
-10.713256 -5.758375 35.010641 208 208 208 0
-10.579254 -5.758328 35.010356 207 207 207 0
-5.960708 -3.286032 19.978912 208 208 208 0
-5.799657 -3.238769 19.691560 209 209 209 0
-5.717837 -3.235092 19.669203 208 208 208 0
-5.647623 -3.237971 19.686704 209 209 209 0
-5.545047 -3.222122 19.590345 209 209 209 0
-5.482236 -3.229262 19.633759 208 208 208 0
-5.424841 -3.239835 19.698042 208 208 208 0
-5.396778 -3.268471 19.872147 209 209 209 0
-5.353021 -3.288285 19.992610 209 209 209 0
-5.266707 -3.282151 19.955317 209 209 209 0
-5.213973 -3.297071 20.046034 209 209 209 0
-5.151841 -3.306405 20.102784 209 209 209 0
-5.086107 -3.313676 20.146988 210 210 210 0
-5.019810 -3.320798 20.190288 209 209 209 0
-4.984155 -3.348729 20.360109 209 209 209 0
-4.923843 -3.360718 20.433003 209 209 209 0
-4.850756 -3.364234 20.454379 210 210 210 0
-4.758937 -3.354661 20.396175 209 209 209 0
-4.703178 -3.370611 20.493152 209 209 209 0
-4.663548 -3.398857 20.664887 209 209 209 0
-4.627264 -3.430558 20.857624 210 210 210 0
-4.526500 -3.414728 20.761379 210 210 210 0
-4.417520 -3.392025 20.623345 209 209 209 0
-4.318679 -3.376422 20.528479 209 209 209 0
-4.249995 -3.384255 20.576107 210 210 210 0
-4.217369 -3.421639 20.803399 209 209 209 0
-4.136084 -3.420224 20.794793 210 210 210 0
-4.057200 -3.420777 20.798156 210 210 210 0
-3.959680 -3.405324 20.704207 210 210 210 0
-3.860947 -3.388178 20.599958 210 210 210 0
-3.783743 -3.389603 20.608620 210 210 210 0
-3.756090 -3.436423 20.893283 211 211 211 0
-3.689204 -3.448604 20.967345 210 210 210 0
-3.596725 -3.436871 20.896006 210 210 210 0
-3.501631 -3.422048 20.805886 211 211 211 0
-3.412570 -3.412570 20.748261 211 211 211 0
-3.352491 -3.432312 20.868292 210 210 210 0
-3.288613 -3.449033 20.969952 211 211 211 0
-3.212078 -3.452983 20.993971 211 211 211 0
-3.135715 -3.457327 21.020377 210 210 210 0
-3.049027 -3.450215 20.977140 211 211 211 0
-2.980961 -3.464360 21.063140 211 211 211 0
-2.911870 -3.478067 21.146476 210 210 210 0
-2.844137 -3.494226 21.244722 211 211 211 0
-2.766230 -3.498468 21.270515 212 212 212 0
-2.681142 -3.493609 21.240974 211 211 211 0
-2.588879 -3.478806 21.150970 211 211 211 0
-2.507351 -3.477938 21.145695 211 211 211 0
-2.437350 -3.493535 21.240525 211 211 211 0
-2.367576 -3.510544 21.343936 212 212 212 0
-2.276512 -3.496072 21.255946 212 212 212 0
-2.188745 -3.485779 21.193370 212 212 212 0
-2.102910 -3.477890 21.145402 211 211 211 0
-2.022511 -3.478719 21.150441 212 212 212 0
-1.943609 -3.482299 21.172209 212 212 212 0
-1.870337 -3.496717 21.259868 212 212 212 0
-1.788439 -3.495585 21.252985 212 212 212 0
-1.704391 -3.489944 21.218687 212 212 212 0
-1.623431 -3.490377 21.221325 211 211 211 0
-1.543832 -3.493937 21.242964 213 213 213 0
-1.467127 -3.504803 21.309034 212 212 212 0
-1.386235 -3.506360 21.318497 212 212 212 0
-1.303199 -3.502348 21.294108 212 212 212 0
-1.224912 -3.511415 21.349231 213 213 213 0
-1.144534 -3.515355 21.373185 213 213 213 0
-1.065498 -3.524341 21.427821 212 212 212 0
-0.983816 -3.525342 21.433910 213 213 213 0
-0.902216 -3.526843 21.443036 213 213 213 0
-0.823082 -3.539253 21.518484 213 213 213 0
-0.741743 -3.543885 21.546646 212 212 212 0
-0.657024 -3.531506 21.471384 213 213 213 0
-0.573663 -3.523928 21.425308 212 212 212 0
-0.491667 -3.523611 21.423386 212 212 212 0
-0.411271 -3.536929 21.504356 212 212 212 0
-0.328608 -3.532533 21.477627 213 213 213 0
-0.246407 -3.531837 21.473399 213 213 213 0
-0.164044 -3.526944 21.443646 213 213 213 0
-0.081883 -3.520977 21.407366 213 213 213 0
0.000000 -3.515362 21.373231 213 213 213 0
0.082013 -3.526560 21.441311 213 213 213 0
0.164499 -3.536731 21.503155 213 213 213 0
0.246543 -3.533780 21.485211 213 213 213 0
0.328585 -3.532284 21.476117 213 213 213 0
0.410319 -3.528742 21.454580 213 213 213 0
0.493254 -3.534984 21.492533 214 214 214 0
0.576812 -3.543272 21.542923 213 213 213 0
0.659876 -3.546834 21.564576 213 213 213 0
0.741452 -3.542492 21.538180 214 214 214 0
0.823618 -3.541559 21.532504 213 213 213 0
0.905650 -3.540269 21.524663 214 214 214 0
0.991102 -3.551449 21.592634 214 214 214 0
1.077107 -3.562738 21.661273 214 214 214 0
1.160635 -3.564807 21.673850 214 214 214 0
1.241122 -3.557882 21.631749 214 214 214 0
1.320714 -3.549419 21.580293 213 213 213 0
1.402288 -3.546964 21.565370 214 214 214 0
1.488810 -3.556602 21.623965 214 214 214 0
1.577539 -3.570220 21.706765 213 213 213 0
1.653347 -3.554696 21.612381 214 214 214 0
1.731514 -3.545482 21.556357 214 214 214 0
1.811427 -3.540517 21.526169 213 213 213 0
1.894383 -3.541673 21.533197 215 215 215 0
1.986016 -3.558279 21.634166 215 215 215 0
2.069672 -3.559836 21.643632 214 214 214 0
2.149400 -3.554777 21.612874 215 215 215 0
2.229672 -3.550959 21.589656 214 214 214 0
2.314877 -3.554990 21.614164 214 214 214 0
2.399815 -3.558346 21.634573 215 215 215 0
2.483928 -3.560297 21.646434 215 215 215 0
2.567566 -3.561463 21.653522 214 214 214 0
2.648227 -3.558555 21.635840 215 215 215 0
2.733563 -3.561916 21.656276 214 214 214 0
2.819473 -3.565805 21.679918 215 215 215 0
2.909247 -3.574218 21.731074 215 215 215 0
2.993987 -3.576152 21.742829 215 215 215 0
3.078159 -3.577320 21.749934 215 215 215 0
3.157648 -3.573128 21.724446 214 214 214 0
3.242115 -3.574640 21.733635 215 215 215 0
3.329693 -3.579420 21.762702 215 215 215 0
3.532647 -3.704971 22.526043 215 215 215 0
3.492592 -3.575749 21.740383 215 215 215 0
3.573161 -3.573161 21.724644 215 215 215 0
3.650157 -3.567199 21.688397 214 214 214 0
3.730225 -3.564437 21.671604 216 216 216 0
3.809151 -3.560728 21.649055 215 215 215 0
3.899764 -3.567869 21.692470 215 215 215 0
3.987379 -3.572027 21.717752 215 215 215 0
4.068348 -3.570183 21.706540 215 215 215 0
4.152196 -3.570889 21.710829 216 216 216 0
4.236786 -3.572192 21.718755 215 215 215 0
4.320814 -3.572981 21.723548 216 216 216 0
4.403207 -3.572413 21.720100 216 216 216 0
4.492361 -3.577250 21.749509 215 215 215 0
4.573175 -3.575392 21.738207 215 215 215 0
4.659894 -3.578133 21.754873 215 215 215 0
4.738192 -3.574426 21.732335 215 215 215 0
4.833657 -3.583573 21.787952 215 215 215 0
4.925736 -3.589943 21.826681 215 215 215 0
5.011634 -3.591671 21.837184 216 216 216 0
5.080244 -3.581156 21.773253 216 216 216 0
5.155147 -3.575344 21.737916 215 215 215 0
5.244635 -3.579672 21.764229 216 216 216 0
5.344019 -3.590513 21.830144 216 216 216 0
5.419529 -3.585227 21.798007 215 215 215 0
5.492164 -3.578228 21.755454 216 216 216 0
5.565297 -3.571758 21.716115 215 215 215 0
5.644987 -3.569624 21.703141 216 216 216 0
5.742863 -3.578886 21.759450 216 216 216 0
5.833272 -3.583296 21.786265 216 216 216 0
5.908722 -3.578522 21.757237 215 215 215 0
5.989104 -3.576826 21.746930 216 216 216 0
6.067306 -3.573893 21.729094 216 216 216 0
6.158845 -3.578788 21.758858 216 216 216 0
6.253515 -3.585349 21.798746 216 216 216 0
6.337926 -3.585932 21.802293 217 217 217 0
6.419735 -3.585047 21.796911 216 216 216 0
6.500591 -3.583659 21.788473 216 216 216 0
6.597107 -3.590830 21.832073 216 216 216 0
-10.713245 -5.624454 35.010604 208 208 208 0
-10.579252 -5.624412 35.010348 208 208 208 0
-5.957430 -3.207847 19.967925 208 208 208 0
-5.805814 -3.166807 19.712464 208 208 208 0
-5.719260 -3.160644 19.674098 208 208 208 0
-5.641235 -3.159092 19.664437 208 208 208 0
-5.558539 -3.154846 19.638010 208 208 208 0
-5.484178 -3.155281 19.640713 209 209 209 0
-5.425845 -3.165076 19.701689 209 209 209 0
-5.394927 -3.191366 19.865332 209 209 209 0
-5.359387 -3.215632 20.016385 208 208 208 0
-5.262491 -3.203255 19.939341 209 209 209 0
-5.213480 -3.220090 20.044135 209 209 209 0
-5.148546 -3.227447 20.089926 209 209 209 0
-5.082639 -3.234406 20.133249 209 209 209 0
-5.016608 -3.241501 20.177410 209 209 209 0
-4.989577 -3.274410 20.382259 209 209 209 0
-4.929022 -3.286015 20.454497 209 209 209 0
-4.846191 -3.282904 20.435131 210 210 210 0
-4.758554 -3.276381 20.394530 209 209 209 0
-4.703348 -3.292344 20.493891 209 209 209 0
-4.670575 -3.324816 20.696021 210 210 210 0
-4.623237 -3.347861 20.839474 210 210 210 0
-4.527568 -3.336103 20.766281 209 209 209 0
-4.417723 -3.313292 20.624289 210 210 210 0
-4.319211 -3.298306 20.531007 210 210 210 0
-4.247690 -3.303759 20.564946 210 210 210 0
-4.223982 -3.347307 20.836020 210 210 210 0
-4.142559 -3.345913 20.827345 210 210 210 0
-4.055540 -3.339857 20.789646 210 210 210 0
-3.956661 -3.323595 20.688424 210 210 210 0
-3.861218 -3.309616 20.601404 210 210 210 0
-3.785791 -3.312567 20.619776 210 210 210 0
-3.754389 -3.354986 20.883822 211 211 211 0
-3.686076 -3.365548 20.949565 210 210 210 0
-3.593268 -3.353717 20.875924 210 210 210 0
-3.501171 -3.342027 20.803155 211 211 211 0
-3.413693 -3.334305 20.755089 211 211 211 0
-3.347490 -3.347490 20.837164 211 211 211 0
-3.288015 -3.368211 20.966143 211 211 211 0
-3.215367 -3.376135 21.015471 211 211 211 0
-3.134373 -3.375479 21.011385 211 211 211 0
-3.049013 -3.369961 20.977039 211 211 211 0
-2.977849 -3.380261 21.041154 210 210 210 0
-2.910443 -3.395517 21.136118 211 211 211 0
-2.846187 -3.415424 21.260031 211 211 211 0
-2.766021 -3.416849 21.268904 211 211 211 0
-2.679723 -3.410556 21.229729 211 211 211 0
-2.588543 -3.397463 21.148227 212 212 212 0
-2.508319 -3.398368 21.153861 211 211 211 0
-2.438473 -3.413862 21.250311 212 212 212 0
-2.367247 -3.428427 21.340969 212 212 212 0
-2.278022 -3.417032 21.270043 211 211 211 0
-2.189777 -3.406319 21.203356 211 211 211 0
-2.103327 -3.397682 21.149591 212 212 212 0
-2.022245 -3.397371 21.147658 212 212 212 0
-1.942706 -3.399735 21.162369 211 211 211 0
-1.869282 -3.413472 21.247880 212 212 212 0
-1.787601 -3.412693 21.243030 212 212 212 0
-1.703649 -3.407297 21.209444 212 212 212 0
-1.623668 -3.409703 21.224417 212 212 212 0
-1.544822 -3.414869 21.256575 212 212 212 0
-1.466876 -3.422711 21.305393 212 212 212 0
-1.385770 -3.423667 21.311340 212 212 212 0
-1.303546 -3.421809 21.299778 212 212 212 0
-1.224154 -3.427631 21.336015 212 212 212 0
-1.144686 -3.434057 21.376014 212 212 212 0
-1.065223 -3.441489 21.422277 212 212 212 0
-0.983886 -3.443600 21.435420 212 212 212 0
-0.902430 -3.445642 21.448128 213 213 213 0
-0.821986 -3.452342 21.489835 213 213 213 0
-0.741014 -3.458066 21.525462 212 212 212 0
-0.657320 -3.450928 21.481033 212 212 212 0
-0.573871 -3.443229 21.433107 212 212 212 0
-0.491586 -3.441102 21.419866 213 213 213 0
-0.411293 -3.454860 21.505508 213 213 213 0
-0.328391 -3.448100 21.463432 214 214 214 0
-0.246640 -3.452966 21.493718 213 213 213 0
-0.164041 -3.444856 21.443234 214 214 214 0
-0.081883 -3.439066 21.407198 212 212 212 0
0.000000 -3.434941 21.381518 213 213 213 0
0.082055 -3.446300 21.452225 213 213 213 0
0.164556 -3.455668 21.510537 213 213 213 0
0.246498 -3.450975 21.481324 213 213 213 0
0.328659 -3.450922 21.480997 213 213 213 0
0.410496 -3.448170 21.463866 213 213 213 0
0.493410 -3.453867 21.499331 213 213 213 0
0.576599 -3.459595 21.534981 214 214 214 0
0.659752 -3.463698 21.560522 213 213 213 0
0.741309 -3.459443 21.534034 214 214 214 0
0.823525 -3.458807 21.530076 214 214 214 0
0.905407 -3.457010 21.518892 213 213 213 0
0.991408 -3.469928 21.599306 213 213 213 0
1.076723 -3.478644 21.653555 213 213 213 0
1.160182 -3.480545 21.665388 213 213 213 0
1.240661 -3.473850 21.623715 214 214 214 0
1.321009 -3.467649 21.585114 214 214 214 0
1.403227 -3.466795 21.579802 214 214 214 0
1.488907 -3.474116 21.625373 214 214 214 0
1.577406 -3.486897 21.704932 214 214 214 0
1.654052 -3.473509 21.621592 214 214 214 0
1.731745 -3.463490 21.559229 214 214 214 0
1.811573 -3.458457 21.527899 214 214 214 0
1.894454 -3.459437 21.534000 214 214 214 0
1.985649 -3.474886 21.630163 215 215 215 0
2.069688 -3.477075 21.643791 214 214 214 0
2.150270 -3.473513 21.621621 214 214 214 0
2.230756 -3.470065 21.600155 214 214 214 0
2.314884 -3.472327 21.614234 214 214 214 0
2.401075 -3.477419 21.645932 214 214 214 0
2.484962 -3.478947 21.655445 214 214 214 0
2.568574 -3.480004 21.662020 214 214 214 0
2.650010 -3.478138 21.650407 215 215 215 0
2.734624 -3.480430 21.664676 215 215 215 0
2.819189 -3.482528 21.677732 215 215 215 0
