ply
    format ascii 1.0
    element vertex 25586
    property float x
    property float y
    property float z
    property uchar red
    property uchar green
    property uchar blue
    property uchar alpha
    end_header
9.222264 3.207744 34.942747 201 201 201 0
9.356075 3.207797 34.943326 201 201 201 0
9.489819 3.207826 34.943640 202 202 202 0
9.623264 3.207755 34.942861 202 202 202 0
9.756956 3.207766 34.942988 202 202 202 0
9.890796 3.207826 34.943637 202 202 202 0
10.024216 3.207749 34.942802 202 202 202 0
10.157547 3.207646 34.941681 201 201 201 0
10.291463 3.207729 34.942578 202 202 202 0
10.425258 3.207772 34.943045 202 202 202 0
10.558702 3.207707 34.942340 202 202 202 0
-10.710015 3.346880 35.000048 192 192 192 0
-10.576139 3.346879 35.000046 193 193 193 0
-10.442313 3.346895 35.000211 193 193 193 0
-10.305683 3.346001 34.990859 192 192 192 0
-10.171854 3.346005 34.990897 193 193 193 0
-10.038955 3.346318 34.994180 193 193 193 0
-9.901699 3.345168 34.982154 193 193 193 0
-9.767377 3.344992 34.980311 193 193 193 0
-9.634244 3.345224 34.982731 193 193 193 0
-9.500763 3.345339 34.983937 192 192 192 0
-9.365276 3.344741 34.977687 193 193 193 0
-9.230748 3.344474 34.974891 193 193 193 0
-9.097106 3.344524 34.975416 194 194 194 0
-8.964830 3.345086 34.981289 194 194 194 0
-8.831804 3.345380 34.984367 194 194 194 0
-8.695570 3.344450 34.974639 194 194 194 0
-8.560926 3.344112 34.971101 194 194 194 0
-8.427629 3.344297 34.973043 193 193 193 0
-8.294625 3.344607 34.976280 195 195 195 0
-8.160474 3.344457 34.974709 194 194 194 0
-8.025369 3.343904 34.968929 194 194 194 0
-7.891630 3.343911 34.969003 194 194 194 0
-7.758782 3.344303 34.973099 194 194 194 0
-7.624848 3.344232 34.972358 195 195 195 0
-7.489166 3.343378 34.963426 194 194 194 0
-7.355275 3.343307 34.962686 194 194 194 0
-7.222711 3.343848 34.968342 195 195 195 0
-7.089166 3.343946 34.969373 195 195 195 0
-6.954060 3.343298 34.962596 195 195 195 0
-6.820092 3.343183 34.961386 195 195 195 0
-6.687121 3.343560 34.965338 195 195 195 0
-6.554163 3.343961 34.969523 195 195 195 0
-6.419669 3.343577 34.965516 196 196 196 0
-6.285026 3.343099 34.960509 195 195 195 0
-6.151451 3.343180 34.961360 196 196 196 0
-6.018386 3.343548 34.965206 196 196 196 0
-5.884541 3.343489 34.964593 196 196 196 0
-5.750119 3.343092 34.960442 196 196 196 0
-5.616073 3.342901 34.958437 196 196 196 0
-5.483031 3.343311 34.962733 196 196 196 0
-5.349585 3.343491 34.964609 197 197 197 0
-5.215043 3.342976 34.959230 196 196 196 0
-5.080844 3.342660 34.955924 196 196 196 0
-4.947580 3.342959 34.959052 196 196 196 0
-4.814437 3.343359 34.963233 196 196 196 0
-4.680467 3.343190 34.961469 197 197 197 0
-4.545656 3.342394 34.953145 197 197 197 0
-4.412363 3.342699 34.956330 197 197 197 0
-4.279232 3.343150 34.961048 197 197 197 0
-4.145334 3.343011 34.959592 197 197 197 0
-4.010931 3.342443 34.953649 197 197 197 0
-3.877228 3.342438 34.953600 196 196 196 0
-3.743992 3.342850 34.957905 197 197 197 0
-3.610273 3.342846 34.957862 197 197 197 0
-3.476264 3.342561 34.954890 197 197 197 0
-3.342387 3.342387 34.953068 197 197 197 0
-3.208919 3.342624 34.955550 197 197 197 0
-3.075332 3.342752 34.956881 198 198 198 0
-2.941314 3.342402 34.953227 197 197 197 0
-2.807344 3.342076 34.949817 198 198 198 0
-2.673904 3.342380 34.952991 197 197 197 0
-2.540424 3.342664 34.955960 198 198 198 0
-2.406575 3.342465 34.953879 198 198 198 0
-2.272506 3.341920 34.948182 198 198 198 0
-2.139097 3.342339 34.952566 198 198 198 0
-2.005555 3.342592 34.955210 198 198 198 0
-1.871774 3.342454 34.953770 198 198 198 0
-1.737836 3.341992 34.948940 198 198 198 0
-1.604215 3.342115 34.950218 198 198 198 0
-1.470639 3.342361 34.952799 199 199 199 0
-1.336918 3.342295 34.952108 198 198 198 0
-1.203139 3.342053 34.949569 199 199 199 0
-1.069476 3.342112 34.950193 198 198 198 0
-0.935867 3.342383 34.953027 199 199 199 0
-0.802140 3.342250 34.951631 199 199 199 0
-0.668409 3.342046 34.949506 198 198 198 0
-0.534720 3.341999 34.949008 199 199 199 0
-0.401058 3.342146 34.950547 199 199 199 0
-0.267360 3.342002 34.949039 199 199 199 0
-0.133612 3.340308 34.931329 199 199 199 0
0.000000 3.341784 34.946763 199 199 199 0
0.133685 3.342116 34.950238 199 199 199 0
0.267377 3.342219 34.951306 199 199 199 0
0.401029 3.341908 34.948055 199 199 199 0
0.534694 3.341836 34.947301 199 199 199 0
0.668403 3.342017 34.949195 199 199 199 0
0.802084 3.342015 34.949179 199 199 199 0
0.935719 3.341855 34.947501 199 199 199 0
1.069342 3.341695 34.945828 200 200 200 0
1.203064 3.341844 34.947385 200 200 200 0
1.336764 3.341909 34.948070 200 200 200 0
1.470357 3.341720 34.946095 200 200 200 0
1.603940 3.341542 34.944235 199 199 199 0
1.737720 3.341770 34.946611 200 200 200 0
1.871474 3.341919 34.948169 200 200 200 0
2.005022 3.341703 34.945912 199 199 199 0
2.138595 3.341554 34.944356 200 200 200 0
2.272431 3.341811 34.947040 200 200 200 0
2.406209 3.341957 34.948567 201 201 201 0
2.539771 3.341804 34.946973 200 200 200 0
2.673321 3.341651 34.945373 200 200 200 0
2.807116 3.341804 34.946975 201 201 201 0
2.940791 3.341808 34.947015 200 200 200 0
3.074388 3.341726 34.946150 200 200 200 0
3.208026 3.341694 34.945820 201 201 201 0
3.341718 3.341718 34.946072 200 200 200 0
3.475456 3.341784 34.946763 200 200 200 0
3.608987 3.341654 34.945403 200 200 200 0
3.742430 3.341456 34.943328 200 200 200 0
3.876229 3.341577 34.944594 201 201 201 0
4.010041 3.341701 34.945888 201 201 201 0
4.143491 3.341525 34.944056 201 201 201 0
4.277028 3.341428 34.943036 201 201 201 0
4.410953 3.341631 34.945161 200 200 200 0
4.544719 3.341705 34.945935 201 201 201 0
4.678286 3.341633 34.945181 200 200 200 0
4.811852 3.341564 34.944461 201 201 201 0
4.945682 3.341677 34.945641 201 201 201 0
5.079282 3.341633 34.945183 201 201 201 0
5.212844 3.341567 34.944487 201 201 201 0
5.346620 3.341638 34.945232 201 201 201 0
5.480263 3.341624 34.945088 201 201 201 0
5.613887 3.341599 34.944830 201 201 201 0
5.747405 3.341515 34.943943 201 201 201 0
5.880877 3.341407 34.942822 201 201 201 0
6.014651 3.341473 34.943504 201 201 201 0
6.148386 3.341514 34.943941 201 201 201 0
6.281885 3.341428 34.943038 202 202 202 0
6.415530 3.341422 34.942976 201 201 201 0
6.549395 3.341528 34.944086 201 201 201 0
6.683067 3.341534 34.944144 201 201 201 0
6.816798 3.341567 34.944497 201 201 201 0
6.950368 3.341523 34.944034 201 201 201 0
7.084037 3.341527 34.944073 202 202 202 0
7.217571 3.341468 34.943458 201 201 201 0
7.351363 3.341529 34.944091 202 202 202 0
7.484986 3.341511 34.943910 201 201 201 0
7.618483 3.341440 34.943162 201 201 201 0
7.752165 3.341450 34.943271 202 202 202 0
7.885900 3.341483 34.943615 201 201 201 0
8.019473 3.341447 34.943235 202 202 202 0
8.152956 3.341375 34.942488 201 201 201 0
8.286826 3.341462 34.943394 201 201 201 0
8.421107 3.341709 34.945976 202 202 202 0
8.553960 3.341391 34.942648 201 201 201 0
8.687670 3.341412 34.942867 201 201 201 0
8.821676 3.341544 34.944252 201 201 201 0
8.955182 3.341486 34.943644 201 201 201 0
9.088650 3.341415 34.942906 201 201 201 0
9.222205 3.341379 34.942523 202 202 202 0
9.356090 3.341461 34.943379 201 201 201 0
9.489816 3.341485 34.943629 201 201 201 0
9.623191 3.341386 34.942597 202 202 202 0
9.756942 3.341419 34.942939 202 202 202 0
9.890687 3.341448 34.943250 202 202 202 0
10.024137 3.341379 34.942525 202 202 202 0
10.157502 3.341284 34.941528 202 202 202 0
10.291541 3.341410 34.942845 202 202 202 0
10.425171 3.341401 34.942754 202 202 202 0
10.558669 3.341351 34.942231 201 201 201 0
-10.710017 3.480755 35.000054 192 192 192 0
-10.576134 3.480753 35.000030 192 192 192 0
-10.442315 3.480772 35.000219 192 192 192 0
-10.305588 3.479809 34.990537 192 192 192 0
-10.172254 3.479982 34.992274 193 193 193 0
-10.038797 3.480116 34.993628 193 193 193 0
-9.901720 3.478983 34.982228 193 193 193 0
-9.767072 3.478683 34.979217 193 193 193 0
-9.634271 3.479042 34.982828 193 193 193 0
-9.500745 3.479146 34.983873 194 194 194 0
-9.365018 3.478435 34.976723 193 193 193 0
-9.230733 3.478247 34.974834 193 193 193 0
-9.097417 3.478424 34.976612 193 193 193 0
-8.965030 3.478967 34.982070 194 194 194 0
-8.831461 3.479060 34.983011 193 193 193 0
-8.695457 3.478183 34.974187 193 193 193 0
-8.560878 3.477857 34.970909 194 194 194 0
-8.427549 3.478036 34.972709 194 194 194 0
-8.294636 3.478396 34.976328 194 194 194 0
-8.160744 3.478350 34.975868 195 195 195 0
-8.025390 3.477669 34.969020 194 194 194 0
-7.891479 3.477601 34.968336 194 194 194 0
-7.758608 3.477997 34.972316 194 194 194 0
-7.624693 3.477930 34.971644 194 194 194 0
-7.489182 3.477120 34.963499 195 195 195 0
-7.355165 3.476987 34.962160 195 195 195 0
-7.222609 3.477552 34.967846 194 194 194 0
-7.089188 3.477715 34.969480 195 195 195 0
-6.954150 3.477075 34.963044 195 195 195 0
-6.820080 3.476904 34.961323 195 195 195 0
-6.687005 3.477243 34.964732 195 195 195 0
-6.554200 3.477739 34.969719 195 195 195 0
-6.419774 3.477378 34.966092 195 195 195 0
-6.284938 3.476774 34.960021 195 195 195 0
-6.151400 3.476878 34.961067 195 195 195 0
-6.018285 3.477231 34.964617 196 196 196 0
-5.884557 3.477239 34.964691 196 196 196 0
-5.750061 3.476781 34.960093 196 196 196 0
-5.616078 3.476620 34.958472 196 196 196 0
-5.483065 3.477065 34.962950 195 195 195 0
-5.349670 3.477286 34.965166 195 195 195 0
-5.215008 3.476672 34.958995 196 196 196 0
-5.080824 3.476353 34.955788 196 196 196 0
-4.947519 3.476635 34.958623 196 196 196 0
-4.814467 3.477115 34.963447 196 196 196 0
-4.680439 3.476898 34.961264 196 196 196 0
-4.545670 3.476100 34.953246 197 197 197 0
-4.412353 3.476399 34.956250 197 197 197 0
-4.279225 3.476870 34.960989 197 197 197 0
-4.145340 3.476737 34.959645 197 197 197 0
-4.010936 3.476145 34.953692 196 196 196 0
-3.877265 3.476168 34.953929 198 198 198 0
-3.744005 3.476576 34.958027 197 197 197 0
-3.610276 3.476562 34.957888 197 197 197 0
-3.476312 3.476312 34.955374 197 197 197 0
-3.342381 3.476076 34.953005 197 197 197 0
-3.208924 3.476334 34.955600 197 197 197 0
-3.075357 3.476491 34.957172 197 197 197 0
-2.941336 3.476125 34.953491 198 198 198 0
-2.807359 3.475778 34.950007 198 198 198 0
-2.673883 3.476048 34.952725 198 198 198 0
-2.540428 3.476376 34.956015 198 198 198 0
-2.406554 3.476134 34.953584 197 197 197 0
-2.272508 3.475601 34.948220 198 198 198 0
-2.139100 3.476038 34.952620 198 198 198 0
-2.005551 3.476289 34.955144 199 199 199 0
-1.871770 3.476144 34.953688 199 199 199 0
-1.737862 3.475724 34.949465 199 199 199 0
-1.604215 3.475800 34.950224 198 198 198 0
-1.470640 3.476058 34.952821 199 199 199 0
-1.336919 3.475990 34.952134 198 198 198 0
-1.203151 3.475770 34.949928 199 199 199 0
-1.069477 3.475800 34.950228 198 198 198 0
-0.935867 3.476077 34.953013 198 198 198 0
-0.802151 3.475990 34.952134 198 198 198 0
-0.668403 3.475695 34.949169 199 199 199 0
-0.534717 3.475661 34.948831 199 199 199 0
-0.401056 3.475822 34.950449 199 199 199 0
-0.267361 3.475698 34.949202 199 199 199 0
-0.133608 3.473812 34.930240 199 199 199 0
0.000000 3.475435 34.946558 199 199 199 0
0.133685 3.475797 34.950198 199 199 199 0
0.267375 3.475881 34.951039 199 199 199 0
0.401027 3.475569 34.947906 199 199 199 0
0.534689 3.475479 34.947003 199 199 199 0
0.668404 3.475702 34.949243 199 199 199 0
0.802089 3.475721 34.949429 199 199 199 0
0.935702 3.475465 34.946853 199 199 199 0
1.069340 3.475355 34.945756 200 200 200 0
1.203061 3.475510 34.947310 199 199 199 0
1.336759 3.475575 34.947960 200 200 200 0
1.470361 3.475398 34.946180 200 200 200 0
1.603927 3.475176 34.943954 200 200 200 0
1.737721 3.475442 34.946628 200 200 200 0
1.871465 3.475577 34.947988 199 199 199 0
2.005026 3.475379 34.945995 199 199 199 0
2.138587 3.475203 34.944226 200 200 200 0
2.272435 3.475489 34.947104 200 200 200 0
2.406188 3.475605 34.948267 200 200 200 0
2.539761 3.475463 34.946837 200 200 200 0
2.673282 3.475266 34.944857 200 200 200 0
2.807093 3.475448 34.946688 200 200 200 0
2.940815 3.475508 34.947294 201 201 201 0
3.074395 3.475403 34.946236 200 200 200 0
3.208032 3.475367 34.945877 200 200 200 0
3.341742 3.475412 34.946325 200 200 200 0
3.475487 3.475487 34.947079 201 201 201 0
3.608995 3.475329 34.945487 201 201 201 0
3.742434 3.475117 34.943358 200 200 200 0
3.876236 3.475246 34.944659 201 201 201 0
4.010028 3.475358 34.945780 201 201 201 0
4.143474 3.475172 34.943907 201 201 201 0
4.277033 3.475089 34.943080 201 201 201 0
4.410935 3.475282 34.945016 200 200 200 0
4.544708 3.475365 34.945853 200 200 200 0
4.678327 3.475329 34.945486 201 201 201 0
4.811800 3.475189 34.944081 201 201 201 0
4.945626 3.475305 34.945246 201 201 201 0
5.079253 3.475278 34.944980 200 200 200 0
5.212910 3.475273 34.944931 201 201 201 0
5.346586 3.475281 34.945006 200 200 200 0
5.480250 3.475281 34.945004 201 201 201 0
5.613890 3.475265 34.944850 201 201 201 0
5.747412 3.475180 34.943988 202 202 202 0
5.880912 3.475085 34.943033 201 201 201 0
6.014610 3.475108 34.943269 201 201 201 0
6.148387 3.475176 34.943947 201 201 201 0
6.281890 3.475088 34.943070 201 201 201 0
6.415523 3.475075 34.942936 202 202 202 0
6.549371 3.475176 34.943955 202 202 202 0
6.683094 3.475209 34.944281 202 202 202 0
6.816833 3.475248 34.944677 202 202 202 0
6.950336 3.475168 34.943873 201 201 201 0
7.084071 3.475205 34.944241 202 202 202 0
7.217627 3.475154 34.943726 201 201 201 0
7.351320 3.475169 34.943886 202 202 202 0
7.484990 3.475174 34.943932 201 201 201 0
7.618554 3.475130 34.943488 201 201 201 0
7.752150 3.475102 34.943204 201 201 201 0
7.885987 3.475181 34.944000 201 201 201 0
8.019381 3.475065 34.942838 202 202 202 0
8.153016 3.475056 34.942743 202 202 202 0
8.286814 3.475116 34.943344 202 202 202 0
8.421158 3.475398 34.946187 201 201 201 0
8.553957 3.475045 34.942636 201 201 201 0
8.687670 3.475068 34.942864 202 202 202 0
8.821579 3.475168 34.943867 202 202 202 0
8.955188 3.475148 34.943665 202 202 202 0
9.088627 3.475063 34.942817 201 201 201 0
9.222218 3.475039 34.942573 201 201 201 0
9.355928 3.475059 34.942776 201 201 201 0
9.489783 3.475132 34.943508 202 202 202 0
9.623245 3.475061 34.942792 202 202 202 0
9.756941 3.475075 34.942935 201 201 201 0
9.890735 3.475123 34.943421 202 202 202 0
10.024147 3.475038 34.942561 202 202 202 0
10.157448 3.474917 34.941343 202 202 202 0
10.291477 3.475044 34.942627 202 202 202 0
10.425207 3.475069 34.942876 201 201 201 0
10.558610 3.474986 34.942038 201 201 201 0
-10.710016 3.614630 35.000052 192 192 192 0
-10.558517 3.608607 34.941730 192 192 192 0
-10.442304 3.614644 35.000181 192 192 192 0
-10.305649 3.613669 34.990744 192 192 192 0
-10.172094 3.613770 34.991723 192 192 192 0
-10.039341 3.614163 34.995523 192 192 192 0
-9.901775 3.612810 34.982422 192 192 192 0
-9.767099 3.612489 34.979313 193 193 193 0
-9.634008 3.612753 34.981872 193 193 193 0
-9.500555 3.612887 34.983174 193 193 193 0
-9.365272 3.612319 34.977672 193 193 193 0
-9.230710 3.612017 34.974748 193 193 193 0
-9.097503 3.612244 34.976942 193 193 193 0
-8.964822 3.612690 34.981260 193 193 193 0
-8.831555 3.612909 34.983384 193 193 193 0
-8.695484 3.611970 34.974295 194 194 194 0
-8.561174 3.611745 34.972116 194 194 194 0
-8.427504 3.611788 34.972525 194 194 194 0
-8.294657 3.612189 34.976416 194 194 194 0
-8.160314 3.611942 34.974022 194 194 194 0
-8.025427 3.611442 34.969180 194 194 194 0
-7.891491 3.611360 34.968388 194 194 194 0
-7.758724 3.611820 34.972838 194 194 194 0
-7.624975 3.611830 34.972940 194 194 194 0
-7.489277 3.610901 34.963945 195 195 195 0
-7.355117 3.610694 34.961935 195 195 195 0
-7.222727 3.611364 34.968419 195 195 195 0
-7.089159 3.611458 34.969338 195 195 195 0
-6.954082 3.610774 34.962707 195 195 195 0
-6.820073 3.610627 34.961286 195 195 195 0
-6.687100 3.611034 34.965229 195 195 195 0
-6.554124 3.611456 34.969314 195 195 195 0
-6.419633 3.611044 34.965323 195 195 195 0
-6.284977 3.610519 34.960241 196 196 196 0
-6.151338 3.610568 34.960719 195 195 195 0
-6.018352 3.611011 34.965007 196 196 196 0
-5.884586 3.610996 34.964862 196 196 196 0
-5.750069 3.610509 34.960142 195 195 195 0
-5.616084 3.610340 34.958508 196 196 196 0
-5.483089 3.610815 34.963107 196 196 196 0
-5.349741 3.611075 34.965629 196 196 196 0
-5.214980 3.610371 34.958805 196 196 196 0
-5.080780 3.610028 34.955489 196 196 196 0
-4.947518 3.610351 34.958618 196 196 196 0
-4.814429 3.610822 34.963173 196 196 196 0
-4.680412 3.610604 34.961063 196 196 196 0
-4.545660 3.609789 34.953169 197 197 197 0
-4.412335 3.610092 34.956112 197 197 197 0
-4.279246 3.610614 34.961158 196 196 196 0
-4.145252 3.610381 34.958907 197 197 197 0
-4.010934 3.609841 34.953674 197 197 197 0
-3.877308 3.609908 34.954325 197 197 197 0
-3.743971 3.610258 34.957713 197 197 197 0
-3.610295 3.610295 34.958077 197 197 197 0
-3.476279 3.609982 34.955042 197 197 197 0
-3.342420 3.609813 34.953408 197 197 197 0
-3.208883 3.609993 34.955148 197 197 197 0
-3.075366 3.610212 34.957268 198 198 198 0
-2.941323 3.609805 34.953333 198 198 198 0
-2.807396 3.609509 34.950458 197 197 197 0
-2.673881 3.609740 34.952695 198 198 198 0
-2.540431 3.610086 34.956052 197 197 197 0
-2.406553 3.609829 34.953558 198 198 198 0
-2.272520 3.609296 34.948401 198 198 198 0
-2.139074 3.609688 34.952192 198 198 198 0
-2.005549 3.609989 34.955109 198 198 198 0
-1.871778 3.609857 34.953831 198 198 198 0
-1.737853 3.609388 34.949288 198 198 198 0
-1.604218 3.609490 34.950283 198 198 198 0
-1.470633 3.609736 34.952657 199 199 199 0
-1.336915 3.609669 34.952016 199 199 199 0
-1.203136 3.609409 34.949495 198 198 198 0
-1.069477 3.609486 34.950239 198 198 198 0
-0.935866 3.609768 34.952973 198 198 198 0
-0.802150 3.609677 34.952085 198 198 198 0
-0.668395 3.609333 34.948755 198 198 198 0
-0.534719 3.609356 34.948979 198 198 198 0
-0.401056 3.609505 34.950423 199 199 199 0
-0.267359 3.609350 34.948928 199 199 199 0
-0.133600 3.607211 34.928213 199 199 199 0
0.000000 3.609140 34.946887 199 199 199 0
0.133685 3.609485 34.950234 199 199 199 0
0.267372 3.609524 34.950603 199 199 199 0
0.401029 3.609261 34.948063 199 199 199 0
0.534689 3.609149 34.946973 199 199 199 0
0.668405 3.609389 34.949297 200 200 200 0
0.802096 3.609432 34.949712 199 199 199 0
0.935697 3.609116 34.946656 200 200 200 0
1.069356 3.609078 34.946288 199 199 199 0
1.203064 3.609193 34.947401 200 200 200 0
1.336767 3.609270 34.948151 200 200 200 0
1.470381 3.609118 34.946678 200 200 200 0
1.603935 3.608855 34.944125 200 200 200 0
1.737721 3.609113 34.946627 199 199 199 0
1.871466 3.609255 34.948007 200 200 200 0
2.005019 3.609035 34.945873 199 199 199 0
2.138572 3.608840 34.943983 199 199 199 0
2.272454 3.609192 34.947392 200 200 200 0
2.406185 3.609277 34.948217 200 200 200 0
2.539778 3.609159 34.947071 200 200 200 0
2.673307 3.608964 34.945188 200 200 200 0
2.807117 3.609150 34.946989 200 200 200 0
2.940826 3.609196 34.947432 201 201 201 0
3.074383 3.609058 34.946094 200 200 200 0
3.208040 3.609045 34.945974 200 200 200 0
3.341771 3.609113 34.946626 200 200 200 0
3.475475 3.609147 34.946955 200 200 200 0
3.609004 3.609004 34.945575 200 200 200 0
3.742453 3.608794 34.943538 200 200 200 0
3.876225 3.608899 34.944557 200 200 200 0
4.010006 3.609005 34.945582 201 201 201 0
4.143454 3.608815 34.943742 201 201 201 0
4.277037 3.608750 34.943110 200 200 200 0
4.410944 3.608954 34.945089 201 201 201 0
4.544701 3.609027 34.945796 201 201 201 0
4.678300 3.608975 34.945288 201 201 201 0
4.811799 3.608850 34.944078 201 201 201 0
4.945636 3.608978 34.945319 201 201 201 0
5.079269 3.608954 34.945091 201 201 201 0
5.212855 3.608899 34.944560 201 201 201 0
5.346592 3.608949 34.945044 201 201 201 0
5.480221 3.608926 34.944818 201 201 201 0
5.613908 3.608941 34.944963 201 201 201 0
5.747464 3.608873 34.944302 201 201 201 0
5.880880 3.608722 34.942840 201 201 201 0
6.014612 3.608767 34.943282 201 201 201 0
6.148388 3.608836 34.943949 201 201 201 0
6.281881 3.608740 34.943020 201 201 201 0
6.415495 3.608716 34.942784 201 201 201 0
6.549392 3.608849 34.944069 201 201 201 0
6.683104 3.608876 34.944334 201 201 201 0
6.816794 3.608891 34.944476 202 202 202 0
6.950333 3.608827 34.943857 201 201 201 0
7.084093 3.608877 34.944347 202 202 202 0
7.217558 3.608779 34.943395 202 202 202 0
7.351362 3.608850 34.944084 201 201 201 0
7.484952 3.608816 34.943754 201 201 201 0
7.618502 3.608764 34.943248 201 201 201 0
7.752134 3.608752 34.943131 201 201 201 0
7.885905 3.608804 34.943636 201 201 201 0
8.019409 3.608734 34.942958 201 201 201 0
8.153043 3.608724 34.942860 201 201 201 0
8.286867 3.608797 34.943569 202 202 202 0
8.421101 3.609043 34.945952 201 201 201 0
8.553930 3.608689 34.942523 202 202 202 0
8.687673 3.608726 34.942876 202 202 202 0
8.821620 3.608845 34.944029 202 202 202 0
8.955195 3.608810 34.943691 202 202 202 0
9.088615 3.608715 34.942774 202 202 202 0
9.222276 3.608717 34.942792 202 202 202 0
9.355978 3.608734 34.942961 201 201 201 0
9.489732 3.608771 34.943318 202 202 202 0
9.623259 3.608722 34.942843 201 201 201 0
9.756963 3.608740 34.943015 202 202 202 0
9.890776 3.608797 34.943566 202 202 202 0
10.024186 3.608707 34.942697 202 202 202 0
10.157507 3.608588 34.941544 202 202 202 0
10.291521 3.608715 34.942774 201 201 201 0
10.425195 3.608721 34.942834 202 202 202 0
10.558746 3.608685 34.942488 201 201 201 0
-10.710015 3.748505 35.000048 191 191 191 0
-10.576126 3.748500 35.000002 192 192 192 0
-10.442313 3.748523 35.000211 192 192 192 0
-10.305559 3.747476 34.990438 193 193 193 0
-10.172325 3.747699 34.992518 193 193 193 0
-10.039139 3.747945 34.994820 192 192 192 0
-9.901619 3.746559 34.981873 193 193 193 0
-9.767103 3.746286 34.979330 193 193 193 0
-9.634216 3.746640 34.982630 193 193 193 0
-9.500558 3.746699 34.983185 193 193 193 0
-9.364983 3.745993 34.976594 193 193 193 0
-9.230572 3.745739 34.974224 193 193 193 0
-9.097242 3.745923 34.975940 193 193 193 0
-8.964791 3.746480 34.981138 193 193 193 0
-8.831653 3.746762 34.983771 194 194 194 0
-8.695638 3.745813 34.974915 194 194 194 0
-8.560863 3.745378 34.970847 193 193 193 0
-8.427692 3.745641 34.973304 194 194 194 0
-8.294813 3.746045 34.977074 194 194 194 0
-8.160319 3.745720 34.974044 194 194 194 0
-8.025199 3.745093 34.968188 195 195 195 0
-7.891539 3.745137 34.968599 194 194 194 0
-7.758656 3.745558 34.972533 194 194 194 0
-7.624874 3.745552 34.972475 194 194 194 0
-7.489204 3.744602 34.963605 194 194 194 0
-7.355125 3.744427 34.961972 194 194 194 0
-7.222705 3.745107 34.968315 195 195 195 0
-7.089123 3.745197 34.969162 195 195 195 0
-6.954207 3.744573 34.963334 195 195 195 0
-6.820070 3.744352 34.961271 196 196 196 0
-6.687133 3.744794 34.965400 195 195 195 0
-6.554185 3.745249 34.969641 195 195 195 0
-6.419673 3.744809 34.965539 195 195 195 0
-6.285020 3.744267 34.960477 195 195 195 0
-6.151433 3.744351 34.961257 196 196 196 0
-6.018313 3.744728 34.964783 195 195 195 0
-5.884489 3.744675 34.964283 196 196 196 0
-5.750063 3.744227 34.960101 196 196 196 0
-5.616062 3.744041 34.958370 196 196 196 0
-5.483067 3.744533 34.962963 196 196 196 0
-5.349676 3.744773 34.965200 196 196 196 0
-5.215073 3.744155 34.959431 196 196 196 0
-5.080705 3.743678 34.954972 196 196 196 0
-4.947459 3.744023 34.958199 196 196 196 0
-4.814491 3.744604 34.963624 196 196 196 0
-4.680391 3.744312 34.960901 197 197 197 0
-4.545692 3.743511 34.953417 197 197 197 0
-4.412336 3.743800 34.956119 197 197 197 0
-4.279234 3.744329 34.961059 197 197 197 0
-4.145353 3.744190 34.959757 197 197 197 0
-4.010971 3.743573 34.953993 197 197 197 0
-3.877240 3.743542 34.953705 196 196 196 0
-3.743954 3.743954 34.957558 197 197 197 0
-3.610277 3.743991 34.957899 197 197 197 0
-3.476289 3.743696 34.955144 197 197 197 0
-3.342440 3.743532 34.953618 197 197 197 0
-3.208964 3.743792 34.956037 197 197 197 0
-3.075321 3.743868 34.956755 197 197 197 0
-2.941385 3.743580 34.954066 197 197 197 0
-2.807403 3.743204 34.950550 197 197 197 0
-2.673943 3.743520 34.953500 198 198 198 0
-2.540423 3.743782 34.955947 198 198 198 0
-2.406567 3.743548 34.953763 198 198 198 0
-2.272527 3.742986 34.948513 198 198 198 0
-2.139099 3.743424 34.952601 198 198 198 0
-2.005538 3.743670 34.954907 197 197 197 0
-1.871774 3.743548 34.953764 198 198 198 0
-1.737857 3.743077 34.949363 198 198 198 0
-1.604217 3.743173 34.950259 198 198 198 0
-1.470651 3.743476 34.953086 198 198 198 0
-1.336920 3.743377 34.952165 198 198 198 0
-1.203142 3.743109 34.949668 198 198 198 0
-1.069465 3.743129 34.949852 199 199 199 0
-0.935854 3.743417 34.952544 199 199 199 0
-0.802152 3.743375 34.952147 199 199 199 0
-0.668403 3.743055 34.949164 198 198 198 0
-0.534724 3.743065 34.949251 199 199 199 0
-0.401055 3.743183 34.950356 199 199 199 0
-0.267360 3.743038 34.949003 198 198 198 0
-0.133594 3.740629 34.926512 198 198 198 0
0.000000 3.742812 34.946886 199 199 199 0
0.133684 3.743153 34.950078 199 199 199 0
0.267375 3.743246 34.950939 199 199 199 0
0.401025 3.742901 34.947725 199 199 199 0
0.534688 3.742818 34.946943 199 199 199 0
0.668407 3.743081 34.949404 199 199 199 0
0.802084 3.743056 34.949173 199 199 199 0
0.935697 3.742787 34.946660 200 200 200 0
1.069359 3.742756 34.946366 200 200 200 0
1.203063 3.742864 34.947375 200 200 200 0
1.336769 3.742954 34.948219 199 199 199 0
1.470362 3.742740 34.946217 200 200 200 0
1.603948 3.742545 34.944397 199 199 199 0
1.737713 3.742766 34.946459 200 200 200 0
1.871474 3.742947 34.948153 200 200 200 0
2.005039 3.742740 34.946221 200 200 200 0
2.138573 3.742502 34.943996 199 199 199 0
2.272436 3.742836 34.947118 199 199 199 0
2.406175 3.742938 34.948071 200 200 200 0
2.539770 3.742819 34.946957 199 199 199 0
2.673330 3.742662 34.945489 201 201 201 0
2.807104 3.742805 34.946829 200 200 200 0
2.940824 3.742867 34.947401 200 200 200 0
3.074413 3.742764 34.946439 201 201 201 0
3.208006 3.742674 34.945602 200 200 200 0
3.341785 3.742799 34.946771 200 200 200 0
3.475488 3.742834 34.947094 200 200 200 0
3.609000 3.742667 34.945537 200 200 200 0
3.742454 3.742454 34.943549 200 200 200 0
3.876225 3.742562 34.944559 201 201 201 0
4.010057 3.742720 34.946030 201 201 201 0
4.143533 3.742546 34.944405 201 201 201 0
4.277036 3.742407 34.943108 201 201 201 0
4.410959 3.742632 34.945207 201 201 201 0
4.544713 3.742704 34.945887 201 201 201 0
4.678329 3.742663 34.945499 200 200 200 0
4.811794 3.742506 34.944035 200 200 200 0
4.945659 3.742661 34.945479 201 201 201 0
5.079265 3.742616 34.945065 200 200 200 0
5.212882 3.742582 34.944740 201 201 201 0
5.346601 3.742621 34.945104 201 201 201 0
5.480260 3.742617 34.945068 200 200 200 0
5.613929 3.742619 34.945093 201 201 201 0
5.747376 3.742477 34.943767 200 200 200 0
5.880857 3.742363 34.942701 201 201 201 0
6.014612 3.742425 34.943277 202 202 202 0
6.148405 3.742507 34.944047 201 201 201 0
6.281858 3.742383 34.942888 202 202 202 0
6.415492 3.742370 34.942764 202 202 202 0
6.549313 3.742465 34.943649 200 200 200 0
6.683051 3.742509 34.944059 201 201 201 0
6.816714 3.742510 34.944069 201 201 201 0
6.950338 3.742490 34.943884 201 201 201 0
7.084052 3.742518 34.944147 202 202 202 0
7.217592 3.742455 34.943558 201 201 201 0
7.351316 3.742488 34.943869 201 201 201 0
7.484968 3.742484 34.943827 202 202 202 0
7.618447 3.742395 34.942998 202 202 202 0
7.752112 3.742399 34.943032 202 202 202 0
7.885953 3.742486 34.943850 201 201 201 0
8.019360 3.742368 34.942747 201 201 201 0
8.153029 3.742374 34.942800 201 201 201 0
8.286783 3.742418 34.943212 201 201 201 0
8.421215 3.742762 34.946428 201 201 201 0
8.553928 3.742343 34.942514 202 202 202 0
8.687647 3.742371 34.942771 202 202 202 0
8.821659 3.742522 34.944183 201 201 201 0
8.955184 3.742465 34.943651 201 201 201 0
9.088621 3.742373 34.942795 201 201 201 0
9.222275 3.742373 34.942789 202 202 202 0
9.356108 3.742443 34.943449 201 201 201 0
9.489745 3.742435 34.943369 202 202 202 0
9.623286 3.742389 34.942939 202 202 202 0
9.756946 3.742390 34.942953 202 202 202 0
9.890713 3.742432 34.943341 202 202 202 0
10.024101 3.742331 34.942399 202 202 202 0
10.157445 3.742216 34.941330 201 201 201 0
10.291430 3.742338 34.942468 202 202 202 0
10.425187 3.742375 34.942809 202 202 202 0
10.558841 3.742374 34.942801 202 202 202 0
-10.710030 3.882386 35.000096 192 192 192 0
-10.576126 3.882376 35.000005 192 192 192 0
-10.442315 3.882399 35.000217 192 192 192 0
-10.305629 3.881341 34.990677 192 192 192 0
-10.172268 3.881523 34.992323 193 193 193 0
-10.039162 3.881809 34.994899 193 193 193 0
-9.901996 3.880512 34.983203 193 193 193 0
-9.767266 3.880147 34.979911 192 192 192 0
-9.634214 3.880447 34.982623 193 193 193 0
-9.500772 3.880597 34.983971 193 193 193 0
-9.365253 3.879890 34.977601 192 192 192 0
-9.230711 3.879574 34.974751 193 193 193 0
-9.097266 3.879716 34.976033 193 193 193 0
-8.964846 3.880307 34.981354 193 193 193 0
-8.831706 3.880598 34.983981 194 194 194 0
-8.695617 3.879583 34.974831 193 193 193 0
-8.560850 3.879135 34.970794 193 193 193 0
-8.427535 3.879342 34.972654 194 194 194 0
-8.294661 3.879761 34.976433 194 194 194 0
-8.160339 3.879505 34.974129 194 194 194 0
-8.025310 3.878900 34.968670 195 195 195 0
-7.891518 3.878881 34.968506 194 194 194 0
-7.758750 3.879375 34.972954 194 194 194 0
-7.624658 3.879212 34.971484 195 195 195 0
-7.489212 3.878342 34.963643 195 195 195 0
-7.355288 3.878243 34.962750 195 195 195 0
-7.222568 3.878786 34.967648 195 195 195 0
-7.089124 3.878954 34.969163 195 195 195 0
-6.954015 3.878201 34.962370 195 195 195 0
-6.819988 3.878032 34.960849 195 195 195 0
-6.687134 3.878537 34.965404 195 195 195 0
-6.554158 3.878992 34.969498 195 195 195 0
-6.419779 3.878617 34.966119 196 196 196 0
-6.285069 3.878021 34.960749 196 196 196 0
-6.151479 3.878106 34.961517 195 195 195 0
-6.018372 3.878507 34.965127 196 196 196 0
-5.884632 3.878507 34.965132 196 196 196 0
-5.750135 3.877998 34.960539 196 196 196 0
-5.615979 3.877700 34.957851 195 195 195 0
-5.483046 3.878252 34.962831 195 195 195 0
-5.349673 3.878513 34.965184 196 196 196 0
-5.215024 3.877838 34.959099 196 196 196 0
-5.080805 3.877457 34.955661 196 196 196 0
-4.947587 3.877839 34.959103 196 196 196 0
-4.814432 3.878292 34.963193 196 196 196 0
-4.680414 3.878057 34.961074 196 196 196 0
-4.545631 3.877156 34.952952 197 197 197 0
-4.412409 3.877572 34.956697 196 196 196 0
-4.279252 3.878072 34.961208 196 196 196 0
-4.145316 3.877876 34.959441 197 197 197 0
-4.010933 3.877236 34.953667 197 197 197 0
-3.877250 3.877250 34.953801 197 197 197 0
-3.743985 3.877699 34.957842 197 197 197 0
-3.610214 3.877637 34.957288 196 196 196 0
-3.476242 3.877347 34.954668 197 197 197 0
-3.342397 3.877181 34.953173 197 197 197 0
-3.208929 3.877456 34.955658 198 198 198 0
-3.075372 3.877643 34.957338 197 197 197 0
-2.941329 3.877206 34.953403 197 197 197 0
-2.807370 3.876844 34.950139 198 198 198 0
-2.673919 3.877182 34.953186 198 198 198 0
-2.540438 3.877510 34.956145 198 198 198 0
-2.406539 3.877202 34.953369 198 198 198 0
-2.272487 3.876596 34.947898 198 198 198 0
-2.139079 3.877080 34.952267 198 198 198 0
-2.005548 3.877392 34.955077 198 198 198 0
-1.871760 3.877217 34.953499 198 198 198 0
-1.737836 3.876710 34.948933 198 198 198 0
-1.604200 3.876815 34.949881 198 198 198 0
-1.470632 3.877120 34.952627 198 198 198 0
-1.336922 3.877074 34.952215 198 198 198 0
-1.203123 3.876730 34.949112 199 199 199 0
-1.069465 3.876810 34.949830 198 198 198 0
-0.935854 3.877110 34.952533 199 199 199 0
-0.802151 3.877065 34.952128 199 199 199 0
-0.668405 3.876748 34.949269 198 198 198 0
-0.534719 3.876710 34.948930 198 198 198 0
-0.401056 3.876876 34.950428 198 198 198 0
-0.267356 3.876663 34.948509 199 199 199 0
-0.133585 3.873971 34.924235 199 199 199 0
0.000000 3.876455 34.946632 199 199 199 0
0.133684 3.876848 34.950175 199 199 199 0
0.267373 3.876910 34.950733 199 199 199 0
0.401023 3.876556 34.947539 199 199 199 0
0.534687 3.876483 34.946885 199 199 199 0
0.668412 3.876791 34.949663 200 200 200 0
0.802082 3.876730 34.949106 199 199 199 0
0.935715 3.876534 34.947341 199 199 199 0
1.069352 3.876401 34.946140 199 199 199 0
1.203061 3.876530 34.947304 200 200 200 0
1.336763 3.876614 34.948061 199 199 199 0
1.470372 3.876435 34.946453 199 199 199 0
1.603937 3.876180 34.944153 199 199 199 0
1.737706 3.876420 34.946318 200 200 200 0
1.871455 3.876585 34.947804 200 200 200 0
2.005011 3.876354 34.945719 200 200 200 0
2.138585 3.876185 34.944194 200 200 200 0
2.272439 3.876513 34.947154 200 200 200 0
2.406189 3.876638 34.948279 200 200 200 0
2.539772 3.876494 34.946982 200 200 200 0
2.673341 3.876345 34.945636 200 200 200 0
2.807094 3.876463 34.946701 200 200 200 0
2.940809 3.876521 34.947225 200 200 200 0
3.074402 3.876421 34.946320 199 199 199 0
3.208028 3.876367 34.945835 200 200 200 0
3.341800 3.876488 34.946930 201 201 201 0
3.475508 3.876528 34.947290 201 201 201 0
3.608999 3.876332 34.945524 200 200 200 0
3.742404 3.876062 34.943085 200 200 200 0
3.876232 3.876232 34.944621 200 200 200 0
4.010045 3.876377 34.945927 201 201 201 0
4.143520 3.876196 34.944295 200 200 200 0
4.277071 3.876096 34.943394 200 200 200 0
4.410938 3.876279 34.945042 201 201 201 0
4.544694 3.876357 34.945744 201 201 201 0
4.678326 3.876327 34.945478 201 201 201 0
4.811834 3.876199 34.944327 201 201 201 0
4.945635 3.876309 34.945312 200 200 200 0
5.079281 3.876293 34.945174 201 201 201 0
5.212894 3.876254 34.944821 200 200 200 0
5.346580 3.876271 34.944970 201 201 201 0
5.480266 3.876286 34.945103 201 201 201 0
5.613899 3.876264 34.944907 200 200 200 0
5.747374 3.876136 34.943757 201 201 201 0
5.880891 3.876042 34.942908 201 201 201 0
6.014638 3.876100 34.943431 201 201 201 0
6.148358 3.876139 34.943782 201 201 201 0
6.281865 3.876044 34.942930 201 201 201 0
6.415506 3.876035 34.942841 201 201 201 0
6.549390 3.876170 34.944060 201 201 201 0
6.683083 3.876188 34.944226 202 202 202 0
6.816786 3.876212 34.944436 201 201 201 0
6.950298 3.876127 34.943678 202 202 202 0
7.083996 3.876149 34.943868 201 201 201 0
7.217566 3.876100 34.943433 201 201 201 0
7.351354 3.876168 34.944047 202 202 202 0
7.484940 3.876130 34.943698 201 201 201 0
7.618511 3.876084 34.943290 202 202 202 0
7.752156 3.876078 34.943231 202 202 202 0
7.885937 3.876139 34.943778 201 201 201 0
8.019405 3.876046 34.942941 201 201 201 0
8.152990 3.876012 34.942634 201 201 201 0
8.286843 3.876104 34.943464 202 202 202 0
8.421142 3.876399 34.946124 202 202 202 0
8.553965 3.876015 34.942667 201 201 201 0
8.687636 3.876022 34.942730 202 202 202 0
8.821548 3.876135 34.943744 201 201 201 0
8.955179 3.876122 34.943629 202 202 202 0
9.088623 3.876030 34.942802 202 202 202 0
9.222242 3.876015 34.942661 202 202 202 0
9.356065 3.876084 34.943286 201 201 201 0
9.489861 3.876140 34.943794 202 202 202 0
9.623193 3.876008 34.942605 201 201 201 0
9.756936 3.876043 34.942916 202 202 202 0
9.890768 3.876112 34.943537 202 202 202 0
10.024064 3.875971 34.942272 201 201 201 0
10.157500 3.875888 34.941519 201 201 201 0
10.291414 3.875987 34.942411 202 202 202 0
10.425222 3.876044 34.942928 202 202 202 0
10.558857 3.876036 34.942855 202 202 202 0
-10.710009 4.016254 35.000031 192 192 192 0
-10.566153 4.012463 34.966999 193 193 193 0
-10.442310 4.016273 35.000202 192 192 192 0
-10.305924 4.015295 34.991679 192 192 192 0
-10.172618 4.015507 34.993526 193 193 193 0
-10.039195 4.015678 34.995015 192 192 192 0
-9.901957 4.014307 34.983067 193 193 193 0
-9.767135 4.013891 34.979444 193 193 193 0
-9.634018 4.014174 34.981911 193 193 193 0
-9.500734 4.014395 34.983831 193 193 193 0
-9.365073 4.013603 34.976930 193 193 193 0
-9.230730 4.013361 34.974822 193 193 193 0
-9.097453 4.013582 34.976751 194 194 194 0
-8.964867 4.014120 34.981436 194 194 194 0
-8.831696 4.014407 34.983940 194 194 194 0
-8.695489 4.013303 34.974316 194 194 194 0
-8.560909 4.012926 34.971035 194 194 194 0
-8.427524 4.013107 34.972607 193 193 193 0
-8.294605 4.013518 34.976196 194 194 194 0
-8.160223 4.013224 34.973633 194 194 194 0
-8.025243 4.012622 34.968380 194 194 194 0
-7.891429 4.012591 34.968114 194 194 194 0
-7.758655 4.013097 34.972526 195 195 195 0
-7.624602 4.012948 34.971227 195 195 195 0
-7.489166 4.012053 34.963427 194 194 194 0
-7.355032 4.011835 34.961529 194 194 194 0
-7.222596 4.012553 34.967784 195 195 195 0
-7.089136 4.012719 34.969226 194 194 194 0
-6.954146 4.012007 34.963025 195 195 195 0
-6.819989 4.011758 34.960854 195 195 195 0
-6.687341 4.012405 34.966490 195 195 195 0
-6.554285 4.012827 34.970173 195 195 195 0
-6.419763 4.012352 34.966032 195 195 195 0
-6.285068 4.011745 34.960743 195 195 195 0
-6.151586 4.011904 34.962125 195 195 195 0
-6.018499 4.012333 34.965861 196 196 196 0
-5.884573 4.012209 34.964781 195 195 195 0
-5.750182 4.011755 34.960824 196 196 196 0
-5.616090 4.011493 34.958546 196 196 196 0
-5.483106 4.012029 34.963215 196 196 196 0
-5.349594 4.012195 34.964665 196 196 196 0
-5.215011 4.011547 34.959015 196 196 196 0
-5.080830 4.011182 34.955833 196 196 196 0
-4.947526 4.011508 34.958673 195 195 195 0
-4.814421 4.012017 34.963113 197 197 197 0
-4.680320 4.011703 34.960373 196 196 196 0
-4.545639 4.010858 34.953007 197 197 197 0
-4.412340 4.011218 34.956151 196 196 196 0
-4.279202 4.011752 34.960801 197 197 197 0
-4.145388 4.011666 34.960049 197 197 197 0
-4.010966 4.010966 34.953954 197 197 197 0
-3.877250 4.010948 34.953798 197 197 197 0
-3.743958 4.011384 34.957594 196 196 196 0
-3.610279 4.011422 34.957922 197 197 197 0
-3.476324 4.011143 34.955495 197 197 197 0
-3.342408 4.010890 34.953287 197 197 197 0
-3.208930 4.011162 34.955663 197 197 197 0
-3.075379 4.011364 34.957421 198 198 198 0
-2.941330 4.010905 34.953416 198 198 198 0
-2.807383 4.010547 34.950298 198 198 198 0
-2.673919 4.010879 34.953192 198 198 198 0
-2.540416 4.011183 34.955842 198 198 198 0
-2.406572 4.010953 34.953843 198 198 198 0
-2.272507 4.010306 34.948202 198 198 198 0
-2.139100 4.010813 34.952616 198 198 198 0
-2.005530 4.011059 34.954766 198 198 198 0
-1.871766 4.010927 34.953616 198 198 198 0
-1.737863 4.010453 34.949482 198 198 198 0
-1.604200 4.010501 34.949902 197 197 197 0
-1.470642 4.010842 34.952869 198 198 198 0
-1.336933 4.010798 34.952488 198 198 198 0
-1.203122 4.010407 34.949076 199 199 199 0
-1.069467 4.010500 34.949891 198 198 198 0
-0.935866 4.010855 34.952986 198 198 198 0
-0.802159 4.010793 34.952447 199 199 199 0
-0.668400 4.010402 34.949036 198 198 198 0
-0.534723 4.010424 34.949227 198 198 198 0
-0.401057 4.010566 34.950470 199 199 199 0
-0.267360 4.010395 34.948978 199 199 199 0
-0.133589 4.007680 34.925316 199 199 199 0
0.000000 4.010157 34.946900 199 199 199 0
0.133684 4.010526 34.950120 199 199 199 0
0.267375 4.010619 34.950932 199 199 199 0
0.401030 4.010296 34.948113 199 199 199 0
0.534689 4.010170 34.947018 199 199 199 0
0.668407 4.010445 34.949408 199 199 199 0
0.802083 4.010415 34.949148 199 199 199 0
0.935707 4.010171 34.947025 199 199 199 0
1.069341 4.010029 34.945787 200 200 200 0
1.203064 4.010213 34.947394 199 199 199 0
1.336764 4.010292 34.948075 200 200 200 0
1.470377 4.010119 34.946574 200 200 200 0
1.603934 4.009835 34.944093 200 200 200 0
1.737709 4.010098 34.946387 199 199 199 0
1.871454 4.010259 34.947793 200 200 200 0
2.005015 4.010030 34.945791 200 200 200 0
2.138591 4.009859 34.944301 199 199 199 0
2.272433 4.010176 34.947065 199 199 199 0
2.406190 4.010316 34.948289 200 200 200 0
2.539793 4.010199 34.947271 201 201 201 0
2.673314 4.009970 34.945276 200 200 200 0
2.807098 4.010139 34.946749 200 200 200 0
2.940807 4.010192 34.947203 201 201 201 0
3.074391 4.010075 34.946189 200 200 200 0
3.208003 4.010004 34.945571 200 200 200 0
3.341728 4.010073 34.946174 200 200 200 0
3.475500 4.010192 34.947205 200 200 200 0
3.608954 4.009949 34.945089 200 200 200 0
3.742395 4.009709 34.942995 201 201 201 0
3.876234 4.009897 34.944637 200 200 200 0
4.010023 4.010023 34.945736 201 201 201 0
4.143527 4.009864 34.944353 200 200 200 0
4.277012 4.009699 34.942912 201 201 201 0
4.410970 4.009973 34.945295 201 201 201 0
4.544695 4.010025 34.945755 201 201 201 0
4.678323 4.009991 34.945457 201 201 201 0
4.811845 4.009871 34.944406 200 200 200 0
4.945646 4.009983 34.945385 201 201 201 0
5.079298 4.009972 34.945293 201 201 201 0
5.212900 4.009923 34.944865 201 201 201 0
5.346586 4.009939 34.945004 200 200 200 0
5.480238 4.009930 34.944926 202 202 202 0
5.613901 4.009929 34.944916 201 201 201 0
5.747396 4.009811 34.943885 201 201 201 0
5.880893 4.009700 34.942918 201 201 201 0
6.014647 4.009765 34.943486 201 201 201 0
6.148409 4.009832 34.944070 201 201 201 0
6.281852 4.009693 34.942858 201 201 201 0
6.415548 4.009717 34.943072 202 202 202 0
6.549390 4.009831 34.944058 201 201 201 0
6.683097 4.009858 34.944296 201 201 201 0
6.816789 4.009876 34.944453 201 201 201 0
6.950322 4.009801 34.943800 201 201 201 0
7.084005 4.009814 34.943914 201 201 201 0
7.217569 4.009761 34.943447 201 201 201 0
7.351306 4.009803 34.943821 202 202 202 0
7.484984 4.009813 34.943905 201 201 201 0
7.618512 4.009743 34.943294 201 201 201 0
7.752135 4.009725 34.943139 202 202 202 0
7.885935 4.009798 34.943770 201 201 201 0
8.019369 4.009684 34.942783 201 201 201 0
8.153011 4.009677 34.942722 202 202 202 0
8.286839 4.009761 34.943449 201 201 201 0
8.421218 4.010104 34.946438 202 202 202 0
8.553950 4.009664 34.942606 202 202 202 0
8.687664 4.009691 34.942840 201 201 201 0
8.821548 4.009794 34.943742 202 202 202 0
8.955169 4.009777 34.943590 201 201 201 0
9.088676 4.009710 34.943008 201 201 201 0
9.222224 4.009663 34.942594 202 202 202 0
9.356058 4.009739 34.943260 201 201 201 0
9.489872 4.009805 34.943833 201 201 201 0
9.623224 4.009677 34.942717 202 202 202 0
9.757014 4.009732 34.943198 202 202 202 0
9.890748 4.009763 34.943465 202 202 202 0
10.024090 4.009636 34.942362 202 202 202 0
10.157495 4.009538 34.941504 202 202 202 0
10.291372 4.009625 34.942269 201 201 201 0
10.425171 4.009681 34.942754 202 202 202 0
10.558838 4.009685 34.942790 202 202 202 0
-10.710011 4.150129 35.000036 193 193 193 0
-10.558592 4.143245 34.941979 192 192 192 0
-10.442323 4.150154 35.000245 192 192 192 0
-10.305685 4.149042 34.990868 192 192 192 0
-10.172102 4.149147 34.991749 192 192 192 0
-10.039000 4.149453 34.994335 193 193 193 0
-9.901803 4.148053 34.982524 193 193 193 0
-9.767113 4.147678 34.979365 193 193 193 0
-9.634064 4.148000 34.982078 193 193 193 0
-9.500577 4.148139 34.983253 193 193 193 0
-9.365235 4.147461 34.977535 193 193 193 0
-9.230887 4.147210 34.975416 193 193 193 0
-9.097279 4.147289 34.976084 194 194 194 0
-8.964859 4.147920 34.981402 193 193 193 0
-8.831668 4.148208 34.983830 193 193 193 0
-8.695640 4.147151 34.974923 194 194 194 0
-8.560788 4.146632 34.970540 194 194 194 0
-8.427657 4.146942 34.973159 194 194 194 0
-8.294669 4.147334 34.976466 194 194 194 0
-8.160446 4.147112 34.974587 194 194 194 0
-8.025319 4.146415 34.968711 194 194 194 0
-7.891404 4.146331 34.968003 194 194 194 0
-7.758637 4.146858 34.972444 195 195 195 0
-7.624843 4.146845 34.972334 195 195 195 0
-7.489133 4.145770 34.963274 194 194 194 0
-7.355112 4.145608 34.961910 195 195 195 0
-7.222581 4.146296 34.967710 195 195 195 0
-7.089158 4.146489 34.969334 195 195 195 0
-6.954075 4.145699 34.962670 195 195 195 0
-6.820079 4.145538 34.961316 194 194 194 0
-6.687159 4.146038 34.965535 194 194 194 0
-6.554172 4.146517 34.969572 195 195 195 0
-6.419776 4.146105 34.966099 195 195 195 0
-6.285164 4.145534 34.961279 196 196 196 0
-6.151504 4.145579 34.961659 196 196 196 0
-6.018405 4.146012 34.965313 196 196 196 0
-5.884581 4.145955 34.964830 196 196 196 0
-5.750175 4.145475 34.960784 195 195 195 0
-5.616167 4.145266 34.959025 196 196 196 0
-5.483079 4.145743 34.963044 196 196 196 0
-5.349647 4.145977 34.965015 196 196 196 0
-5.214938 4.145207 34.958527 196 196 196 0
-5.080764 4.144833 34.955374 196 196 196 0
-4.947516 4.145217 34.958604 196 196 196 0
-4.814405 4.145737 34.962997 196 196 196 0
-4.680612 4.145685 34.962552 196 196 196 0
-4.545627 4.144543 34.952921 197 197 197 0
-4.412322 4.144909 34.956008 196 196 196 0
-4.279095 4.145373 34.959927 197 197 197 0
-4.145363 4.145363 34.959841 197 197 197 0
-4.010899 4.144596 34.953367 197 197 197 0
-3.877250 4.144647 34.953802 197 197 197 0
-3.743964 4.145103 34.957650 197 197 197 0
-3.610261 4.145115 34.957747 197 197 197 0
-3.476318 4.144841 34.955434 196 196 196 0
-3.342428 4.144611 34.953500 197 197 197 0
-3.208926 4.144863 34.955625 197 197 197 0
-3.075336 4.145018 34.956933 198 198 198 0
-2.941351 4.144631 34.953663 197 197 197 0
-2.807427 4.144296 34.950844 198 198 198 0
-2.673915 4.144569 34.953143 198 198 198 0
-2.540440 4.144928 34.956173 197 197 197 0
-2.406565 4.144640 34.953741 198 198 198 0
-2.272510 4.143989 34.948251 198 198 198 0
-2.139080 4.144467 34.952281 198 198 198 0
-2.005552 4.144807 34.955147 198 198 198 0
-1.871783 4.144663 34.953939 198 198 198 0
-1.737858 4.144124 34.949391 198 198 198 0
-1.604202 4.144188 34.949928 199 199 199 0
-1.470654 4.144572 34.953165 198 198 198 0
-1.336927 4.144474 34.952344 198 198 198 0
-1.203138 4.144143 34.949548 199 199 199 0
-1.069481 4.144237 34.950347 198 198 198 0
-0.935867 4.144555 34.953029 198 198 198 0
-0.802148 4.144431 34.951978 198 198 198 0
-0.668400 4.144080 34.949017 198 198 198 0
-0.534717 4.144055 34.948806 199 199 199 0
-0.401053 4.144210 34.950115 199 199 199 0
-0.267361 4.144102 34.949206 199 199 199 0
-0.133592 4.141348 34.925982 199 199 199 0
0.000000 4.143769 34.946400 199 199 199 0
0.133685 4.144225 34.950241 199 199 199 0
0.267374 4.144304 34.950908 199 199 199 0
0.401025 4.143926 34.947725 199 199 199 0
0.534689 4.143838 34.946981 199 199 199 0
0.668402 4.144093 34.949127 199 199 199 0
0.802089 4.144127 34.949413 199 199 199 0
0.935714 4.143875 34.947292 199 199 199 0
1.069355 4.143751 34.946246 199 199 199 0
1.203071 4.143910 34.947584 200 200 200 0
1.336761 4.143959 34.947998 199 199 199 0
1.470360 4.143742 34.946168 199 199 199 0
1.603949 4.143534 34.944417 200 200 200 0
1.737705 4.143759 34.946311 199 199 199 0
1.871464 4.143955 34.947967 200 200 200 0
2.005028 4.143724 34.946019 199 199 199 0
2.138591 4.143519 34.944292 200 200 200 0
2.272439 4.143860 34.947163 201 201 201 0
2.406202 4.144014 34.948465 200 200 200 0
2.539772 4.143838 34.946977 200 200 200 0
2.673291 4.143601 34.944980 200 200 200 0
2.807092 4.143803 34.946681 200 200 200 0
2.940806 4.143863 34.947188 200 200 200 0
3.074388 4.143740 34.946152 200 200 200 0
3.208015 4.143686 34.945694 200 200 200 0
3.341753 4.143773 34.946432 200 200 200 0
3.475471 4.143831 34.946921 201 201 201 0
3.608991 4.143657 34.945451 201 201 201 0
3.742412 4.143384 34.943152 200 200 200 0
3.876228 4.143554 34.944583 200 200 200 0
4.010003 4.143670 34.945563 201 201 201 0
4.143507 4.143507 34.944187 200 200 200 0
4.277038 4.143380 34.943118 201 201 201 0
4.410912 4.143584 34.944836 201 201 201 0
4.544696 4.143693 34.945759 201 201 201 0
4.678337 4.143670 34.945559 201 201 201 0
4.811846 4.143534 34.944419 201 201 201 0
4.945664 4.143664 34.945514 201 201 201 0
5.079299 4.143638 34.945296 200 200 200 0
5.212884 4.143574 34.944754 201 201 201 0
5.346570 4.143591 34.944899 201 201 201 0
5.480204 4.143569 34.944711 201 201 201 0
5.613931 4.143616 34.945104 201 201 201 0
5.747469 4.143524 34.944334 201 201 201 0
5.880891 4.143355 34.942905 201 201 201 0
6.014661 4.143433 34.943564 201 201 201 0
6.148352 4.143454 34.943743 202 202 202 0
6.281887 4.143372 34.943050 201 201 201 0
6.415490 4.143337 34.942755 201 201 201 0
6.549389 4.143491 34.944054 202 202 202 0
6.683099 4.143521 34.944308 202 202 202 0
6.816792 4.143540 34.944467 201 201 201 0
6.950325 4.143463 34.943817 202 202 202 0
7.084081 4.143519 34.944290 201 201 201 0
7.217613 4.143445 34.943662 201 201 201 0
7.351347 4.143487 34.944016 202 202 202 0
7.485013 4.143489 34.944037 201 201 201 0
7.618515 4.143403 34.943308 201 201 201 0
7.752139 4.143385 34.943156 201 201 201 0
7.885976 4.143479 34.943949 201 201 201 0
8.019390 4.143352 34.942877 202 202 202 0
8.153030 4.143343 34.942805 202 202 202 0
8.286778 4.143389 34.943192 201 201 201 0
8.421435 4.143881 34.947338 202 202 202 0
8.553967 4.143328 34.942675 202 202 202 0
8.687622 4.143328 34.942674 201 201 201 0
8.821629 4.143492 34.944063 201 201 201 0
8.955120 4.143414 34.943400 202 202 202 0
9.088669 4.143364 34.942978 202 202 202 0
9.222188 4.143302 34.942459 202 202 202 0
9.356093 4.143412 34.943390 201 201 201 0
