ply
    format ascii 1.0
    element vertex 25600
    property float x
    property float y
    property float z
    property uchar red
    property uchar green
    property uchar blue
    property uchar alpha
    end_header
4.142602 -0.162455 21.235946 216 216 216 0
4.223891 -0.162457 21.236256 216 216 216 0
4.301136 -0.162307 21.216603 217 217 217 0
4.388838 -0.162550 21.248307 216 216 216 0
4.471632 -0.162605 21.255530 216 216 216 0
4.557600 -0.162771 21.277310 217 217 217 0
4.638968 -0.162771 21.277229 217 217 217 0
4.719439 -0.162739 21.273110 216 216 216 0
4.799782 -0.162704 21.268559 216 216 216 0
4.889117 -0.162971 21.303340 216 216 216 0
4.978281 -0.163222 21.336254 216 216 216 0
5.066146 -0.163424 21.362622 216 216 216 0
5.139535 -0.163160 21.328084 217 217 217 0
5.211959 -0.162874 21.290682 217 217 217 0
5.298184 -0.163021 21.309943 216 216 216 0
5.396577 -0.163533 21.376815 216 216 216 0
5.469536 -0.163270 21.342448 217 217 217 0
5.543052 -0.163031 21.311236 217 217 217 0
5.614195 -0.162730 21.271932 216 216 216 0
5.688089 -0.162517 21.244031 217 217 217 0
5.772108 -0.162595 21.254196 216 216 216 0
5.865757 -0.162938 21.299046 216 216 216 0
5.954342 -0.163133 21.324531 217 217 217 0
6.027166 -0.162896 21.293644 217 217 217 0
6.102629 -0.162737 21.272782 216 216 216 0
6.191027 -0.162922 21.296961 217 217 217 0
6.276361 -0.163022 21.310114 217 217 217 0
6.361245 -0.163109 21.321418 217 217 217 0
6.448336 -0.163249 21.339741 216 216 216 0
-10.713106 -0.133914 35.010149 209 209 209 0
-10.579044 -0.133912 35.009658 209 209 209 0
-10.445174 -0.133912 35.009800 209 209 209 0
-5.684876 -0.073830 19.301847 209 209 209 0
-5.584624 -0.073482 19.210952 210 210 210 0
-5.506386 -0.073418 19.194373 209 209 209 0
-5.433833 -0.073430 19.197431 209 209 209 0
-5.373959 -0.073616 19.245980 210 210 210 0
-5.295792 -0.073553 19.229454 209 209 209 0
-5.286833 -0.074462 19.467304 210 210 210 0
-5.220386 -0.074577 19.497240 209 209 209 0
-5.184801 -0.075142 19.644978 209 209 209 0
-5.104484 -0.075066 19.625083 209 209 209 0
-5.036524 -0.075172 19.652812 209 209 209 0
-4.969271 -0.075292 19.684180 210 210 210 0
-4.905657 -0.075472 19.731151 210 210 210 0
-4.847266 -0.075739 19.800924 210 210 210 0
-4.816327 -0.076450 19.986832 210 210 210 0
-4.749636 -0.076607 20.027982 210 210 210 0
-4.665127 -0.076477 19.994113 209 209 209 0
-4.578347 -0.076306 19.949224 211 211 211 0
-4.540020 -0.076949 20.117516 210 210 210 0
-4.497549 -0.077544 20.272927 210 210 210 0
-4.445608 -0.077993 20.390361 210 210 210 0
-4.352526 -0.077724 20.319914 210 210 210 0
-4.252501 -0.077318 20.213908 211 211 211 0
-4.148305 -0.076820 20.083780 211 211 211 0
-4.087973 -0.077132 20.165117 210 210 210 0
-4.062135 -0.078118 20.423001 211 211 211 0
-3.981512 -0.078069 20.410158 211 211 211 0
-3.892290 -0.077846 20.351845 211 211 211 0
-3.795175 -0.077453 20.249033 211 211 211 0
-3.697162 -0.077024 20.137049 212 212 212 0
-3.629926 -0.077232 20.191494 211 211 211 0
-3.591436 -0.078075 20.411686 211 211 211 0
-3.522706 -0.078282 20.465976 211 211 211 0
-3.430624 -0.077969 20.383978 211 211 211 0
-3.338080 -0.077630 20.295363 211 211 211 0
-3.262541 -0.077680 20.308381 211 211 211 0
-3.196471 -0.077963 20.382406 211 211 211 0
-3.138296 -0.078457 20.511738 211 211 211 0
-3.062577 -0.078528 20.530096 212 212 212 0
-2.983886 -0.078523 20.528973 211 211 211 0
-2.897800 -0.078319 20.475532 212 212 212 0
-2.831251 -0.078646 20.561009 212 212 212 0
-2.761215 -0.078892 20.625321 211 211 211 0
-2.696978 -0.079323 20.738005 211 211 211 0
-2.624260 -0.079523 20.790331 212 212 212 0
-2.541434 -0.079420 20.763348 212 212 212 0
-2.456090 -0.079229 20.713384 212 212 212 0
-2.374985 -0.079166 20.697039 211 211 211 0
-2.297234 -0.079215 20.709796 213 213 213 0
-2.225838 -0.079494 20.782804 212 212 212 0
-2.155202 -0.079822 20.868576 212 212 212 0
-2.062689 -0.079334 20.740962 212 212 212 0
-1.976375 -0.079055 20.667971 212 212 212 0
-1.897977 -0.079082 20.675133 212 212 212 0
-1.819720 -0.079118 20.684511 212 212 212 0
-1.743594 -0.079254 20.720076 212 212 212 0
-1.668955 -0.079474 20.777525 212 212 212 0
-1.590305 -0.079515 20.788301 213 213 213 0
-1.508674 -0.079404 20.759182 213 213 213 0
-1.431388 -0.079522 20.789955 212 212 212 0
-1.355039 -0.079708 20.838736 213 213 213 0
-1.276819 -0.079801 20.863064 213 213 213 0
-1.195799 -0.079720 20.841815 213 213 213 0
-1.117196 -0.079800 20.862665 213 213 213 0
-1.038262 -0.079866 20.880076 213 213 213 0
-0.959980 -0.079998 20.914606 213 213 213 0
-0.880511 -0.080046 20.927179 213 213 213 0
-0.801633 -0.080163 20.957737 213 213 213 0
-0.722902 -0.080322 20.999335 213 213 213 0
-0.644377 -0.080547 21.058085 213 213 213 0
-0.563387 -0.080484 21.041535 214 214 214 0
-0.482163 -0.080361 21.009299 214 214 214 0
-0.401088 -0.080218 20.971897 213 213 213 0
-0.321273 -0.080318 20.998243 214 214 214 0
-0.242029 -0.080676 21.091810 214 214 214 0
-0.160641 -0.080321 20.998855 214 214 214 0
-0.080254 -0.080254 20.981548 214 214 214 0
0.000000 -0.080107 20.942882 214 214 214 0
0.079967 -0.079967 20.906296 214 214 214 0
0.160202 -0.080101 20.941481 214 214 214 0
0.241008 -0.080336 21.002908 214 214 214 0
0.321912 -0.080478 21.039978 214 214 214 0
0.401954 -0.080391 21.017195 214 214 214 0
0.481312 -0.080219 20.972195 214 214 214 0
0.562682 -0.080383 21.015198 214 214 214 0
0.644018 -0.080502 21.046356 214 214 214 0
0.725403 -0.080600 21.071988 214 214 214 0
0.807346 -0.080735 21.107077 214 214 214 0
0.886633 -0.080603 21.072671 214 214 214 0
0.967827 -0.080652 21.085566 214 214 214 0
1.047609 -0.080585 21.068054 215 215 215 0
1.132874 -0.080920 21.155443 214 214 214 0
1.217198 -0.081147 21.214786 214 214 214 0
1.298110 -0.081132 21.210942 215 215 215 0
1.374832 -0.080872 21.143131 215 215 215 0
1.453454 -0.080747 21.110436 214 214 214 0
1.536882 -0.080889 21.147326 215 215 215 0
1.624645 -0.081232 21.237187 215 215 215 0
1.701865 -0.081041 21.187243 215 215 215 0
1.780132 -0.080915 21.154270 215 215 215 0
1.856959 -0.080737 21.107800 215 215 215 0
1.933735 -0.080572 21.064649 214 214 214 0
2.015333 -0.080613 21.075380 216 216 216 0
2.105632 -0.080986 21.172773 215 215 215 0
2.188375 -0.081051 21.189786 215 215 215 0
2.267105 -0.080968 21.168115 215 215 215 0
2.344410 -0.080842 21.135095 215 215 215 0
2.429786 -0.080993 21.174604 214 214 214 0
2.513020 -0.081065 21.193504 216 216 216 0
2.592865 -0.081027 21.183536 216 216 216 0
2.672587 -0.080987 21.173201 215 215 215 0
2.753642 -0.080989 21.173721 215 215 215 0
2.836007 -0.081029 21.183990 216 216 216 0
2.920577 -0.081127 21.209710 215 215 215 0
3.008124 -0.081301 21.255070 215 215 215 0
3.092403 -0.081379 21.275563 216 216 216 0
3.174953 -0.081409 21.283409 215 215 215 0
3.250788 -0.081270 21.246983 216 216 216 0
3.333314 -0.081300 21.254990 215 215 215 0
3.410682 -0.081207 21.230513 216 216 216 0
3.496271 -0.081309 21.257158 215 215 215 0
3.584860 -0.081474 21.300413 216 216 216 0
3.657933 -0.081287 21.251608 216 216 216 0
3.731711 -0.081124 21.208928 215 215 215 0
3.809789 -0.081059 21.191982 215 215 215 0
3.889657 -0.081035 21.185494 216 216 216 0
3.981186 -0.081249 21.241490 216 216 216 0
4.063394 -0.081268 21.246503 216 216 216 0
4.141748 -0.081211 21.231567 216 216 216 0
4.222651 -0.081205 21.230019 216 216 216 0
4.301813 -0.081166 21.219943 216 216 216 0
4.388432 -0.081267 21.246344 216 216 216 0
4.472237 -0.081313 21.258407 215 215 215 0
4.556393 -0.081364 21.271678 216 216 216 0
4.637224 -0.081355 21.269232 217 217 217 0
4.720179 -0.081382 21.276446 216 216 216 0
4.800135 -0.081358 21.270122 216 216 216 0
4.888651 -0.081478 21.301313 216 216 216 0
4.978688 -0.081618 21.337995 216 216 216 0
5.065885 -0.081708 21.361521 217 217 217 0
5.138249 -0.081560 21.322748 216 216 216 0
5.213562 -0.081462 21.297229 217 217 217 0
5.297444 -0.081499 21.306963 216 216 216 0
5.395872 -0.081756 21.374023 216 216 216 0
5.471327 -0.081662 21.349438 217 217 217 0
5.544439 -0.081536 21.316566 217 217 217 0
5.613803 -0.081359 21.270450 216 216 216 0
5.688011 -0.081257 21.243739 217 217 217 0
5.770541 -0.081275 21.248425 216 216 216 0
5.866630 -0.081481 21.302216 217 217 217 0
5.953374 -0.081553 21.321065 217 217 217 0
6.026444 -0.081438 21.291094 217 217 217 0
6.104652 -0.081395 21.279832 217 217 217 0
6.192294 -0.081478 21.301322 217 217 217 0
6.276891 -0.081518 21.311912 217 217 217 0
6.361687 -0.081560 21.322899 217 217 217 0
6.449354 -0.081637 21.343108 217 217 217 0
-10.713096 0.000000 35.010118 209 209 209 0
-10.579041 0.000000 35.009650 209 209 209 0
-10.445178 0.000000 35.009812 210 210 210 0
-5.694202 0.000000 19.333511 209 209 209 0
-5.586878 0.000000 19.218706 209 209 209 0
-5.492370 0.000000 19.145515 209 209 209 0
-5.434418 0.000000 19.199499 209 209 209 0
-5.371869 0.000000 19.238497 209 209 209 0
-5.289253 0.000000 19.205712 209 209 209 0
-5.275689 0.000000 19.426269 210 210 210 0
-5.220793 0.000000 19.498760 210 210 210 0
-5.176069 0.000000 19.611894 210 210 210 0
-5.105347 0.000000 19.628400 210 210 210 0
-5.031048 0.000000 19.631441 210 210 210 0
-4.973729 0.000000 19.701839 210 210 210 0
-4.904136 0.000000 19.725032 209 209 209 0
-4.855315 0.000000 19.833804 210 210 210 0
-4.802255 0.000000 19.928437 210 210 210 0
-4.752054 0.000000 20.038178 210 210 210 0
-4.663917 0.000000 19.988931 210 210 210 0
-4.579155 0.000000 19.952746 210 210 210 0
-4.537167 0.000000 20.104873 210 210 210 0
-4.505961 0.000000 20.310846 211 211 211 0
-4.450551 0.000000 20.413032 210 210 210 0
-4.352796 0.000000 20.321176 211 211 211 0
-4.248664 0.000000 20.195670 211 211 211 0
-4.150988 0.000000 20.096770 211 211 211 0
-4.092160 0.000000 20.185767 211 211 211 0
-4.061540 0.000000 20.420012 211 211 211 0
-3.982708 0.000000 20.416291 211 211 211 0
-3.891419 0.000000 20.347289 211 211 211 0
-3.792400 0.000000 20.234225 211 211 211 0
-3.697330 0.000000 20.137964 211 211 211 0
-3.630183 0.000000 20.192924 211 211 211 0
-3.592798 0.000000 20.419425 211 211 211 0
-3.521364 0.000000 20.458178 211 211 211 0
-3.430163 0.000000 20.381240 212 212 212 0
-3.341895 0.000000 20.318557 212 212 212 0
-3.261412 0.000000 20.301348 211 211 211 0
-3.195500 0.000000 20.376218 211 211 211 0
-3.138281 0.000000 20.511641 212 212 212 0
-3.065310 0.000000 20.548415 212 212 212 0
-2.985350 0.000000 20.539041 212 212 212 0
-2.900376 0.000000 20.493737 211 211 211 0
-2.828598 0.000000 20.541741 212 212 212 0
-2.759759 0.000000 20.614449 212 212 212 0
-2.700461 0.000000 20.764790 211 211 211 0
-2.623822 0.000000 20.786867 212 212 212 0
-2.542157 0.000000 20.769259 211 211 211 0
-2.454769 0.000000 20.702247 212 212 212 0
-2.373580 0.000000 20.684789 212 212 212 0
-2.297539 0.000000 20.712548 212 212 212 0
-2.225448 0.000000 20.779156 212 212 212 0
-2.155860 0.000000 20.874942 212 212 212 0
-2.062821 0.000000 20.742294 212 212 212 0
-1.977219 0.000000 20.676805 212 212 212 0
-1.897518 0.000000 20.670134 212 212 212 0
-1.819953 0.000000 20.687165 213 213 213 0
-1.744672 0.000000 20.732886 213 213 213 0
-1.668795 0.000000 20.775532 212 212 212 0
-1.589580 0.000000 20.778828 212 212 212 0
-1.508597 0.000000 20.758122 213 213 213 0
-1.432312 0.000000 20.803364 213 213 213 0
-1.355276 0.000000 20.842385 212 212 212 0
-1.276890 0.000000 20.864218 213 213 213 0
-1.195003 0.000000 20.827933 213 213 213 0
-1.116801 0.000000 20.855302 213 213 213 0
-1.037806 0.000000 20.870900 213 213 213 0
-0.960926 0.000000 20.935216 214 214 214 0
-0.880487 0.000000 20.926610 213 213 213 0
-0.801603 0.000000 20.956941 214 214 214 0
-0.723119 0.000000 21.005630 213 213 213 0
-0.644330 0.000000 21.056547 213 213 213 0
-0.563631 0.000000 21.050644 213 213 213 0
-0.481799 0.000000 20.993429 213 213 213 0
-0.400939 0.000000 20.964131 213 213 213 0
-0.321261 0.000000 20.997434 214 214 214 0
-0.242086 0.000000 21.096852 214 214 214 0
-0.160875 0.000000 21.029458 214 214 214 0
-0.080245 0.000000 20.979115 214 214 214 0
0.000000 0.000000 20.957875 214 214 214 0
0.079989 0.000000 20.912243 214 214 214 0
0.160140 0.000000 20.933306 213 213 213 0
0.240976 0.000000 21.000100 214 214 214 0
0.321896 0.000000 21.038963 214 214 214 0
0.401783 0.000000 21.008279 215 215 215 0
0.481653 0.000000 20.987044 214 214 214 0
0.562734 0.000000 21.017146 214 214 214 0
0.644355 0.000000 21.057350 214 214 214 0
0.725195 0.000000 21.065936 214 214 214 0
0.807122 0.000000 21.101216 215 215 215 0
0.886658 0.000000 21.073273 215 215 215 0
0.966758 0.000000 21.062269 215 215 215 0
1.047733 0.000000 21.070540 215 215 215 0
1.133606 0.000000 21.169104 215 215 215 0
1.216365 0.000000 21.200261 214 214 214 0
1.297833 0.000000 21.206416 214 214 214 0
1.375497 0.000000 21.153363 215 215 215 0
1.453104 0.000000 21.105355 215 215 215 0
1.536519 0.000000 21.142339 214 214 214 0
1.623749 0.000000 21.225478 215 215 215 0
1.701782 0.000000 21.186208 215 215 215 0
1.779894 0.000000 21.151444 214 214 214 0
1.857012 0.000000 21.108403 215 215 215 0
1.933499 0.000000 21.062077 215 215 215 0
2.015966 0.000000 21.081997 215 215 215 0
2.105425 0.000000 21.170685 215 215 215 0
2.188155 0.000000 21.187657 214 214 214 0
2.266742 0.000000 21.164729 215 215 215 0
2.344334 0.000000 21.134411 215 215 215 0
2.429128 0.000000 21.168871 215 215 215 0
2.512481 0.000000 21.188958 215 215 215 0
2.594084 0.000000 21.193497 215 215 215 0
2.674025 0.000000 21.184590 215 215 215 0
2.754551 0.000000 21.180710 215 215 215 0
2.837787 0.000000 21.197288 216 216 216 0
2.920110 0.000000 21.206318 216 216 216 0
3.008922 0.000000 21.260708 215 215 215 0
3.092588 0.000000 21.276837 215 215 215 0
3.174209 0.000000 21.278427 216 216 216 0
3.252919 0.000000 21.260908 215 215 215 0
3.333479 0.000000 21.256043 216 216 216 0
3.410826 0.000000 21.231409 216 216 216 0
3.495508 0.000000 21.252521 215 215 215 0
3.585898 0.000000 21.306583 215 215 215 0
3.658180 0.000000 21.253040 216 216 216 0
3.730915 0.000000 21.204406 216 216 216 0
3.811052 0.000000 21.199009 215 215 215 0
3.890402 0.000000 21.189552 216 216 216 0
3.980641 0.000000 21.238580 216 216 216 0
4.063177 0.000000 21.245372 216 216 216 0
4.141437 0.000000 21.229972 216 216 216 0
4.224178 0.000000 21.237699 217 217 217 0
4.302139 0.000000 21.221549 216 216 216 0
4.388497 0.000000 21.246659 217 217 217 0
4.471431 0.000000 21.254573 216 216 216 0
4.556689 0.000000 21.273059 216 216 216 0
4.635733 0.000000 21.262394 216 216 216 0
4.719373 0.000000 21.272809 216 216 216 0
4.799481 0.000000 21.267226 216 216 216 0
4.889280 0.000000 21.304051 217 217 217 0
4.978467 0.000000 21.337050 217 217 217 0
5.066230 0.000000 21.362979 216 216 216 0
5.139212 0.000000 21.326745 216 216 216 0
5.213249 0.000000 21.295951 216 216 216 0
5.298310 0.000000 21.310446 217 217 217 0
5.397060 0.000000 21.378728 216 216 216 0
5.468933 0.000000 21.340095 217 217 217 0
5.544052 0.000000 21.315079 217 217 217 0
5.613515 0.000000 21.269355 217 217 217 0
5.686827 0.000000 21.239318 217 217 217 0
5.769575 0.000000 21.244869 217 217 217 0
5.866547 0.000000 21.301913 216 216 216 0
5.952670 0.000000 21.318542 217 217 217 0
6.026696 0.000000 21.291984 217 217 217 0
6.101352 0.000000 21.268329 217 217 217 0
6.190028 0.000000 21.293524 217 217 217 0
6.275512 0.000000 21.307229 217 217 217 0
6.361561 0.000000 21.322478 217 217 217 0
6.449145 0.000000 21.342418 217 217 217 0
-10.713100 0.133914 35.010131 209 209 209 0
-10.579040 0.133912 35.009646 209 209 209 0
-10.445189 0.133913 35.009850 209 209 209 0
-5.696461 0.073980 19.341179 209 209 209 0
-5.580982 0.073434 19.198424 209 209 209 0
-5.499617 0.073328 19.170778 209 209 209 0
-5.421618 0.073265 19.154277 209 209 209 0
-5.372195 0.073592 19.239662 209 209 209 0
-5.295036 0.073542 19.226709 209 209 209 0
-5.283161 0.074411 19.453782 210 210 210 0
-5.229682 0.074710 19.531958 209 209 209 0
-5.175867 0.075013 19.611130 210 210 210 0
-5.108711 0.075128 19.641333 210 210 210 0
-5.036254 0.075168 19.651757 210 210 210 0
-4.973705 0.075359 19.701741 210 210 210 0
-4.898603 0.075363 19.702778 210 210 210 0
-4.841838 0.075654 19.778749 210 210 210 0
-4.810539 0.076358 19.962813 210 210 210 0
-4.750783 0.076626 20.032818 210 210 210 0
-4.667128 0.076510 20.002692 210 210 210 0
-4.582649 0.076377 19.967969 211 211 211 0
-4.537341 0.076904 20.105644 210 210 210 0
-4.493094 0.077467 20.252845 211 211 211 0
-4.448751 0.078048 20.404777 210 210 210 0
-4.351221 0.077700 20.313824 210 210 210 0
-4.243332 0.077151 20.170326 210 210 210 0
-4.150795 0.076867 20.095836 210 210 210 0
-4.093420 0.077234 20.191984 211 211 211 0
-4.065821 0.078189 20.441533 211 211 211 0
-3.988426 0.078204 20.445605 211 211 211 0
-3.893469 0.077869 20.358006 211 211 211 0
-3.792725 0.077403 20.235963 211 211 211 0
-3.698238 0.077047 20.142911 211 211 211 0
-3.628730 0.077207 20.184841 211 211 211 0
-3.599314 0.078246 20.456459 211 211 211 0
-3.523204 0.078293 20.468866 211 211 211 0
-3.429364 0.077940 20.376493 211 211 211 0
-3.343001 0.077744 20.325283 211 211 211 0
-3.263391 0.077700 20.313671 211 211 211 0
-3.197242 0.077982 20.387325 211 211 211 0
-3.137330 0.078433 20.505423 211 211 211 0
-3.062562 0.078527 20.529997 212 212 212 0
-2.983740 0.078519 20.527968 212 212 212 0
-2.899274 0.078359 20.485952 212 212 212 0
-2.831451 0.078651 20.562462 212 212 212 0
-2.759646 0.078847 20.613603 212 212 212 0
-2.698876 0.079379 20.752604 211 211 211 0
-2.623318 0.079494 20.782872 212 212 212 0
-2.539385 0.079356 20.746612 212 212 212 0
-2.456292 0.079235 20.715089 212 212 212 0
-2.372864 0.079095 20.678555 213 213 213 0
-2.296965 0.079206 20.707367 213 213 213 0
-2.225967 0.079499 20.784001 212 212 212 0
-2.155405 0.079830 20.870544 212 212 212 0
-2.063369 0.079360 20.747798 213 213 213 0
-1.977883 0.079115 20.683745 213 213 213 0
-1.897030 0.079043 20.664816 213 213 213 0
-1.819828 0.079123 20.685744 213 213 213 0
-1.744358 0.079289 20.729147 213 213 213 0
-1.668023 0.079430 20.765926 213 213 213 0
-1.589650 0.079483 20.779739 213 213 213 0
-1.507884 0.079362 20.748322 212 212 212 0
-1.431548 0.079530 20.792275 213 213 213 0
-1.355523 0.079737 20.846184 213 213 213 0
-1.275936 0.079746 20.848624 213 213 213 0
-1.195841 0.079723 20.842541 213 213 213 0
-1.117612 0.079829 20.870448 213 213 213 0
-1.038215 0.079863 20.879145 213 213 213 0
-0.960255 0.080021 20.920598 213 213 213 0
-0.880900 0.080082 20.936426 213 213 213 0
-0.801610 0.080161 20.957121 213 213 213 0
-0.723203 0.080356 21.008076 213 213 213 0
-0.644683 0.080585 21.068086 213 213 213 0
-0.563444 0.080492 21.043664 214 214 214 0
-0.482043 0.080340 21.004041 214 214 214 0
-0.400910 0.080182 20.962608 214 214 214 0
-0.321245 0.080311 20.996409 213 213 213 0
-0.242033 0.080678 21.092187 214 214 214 0
-0.160869 0.080435 21.028640 214 214 214 0
-0.080287 0.080287 20.990030 213 213 213 0
0.000000 0.080182 20.962553 214 214 214 0
0.080037 0.080037 20.924648 214 214 214 0
0.160227 0.080113 20.944662 214 214 214 0
0.241038 0.080346 21.005454 213 213 213 0
0.322048 0.080512 21.048863 215 215 215 0
0.401992 0.080398 21.019198 214 214 214 0
0.481683 0.080280 20.988352 215 215 215 0
0.562772 0.080396 21.018566 214 214 214 0
0.644107 0.080513 21.049249 215 215 215 0
0.725600 0.080622 21.077709 215 215 215 0
0.807333 0.080733 21.106742 215 215 215 0
0.886450 0.080586 21.068341 215 215 215 0
0.967593 0.080633 21.080463 215 215 215 0
1.047838 0.080603 21.072661 215 215 215 0
1.132967 0.080926 21.157178 214 214 214 0
1.216457 0.081097 21.201857 214 214 214 0
1.297956 0.081122 21.208433 215 215 215 0
1.375150 0.080891 21.148024 215 215 215 0
1.453788 0.080766 21.115295 214 214 214 0
1.537515 0.080922 21.156032 215 215 215 0
1.623741 0.081187 21.225375 215 215 215 0
1.702054 0.081050 21.189589 215 215 215 0
1.779399 0.080882 21.145561 214 214 214 0
1.855620 0.080679 21.092582 214 214 214 0
1.933077 0.080545 21.057488 215 215 215 0
2.015422 0.080617 21.076306 215 215 215 0
2.105191 0.080969 21.168340 215 215 215 0
2.188530 0.081057 21.191286 215 215 215 0
2.266658 0.080952 21.163938 216 216 216 0
2.343186 0.080800 21.124055 215 215 215 0
2.428198 0.080940 21.160765 215 215 215 0
2.512910 0.081062 21.192581 215 215 215 0
2.593707 0.081053 21.190414 215 215 215 0
2.675743 0.081083 21.198203 215 215 215 0
2.756245 0.081066 21.193736 216 216 216 0
2.837448 0.081070 21.194756 216 216 216 0
2.919886 0.081108 21.204692 215 215 215 0
3.007996 0.081297 21.254168 215 215 215 0
3.092706 0.081387 21.277646 216 216 216 0
3.174857 0.081407 21.282766 216 216 216 0
3.252723 0.081318 21.259630 216 216 216 0
3.332472 0.081280 21.249623 216 216 216 0
3.412179 0.081242 21.239832 216 216 216 0
3.496668 0.081318 21.259572 216 216 216 0
3.585866 0.081497 21.306392 216 216 216 0
3.658079 0.081291 21.252456 215 215 215 0
3.731070 0.081110 21.205286 216 216 216 0
3.810321 0.081071 21.194944 216 216 216 0
3.890281 0.081048 21.188894 216 216 216 0
3.979284 0.081210 21.231341 216 216 216 0
4.063144 0.081263 21.245197 216 216 216 0
4.140975 0.081196 21.227605 216 216 216 0
4.223130 0.081214 21.232430 216 216 216 0
4.302440 0.081178 21.223035 216 216 216 0
4.387305 0.081246 21.240887 216 216 216 0
4.471265 0.081296 21.253784 216 216 216 0
4.555844 0.081354 21.269112 216 216 216 0
4.638648 0.081380 21.275761 217 217 217 0
4.720852 0.081394 21.279478 217 217 217 0
4.800155 0.081359 21.270213 216 216 216 0
4.888047 0.081467 21.298681 216 216 216 0
4.978139 0.081609 21.335644 217 217 217 0
5.067432 0.081733 21.368047 217 217 217 0
5.139014 0.081572 21.325923 216 216 216 0
5.213310 0.081458 21.296201 216 216 216 0
5.297294 0.081497 21.306359 216 216 216 0
5.395128 0.081744 21.371074 216 216 216 0
5.470725 0.081653 21.347087 216 216 216 0
5.541731 0.081496 21.306155 217 217 217 0
5.614556 0.081370 21.273300 216 216 216 0
5.686104 0.081230 21.236615 217 217 217 0
5.772226 0.081299 21.254629 216 216 216 0
5.866787 0.081483 21.302784 217 217 217 0
5.952587 0.081542 21.318247 217 217 217 0
6.026165 0.081435 21.290108 217 217 217 0
6.101777 0.081357 21.269812 217 217 217 0
6.192072 0.081475 21.300557 217 217 217 0
6.275760 0.081503 21.308073 217 217 217 0
6.359934 0.081538 21.317023 217 217 217 0
6.450033 0.081646 21.345356 216 216 216 0
-10.713103 0.267828 35.010142 209 209 209 0
-10.579031 0.267824 35.009618 209 209 209 0
-10.445183 0.267825 35.009829 209 209 209 0
-5.696562 0.147963 19.341522 209 209 209 0
-5.583832 0.146943 19.208228 209 209 209 0
-5.500726 0.146686 19.174642 209 209 209 0
-5.433064 0.146840 19.194715 210 210 210 0
-5.369116 0.147099 19.228637 209 209 209 0
-5.295212 0.147089 19.227349 209 209 209 0
-5.282820 0.148812 19.452528 210 210 210 0
-5.229130 0.149404 19.529897 209 209 209 0
-5.182458 0.150216 19.636100 210 210 210 0
-5.111390 0.150335 19.651635 209 209 209 0
-5.041104 0.150481 19.670681 210 210 210 0
-4.981555 0.150956 19.732838 209 209 209 0
-4.902102 0.150834 19.716852 210 210 210 0
-4.857064 0.151783 19.840949 210 210 210 0
-4.812853 0.152789 19.972416 210 210 210 0
-4.742298 0.152977 19.997039 210 210 210 0
-4.664860 0.152946 19.992969 211 211 211 0
-4.581992 0.152733 19.965107 210 210 210 0
-4.539919 0.153896 20.117067 210 210 210 0
-4.497843 0.155098 20.274255 210 210 210 0
-4.449120 0.156109 20.406466 211 211 211 0
-4.352169 0.155435 20.318251 211 211 211 0
-4.247723 0.154463 20.191196 211 211 211 0
-4.149882 0.153699 20.091416 211 211 211 0
-4.089914 0.154336 20.174691 211 211 211 0
-4.068961 0.156498 20.457320 211 211 211 0
-3.980424 0.156095 20.404583 211 211 211 0
-3.889525 0.155581 20.337387 211 211 211 0
-3.792449 0.154794 20.234486 210 210 210 0
-3.700581 0.154191 20.155668 211 211 211 0
-3.630295 0.154481 20.193546 211 211 211 0
-3.594227 0.156271 20.427547 211 211 211 0
-3.525195 0.156675 20.480437 211 211 211 0
-3.431449 0.155975 20.388882 211 211 211 0
-3.343132 0.155495 20.326080 211 211 211 0
-3.259760 0.155227 20.291066 211 211 211 0
-3.199208 0.156059 20.399861 211 211 211 0
-3.140369 0.157018 20.525287 212 212 212 0
-3.063816 0.157119 20.538400 211 211 211 0
-2.986567 0.157188 20.547419 212 212 212 0
-2.900708 0.156795 20.496084 211 211 211 0
-2.831116 0.157284 20.560031 212 212 212 0
-2.762073 0.157833 20.631733 212 212 212 0
-2.701075 0.158887 20.769510 212 212 212 0
-2.624783 0.159078 20.794480 212 212 212 0
-2.540711 0.158794 20.757440 212 212 212 0
-2.454227 0.158337 20.697681 212 212 212 0
-2.373326 0.158222 20.682582 212 212 212 0
-2.297641 0.158458 20.713463 212 212 212 0
-2.225687 0.158978 20.781387 212 212 212 0
-2.154488 0.159592 20.861664 212 212 212 0
-2.062695 0.158669 20.741029 213 213 213 0
-1.977335 0.158187 20.678016 213 213 213 0
-1.897157 0.158096 20.666203 213 213 213 0
-1.820651 0.158317 20.695097 212 212 212 0
-1.743855 0.158532 20.723170 212 212 212 0
-1.667558 0.158815 20.760133 213 213 213 0
-1.588507 0.158851 20.764791 213 213 213 0
-1.508149 0.158752 20.751957 212 212 212 0
-1.432143 0.159127 20.800918 213 213 213 0
-1.356521 0.159591 20.861528 213 213 213 0
-1.276330 0.159541 20.855066 213 213 213 0
-1.195993 0.159466 20.845195 213 213 213 0
-1.118244 0.159749 20.882239 213 213 213 0
-1.037816 0.159664 20.871109 213 213 213 0
-0.959923 0.159987 20.913358 213 213 213 0
-0.880296 0.160054 20.922056 213 213 213 0
-0.801327 0.160265 20.949725 213 213 213 0
-0.723186 0.160708 21.007567 214 214 214 0
-0.643935 0.160984 21.043628 214 214 214 0
-0.563739 0.161068 21.054675 213 213 213 0
-0.481757 0.160586 20.991598 213 213 213 0
-0.400893 0.160357 20.961727 213 213 213 0
-0.321208 0.160604 20.993957 213 213 213 0
-0.242270 0.161513 21.112847 214 214 214 0
-0.160930 0.160930 21.036570 214 214 214 0
-0.080319 0.160639 20.998531 214 214 214 0
0.000000 0.160417 20.969549 214 214 214 0
0.080039 0.160079 20.925308 215 215 215 0
0.160178 0.160178 20.938273 214 214 214 0
0.241055 0.160704 21.006994 214 214 214 0
0.321917 0.160958 21.040302 214 214 214 0
0.401853 0.160741 21.011923 214 214 214 0
0.481898 0.160633 20.997751 214 214 214 0
0.562836 0.160810 21.020965 214 214 214 0
0.644372 0.161093 21.057904 214 214 214 0
0.726155 0.161368 21.093839 215 215 215 0
0.806669 0.161334 21.089398 214 214 214 0
0.886546 0.161190 21.070617 215 215 215 0
0.966728 0.161121 21.061609 214 214 214 0
1.048302 0.161277 21.081987 214 214 214 0
1.133100 0.161871 21.159661 214 214 214 0
1.216386 0.162185 21.200621 214 214 214 0
1.297723 0.162215 21.204619 215 215 215 0
1.374898 0.161753 21.144145 214 214 214 0
1.453347 0.161483 21.108892 215 215 215 0
1.538067 0.161902 21.163630 215 215 215 0
1.623457 0.162346 21.221664 214 214 214 0
1.701653 0.162062 21.184606 215 215 215 0
1.779866 0.161806 21.151114 215 215 215 0
1.856290 0.161417 21.100201 215 215 215 0
1.933933 0.161161 21.066806 215 215 215 0
2.015167 0.161213 21.073638 215 215 215 0
2.105038 0.161926 21.166802 216 216 216 0
2.187400 0.162030 21.180346 215 215 215 0
2.266587 0.161899 21.163276 215 215 215 0
2.343295 0.161607 21.125043 215 215 215 0
2.428231 0.161882 21.161058 215 215 215 0
2.512332 0.162086 21.187704 215 215 215 0
2.593979 0.162124 21.192638 215 215 215 0
2.675628 0.162159 21.197292 215 215 215 0
2.754871 0.162051 21.183166 215 215 215 0
2.837851 0.162163 21.197769 215 215 215 0
2.919716 0.162206 21.203459 215 215 215 0
3.007866 0.162587 21.253248 215 215 215 0
3.092855 0.162782 21.278676 216 216 216 0
3.175255 0.162834 21.285436 216 216 216 0
3.251051 0.162553 21.248702 216 216 216 0
3.334053 0.162637 21.259705 215 215 215 0
3.410583 0.162409 21.229898 215 215 215 0
3.496570 0.162631 21.258976 216 216 216 0
3.585512 0.162978 21.304292 216 216 216 0
3.657314 0.162547 21.248010 215 215 215 0
3.731523 0.162240 21.207859 216 216 216 0
3.810540 0.162151 21.196159 216 216 216 0
3.890353 0.162098 21.189285 216 216 216 0
3.979635 0.162434 21.233215 216 216 216 0
4.063979 0.162559 21.249561 216 216 216 0
4.141000 0.162392 21.227732 216 216 216 0
4.222666 0.162410 21.230096 216 216 216 0
4.301735 0.162330 21.219561 216 216 216 0
4.389642 0.162579 21.252199 216 216 216 0
4.471655 0.162606 21.255637 217 217 217 0
4.558446 0.162802 21.281260 216 216 216 0
4.638586 0.162757 21.275477 216 216 216 0
4.718903 0.162721 21.270692 216 216 216 0
4.800232 0.162720 21.270553 216 216 216 0
4.888926 0.162964 21.302511 216 216 216 0
4.978822 0.163240 21.338571 216 216 216 0
5.066120 0.163423 21.362515 216 216 216 0
5.138836 0.163138 21.325185 217 217 217 0
5.213502 0.162922 21.296985 216 216 216 0
5.300625 0.163096 21.319758 217 217 217 0
5.397052 0.163547 21.378696 216 216 216 0
5.469822 0.163278 21.343565 216 216 216 0
5.541669 0.162990 21.305918 216 216 216 0
5.614389 0.162736 21.272668 217 217 217 0
5.686544 0.162473 21.238260 217 217 217 0
5.770090 0.162538 21.246765 217 217 217 0
5.864468 0.162902 21.294363 217 217 217 0
5.953284 0.163104 21.320743 217 217 217 0
6.026041 0.162866 21.289668 217 217 217 0
6.103084 0.162749 21.274366 217 217 217 0
6.190717 0.162914 21.295897 217 217 217 0
6.274655 0.162978 21.304322 217 217 217 0
6.360531 0.163091 21.319023 216 216 216 0
6.449574 0.163280 21.343836 216 216 216 0
-10.713104 0.401741 35.010143 209 209 209 0
-10.579044 0.401736 35.009659 209 209 209 0
-10.445176 0.401738 35.009807 209 209 209 0
-5.693361 0.221819 19.330656 209 209 209 0
-5.583133 0.220387 19.205825 209 209 209 0
-5.500292 0.220012 19.173131 209 209 209 0
-5.437620 0.220444 19.210812 209 209 209 0
-5.366740 0.220551 19.220126 210 210 210 0
-5.289358 0.220390 19.206093 210 210 210 0
-5.281012 0.223141 19.445871 209 209 209 0
-5.228707 0.224087 19.528317 210 210 210 0
-5.176037 0.225045 19.611773 210 210 210 0
-5.104179 0.225184 19.623909 210 210 210 0
-5.038478 0.225604 19.660437 210 210 210 0
-4.972570 0.226026 19.697247 210 210 210 0
-4.899464 0.226129 19.706239 210 210 210 0
-4.851630 0.227420 19.818749 210 210 210 0
-4.808497 0.228976 19.954341 210 210 210 0
-4.748916 0.229786 20.024944 211 211 211 0
-4.661439 0.229251 19.978310 210 210 210 0
-4.578886 0.228944 19.951571 210 210 210 0
-4.537516 0.230721 20.106420 210 210 210 0
-4.496083 0.232556 20.266321 211 211 211 0
-4.441753 0.233776 20.372677 211 211 211 0
-4.349864 0.233028 20.307487 211 211 211 0
-4.247354 0.231674 20.189443 210 210 210 0
-4.148476 0.230471 20.084609 211 211 211 0
-4.089050 0.231456 20.170426 211 211 211 0
-4.062155 0.234355 20.423103 211 211 211 0
-3.977056 0.233944 20.387318 211 211 211 0
-3.887157 0.233229 20.325005 212 212 212 0
-3.792577 0.232199 20.235174 211 211 211 0
-3.698241 0.231140 20.142927 211 211 211 0
-3.628526 0.231608 20.183708 212 212 212 0
-3.593598 0.234365 20.423974 212 212 212 0
-3.527610 0.235174 20.494468 212 212 212 0
-3.434667 0.234182 20.408001 211 211 211 0
-3.341700 0.233142 20.317373 212 212 212 0
-3.263584 0.233113 20.314870 211 211 211 0
-3.199965 0.234144 20.404685 212 212 212 0
-3.144153 0.235812 20.550023 211 211 211 0
-3.064879 0.235760 20.545524 211 211 211 0
-2.986238 0.235756 20.545152 212 212 212 0
-2.901589 0.235264 20.502304 212 212 212 0
-2.831086 0.235924 20.559811 212 212 212 0
-2.760783 0.236639 20.622095 212 212 212 0
-2.701269 0.238347 20.771004 212 212 212 0
-2.625236 0.238658 20.798063 212 212 212 0
-2.543306 0.238435 20.778645 212 212 212 0
-2.456864 0.237761 20.719913 212 212 212 0
-2.373788 0.237379 20.686610 213 213 213 0
-2.297554 0.237678 20.712681 212 212 212 0
-2.224534 0.238343 20.770629 212 212 212 0
-2.156287 0.239587 20.879082 213 213 213 0
-2.063132 0.238054 20.745425 212 212 212 0
-1.976909 0.237229 20.673563 212 212 212 0
-1.895740 0.236967 20.650761 213 213 213 0
-1.819755 0.237359 20.684905 212 212 212 0
-1.744518 0.237889 20.731053 213 213 213 0
-1.668407 0.238344 20.770706 212 212 212 0
-1.589797 0.238469 20.781655 212 212 212 0
-1.507403 0.238011 20.741694 213 213 213 0
-1.431936 0.238656 20.797910 213 213 213 0
-1.356065 0.239306 20.854516 213 213 213 0
-1.276861 0.239411 20.863742 213 213 213 0
-1.196230 0.239246 20.849320 213 213 213 0
-1.118285 0.239633 20.883012 214 214 214 0
-1.038222 0.239590 20.879280 213 213 213 0
-0.959566 0.239892 20.905588 213 213 213 0
-0.880984 0.240268 20.938419 214 214 214 0
-0.801350 0.240405 20.950332 214 214 214 0
-0.723275 0.241092 21.010160 213 213 213 0
-0.644681 0.241756 21.068020 214 214 214 0
-0.563500 0.241500 21.045734 213 213 213 0
-0.481995 0.240998 21.001973 214 214 214 0
-0.401083 0.240650 20.971659 214 214 214 0
-0.321127 0.240845 20.988687 213 213 213 0
-0.242070 0.242070 21.095443 214 214 214 0
-0.160796 0.241194 21.019043 214 214 214 0
-0.080341 0.241022 21.004132 214 214 214 0
0.000000 0.240594 20.966805 214 214 214 0
0.080036 0.240107 20.924398 214 214 214 0
0.160250 0.240375 20.947719 213 213 213 0
0.241112 0.241112 21.011978 213 213 213 0
0.321887 0.241415 21.038362 214 214 214 0
0.401973 0.241184 21.018220 214 214 214 0
0.481753 0.240877 20.991419 214 214 214 0
0.562835 0.241215 21.020907 214 214 214 0
0.644030 0.241511 21.046720 214 214 214 0
0.725592 0.241864 21.077460 214 214 214 0
0.807349 0.242205 21.107175 215 215 215 0
0.886614 0.241804 21.072238 214 214 214 0
0.967444 0.241861 21.077203 215 215 215 0
1.047982 0.241842 21.075557 215 215 215 0
1.132484 0.242675 21.148162 215 215 215 0
1.216481 0.243296 21.202279 215 215 215 0
1.297853 0.243347 21.206743 214 214 214 0
1.375237 0.242689 21.149358 215 215 215 0
1.453625 0.242271 21.112924 215 215 215 0
1.537740 0.242801 21.159136 215 215 215 0
1.623188 0.243478 21.218145 215 215 215 0
1.701789 0.243113 21.186292 215 215 215 0
1.779925 0.242717 21.151813 215 215 215 0
1.856299 0.242126 21.100300 215 215 215 0
1.933434 0.241679 21.061371 215 215 215 0
2.014875 0.241785 21.070591 215 215 215 0
2.105714 0.242967 21.173591 215 215 215 0
2.188043 0.243116 21.186571 215 215 215 0
2.265416 0.242723 21.152342 216 216 216 0
2.344403 0.242524 21.135028 215 215 215 0
2.429084 0.242908 21.168487 215 215 215 0
2.512155 0.243112 21.186208 215 215 215 0
2.594480 0.243233 21.196736 216 216 216 0
2.675229 0.243203 21.194126 216 216 216 0
2.754584 0.243052 21.180960 216 216 216 0
2.838590 0.243308 21.203289 215 215 215 0
2.920482 0.243374 21.209022 215 215 215 0
3.010060 0.244059 21.268749 216 216 216 0
3.092211 0.244122 21.274241 215 215 215 0
3.175723 0.244286 21.288572 215 215 215 0
3.252626 0.243947 21.258993 216 216 216 0
3.333029 0.243880 21.253173 215 215 215 0
3.410119 0.243580 21.227008 216 216 216 0
3.497102 0.243984 21.262208 215 215 215 0
3.584229 0.244379 21.296666 215 215 215 0
3.659215 0.243948 21.259057 216 216 216 0
3.731233 0.243341 21.206212 216 216 216 0
3.812525 0.243353 21.207203 216 216 216 0
3.889894 0.243118 21.186788 216 216 216 0
3.979101 0.243618 21.230363 216 216 216 0
4.064312 0.243859 21.251307 217 217 217 0
4.141374 0.243610 21.229651 216 216 216 0
4.223756 0.243678 21.235576 215 215 215 0
4.303613 0.243601 21.228820 217 217 217 0
4.387027 0.243724 21.239541 217 217 217 0
4.469824 0.243809 21.246937 216 216 216 0
4.558703 0.244216 21.282463 217 217 217 0
4.636475 0.244025 21.265794 216 216 216 0
4.719933 0.244134 21.275334 217 217 217 0
4.800371 0.244087 21.271168 216 216 216 0
4.887960 0.244398 21.298302 216 216 216 0
4.978977 0.244868 21.339236 216 216 216 0
5.066300 0.245144 21.363271 217 217 217 0
5.139487 0.244737 21.327886 217 217 217 0
5.212566 0.244339 21.293161 217 217 217 0
5.299195 0.244578 21.314008 217 217 217 0
5.397124 0.245324 21.378983 216 216 216 0
5.470169 0.244933 21.344918 216 216 216 0
5.541988 0.244499 21.307142 217 217 217 0
5.613226 0.244053 21.268260 217 217 217 0
5.686916 0.243725 21.239648 217 217 217 0
5.768650 0.243746 21.241462 217 217 217 0
5.865382 0.244391 21.297682 217 217 217 0
5.953355 0.244658 21.320994 217 217 217 0
6.026395 0.244313 21.290919 217 217 217 0
6.104572 0.244183 21.279554 216 216 216 0
6.190718 0.244370 21.295899 217 217 217 0
6.274791 0.244472 21.304781 217 217 217 0
6.361491 0.244673 21.322243 217 217 217 0
6.450340 0.244950 21.346372 217 217 217 0
-10.713114 0.535656 35.010175 210 210 210 0
-10.579047 0.535648 35.009670 209 209 209 0
-10.445166 0.535650 35.009775 209 209 209 0
-5.687750 0.295468 19.311604 209 209 209 0
-5.583968 0.293893 19.208697 209 209 209 0
-5.499186 0.293290 19.169276 209 209 209 0
-5.435013 0.293785 19.201601 209 209 209 0
-5.368523 0.294166 19.226512 210 210 210 0
-5.293224 0.294068 19.220131 209 209 209 0
-5.280643 0.297501 19.444512 209 209 209 0
-5.225022 0.298573 19.514556 210 210 210 0
-5.174276 0.299958 19.605102 209 209 209 0
-5.109042 0.300532 19.642608 209 209 209 0
-5.031101 0.300364 19.631649 210 210 210 0
-4.973245 0.301409 19.699920 210 210 210 0
-4.899898 0.301532 19.707987 210 210 210 0
-4.851003 0.303188 19.816189 210 210 210 0
-4.807533 0.305240 19.950341 210 210 210 0
-4.743803 0.306052 20.003385 210 210 210 0
-4.663309 0.305791 19.986323 210 210 210 0
-4.578594 0.305240 19.950302 210 210 210 0
-4.532735 0.307304 20.085235 210 210 210 0
-4.497240 0.310154 20.271535 211 211 211 0
-4.441276 0.311668 20.370488 210 210 210 0
-4.353519 0.310966 20.324552 210 210 210 0
-4.246617 0.308845 20.185939 211 211 211 0
-4.150797 0.307466 20.095848 211 211 211 0
-4.092252 0.308849 20.186222 211 211 211 0
-4.067100 0.312854 20.447966 211 211 211 0
-3.974844 0.311752 20.375980 210 210 210 0
-3.890153 0.311212 20.340669 211 211 211 0
-3.795503 0.309837 20.250781 211 211 211 0
-3.700430 0.308369 20.154849 211 211 211 0
-3.628309 0.308792 20.182502 212 212 212 0
-3.594346 0.312552 20.428226 211 211 211 0
-3.527993 0.313599 20.496690 212 212 212 0
-3.436107 0.312373 20.416563 211 211 211 0
-3.344112 0.311080 20.332038 211 211 211 0
-3.265451 0.310995 20.326492 211 211 211 0
-3.201436 0.312335 20.414068 212 212 212 0
-3.139225 0.313923 20.517812 212 212 212 0
-3.066393 0.314502 20.555675 212 212 212 0
-2.987350 0.314458 20.552804 212 212 212 0
-2.903132 0.313852 20.513211 212 212 212 0
-2.831878 0.314653 20.565564 212 212 212 0
-2.762817 0.315750 20.637287 212 212 212 0
-2.699700 0.317612 20.758941 211 211 211 0
-2.624247 0.318090 20.790229 212 212 212 0
-2.542949 0.317869 20.775729 212 212 212 0
-2.454760 0.316743 20.702172 212 212 212 0
-2.373704 0.316494 20.685872 212 212 212 0
-2.298846 0.317082 20.724328 212 212 212 0
-2.226202 0.318029 20.786198 213 213 213 0
-2.155127 0.319278 20.867848 213 213 213 0
-2.063019 0.317388 20.744285 212 212 212 0
-1.976850 0.316296 20.672941 212 212 212 0
-1.896446 0.316074 20.658455 213 213 213 0
-1.820500 0.316609 20.693378 212 212 212 0
-1.744914 0.317257 20.735762 213 213 213 0
-1.669285 0.317959 20.781640 213 213 213 0
-1.589865 0.317973 20.782543 213 213 213 0
-1.509039 0.317693 20.764216 213 213 213 0
-1.430882 0.317974 20.782598 213 213 213 0
-1.355914 0.319039 20.852199 213 213 213 0
-1.277323 0.319331 20.871286 213 213 213 0
-1.195801 0.318880 20.841847 213 213 213 0
-1.117197 0.319199 20.862683 213 213 213 0
-1.038079 0.319409 20.876395 213 213 213 0
-0.961007 0.320336 20.936970 214 214 214 0
-0.880508 0.320185 20.927101 213 213 213 0
-0.801627 0.320651 20.957574 213 213 213 0
-0.722930 0.321302 21.000153 213 213 213 0
-0.644157 0.322079 21.050893 213 213 213 0
-0.563405 0.321946 21.042211 213 213 213 0
-0.481953 0.321302 21.000133 213 213 213 0
-0.400843 0.320674 20.959111 213 213 213 0
-0.321160 0.321160 20.990829 213 213 213 0
-0.242119 0.322826 21.099722 214 214 214 0
-0.160873 0.321746 21.029118 214 214 214 0
-0.080305 0.321222 20.994874 214 214 214 0
0.000000 0.320820 20.968598 214 214 214 0
0.080079 0.320317 20.935740 213 213 213 0
0.160244 0.320489 20.946979 214 214 214 0
0.240920 0.321226 20.995178 215 215 215 0
0.321898 0.321898 21.039076 215 215 215 0
0.402014 0.321611 21.020316 214 214 214 0
0.481662 0.321108 20.987457 213 213 213 0
0.562331 0.321332 21.002073 214 214 214 0
0.644113 0.322056 21.049430 214 214 214 0
0.725433 0.322415 21.072858 214 214 214 0
0.806902 0.322761 21.095487 215 215 215 0
0.886202 0.322255 21.062443 214 214 214 0
0.966789 0.322263 21.062945 214 214 214 0
1.047507 0.322310 21.065997 215 215 215 0
1.132929 0.323694 21.156469 214 214 214 0
1.216560 0.324416 21.203655 215 215 215 0
1.297538 0.324384 21.201598 215 215 215 0
1.375226 0.323583 21.149190 215 215 215 0
1.454034 0.323119 21.118870 214 214 214 0
1.537866 0.323761 21.160863 215 215 215 0
1.623464 0.324693 21.221746 214 214 214 0
1.701820 0.324156 21.186675 215 215 215 0
1.779795 0.323599 21.150270 214 214 214 0
1.856115 0.322803 21.098211 215 215 215 0
1.933693 0.322282 21.064189 215 215 215 0
2.015541 0.322487 21.077558 215 215 215 0
2.105468 0.323918 21.171123 215 215 215 0
2.187412 0.324061 21.180462 215 215 215 0
2.266436 0.323777 21.161871 215 215 215 0
2.344423 0.323369 21.135209 215 215 215 0
2.430142 0.324019 21.177705 215 215 215 0
2.513124 0.324274 21.194381 216 216 216 0
2.593850 0.324231 21.191585 215 215 215 0
2.675287 0.324277 21.194592 215 215 215 0
2.755983 0.324233 21.191719 215 215 215 0
2.837189 0.324250 21.192819 215 215 215 0
2.920654 0.324517 21.210266 216 216 216 0
3.008687 0.325263 21.259050 216 216 216 0
3.093154 0.325595 21.280726 215 215 215 0
3.176715 0.325817 21.295226 215 215 215 0
3.252170 0.325217 21.256013 216 216 216 0
3.333343 0.325204 21.255177 215 215 215 0
3.410145 0.324776 21.227170 216 216 216 0
3.496093 0.325218 21.256074 216 216 216 0
3.585469 0.325952 21.304036 216 216 216 0
3.659111 0.325254 21.258453 216 216 216 0
3.733228 0.324629 21.217552 216 216 216 0
3.811847 0.324413 21.203432 216 216 216 0
3.889870 0.324156 21.186653 216 216 216 0
3.979286 0.324840 21.231351 215 215 215 0
4.064601 0.325168 21.252816 216 216 216 0
4.142478 0.324900 21.235309 216 216 216 0
4.223279 0.324868 21.233179 217 217 217 0
4.303438 0.324788 21.227961 215 215 215 0
4.388151 0.325048 21.244980 216 216 216 0
4.470601 0.325135 21.250631 216 216 216 0
4.557442 0.325532 21.276572 216 216 216 0
4.636460 0.325366 21.265726 216 216 216 0
4.718631 0.325423 21.269468 216 216 216 0
4.800519 0.325459 21.271826 216 216 216 0
4.889399 0.325960 21.304570 216 216 216 0
4.978644 0.326468 21.337807 217 217 217 0
5.065950 0.326836 21.361798 217 217 217 0
5.138494 0.326254 21.323764 216 216 216 0
5.213379 0.325836 21.296481 216 216 216 0
5.299489 0.326122 21.315188 216 216 216 0
5.398646 0.327191 21.385010 217 217 217 0
5.471207 0.326639 21.348969 217 217 217 0
5.543970 0.326116 21.314762 217 217 217 0
5.614189 0.325460 21.271911 217 217 217 0
5.687081 0.324976 21.240265 216 216 216 0
5.770543 0.325101 21.248431 217 217 217 0
5.864512 0.325806 21.294523 216 216 216 0
5.956942 0.326408 21.333843 216 216 216 0
6.027318 0.325801 21.294181 217 217 217 0
6.104105 0.325552 21.277927 216 216 216 0
6.189855 0.325782 21.292933 216 216 216 0
6.275988 0.326025 21.308848 217 217 217 0
6.360263 0.326167 21.318127 216 216 216 0
6.448766 0.326520 21.341163 217 217 217 0
-10.713111 0.669569 35.010167 208 208 208 0
-10.579044 0.669560 35.009659 209 209 209 0
-10.445189 0.669563 35.009851 209 209 209 0
-5.689084 0.369421 19.316134 209 209 209 0
-5.579495 0.367072 19.193309 209 209 209 0
-5.494158 0.366277 19.151749 209 209 209 0
-5.430993 0.366959 19.187398 209 209 209 0
-5.364622 0.367440 19.212543 209 209 209 0
-5.292006 0.367500 19.215708 209 209 209 0
-5.273247 0.371355 19.417276 209 209 209 0
-5.221070 0.372934 19.499796 209 209 209 0
-5.171860 0.374772 19.595947 210 210 210 0
-5.104531 0.375333 19.625265 210 210 210 0
-5.031492 0.375484 19.633175 209 209 209 0
-4.972792 0.376727 19.698125 210 210 210 0
-4.899790 0.376907 19.707552 209 209 209 0
-4.850309 0.378930 19.813355 210 210 210 0
-4.798132 0.380804 19.911325 210 210 210 0
-4.746661 0.382795 20.015437 211 211 211 0
-4.660669 0.382022 19.975011 210 210 210 0
-4.574848 0.381237 19.933979 211 211 211 0
-4.532208 0.384085 20.082896 210 210 210 0
-4.502203 0.388121 20.293908 210 210 210 0
-4.446963 0.390084 20.396574 211 211 211 0
-4.351052 0.388487 20.313036 211 211 211 0
-4.246728 0.386066 20.186468 211 211 211 0
-4.149757 0.384237 20.090810 211 211 211 0
-4.089414 0.385794 20.172222 211 211 211 0
-4.062129 0.390589 20.422970 210 210 210 0
-3.983472 0.390536 20.420208 211 211 211 0
-3.886471 0.388647 20.321420 211 211 211 0
-3.791647 0.386903 20.230210 210 210 210 0
-3.697460 0.385152 20.138671 211 211 211 0
-3.629297 0.386095 20.187998 211 211 211 0
-3.594544 0.390711 20.429350 211 211 211 0
-3.527082 0.391898 20.491399 211 211 211 0
-3.434950 0.390335 20.409686 211 211 211 0
-3.346354 0.389111 20.345670 211 211 211 0
-3.265458 0.388745 20.326535 212 212 212 0
-3.200349 0.390286 20.407134 212 212 212 0
-3.142397 0.392800 20.538540 211 211 211 0
-3.064457 0.392879 20.542695 211 211 211 0
-2.985228 0.392793 20.538207 211 211 211 0
-2.901022 0.392030 20.498302 212 212 212 0
-2.829446 0.392979 20.547900 212 212 212 0
-2.765596 0.395085 20.658044 211 211 211 0
-2.700402 0.397118 20.764336 212 212 212 0
-2.623948 0.397568 20.787862 212 212 212 0
-2.540938 0.397022 20.759298 212 212 212 0
-2.457903 0.396436 20.728675 212 212 212 0
-2.373125 0.395521 20.680830 212 212 212 0
-2.298588 0.396308 20.722000 212 212 212 0
-2.227032 0.397684 20.793947 212 212 212 0
-2.155223 0.399115 20.868778 212 212 212 0
-2.063670 0.396860 20.750829 212 212 212 0
-1.977611 0.395522 20.680900 213 213 213 0
-1.898250 0.395469 20.678102 213 213 213 0
-1.820417 0.395743 20.692439 213 213 213 0
-1.745106 0.396615 20.738040 213 213 213 0
-1.669274 0.397446 20.781495 212 212 212 0
-1.590074 0.397518 20.785276 212 212 212 0
-1.508579 0.396994 20.757881 212 212 212 0
-1.431664 0.397684 20.793955 213 213 213 0
-1.355737 0.398746 20.849466 212 212 212 0
-1.276689 0.398965 20.860933 213 213 213 0
-1.195358 0.398453 20.834125 213 213 213 0
-1.117025 0.398938 20.859482 213 213 213 0
-1.038117 0.399276 20.877156 213 213 213 0
-0.960434 0.400181 20.924494 213 213 213 0
-0.880683 0.400310 20.931262 214 214 214 0
-0.801615 0.400808 20.957263 213 213 213 0
-0.722549 0.401416 20.989080 213 213 213 0
-0.644111 0.402570 21.049393 213 213 213 0
-0.563514 0.402510 21.046284 214 214 214 0
-0.481956 0.401630 21.000262 213 213 213 0
-0.400817 0.400817 20.957767 213 213 213 0
-0.321186 0.401483 20.992564 214 214 214 0
-0.242097 0.403496 21.097806 214 214 214 0
-0.160942 0.402356 21.038205 214 214 214 0
-0.080299 0.401493 20.993114 214 214 214 0
0.000000 0.400882 20.961140 214 214 214 0
0.080042 0.400211 20.926063 214 214 214 0
0.160210 0.400526 20.942519 214 214 214 0
0.241088 0.401813 21.009837 214 214 214 0
0.322019 0.402524 21.047004 214 214 214 0
0.401980 0.401980 21.018546 214 214 214 0
0.481660 0.401384 20.987385 214 214 214 0
0.562856 0.402040 21.021702 215 215 215 0
0.644164 0.402602 21.051105 215 215 215 0
0.725106 0.402836 21.063345 214 214 214 0
0.806428 0.403214 21.083072 214 214 214 0
0.886445 0.402929 21.068204 215 215 215 0
0.967034 0.402931 21.068271 214 214 214 0
1.047463 0.402870 21.065120 214 214 214 0
1.131997 0.404285 21.139072 214 214 214 0
1.216834 0.405611 21.208428 214 214 214 0
1.298129 0.405665 21.211266 214 214 214 0
1.375578 0.404582 21.154597 214 214 214 0
1.453841 0.403845 21.116067 215 215 215 0
1.536902 0.404448 21.147609 215 215 215 0
1.623246 0.405812 21.218902 215 215 215 0
1.701562 0.405134 21.183461 215 215 215 0
1.779180 0.404359 21.142956 215 215 215 0
1.856098 0.403500 21.098020 215 215 215 0
1.932847 0.402676 21.054977 215 215 215 0
2.015391 0.403078 21.075982 214 214 214 0
2.105222 0.404850 21.168649 215 215 215 0
2.188388 0.405257 21.189912 215 215 215 0
2.267537 0.404917 21.172152 215 215 215 0
2.345575 0.404409 21.145592 215 215 215 0
2.429824 0.404971 21.174935 215 215 215 0
2.512797 0.405290 21.191628 215 215 215 0
2.595532 0.405552 21.205327 215 215 215 0
2.674970 0.405299 21.192081 215 215 215 0
2.755469 0.405216 21.187766 215 215 215 0
2.838212 0.405459 21.200465 215 215 215 0
2.921140 0.405714 21.213796 216 216 216 0
3.008529 0.406558 21.257933 215 215 215 0
3.093053 0.406981 21.280035 215 215 215 0
3.175153 0.407071 21.284753 216 216 216 0
3.252237 0.406530 21.256453 216 216 216 0
3.333492 0.406523 21.256126 216 216 216 0
3.411596 0.406142 21.236204 216 216 216 0
3.496409 0.406559 21.257994 215 215 215 0
3.583414 0.407206 21.291823 216 216 216 0
3.659641 0.406627 21.261530 215 215 215 0
3.731404 0.405587 21.207184 216 216 216 0
3.810421 0.405364 21.195498 215 215 215 0
3.889233 0.405128 21.183185 216 216 216 0
3.979052 0.406026 21.230104 216 216 216 0
