ply
    format ascii 1.0
    element vertex 25600
    property float x
    property float y
    property float z
    property uchar red
    property uchar green
    property uchar blue
    property uchar alpha
    end_header
-5.131812 4.698138 18.896483 209 209 209 0
-5.097276 4.733184 19.037444 210 210 210 0
-5.050995 4.758184 19.137995 210 210 210 0
-4.994353 4.774014 19.201665 210 210 210 0
-4.917565 4.770772 19.188624 210 210 210 0
-4.850137 4.776650 19.212269 210 210 210 0
-4.786061 4.786061 19.250121 210 210 210 0
-4.719589 4.793332 19.279366 210 210 210 0
-4.673759 4.822132 19.395203 210 210 210 0
-4.627270 4.851170 19.511995 210 210 210 0
-4.552932 4.851485 19.513265 210 210 210 0
-4.482746 4.856308 19.532661 211 211 211 0
-4.406608 4.854738 19.526346 210 210 210 0
-4.363430 4.890051 19.668378 210 210 210 0
-4.334553 4.942911 19.880989 210 210 210 0
-4.271817 4.958359 19.943122 210 210 210 0
-4.177927 4.937550 19.859426 211 211 211 0
-4.083406 4.915211 19.769578 210 210 210 0
-3.994544 4.898969 19.704249 210 210 210 0
-3.940311 4.925389 19.810512 210 210 210 0
-3.902451 4.973713 20.004877 210 210 210 0
-3.814001 4.958201 19.942489 211 211 211 0
-3.728653 4.946172 19.894107 211 211 211 0
-3.634993 4.922386 19.798437 211 211 211 0
-3.547230 4.905743 19.731497 211 211 211 0
-3.482530 4.920966 19.792723 211 211 211 0
-3.448224 4.980768 20.033256 211 211 211 0
-3.374045 4.984385 20.047803 211 211 211 0
-3.287535 4.969529 19.988051 212 212 212 0
-3.201426 4.954588 19.927955 211 211 211 0
-3.125414 4.954925 19.929313 211 211 211 0
-3.060696 4.973631 20.004548 211 211 211 0
-2.998812 4.998020 20.102645 212 212 212 0
-2.922142 4.998400 20.104174 212 212 212 0
-2.848944 5.004902 20.130327 212 212 212 0
-2.766603 4.995255 20.091524 212 212 212 0
-2.691227 4.997993 20.102537 212 212 212 0
-2.622130 5.012896 20.162477 212 212 212 0
-2.564753 5.051786 20.318896 212 212 212 0
-2.488860 5.055498 20.333827 212 212 212 0
-2.409967 5.053156 20.324408 211 211 211 0
-2.325811 5.039257 20.268504 212 212 212 0
-2.245190 5.032322 20.240610 212 212 212 0
-2.171969 5.042072 20.279826 212 212 212 0
-2.103285 5.063464 20.365867 212 212 212 0
-2.031100 5.077751 20.423331 212 212 212 0
-1.942482 5.050454 20.313542 213 213 213 0
-1.857441 5.030569 20.233559 212 212 212 0
-1.778447 5.026047 20.215373 213 213 213 0
-1.702164 5.029119 20.227730 212 212 212 0
-1.627598 5.037802 20.262652 213 213 213 0
-1.556807 5.059621 20.350412 212 212 212 0
-1.479075 5.059992 20.351905 213 213 213 0
-1.399571 5.054008 20.327835 213 213 213 0
-1.321106 5.051288 20.316897 213 213 213 0
-1.246497 5.063894 20.367599 212 212 212 0
-1.170070 5.070302 20.393372 213 213 213 0
-1.091875 5.069418 20.389815 213 213 213 0
-1.014535 5.072676 20.402921 213 213 213 0
-0.937958 5.080608 20.434825 214 214 214 0
-0.860986 5.087647 20.463133 213 213 213 0
-0.784242 5.097573 20.503057 213 213 213 0
-0.706712 5.104032 20.529040 213 213 213 0
-0.628391 5.105676 20.535649 213 213 213 0
-0.551455 5.120658 20.595910 214 214 214 0
-0.473002 5.124184 20.610090 213 213 213 0
-0.393121 5.110579 20.555369 213 213 213 0
-0.313585 5.095756 20.495752 213 213 213 0
-0.235553 5.103653 20.527515 213 213 213 0
-0.157533 5.119828 20.592569 213 213 213 0
-0.078713 5.116341 20.578546 214 214 214 0
0.000000 5.111163 20.557720 214 214 214 0
0.078464 5.100164 20.513479 213 213 213 0
0.156555 5.088031 20.464681 214 214 214 0
0.234851 5.088432 20.466292 214 214 214 0
0.314417 5.109277 20.550132 213 213 213 0
0.394009 5.122123 20.601800 214 214 214 0
0.472195 5.115441 20.574927 214 214 214 0
0.550189 5.108902 20.548626 214 214 214 0
0.628350 5.105347 20.534327 214 214 214 0
0.707467 5.109485 20.550970 214 214 214 0
0.787755 5.120411 20.594915 214 214 214 0
0.867661 5.127087 20.621767 214 214 214 0
0.946968 5.129413 20.631122 214 214 214 0
1.026117 5.130587 20.635845 215 215 215 0
1.104229 5.126777 20.620519 214 214 214 0
1.185722 5.138129 20.666182 214 214 214 0
1.267504 5.149235 20.710849 215 215 215 0
1.349472 5.159747 20.753131 214 214 214 0
1.427667 5.155463 20.735899 215 215 215 0
1.501905 5.138094 20.666041 215 215 215 0
1.578225 5.129231 20.630390 215 215 215 0
1.662242 5.145036 20.693960 215 215 215 0
1.746619 5.160466 20.756022 214 214 214 0
1.823866 5.154403 20.731635 215 215 215 0
1.898524 5.141836 20.681089 214 214 214 0
1.972561 5.128658 20.628088 215 215 215 0
2.047104 5.117759 20.584249 215 215 215 0
2.129435 5.126418 20.619078 215 215 215 0
2.216922 5.146427 20.699554 215 215 215 0
2.298802 5.152488 20.723932 215 215 215 0
2.374817 5.145437 20.695572 215 215 215 0
2.450318 5.137764 20.664711 216 216 216 0
2.532305 5.143745 20.688770 215 215 215 0
2.614258 5.149295 20.711092 214 214 214 0
2.695236 5.152656 20.724611 216 216 216 0
2.773865 5.151464 20.719816 215 215 215 0
2.852799 5.150887 20.717492 215 215 215 0
2.933312 5.153116 20.726459 215 215 215 0
3.014237 5.155932 20.737787 215 215 215 0
3.102530 5.170883 20.797920 216 216 216 0
3.185644 5.176671 20.821200 216 216 216 0
3.266611 5.178774 20.829660 216 216 216 0
3.342612 5.173089 20.806795 215 215 215 0
3.419316 5.168733 20.789273 216 216 216 0
3.494576 5.162442 20.763969 215 215 215 0
3.578619 5.169116 20.790813 216 216 216 0
3.664516 5.178120 20.827030 216 216 216 0
3.736267 5.167178 20.783019 215 215 215 0
3.809270 5.158386 20.747656 215 215 215 0
3.886471 5.155523 20.736142 216 216 216 0
3.964691 5.154098 20.730408 216 216 216 0
4.051318 5.163444 20.768000 216 216 216 0
4.133162 5.166453 20.780101 216 216 216 0
4.210018 5.163230 20.767139 216 216 216 0
4.292760 5.167211 20.783152 216 216 216 0
4.368836 5.163169 20.766896 216 216 216 0
4.452733 5.168351 20.787735 215 215 215 0
4.533414 5.169683 20.793092 217 217 217 0
4.612163 5.168803 20.789554 216 216 216 0
4.695463 5.172968 20.806306 216 216 216 0
4.774097 5.171938 20.802164 216 216 216 0
4.859250 5.177889 20.826099 216 216 216 0
4.939863 5.178888 20.830120 216 216 216 0
5.027993 5.187612 20.865206 216 216 216 0
5.117139 5.197094 20.903345 216 216 216 0
5.189508 5.189508 20.872833 216 216 216 0
5.262029 5.182302 20.843848 216 216 216 0
5.339546 5.180157 20.835220 217 217 217 0
5.425067 5.185726 20.857620 216 216 216 0
5.520510 5.200480 20.916964 216 216 216 0
5.585251 5.186305 20.859948 216 216 216 0
5.655619 5.177680 20.825257 216 216 216 0
5.727712 5.170851 20.797791 216 216 216 0
5.804250 5.168168 20.787001 216 216 216 0
5.887034 5.171043 20.798566 216 216 216 0
5.976135 5.179317 20.831844 216 216 216 0
6.053162 5.177046 20.822710 217 217 217 0
6.124931 5.170397 20.795964 217 217 217 0
6.193865 5.161555 20.760400 216 216 216 0
6.273022 5.161348 20.759568 217 217 217 0
-10.713025 8.838246 35.009886 208 208 208 0
-10.578967 8.838125 35.009407 208 208 208 0
-10.445091 8.838154 35.009523 209 209 209 0
-7.498765 6.427512 25.460536 209 209 209 0
-5.459929 4.741517 18.782006 210 210 210 0
-5.430662 4.778982 18.930412 209 209 209 0
-5.336679 4.759741 18.854193 209 209 209 0
-5.263082 4.758403 18.848894 209 209 209 0
-5.186268 4.754079 18.831764 209 209 209 0
-5.133983 4.772435 18.904474 209 209 209 0
-5.105996 4.814225 19.070012 210 210 210 0
-5.056488 4.836641 19.158808 209 209 209 0
-4.997135 4.850160 19.212360 209 209 209 0
-4.920535 4.847094 19.200215 209 209 209 0
-4.853381 4.853381 19.225119 209 209 209 0
-4.789255 4.862936 19.262967 210 210 210 0
-4.718687 4.866146 19.275681 210 210 210 0
-4.679261 4.902083 19.418037 210 210 210 0
-4.634375 4.933367 19.541958 210 210 210 0
-4.556320 4.929789 19.527785 210 210 210 0
-4.483236 4.931559 19.534796 210 210 210 0
-4.410422 4.933693 19.543247 210 210 210 0
-4.368570 4.971131 19.691549 210 210 210 0
-4.324732 5.007584 19.835945 210 210 210 0
-4.266503 5.028378 19.918313 210 210 210 0
-4.178161 5.013793 19.860538 211 211 211 0
-4.080105 4.986795 19.753596 210 210 210 0
-3.994813 4.974673 19.705576 210 210 210 0
-3.937464 4.997551 19.796201 210 210 210 0
-3.898234 5.044773 19.983256 211 211 211 0
-3.812658 5.032709 19.935467 211 211 211 0
-3.724106 5.016142 19.869845 210 210 210 0
-3.634695 4.997705 19.796811 211 211 211 0
-3.546018 4.979514 19.724754 211 211 211 0
-3.480273 4.993435 19.779896 211 211 211 0
-3.451608 5.062358 20.052915 211 211 211 0
-3.377391 5.066087 20.067685 211 211 211 0
-3.286909 5.045023 19.984247 211 211 211 0
-3.200903 5.029991 19.924701 212 212 212 0
-3.125585 5.031430 19.930403 211 211 211 0
-3.063049 5.054032 20.019931 211 211 211 0
-2.997398 5.072520 20.093169 212 212 212 0
-2.926486 5.082845 20.134064 212 212 212 0
-2.847530 5.079377 20.120331 212 212 212 0
-2.762701 5.064951 20.063186 211 211 211 0
-2.693167 5.078544 20.117029 211 211 211 0
-2.619824 5.085542 20.144748 211 211 211 0
-2.563630 5.127259 20.309999 211 211 211 0
-2.492035 5.139821 20.359760 212 212 212 0
-2.409505 5.129914 20.320516 212 212 212 0
-2.325892 5.116962 20.269212 212 212 212 0
-2.244409 5.107964 20.233569 212 212 212 0
-2.171436 5.118386 20.274850 212 212 212 0
-2.102404 5.139210 20.357336 212 212 212 0
-2.031727 5.157461 20.429633 212 212 212 0
-1.944826 5.134340 20.338046 212 212 212 0
-1.856859 5.106362 20.227222 212 212 212 0
-1.778515 5.103565 20.216140 212 212 212 0
-1.701465 5.104396 20.219434 212 212 212 0
-1.628972 5.119625 20.279759 212 212 212 0
-1.556098 5.135123 20.341150 212 212 212 0
-1.479160 5.138133 20.353072 212 212 212 0
-1.398951 5.129487 20.318824 212 212 212 0
-1.321555 5.130742 20.323794 213 213 213 0
-1.246842 5.143221 20.373228 212 212 212 0
-1.169523 5.145900 20.383839 213 213 213 0
-1.092985 5.152645 20.410556 213 213 213 0
-1.015350 5.154855 20.419313 213 213 213 0
-0.938363 5.160999 20.443648 212 212 212 0
-0.861663 5.169975 20.479205 213 213 213 0
-0.783597 5.171741 20.486200 213 213 213 0
-0.706838 5.183482 20.532707 213 213 213 0
-0.629148 5.190474 20.560403 213 213 213 0
-0.551340 5.198352 20.591609 213 213 213 0
-0.473041 5.203447 20.611793 214 214 214 0
-0.393082 5.188681 20.553302 213 213 213 0
-0.313497 5.172708 20.490029 214 214 214 0
-0.235526 5.181580 20.525175 213 213 213 0
-0.157536 5.198672 20.592879 213 213 213 0
-0.078718 5.195360 20.579760 213 213 213 0
0.000000 5.189642 20.557108 214 214 214 0
0.078529 5.182928 20.530514 214 214 214 0
0.156563 5.166576 20.465741 214 214 214 0
0.234695 5.163294 20.452737 214 214 214 0
0.314315 5.186196 20.543460 214 214 214 0
0.393979 5.200520 20.600197 213 213 213 0
0.472136 5.193495 20.572372 214 214 214 0
0.550537 5.190777 20.561604 213 213 213 0
0.628424 5.184496 20.536723 213 213 213 0
0.707630 5.189288 20.555707 214 214 214 0
0.787904 5.200168 20.598802 215 215 215 0
0.868039 5.208236 20.630763 214 214 214 0
0.947651 5.212082 20.645999 215 215 215 0
1.026986 5.213929 20.653315 215 215 215 0
1.104371 5.206319 20.623170 214 214 214 0
1.185094 5.214415 20.655240 214 214 214 0
1.267656 5.229082 20.713337 215 215 215 0
1.349548 5.239423 20.754299 214 214 214 0
1.427733 5.235020 20.736857 214 214 214 0
1.502273 5.218422 20.671111 214 214 214 0
1.578284 5.208338 20.631165 214 214 214 0
1.662009 5.223458 20.691060 215 215 215 0
1.746810 5.240431 20.758294 215 215 215 0
1.823109 5.231529 20.723032 214 214 214 0
1.897884 5.219180 20.674113 215 215 215 0
1.972471 5.207325 20.627152 215 215 215 0
2.047435 5.197334 20.587577 215 215 215 0
2.129389 5.205173 20.618631 215 215 215 0
2.218297 5.228844 20.712393 214 214 214 0
2.298924 5.232033 20.725026 214 214 214 0
2.374800 5.224561 20.695428 214 214 214 0
2.450817 5.217868 20.668916 215 215 215 0
2.533191 5.224707 20.696007 215 215 215 0
2.615341 5.230683 20.719677 215 215 215 0
2.695762 5.232950 20.728660 215 215 215 0
2.775921 5.234594 20.735172 215 215 215 0
2.854031 5.232391 20.726445 215 215 215 0
2.935607 5.236489 20.742677 215 215 215 0
3.014266 5.235303 20.737981 215 215 215 0
3.102227 5.249923 20.795891 215 215 215 0
3.185108 5.255428 20.817700 215 215 215 0
3.266023 5.257500 20.825908 215 215 215 0
3.342960 5.253222 20.808961 215 215 215 0
3.418500 5.247000 20.784313 215 215 215 0
3.493828 5.240742 20.759523 215 215 215 0
3.577838 5.247495 20.786276 215 215 215 0
3.664040 5.257101 20.824326 215 215 215 0
3.736058 5.246380 20.781857 216 216 216 0
3.808602 5.236828 20.744019 215 215 215 0
3.885790 5.233921 20.732506 216 216 216 0
3.964062 5.232562 20.727120 216 216 216 0
4.051301 5.242861 20.767917 216 216 216 0
4.133510 5.246378 20.781852 215 215 215 0
4.212055 5.245200 20.777184 216 216 216 0
4.293011 5.247013 20.784367 216 216 216 0
4.369225 5.243070 20.768747 216 216 216 0
4.451535 5.246452 20.782144 215 215 215 0
4.531176 5.246625 20.782829 216 216 216 0
4.613818 5.250207 20.797018 216 216 216 0
4.695627 5.252735 20.807031 216 216 216 0
4.774649 5.252114 20.804572 217 217 217 0
4.858560 5.256803 20.823145 216 216 216 0
4.941813 5.260640 20.838343 216 216 216 0
5.025917 5.265246 20.856589 216 216 216 0
5.115653 5.275517 20.897274 216 216 216 0
5.190843 5.270702 20.878203 216 216 216 0
5.263700 5.263700 20.850467 217 217 217 0
5.339088 5.259400 20.833432 216 216 216 0
5.425349 5.265780 20.858704 216 216 216 0
5.519013 5.279056 20.911293 216 216 216 0
5.584839 5.265705 20.858409 216 216 216 0
5.654712 5.256493 20.821916 216 216 216 0
5.729027 5.251608 20.802566 216 216 216 0
5.804607 5.248001 20.788277 216 216 216 0
5.885629 5.249345 20.793601 217 217 217 0
5.976664 5.259465 20.833689 216 216 216 0
6.054737 5.258061 20.828127 217 217 217 0
6.125054 5.250046 20.796381 217 217 217 0
6.192813 5.240072 20.756871 217 217 217 0
6.271981 5.239883 20.756122 216 216 216 0
-10.713018 8.972153 35.009864 209 209 209 0
-10.578967 8.972036 35.009406 208 208 208 0
-10.445084 8.972059 35.009499 209 209 209 0
-7.450451 6.482860 25.296497 209 209 209 0
-5.466674 4.819305 18.805209 209 209 209 0
-5.435129 4.855382 18.945983 209 209 209 0
-5.337069 4.832211 18.855568 209 209 209 0
-5.256787 4.824723 18.826349 209 209 209 0
-5.191472 4.830953 18.850659 210 210 210 0
-5.133308 4.844107 18.901990 209 209 209 0
-5.102033 4.883374 19.055210 210 210 210 0
-5.055530 4.908993 19.155178 209 209 209 0
-4.997895 4.924397 19.215283 209 209 209 0
-4.920930 4.920930 19.201756 210 210 210 0
-4.853449 4.926986 19.225386 210 210 210 0
-4.789740 4.937117 19.264917 210 210 210 0
-4.722627 4.944000 19.291778 209 209 209 0
-4.673765 4.970512 19.395229 209 209 209 0
-4.628703 5.001985 19.518037 210 210 210 0
-4.554949 5.002977 19.521909 210 210 210 0
-4.486679 5.010125 19.549800 210 210 210 0
-4.407563 5.005199 19.530578 210 210 210 0
-4.363723 5.040852 19.669700 210 210 210 0
-4.327949 5.087239 19.850703 210 210 210 0
-4.269332 5.107950 19.931520 211 211 211 0
-4.177894 5.089435 19.859271 211 211 211 0
-4.080847 5.063273 19.757185 211 211 211 0
-3.998062 5.054154 19.721606 211 211 211 0
-3.934304 5.069200 19.780313 211 211 211 0
-3.896915 5.119477 19.976499 211 211 211 0
-3.817829 5.115890 19.962502 210 210 210 0
-3.726007 5.094744 19.879989 211 211 211 0
-3.634845 5.073637 19.797629 210 210 210 0
-3.548881 5.059044 19.740683 211 211 211 0
-3.477491 5.065042 19.764088 212 212 212 0
-3.444217 5.128056 20.009975 210 210 210 0
-3.374966 5.139152 20.053272 211 211 211 0
-3.287357 5.122162 19.986973 211 211 211 0
-3.202329 5.108477 19.933577 211 211 211 0
-3.124250 5.105481 19.921886 211 211 211 0
-3.059776 5.125125 19.998537 212 212 212 0
-2.999983 5.153816 20.110492 211 211 211 0
-2.922690 5.153164 20.107946 212 212 212 0
-2.847535 5.156347 20.120366 211 211 211 0
-2.764845 5.145683 20.078755 212 212 212 0
-2.693458 5.156049 20.119204 212 212 212 0
-2.622282 5.167439 20.163648 212 212 212 0
-2.564747 5.207214 20.318851 212 212 212 0
-2.491041 5.215618 20.351644 212 212 212 0
-2.410123 5.208976 20.325729 212 212 212 0
-2.326188 5.195153 20.271789 212 212 212 0
-2.245845 5.188676 20.246518 212 212 212 0
-2.171845 5.196914 20.278661 212 212 212 0
-2.101971 5.216003 20.353149 212 212 212 0
-2.031819 5.235841 20.430557 212 212 212 0
-1.944945 5.212454 20.339298 212 212 212 0
-1.857574 5.185728 20.235014 212 212 212 0
-1.777631 5.178317 20.206096 212 212 212 0
-1.702784 5.185751 20.235103 212 212 212 0
-1.628450 5.195531 20.273263 213 213 213 0
-1.556857 5.215469 20.351066 212 212 212 0
-1.479061 5.215635 20.351712 213 213 213 0
-1.399613 5.209670 20.328438 213 213 213 0
-1.321739 5.209205 20.326623 213 213 213 0
-1.247042 5.221990 20.376508 213 213 213 0
-1.170692 5.229090 20.404216 212 212 212 0
-1.092551 5.228637 20.402445 212 212 212 0
-1.015107 5.231706 20.414423 212 212 212 0
-0.938174 5.238140 20.439529 213 213 213 0
-0.861733 5.248739 20.480887 213 213 213 0
-0.783963 5.252549 20.495752 213 213 213 0
-0.706466 5.259245 20.521883 213 213 213 0
-0.628591 5.264450 20.542192 213 213 213 0
-0.551315 5.276868 20.590645 213 213 213 0
-0.473054 5.282433 20.612360 213 213 213 0
-0.393145 5.268138 20.556580 213 213 213 0
-0.313340 5.248438 20.479712 213 213 213 0
-0.235422 5.257764 20.516100 213 213 213 0
-0.157467 5.275150 20.583944 213 213 213 0
-0.078744 5.275870 20.586754 213 213 213 0
0.000000 5.271085 20.568082 213 213 213 0
0.078480 5.258157 20.517634 214 214 214 0
0.156612 5.246488 20.472101 213 213 213 0
0.234878 5.245613 20.468687 214 214 214 0
0.314410 5.266366 20.549668 213 213 213 0
0.393762 5.276414 20.588875 214 214 214 0
0.472185 5.272737 20.574526 214 214 214 0
0.550187 5.266074 20.548527 214 214 214 0
0.628316 5.262147 20.533205 213 213 213 0
0.707571 5.267473 20.553985 214 214 214 0
0.787608 5.276973 20.591058 214 214 214 0
0.868506 5.289989 20.641847 214 214 214 0
0.947741 5.291552 20.647943 215 215 215 0
1.025746 5.286536 20.628372 214 214 214 0
1.104070 5.283766 20.617563 213 213 213 0
1.185689 5.296076 20.665596 214 214 214 0
1.267772 5.308794 20.715224 213 213 213 0
1.349919 5.320269 20.760000 215 215 215 0
1.427562 5.313702 20.734375 215 215 215 0
1.502347 5.297751 20.672132 214 214 214 0
1.578302 5.287312 20.631401 215 215 215 0
1.661520 5.301041 20.684973 215 215 215 0
1.747080 5.320654 20.761503 214 214 214 0
1.823662 5.312407 20.729322 215 215 215 0
1.897849 5.298162 20.673738 215 215 215 0
1.971160 5.282710 20.613442 215 215 215 0
2.047876 5.277220 20.592019 215 215 215 0
2.130666 5.287207 20.630992 215 215 215 0
2.217774 5.306817 20.707508 215 215 215 0
2.300149 5.314138 20.736077 215 215 215 0
2.375129 5.304454 20.698291 215 215 215 0
2.450750 5.296782 20.668351 215 215 215 0
2.532674 5.302786 20.691779 215 215 215 0
2.615132 5.309511 20.718021 215 215 215 0
2.696321 5.313338 20.732953 215 215 215 0
2.775504 5.313107 20.732055 215 215 215 0
2.853744 5.311136 20.724361 215 215 215 0
2.933563 5.312128 20.728234 215 215 215 0
3.014387 5.314840 20.738815 215 215 215 0
3.101892 5.328892 20.793647 215 215 215 0
3.185544 5.335787 20.820550 215 215 215 0
3.266893 5.338580 20.831452 215 215 215 0
3.343050 5.332961 20.809526 215 215 215 0
3.418359 5.326280 20.783456 216 216 216 0
3.494050 5.320485 20.760842 215 215 215 0
3.578353 5.327771 20.789272 216 216 216 0
3.664445 5.337344 20.826628 216 216 216 0
3.737035 5.327262 20.787287 216 216 216 0
3.809241 5.317066 20.747500 216 216 216 0
3.886157 5.313725 20.734465 215 215 215 0
3.963097 5.310550 20.722074 215 215 215 0
4.052086 5.323329 20.771941 215 215 215 0
4.133999 5.326499 20.784308 216 216 216 0
4.212286 5.324965 20.778326 215 215 215 0
4.292181 5.325484 20.780350 216 216 216 0
4.370177 5.323670 20.773270 216 216 216 0
4.453675 5.328504 20.792135 216 216 216 0
4.533955 5.329386 20.795576 216 216 216 0
4.615779 5.332021 20.805856 216 216 216 0
4.695323 5.331977 20.805685 216 216 216 0
4.774130 5.331112 20.802309 216 216 216 0
4.856810 5.334529 20.815645 216 216 216 0
4.941649 5.340169 20.837650 216 216 216 0
5.029284 5.348604 20.870565 216 216 216 0
5.115739 5.355539 20.897627 216 216 216 0
5.188852 5.348509 20.870196 217 217 217 0
5.262170 5.341900 20.844405 216 216 216 0
5.340522 5.340522 20.839030 217 217 217 0
5.425305 5.345521 20.858537 216 216 216 0
5.520342 5.360332 20.916328 216 216 216 0
5.583897 5.344587 20.854889 216 216 216 0
5.656771 5.338080 20.829500 217 217 217 0
5.725980 5.328342 20.791502 216 216 216 0
5.805111 5.327979 20.790084 217 217 217 0
5.886537 5.329702 20.796809 216 216 216 0
5.974767 5.337458 20.827073 217 217 217 0
6.053381 5.336533 20.823463 217 217 217 0
6.126421 5.330782 20.801022 216 216 216 0
6.192932 5.319569 20.757270 216 216 216 0
6.270295 5.317845 20.750540 216 216 216 0
-10.713008 9.106057 35.009831 208 208 208 0
-10.578971 9.105950 35.009418 209 209 209 0
-10.445108 9.105992 35.009579 209 209 209 0
-7.383031 6.520080 25.067588 209 209 209 0
-5.464109 4.888940 18.796385 209 209 209 0
-5.433527 4.926398 18.940398 209 209 209 0
-5.336754 4.904044 18.854456 209 209 209 0
-5.262702 4.902243 18.847531 209 209 209 0
-5.185780 4.897681 18.829993 209 209 209 0
-5.126611 4.909993 18.877329 209 209 209 0
-5.103746 4.957925 19.061611 210 210 210 0
-5.053570 4.980329 19.147749 210 210 210 0
-4.996400 4.996400 19.209533 209 209 209 0
-4.923662 4.997149 19.212416 210 210 210 0
-4.855619 5.002759 19.233982 210 210 210 0
-4.791865 5.013028 19.273466 210 210 210 0
-4.720001 5.015001 19.281050 210 210 210 0
-4.669619 5.040224 19.378023 210 210 210 0
-4.631825 5.080066 19.531204 209 209 209 0
-4.556610 5.079499 19.529024 210 210 210 0
-4.480817 5.078259 19.524258 210 210 210 0
-4.409405 5.082026 19.538740 210 210 210 0
-4.364719 5.117257 19.674189 210 210 210 0
-4.325715 5.160502 19.840454 210 210 210 0
-4.269635 5.184557 19.932936 210 210 210 0
-4.180325 5.168401 19.870824 210 210 210 0
-4.080808 5.138795 19.756998 210 210 210 0
-3.992040 5.121863 19.691900 211 211 211 0
-3.938046 5.149752 19.799124 211 211 211 0
-3.901080 5.201440 19.997846 210 210 210 0
-3.814367 5.187539 19.944403 210 210 210 0
-3.726197 5.171049 19.881005 211 211 211 0
-3.631520 5.144653 19.779520 211 211 211 0
-3.546169 5.130628 19.725599 211 211 211 0
-3.477073 5.140020 19.761708 211 211 211 0
-3.445422 5.206416 20.016976 211 211 211 0
-3.375118 5.216091 20.054175 211 211 211 0
-3.285449 5.195594 19.975370 211 211 211 0
-3.200784 5.182222 19.923959 211 211 211 0
-3.123731 5.180822 19.918577 211 211 211 0
-3.059988 5.201980 19.999924 212 212 212 0
-2.998742 5.228575 20.102173 212 212 212 0
-2.925067 5.234331 20.124302 211 211 211 0
-2.845617 5.229782 20.106812 211 211 211 0
-2.764479 5.221793 20.076097 211 211 211 0
-2.692965 5.232047 20.115522 212 212 212 0
-2.621232 5.242464 20.155570 212 212 212 0
-2.566729 5.289017 20.334552 212 212 212 0
-2.490839 5.293033 20.349993 212 212 212 0
-2.409034 5.284333 20.316542 212 212 212 0
-2.326622 5.273677 20.275574 212 212 212 0
-2.245790 5.265990 20.246019 212 212 212 0
-2.171557 5.273782 20.275978 212 212 212 0
-2.103092 5.296675 20.363996 212 212 212 0
-2.032430 5.315587 20.436703 212 212 212 0
-1.942951 5.284827 20.318444 212 212 212 0
-1.857952 5.264198 20.239129 213 213 213 0
-1.778598 5.258464 20.217085 212 212 212 0
-1.702091 5.261010 20.226873 212 212 212 0
-1.627754 5.270824 20.264606 213 213 213 0
-1.556732 5.292888 20.349436 213 213 213 0
-1.479827 5.296222 20.362252 212 212 212 0
-1.399299 5.286240 20.323874 212 212 212 0
-1.321478 5.285910 20.322609 213 213 213 0
-1.246994 5.299725 20.375720 213 213 213 0
-1.169707 5.302672 20.387052 213 213 213 0
-1.092484 5.306350 20.401190 213 213 213 0
-1.014833 5.308360 20.408918 213 213 213 0
-0.937532 5.312683 20.425539 213 213 213 0
-0.861483 5.325533 20.474944 212 212 212 0
-0.783761 5.329575 20.490485 213 213 213 0
-0.706697 5.339486 20.528589 213 213 213 0
-0.628528 5.342490 20.540137 213 213 213 0
-0.551479 5.357224 20.596784 213 213 213 0
-0.472843 5.358891 20.603194 213 213 213 0
-0.393233 5.347970 20.561208 213 213 213 0
-0.313467 5.328937 20.488032 213 213 213 0
-0.235588 5.340002 20.530572 213 213 213 0
-0.157527 5.355924 20.591786 214 214 214 0
-0.078695 5.351229 20.573739 214 214 214 0
0.000000 5.348664 20.563875 213 213 213 0
0.078443 5.334147 20.508063 214 214 214 0
0.156553 5.322818 20.464506 213 213 213 0
0.234872 5.323775 20.468184 213 213 213 0
0.314443 5.345536 20.551850 213 213 213 0
0.393854 5.356409 20.593654 214 214 214 0
0.472159 5.351135 20.573376 214 214 214 0
0.550522 5.347929 20.561050 214 214 214 0
0.628036 5.338307 20.524056 214 214 214 0
0.707500 5.345558 20.551935 214 214 214 0
0.787737 5.356612 20.594431 214 214 214 0
0.867903 5.365217 20.627517 214 214 214 0
0.947049 5.366611 20.632875 214 214 214 0
1.026338 5.368538 20.640283 214 214 214 0
1.104239 5.363446 20.620706 215 215 215 0
1.185936 5.376245 20.669915 214 214 214 0
1.267946 5.388772 20.718079 214 214 214 0
1.349751 5.399003 20.757414 214 214 214 0
1.428175 5.395328 20.743282 214 214 214 0
1.501895 5.375201 20.665903 215 215 215 0
1.577401 5.363163 20.619618 214 214 214 0
1.661823 5.381143 20.688745 215 215 215 0
1.747324 5.400821 20.764401 215 215 215 0
1.823149 5.390181 20.723493 215 215 215 0
1.898604 5.379377 20.681959 215 215 215 0
1.972153 5.364255 20.623819 215 215 215 0
2.047815 5.355824 20.591404 214 214 214 0
2.131465 5.368135 20.638736 214 214 214 0
2.218195 5.387045 20.711439 214 214 214 0
2.298811 5.390316 20.724015 215 215 215 0
2.375269 5.383944 20.699514 215 215 215 0
2.451456 5.377387 20.674304 215 215 215 0
2.532203 5.380931 20.687930 215 215 215 0
2.614835 5.388144 20.715665 215 215 215 0
2.696365 5.392730 20.733293 215 215 215 0
2.775229 5.391873 20.730000 215 215 215 0
2.854048 5.390980 20.726568 215 215 215 0
2.934469 5.393079 20.734635 215 215 215 0
3.015166 5.395560 20.744174 215 215 215 0
3.103348 5.410965 20.803404 215 215 215 0
3.185912 5.416051 20.822957 216 216 216 0
3.266617 5.417804 20.829698 215 215 215 0
3.342707 5.412002 20.807390 215 215 215 0
3.419501 5.407583 20.790401 216 216 216 0
3.495225 5.401711 20.767824 216 216 216 0
3.579744 5.409391 20.797352 215 215 215 0
3.665255 5.418203 20.831231 215 215 215 0
3.735140 5.404033 20.776750 216 216 216 0
3.808806 5.395808 20.745128 215 215 215 0
3.886285 5.393212 20.735149 216 216 216 0
3.964595 5.391849 20.729907 216 216 216 0
4.052463 5.403283 20.773869 216 216 216 0
4.133194 5.404946 20.780260 215 215 215 0
4.212528 5.404753 20.779519 215 215 215 0
4.291682 5.404340 20.777932 216 216 216 0
4.370183 5.403136 20.773302 216 216 216 0
4.451547 5.405450 20.782199 216 216 216 0
4.532216 5.406854 20.787597 216 216 216 0
4.612769 5.408073 20.792286 215 215 215 0
4.695042 5.411235 20.804442 216 216 216 0
4.773300 5.409740 20.798694 215 215 215 0
4.856886 5.414233 20.815969 215 215 215 0
4.938907 5.416865 20.826088 216 216 216 0
5.027152 5.426133 20.861717 216 216 216 0
5.114142 5.433776 20.891102 216 216 216 0
5.189680 5.429203 20.873523 216 216 216 0
5.262456 5.421924 20.845536 216 216 216 0
5.339629 5.419325 20.835543 216 216 216 0
5.425433 5.425433 20.859026 216 216 216 0
5.519393 5.439402 20.912732 216 216 216 0
5.584735 5.425171 20.858022 217 217 217 0
5.654574 5.415648 20.821409 217 217 217 0
5.728159 5.409928 20.799417 216 216 216 0
5.803267 5.405783 20.783479 217 217 217 0
5.886616 5.409322 20.797087 216 216 216 0
5.976754 5.418924 20.834002 216 216 216 0
6.054963 5.417599 20.828908 216 216 216 0
6.126209 5.410159 20.800302 216 216 216 0
6.192991 5.399018 20.757469 217 217 217 0
6.268877 5.395995 20.745848 217 217 217 0
-10.713015 9.239976 35.009854 209 209 209 0
-10.578973 9.239862 35.009425 208 208 208 0
-10.445093 9.239890 35.009528 208 208 208 0
-7.331651 6.569921 24.893135 209 209 209 0
-5.467120 4.963570 18.806743 208 208 208 0
-5.431040 4.996557 18.931730 209 209 209 0
-5.337017 4.976407 18.855385 208 208 208 0
-5.259156 4.970983 18.834833 209 209 209 0
-5.188828 4.972627 18.841062 209 209 209 0
-5.129742 4.985242 18.888858 210 210 210 0
-5.101752 5.028870 19.054164 209 209 209 0
-5.056635 5.056635 19.159363 209 209 209 0
-5.010036 5.083713 19.261962 209 209 209 0
-4.924755 5.071762 19.216680 209 209 209 0
-4.857754 5.078561 19.242441 209 209 209 0
-4.786090 5.080619 19.250238 210 210 210 0
-4.724279 5.093363 19.298525 210 210 210 0
-4.685833 5.132103 19.445309 210 210 210 0
-4.637769 5.161388 19.556268 211 211 211 0
-4.552702 5.149778 19.512278 209 209 209 0
-4.482073 5.154384 19.529731 210 210 210 0
-4.404655 5.151207 19.517692 211 211 211 0
-4.366415 5.194528 19.681832 210 210 210 0
-4.325719 5.236396 19.840470 210 210 210 0
-4.271374 5.262943 19.941057 210 210 210 0
-4.176576 5.239704 19.853004 211 211 211 0
-4.077078 5.209599 19.738939 210 210 210 0
-4.001003 5.208853 19.736112 211 211 211 0
-3.936989 5.224082 19.793812 210 210 210 0
-3.901505 5.278507 20.000025 211 211 211 0
-3.812341 5.261030 19.933808 211 211 211 0
-3.727308 5.248658 19.886929 210 210 210 0
-3.634420 5.224478 19.795315 211 211 211 0
-3.549990 5.211687 19.746850 211 211 211 0
-3.479016 5.218524 19.772753 211 211 211 0
-3.450004 5.290006 20.043594 211 211 211 0
-3.373852 5.290813 20.046653 211 211 211 0
-3.285950 5.272803 19.978414 211 211 211 0
-3.204605 5.264708 19.947744 211 211 211 0
-3.122332 5.254656 19.909657 211 211 211 0
-3.060623 5.279574 20.004071 212 212 212 0
-2.999351 5.306545 20.106260 211 211 211 0
-2.927482 5.315691 20.140915 212 212 212 0
-2.847474 5.310155 20.119938 211 211 211 0
-2.764377 5.298390 20.075362 212 212 212 0
-2.692079 5.307241 20.108900 211 211 211 0
-2.619606 5.316260 20.143071 211 211 211 0
-2.565791 5.364837 20.327125 211 211 211 0
-2.489121 5.367166 20.335952 212 212 212 0
-2.409038 5.362051 20.316572 212 212 212 0
-2.323621 5.344329 20.249423 212 212 212 0
-2.244501 5.340365 20.234404 212 212 212 0
-2.172110 5.352699 20.281135 212 212 212 0
-2.102472 5.372984 20.357994 212 212 212 0
-2.032732 5.394559 20.439743 212 212 212 0
-1.943729 5.364692 20.326577 212 212 212 0
-1.858291 5.342585 20.242816 213 213 213 0
-1.779324 5.337972 20.225338 212 212 212 0
-1.701192 5.335558 20.216190 212 212 212 0
-1.627345 5.346991 20.259509 212 212 212 0
-1.556137 5.368673 20.341662 212 212 212 0
-1.479907 5.374401 20.363363 212 212 212 0
-1.399197 5.363587 20.322393 212 212 212 0
-1.321709 5.364583 20.326166 213 213 213 0
-1.246767 5.376681 20.372004 213 213 213 0
-1.169631 5.380301 20.385721 212 212 212 0
-1.092564 5.384780 20.402689 212 212 212 0
-1.014857 5.386549 20.409393 213 213 213 0
-0.938331 5.395405 20.442946 212 212 212 0
-0.861705 5.405238 20.480205 214 214 214 0
-0.783904 5.408937 20.494219 213 213 213 0
-0.706595 5.417225 20.525622 212 212 212 0
-0.628381 5.419788 20.535332 213 213 213 0
-0.551216 5.433415 20.586966 213 213 213 0
-0.472848 5.437755 20.603411 213 213 213 0
-0.393275 5.427192 20.563386 214 214 214 0
-0.313541 5.408585 20.492885 213 213 213 0
-0.235533 5.417248 20.525709 214 214 214 0
-0.157411 5.430688 20.576635 213 213 213 0
-0.078770 5.435109 20.593384 213 213 213 0
0.000000 5.425616 20.557415 213 213 213 0
0.078476 5.414843 20.516596 213 213 213 0
0.156560 5.401315 20.465341 213 213 213 0
0.234737 5.398952 20.456386 214 214 214 0
0.314238 5.420598 20.538402 214 214 214 0
0.393658 5.432484 20.583440 213 213 213 0
0.472137 5.429573 20.572409 214 214 214 0
0.549970 5.421136 20.540443 214 214 214 0
0.628086 5.417244 20.525695 214 214 214 0
0.707415 5.423512 20.549442 214 214 214 0
0.787724 5.435293 20.594080 214 214 214 0
0.868043 5.444995 20.630843 214 214 214 0
0.947352 5.447275 20.639482 214 214 214 0
1.026078 5.446107 20.635057 214 214 214 0
1.104194 5.442099 20.619871 214 214 214 0
1.185933 5.455290 20.669848 214 214 214 0
1.267990 5.468205 20.718784 214 214 214 0
1.349070 5.475638 20.746947 215 215 215 0
1.428042 5.474161 20.741349 214 214 214 0
1.502522 5.456526 20.674532 214 214 214 0
1.577456 5.442225 20.620345 215 215 215 0
1.661767 5.460093 20.688048 214 214 214 0
1.747074 5.479459 20.761425 214 214 214 0
1.823334 5.470003 20.725597 215 215 215 0
1.898279 5.457553 20.678422 215 215 215 0
1.972070 5.442914 20.622959 214 214 214 0
2.047828 5.434619 20.591528 215 215 215 0
2.131049 5.446015 20.634705 215 215 215 0
2.218588 5.467235 20.715107 215 215 215 0
2.299886 5.472143 20.733706 214 214 214 0
2.375496 5.463641 20.701491 214 214 214 0
2.451593 5.456771 20.675460 214 214 214 0
2.532811 5.461374 20.692901 215 215 215 0
2.616302 5.470449 20.727285 215 215 215 0
2.696392 5.472090 20.733503 215 215 215 0
2.775440 5.471581 20.731576 215 215 215 0
2.854330 5.470800 20.728616 215 215 215 0
2.935590 5.474479 20.742555 215 215 215 0
3.014104 5.472979 20.736872 215 215 215 0
3.103525 5.490852 20.804593 215 215 215 0
3.184698 5.493604 20.815018 216 216 216 0
3.266822 5.497822 20.831000 215 215 215 0
3.341810 5.490117 20.801808 215 215 215 0
3.417804 5.484384 20.780084 215 215 215 0
3.494148 5.479459 20.761426 215 215 215 0
3.578587 5.487167 20.790628 215 215 215 0
3.665024 5.497536 20.829919 215 215 215 0
3.736947 5.486156 20.786801 215 215 215 0
3.808343 5.474493 20.742609 216 216 216 0
3.885418 5.471303 20.730521 215 215 215 0
3.963331 5.469397 20.723302 215 215 215 0
4.052280 5.482497 20.772934 216 216 216 0
4.132882 5.484016 20.778692 215 215 215 0
4.212095 5.483670 20.777382 217 217 217 0
4.291801 5.483968 20.778508 215 215 215 0
4.369494 5.481729 20.770024 215 215 215 0
4.451636 5.485051 20.782613 216 216 216 0
4.532355 5.486535 20.788234 216 216 216 0
4.611395 5.485970 20.786093 216 216 216 0
4.695611 5.491478 20.806963 217 217 217 0
4.773118 5.489085 20.797898 216 216 216 0
4.857056 5.494046 20.816696 216 216 216 0
4.941951 5.499914 20.838927 216 216 216 0
5.028128 5.506997 20.865766 216 216 216 0
5.116628 5.516365 20.901259 215 215 215 0
5.189526 5.508881 20.872905 216 216 216 0
5.263913 5.503182 20.851310 216 216 216 0
5.339837 5.499235 20.836357 216 216 216 0
5.426023 5.505817 20.861296 217 217 217 0
5.519427 5.519427 20.912862 216 216 216 0
5.584603 5.504823 20.857526 216 216 216 0
5.653848 5.494585 20.818736 216 216 216 0
5.725795 5.487220 20.790832 216 216 216 0
5.805736 5.487614 20.792322 216 216 216 0
5.886856 5.489095 20.797936 216 216 216 0
5.975557 5.497513 20.829829 216 216 216 0
6.054002 5.496396 20.825599 217 217 217 0
6.123988 5.487729 20.792760 217 217 217 0
6.190309 5.476042 20.748479 216 216 216 0
6.272447 5.478466 20.757664 216 216 216 0
-10.713015 9.373888 35.009854 209 209 209 0
-10.578971 9.373772 35.009418 209 209 209 0
-10.445084 9.373794 35.009500 209 209 209 0
-7.272711 6.611555 24.693017 209 209 209 0
-5.455575 5.024872 18.767027 209 209 209 0
-5.421410 5.059982 18.898160 209 209 209 0
-5.328129 5.040122 18.823987 210 210 210 0
-5.256497 5.040476 18.825308 209 209 209 0
-5.188235 5.044117 18.838906 209 209 209 0
-5.131472 5.059198 18.895229 209 209 209 0
-5.108064 5.108064 19.077736 210 210 210 0
-5.064381 5.137777 19.188711 209 209 209 0
-5.007169 5.154439 19.250939 210 210 210 0
-4.927945 5.148599 19.229130 209 209 209 0
-4.855699 5.149984 19.234299 210 210 210 0
-4.787786 5.156077 19.257058 210 210 210 0
-4.723688 5.166533 19.296110 210 210 210 0
-4.676145 5.195716 19.405103 209 209 209 0
-4.631576 5.229199 19.530154 210 210 210 0
-4.554071 5.225983 19.518143 210 210 210 0
-4.479483 5.226063 19.518443 210 210 210 0
-4.413838 5.236757 19.558384 210 210 210 0
-4.365802 5.269072 19.679073 211 211 211 0
-4.332357 5.320438 19.870917 210 210 210 0
-4.268144 5.335180 19.925974 210 210 210 0
-4.175951 5.314847 19.850036 211 211 211 0
-4.084731 5.295022 19.775991 211 211 211 0
-3.996928 5.278962 19.716011 210 210 210 0
-3.933206 5.294701 19.774792 210 210 210 0
-3.900658 5.353845 19.995685 211 211 211 0
-3.813481 5.338873 19.939769 211 211 211 0
-3.726160 5.323086 19.880807 211 211 211 0
-3.631618 5.296110 19.780054 211 211 211 0
-3.548363 5.284797 19.737802 211 211 211 0
-3.477351 5.291620 19.763288 211 211 211 0
-3.444784 5.358553 20.013270 211 211 211 0
-3.374282 5.368175 20.049208 212 212 212 0
-3.287239 5.351319 19.986253 211 211 211 0
-3.201843 5.336406 19.930553 211 211 211 0
-3.124359 5.334272 19.922584 211 211 211 0
-3.061244 5.357177 20.008130 211 211 211 0
-2.996857 5.378974 20.089539 211 211 211 0
-2.924581 5.387385 20.120954 211 211 211 0
-2.848182 5.388452 20.124939 211 211 211 0
-2.764168 5.374771 20.073840 211 211 211 0
-2.691374 5.382748 20.103634 212 212 212 0
-2.621348 5.396892 20.156460 212 212 212 0
-2.565865 5.442744 20.327709 212 212 212 0
-2.488442 5.443467 20.330410 212 212 212 0
-2.408973 5.439616 20.316028 212 212 212 0
-2.327502 5.430837 20.283239 212 212 212 0
-2.246148 5.421736 20.249248 212 212 212 0
-2.170846 5.427116 20.269340 212 212 212 0
-2.104425 5.455917 20.376909 212 212 212 0
-2.032646 5.472508 20.438872 212 212 212 0
-1.946413 5.449956 20.354645 212 212 212 0
-1.859090 5.422347 20.251529 212 212 212 0
-1.777767 5.410595 20.207636 212 212 212 0
-1.702555 5.417219 20.232379 212 212 212 0
-1.628093 5.426977 20.268824 212 212 212 0
-1.555777 5.445218 20.336950 212 212 212 0
-1.479577 5.451072 20.358811 213 213 213 0
-1.399342 5.441884 20.324499 212 212 212 0
-1.321693 5.442267 20.325926 213 213 213 0
-1.246652 5.454104 20.370135 213 213 213 0
-1.170171 5.460796 20.395131 213 213 213 0
-1.093112 5.465559 20.412920 213 213 213 0
-1.015167 5.466285 20.415631 212 212 212 0
-0.938480 5.474467 20.446189 213 213 213 0
-0.861697 5.483527 20.480025 213 213 213 0
-0.784144 5.489008 20.500496 212 212 212 0
-0.706172 5.492453 20.513362 213 213 213 0
-0.628755 5.501602 20.547534 213 213 213 0
-0.551133 5.511327 20.583856 214 214 214 0
-0.473131 5.519861 20.615729 213 213 213 0
-0.393012 5.502166 20.549641 214 214 214 0
-0.313713 5.489984 20.504144 213 213 213 0
-0.235682 5.499237 20.538702 214 214 214 0
-0.157435 5.510220 20.579719 213 213 213 0
-0.078724 5.510699 20.581510 214 214 214 0
0.000000 5.507079 20.567987 214 214 214 0
0.078427 5.489874 20.503730 213 213 213 0
0.156623 5.481809 20.473610 213 213 213 0
0.234792 5.478480 20.461175 214 214 214 0
0.314085 5.496491 20.528445 214 214 214 0
0.393544 5.509620 20.577481 214 214 214 0
0.472455 5.511971 20.586261 213 213 213 0
0.550245 5.502452 20.550706 214 214 214 0
0.627719 5.492542 20.513696 214 214 214 0
0.707406 5.502049 20.549202 214 214 214 0
0.787663 5.513643 20.592506 214 214 214 0
0.868418 5.526295 20.639759 214 214 214 0
0.947070 5.524573 20.633327 214 214 214 0
1.026265 5.526042 20.638811 215 215 215 0
1.103688 5.518438 20.610413 214 214 214 0
1.186027 5.534790 20.671486 214 214 214 0
1.268248 5.548587 20.723013 214 214 214 0
1.349092 5.555084 20.747281 215 215 215 0
1.427462 5.551241 20.732926 214 214 214 0
1.501852 5.533137 20.665312 215 215 215 0
1.578395 5.524382 20.632614 215 215 215 0
1.661648 5.538827 20.686560 215 215 215 0
1.746959 5.558505 20.760056 214 214 214 0
1.823618 5.550141 20.728817 214 214 214 0
1.899140 5.539159 20.687801 214 214 214 0
1.972873 5.524045 20.631354 215 215 215 0
2.047726 5.513109 20.590509 215 215 215 0
2.130532 5.523601 20.629696 214 214 214 0
2.217745 5.544362 20.707233 214 214 214 0
2.298688 5.548558 20.722906 215 215 215 0
2.375881 5.543721 20.704842 215 215 215 0
2.451517 5.535684 20.674822 215 215 215 0
2.532209 5.539206 20.687979 215 215 215 0
2.616431 5.550005 20.728308 215 215 215 0
2.695848 5.550275 20.729318 215 215 215 0
2.774899 5.549797 20.727534 215 215 215 0
2.853403 5.548283 20.721879 215 215 215 0
2.934104 5.551008 20.732055 215 215 215 0
3.014460 5.552953 20.739322 215 215 215 0
3.101214 5.566281 20.789098 215 215 215 0
3.185480 5.574591 20.820133 215 215 215 0
3.267317 5.578346 20.834157 215 215 215 0
3.341965 5.569942 20.802773 215 215 215 0
3.418348 5.564753 20.783392 215 215 215 0
3.494703 5.559754 20.764722 215 215 215 0
3.579764 5.568522 20.797469 216 216 216 0
3.665385 5.577759 20.831967 215 215 215 0
3.735349 5.563286 20.777911 215 215 215 0
3.807750 5.552969 20.739382 216 216 216 0
3.886183 5.551690 20.734604 216 216 216 0
3.963299 5.548619 20.723133 216 216 216 0
4.052353 5.562054 20.773309 215 215 215 0
4.133370 5.564152 20.781146 216 216 216 0
4.211195 5.561956 20.772945 216 216 216 0
4.291154 5.562607 20.775377 215 215 215 0
4.371482 5.563705 20.779476 216 216 216 0
4.450202 5.562753 20.775920 216 216 216 0
4.532177 5.565831 20.787418 216 216 216 0
4.611581 5.565701 20.786931 216 216 216 0
4.694228 5.569423 20.800832 216 216 216 0
4.773793 5.569426 20.800843 216 216 216 0
4.857893 5.574631 20.820284 216 216 216 0
4.941275 5.578859 20.836074 216 216 216 0
5.028139 5.586821 20.865813 216 216 216 0
5.116112 5.595748 20.899150 217 217 217 0
5.190371 5.589630 20.876304 216 216 216 0
5.265251 5.584357 20.856609 216 216 216 0
5.339433 5.578513 20.834781 216 216 216 0
5.425093 5.584654 20.857719 216 216 216 0
5.518222 5.598197 20.908298 216 216 216 0
5.584799 5.584799 20.858258 216 216 216 0
5.654097 5.574462 20.819652 216 216 216 0
5.725941 5.566887 20.791361 216 216 216 0
5.804935 5.566376 20.789452 216 216 216 0
5.888391 5.570100 20.803360 216 216 216 0
5.976057 5.577653 20.831572 216 216 216 0
6.053661 5.575740 20.824427 216 216 216 0
6.127255 5.570232 20.803854 217 217 217 0
6.191201 5.556206 20.751470 216 216 216 0
6.273234 5.558562 20.760268 217 217 217 0
-10.713005 9.507792 35.009819 208 208 208 0
-10.578983 9.507693 35.009457 209 209 209 0
-10.445102 9.507721 35.009559 208 208 208 0
-7.240921 6.676694 24.585082 209 209 209 0
-5.461653 5.102334 18.787936 209 209 209 0
-5.416404 5.127529 18.880710 209 209 209 0
-5.327456 5.111478 18.821607 208 208 208 0
-5.258382 5.114316 18.832059 209 209 209 0
-5.187205 5.115160 18.835166 209 209 209 0
-5.125889 5.125889 18.874670 210 210 210 0
-5.106638 5.179590 19.072412 209 209 209 0
-5.065630 5.212460 19.193444 210 210 210 0
-5.004051 5.224818 19.238950 209 209 209 0
-4.933563 5.228104 19.251050 210 210 210 0
-4.853071 5.220728 19.223891 210 210 210 0
-4.793587 5.236071 19.280388 209 209 209 0
-4.719364 5.235545 19.278449 209 209 209 0
-4.685450 5.280428 19.443719 210 210 210 0
-4.633413 5.306005 19.537898 210 210 210 0
-4.556029 5.302919 19.526534 209 209 209 0
-4.481130 5.302671 19.525622 210 210 210 0
-4.413791 5.311512 19.558176 210 210 210 0
-4.364339 5.342552 19.672475 210 210 210 0
-4.333287 5.397603 19.875184 210 210 210 0
-4.273091 5.417669 19.949070 211 211 211 0
-4.177095 5.392250 19.855474 210 210 210 0
-4.084417 5.370252 19.774473 210 210 210 0
-4.000120 5.358651 19.731755 210 210 210 0
-3.936611 5.374988 19.791912 210 210 210 0
-3.902238 5.432528 20.003785 210 210 210 0
-3.811550 5.412401 19.929675 210 210 210 0
-3.728446 5.402442 19.893004 211 211 211 0
-3.637786 5.380892 19.813649 211 211 211 0
-3.551262 5.364672 19.753925 211 211 211 0
-3.476862 5.366461 19.760513 210 210 210 0
-3.447239 5.438977 20.027532 211 211 211 0
-3.375315 5.446531 20.055348 211 211 211 0
-3.286505 5.426555 19.981790 211 211 211 0
-3.202581 5.413887 19.935145 211 211 211 0
-3.122367 5.407025 19.909878 211 211 211 0
-3.057669 5.427363 19.984767 212 212 212 0
-2.993787 5.450227 20.068957 211 211 211 0
-2.922494 5.460449 20.106595 211 211 211 0
-2.846444 5.462095 20.112658 211 211 211 0
-2.766489 5.456132 20.090699 212 212 212 0
-2.689798 5.456448 20.091865 211 211 211 0
-2.620842 5.472935 20.152572 212 212 212 0
-2.567782 5.524623 20.342898 212 212 212 0
-2.491560 5.528148 20.355879 211 211 211 0
-2.410016 5.519713 20.324821 211 211 211 0
-2.325502 5.503688 20.265811 212 212 212 0
-2.246061 5.498977 20.248465 212 212 212 0
-2.170606 5.504036 20.267095 212 212 212 0
-2.100801 5.524329 20.341817 212 212 212 0
-2.032188 5.549437 20.434271 212 212 212 0
-1.944499 5.522377 20.334629 212 212 212 0
-1.858042 5.496708 20.240109 211 211 211 0
-1.778722 5.490838 20.218496 212 212 212 0
-1.701694 5.491832 20.222154 212 212 212 0
-1.627841 5.503654 20.265688 213 213 213 0
-1.555763 5.522958 20.336770 212 212 212 0
-1.478520 5.524997 20.344275 212 212 212 0
-1.399344 5.519634 20.324530 213 213 213 0
-1.321966 5.521152 20.330120 212 212 212 0
-1.246986 5.533499 20.375583 213 213 213 0
-1.170067 5.538316 20.393319 212 212 212 0
-1.093213 5.544150 20.414801 213 213 213 0
-1.014671 5.541667 20.405658 213 213 213 0
-0.938266 5.551408 20.441529 213 213 213 0
-0.861179 5.558520 20.467714 213 213 213 0
-0.783716 5.564380 20.489295 213 213 213 0
-0.706444 5.573060 20.521257 213 213 213 0
-0.628740 5.580067 20.547055 213 213 213 0
-0.550668 5.585348 20.566501 213 213 213 0
-0.472583 5.592236 20.591866 213 213 213 0
-0.393219 5.583715 20.560491 213 213 213 0
-0.313627 5.566875 20.498482 213 213 213 0
-0.235691 5.578020 20.539520 213 213 213 0
-0.157376 5.586833 20.571972 213 213 213 0
-0.078652 5.584303 20.562654 213 213 213 0
0.000000 5.583074 20.558130 213 213 213 0
0.078459 5.570590 20.512160 214 214 214 0
0.156588 5.558886 20.469065 214 214 214 0
0.234860 5.558343 20.467064 214 214 214 0
0.314350 5.579721 20.545783 213 213 213 0
0.393688 5.590370 20.584993 214 214 214 0
0.472195 5.587638 20.574935 214 214 214 0
0.549979 5.578361 20.540776 214 214 214 0
0.627909 5.572692 20.519902 214 214 214 0
0.707402 5.580618 20.549085 213 213 213 0
0.787381 5.590403 20.585116 214 214 214 0
0.867713 5.600694 20.623010 213 213 213 0
0.947409 5.605501 20.640711 215 215 215 0
1.025868 5.602819 20.630833 214 214 214 0
1.103897 5.598337 20.614332 214 214 214 0
1.186214 5.614746 20.674752 215 215 215 0
1.268048 5.626963 20.719737 214 214 214 0
1.349294 5.635286 20.750385 214 214 214 0
1.427787 5.631826 20.737644 214 214 214 0
1.502695 5.615332 20.676912 214 214 214 0
1.578274 5.602873 20.631032 214 214 214 0
1.662104 5.619495 20.692240 214 214 214 0
1.746459 5.636301 20.754122 215 215 215 0
1.824098 5.630910 20.734273 215 215 215 0
1.898526 5.616473 20.681112 215 215 215 0
1.972210 5.601078 20.624423 215 215 215 0
2.047780 5.592014 20.591048 214 214 214 0
2.129990 5.601086 20.624454 215 215 215 0
2.218163 5.624627 20.711136 215 215 215 0
2.299632 5.630134 20.731414 214 214 214 0
2.375256 5.621439 20.699397 215 215 215 0
2.450159 5.611654 20.663366 215 215 215 0
2.532530 5.619051 20.690605 215 215 215 0
2.616030 5.628429 20.725136 214 214 214 0
2.695543 5.628929 20.726977 215 215 215 0
2.775865 5.631040 20.734751 215 215 215 0
2.854052 5.628825 20.726595 215 215 215 0
2.934866 5.631769 20.737435 215 215 215 0
3.015417 5.634069 20.745904 215 215 215 0
3.102909 5.648886 20.800463 215 215 215 0
3.185438 5.654153 20.819858 215 215 215 0
3.266433 5.656506 20.828522 215 215 215 0
3.342404 5.650254 20.805500 215 215 215 0
3.418990 5.645310 20.787295 216 216 216 0
3.495169 5.639931 20.767491 215 215 215 0
3.579034 5.646921 20.793228 215 215 215 0
3.663572 5.654643 20.821663 216 216 216 0
3.736262 5.644141 20.782991 215 215 215 0
3.808455 5.633339 20.743217 216 216 216 0
3.887322 5.632651 20.740683 215 215 215 0
3.964079 5.628992 20.727210 215 215 215 0
4.050745 5.639272 20.765064 216 216 216 0
4.131698 5.641357 20.772741 216 216 216 0
4.212593 5.643285 20.779840 216 216 216 0
4.291165 5.642087 20.775429 216 216 216 0
4.370193 5.641521 20.773346 215 215 215 0
4.452065 5.644583 20.784618 216 216 216 0
4.533406 5.646874 20.793055 215 215 215 0
4.612288 5.646077 20.790119 216 216 216 0
4.691838 5.646110 20.790241 216 216 216 0
4.775246 5.650708 20.807174 216 216 216 0
4.858303 5.654746 20.822041 216 216 216 0
4.940762 5.657970 20.833913 215 215 215 0
5.029029 5.667636 20.869504 216 216 216 0
5.115710 5.675241 20.897510 216 216 216 0
5.190434 5.669551 20.876557 217 217 217 0
5.264157 5.662957 20.852277 216 216 216 0
5.340327 5.659153 20.838269 216 216 216 0
5.425219 5.664567 20.858203 216 216 216 0
5.518107 5.678052 20.907859 216 216 216 0
5.584597 5.664377 20.857506 216 216 216 0
5.652986 5.652986 20.815560 216 216 216 0
5.726120 5.646590 20.792011 216 216 216 0
5.802899 5.643915 20.782161 216 216 216 0
5.886913 5.648255 20.798140 216 216 216 0
5.974459 5.655821 20.826001 216 216 216 0
6.054116 5.655819 20.825992 217 217 217 0
6.126902 5.649481 20.802656 216 216 216 0
6.194067 5.638189 20.761076 217 217 217 0
6.276332 5.640754 20.770520 217 217 217 0
-10.713022 9.641720 35.009877 209 209 209 0
-10.578978 9.641600 35.009442 209 209 209 0
-10.445102 9.641633 35.009559 209 209 209 0
-7.303560 6.829302 24.797758 209 209 209 0
-5.466015 5.178330 18.802940 209 209 209 0
-5.422939 5.206021 18.903491 209 209 209 0
-5.327131 5.183155 18.820460 209 209 209 0
-5.249314 5.177406 18.799586 209 209 209 0
-5.191222 5.191222 18.849751 210 210 210 0
-5.135514 5.207846 18.910115 209 209 209 0
-5.107118 5.253036 19.074204 209 209 209 0
-5.065098 5.285319 19.191429 209 209 209 0
