ply
    format ascii 1.0
    element vertex 25600
    property float x
    property float y
    property float z
    property uchar red
    property uchar green
    property uchar blue
    property uchar alpha
    end_header
5.757774 2.489848 20.341899 218 218 218 0
5.830332 2.487609 20.323599 218 218 218 0
5.902707 2.485350 20.305148 217 217 217 0
5.998150 2.492738 20.365504 218 218 218 0
6.083570 2.495824 20.390715 217 217 217 0
6.175775 2.501580 20.437743 217 217 217 0
-10.712961 4.419097 35.009677 210 210 210 0
-10.578820 4.419001 35.008919 210 210 210 0
-10.444818 4.418962 35.008608 210 210 210 0
-10.250302 4.392986 34.802824 210 210 210 0
-5.369304 2.331408 18.470257 210 210 210 0
-5.293583 2.329177 18.452578 210 210 210 0
-5.222939 2.329149 18.452355 209 209 209 0
-5.145737 2.326155 18.428642 210 210 210 0
-5.079980 2.328324 18.445825 210 210 210 0
-5.016637 2.331676 18.472381 210 210 210 0
-4.982637 2.348957 18.609288 210 210 210 0
-4.934898 2.360169 18.698108 210 210 210 0
-4.856349 2.356758 18.671085 210 210 210 0
-4.806135 2.367201 18.753821 211 211 211 0
-4.744144 2.372072 18.792412 211 211 211 0
-4.695261 2.383748 18.884909 211 211 211 0
-4.630975 2.387846 18.917380 211 211 211 0
-4.559348 2.388230 18.920419 210 210 210 0
-4.519149 2.405353 19.056077 210 210 210 0
-4.461976 2.413856 19.123436 211 211 211 0
-4.381522 2.409837 19.091598 211 211 211 0
-4.320785 2.416710 19.146053 211 211 211 0
-4.259691 2.423617 19.200770 211 211 211 0
-4.206910 2.435580 19.295540 211 211 211 0
-4.165134 2.454454 19.445068 211 211 211 0
-4.098906 2.459344 19.483809 211 211 211 0
-4.005566 2.447846 19.392716 212 212 212 0
-3.918292 2.439691 19.328114 212 212 212 0
-3.834609 2.433502 19.279079 211 211 211 0
-3.787029 2.450430 19.413193 212 212 212 0
-3.754672 2.478084 19.632272 212 212 212 0
-3.668940 2.470919 19.575508 211 211 211 0
-3.573352 2.456680 19.462703 212 212 212 0
-3.477252 2.441475 19.342246 212 212 212 0
-3.393518 2.434480 19.286830 212 212 212 0
-3.326030 2.439089 19.323343 212 212 212 0
-3.288547 2.466410 19.539790 212 212 212 0
-3.223567 2.473901 19.599133 212 212 212 0
-3.134967 2.463188 19.514266 211 211 211 0
-3.050298 2.455118 19.450329 212 212 212 0
-2.975687 2.454942 19.448934 212 212 212 0
-2.913688 2.465428 19.532011 212 212 212 0
-2.856624 2.480753 19.653417 213 213 213 0
-2.783938 2.482972 19.670996 212 212 212 0
-2.707674 2.482035 19.663576 212 212 212 0
-2.628806 2.478588 19.636271 212 212 212 0
-2.557469 2.482249 19.665271 213 213 213 0
-2.486962 2.486962 19.702612 212 212 212 0
-2.429247 2.505161 19.846792 213 213 213 0
-2.356218 2.508232 19.871122 213 213 213 0
-2.283885 2.512273 19.903134 213 213 213 0
-2.205384 2.509575 19.881758 213 213 213 0
-2.120262 2.498881 19.797034 213 213 213 0
-2.046828 2.501679 19.819202 212 212 212 0
-1.979792 2.512813 19.907414 213 213 213 0
-1.908083 2.518670 19.953809 213 213 213 0
-1.824474 2.508652 19.874449 213 213 213 0
-1.743241 2.501171 19.815181 213 213 213 0
-1.665571 2.498356 19.792876 213 213 213 0
-1.590281 2.499012 19.798078 213 213 213 0
-1.517587 2.504019 19.837742 213 213 213 0
-1.446466 2.512283 19.903213 214 214 214 0
-1.369527 2.510800 19.891463 213 213 213 0
-1.291373 2.506783 19.859640 213 213 213 0
-1.215671 2.507321 19.863900 213 213 213 0
-1.142048 2.512505 19.904972 214 214 214 0
-1.068384 2.518333 19.951143 213 213 213 0
-0.992177 2.518604 19.953293 213 213 213 0
-0.915171 2.516721 19.938372 214 214 214 0
-0.839574 2.518722 19.954223 213 213 213 0
-0.764786 2.523793 19.994403 214 214 214 0
-0.688960 2.526188 20.013370 214 214 214 0
-0.612440 2.526317 20.014395 214 214 214 0
-0.536646 2.529903 20.042808 214 214 214 0
-0.461130 2.536213 20.092792 214 214 214 0
-0.385320 2.543110 20.147436 214 214 214 0
-0.307982 2.540853 20.129554 214 214 214 0
-0.230572 2.536295 20.093444 215 215 215 0
-0.153334 2.530010 20.043650 215 215 215 0
-0.076833 2.535492 20.087082 214 214 214 0
0.000000 2.544331 20.157110 215 215 215 0
0.076952 2.539432 20.118298 214 214 214 0
0.153671 2.535572 20.087713 215 215 215 0
0.230068 2.530752 20.049530 214 214 214 0
0.306234 2.526432 20.015302 214 214 214 0
0.382804 2.526504 20.015880 215 215 215 0
0.461067 2.535868 20.090060 214 214 214 0
0.539212 2.542000 20.138639 215 215 215 0
0.616059 2.541243 20.132644 215 215 215 0
0.691377 2.535048 20.083567 214 214 214 0
0.768146 2.534881 20.082240 215 215 215 0
0.845692 2.537076 20.099630 215 215 215 0
0.924381 2.542047 20.139013 215 215 215 0
1.002687 2.545283 20.164648 216 216 216 0
1.080203 2.546193 20.171862 215 215 215 0
1.156512 2.544327 20.157075 215 215 215 0
1.233863 2.544842 20.161156 216 216 216 0
1.314803 2.552264 20.219960 215 215 215 0
1.394720 2.556986 20.257368 215 215 215 0
1.475016 2.561870 20.296055 215 215 215 0
1.550534 2.558382 20.268425 215 215 215 0
1.623048 2.550504 20.206010 215 215 215 0
1.697333 2.546000 20.170328 215 215 215 0
1.779398 2.553049 20.226176 215 215 215 0
1.862558 2.561018 20.289306 216 216 216 0
1.936965 2.556794 20.255845 216 216 216 0
2.011673 2.553277 20.227985 216 216 216 0
2.083796 2.546862 20.177161 216 216 216 0
2.158268 2.543673 20.151899 216 216 216 0
2.237675 2.546320 20.172867 215 215 215 0
2.323496 2.555846 20.248335 216 216 216 0
2.402106 2.557081 20.258119 215 215 215 0
2.476956 2.554361 20.236572 216 216 216 0
2.550489 2.550489 20.205891 216 216 216 0
2.629730 2.552385 20.220912 216 216 216 0
2.711695 2.556741 20.255423 216 216 216 0
2.790537 2.557992 20.265336 216 216 216 0
2.866619 2.556714 20.255212 215 215 215 0
2.943575 2.556263 20.251636 217 217 217 0
3.020589 2.555883 20.248630 216 216 216 0
3.104492 2.561206 20.290796 216 216 216 0
3.187049 2.565186 20.322328 216 216 216 0
3.270281 2.569507 20.356558 216 216 216 0
3.350265 2.571133 20.369446 216 216 216 0
3.425217 2.568912 20.351851 216 216 216 0
3.496882 2.564380 20.315943 217 217 217 0
3.570021 2.561102 20.289975 216 216 216 0
3.652399 2.564450 20.316500 216 216 216 0
3.736558 2.568884 20.351625 216 216 216 0
3.810558 2.566294 20.331110 217 217 217 0
3.883413 2.563053 20.305430 216 216 216 0
3.957596 2.560797 20.287561 216 216 216 0
4.032550 2.559118 20.274260 217 217 217 0
4.108171 2.557918 20.264748 216 216 216 0
4.193569 2.562737 20.302925 217 217 217 0
4.276036 2.565622 20.325780 217 217 217 0
4.353279 2.565325 20.323432 217 217 217 0
4.427805 2.563466 20.308705 217 217 217 0
4.510090 2.566086 20.329459 217 217 217 0
4.585616 2.564836 20.319556 217 217 217 0
4.664357 2.565396 20.323996 217 217 217 0
4.745306 2.567133 20.337751 217 217 217 0
4.823954 2.567588 20.341360 217 217 217 0
4.902680 2.568071 20.345182 217 217 217 0
4.979818 2.567719 20.342394 217 217 217 0
5.066255 2.572099 20.377094 217 217 217 0
5.153112 2.576556 20.412408 217 217 217 0
5.230946 2.576436 20.411457 217 217 217 0
5.302701 2.573370 20.387163 217 217 217 0
5.380522 2.573293 20.386558 218 218 218 0
5.452211 2.570328 20.363067 216 216 216 0
5.087971 2.364832 18.735049 218 218 218 0
5.619330 2.575526 20.404250 217 217 217 0
5.693877 2.573945 20.391718 217 217 217 0
5.756960 2.567293 20.339020 218 218 218 0
5.829325 2.564903 20.320087 217 217 217 0
5.902326 2.562852 20.303839 217 217 217 0
5.999182 2.571078 20.369009 218 218 218 0
6.083619 2.573839 20.390881 217 217 217 0
6.177375 2.580422 20.443038 217 217 217 0
-10.712951 4.553004 35.009643 209 209 209 0
-10.578831 4.552914 35.008954 210 210 210 0
-10.444822 4.552871 35.008621 210 210 210 0
-10.249966 4.525959 34.801683 210 210 210 0
-5.378571 2.406203 18.502138 210 210 210 0
-5.290321 2.398279 18.441206 210 210 210 0
-5.223951 2.400194 18.455930 210 210 210 0
-5.148095 2.397743 18.437083 210 210 210 0
-5.087113 2.402248 18.471726 210 210 210 0
-5.018485 2.403218 18.479185 210 210 210 0
-4.980885 2.419287 18.602745 211 211 211 0
-4.927453 2.428021 18.669900 211 211 211 0
-4.865707 2.432854 18.707065 211 211 211 0
-4.807962 2.439861 18.760946 210 210 210 0
-4.747543 2.445704 18.805873 211 211 211 0
-4.699239 2.458064 18.900912 211 211 211 0
-4.623095 2.456019 18.885192 211 211 211 0
-4.558563 2.460177 18.917162 211 211 211 0
-4.520335 2.478894 19.061081 211 211 211 0
-4.458796 2.485231 19.109810 211 211 211 0
-4.389873 2.487595 19.127986 211 211 211 0
-4.317066 2.487801 19.129572 211 211 211 0
-4.261429 2.498079 19.208603 211 211 211 0
-4.206950 2.509409 19.295724 211 211 211 0
-4.161623 2.526699 19.428677 211 211 211 0
-4.097483 2.532989 19.477043 211 211 211 0
-4.002623 2.520170 19.378468 211 211 211 0
-3.915071 2.511555 19.312224 211 211 211 0
-3.834377 2.507093 19.277915 212 212 212 0
-3.787152 2.524768 19.413827 211 211 211 0
-3.759834 2.556687 19.659263 211 211 211 0
-3.667693 2.544930 19.568855 212 212 212 0
-3.573528 2.531249 19.463659 211 211 211 0
-3.478043 2.516031 19.346645 212 212 212 0
-3.392243 2.507310 19.279583 212 212 212 0
-3.327394 2.514031 19.331267 212 212 212 0
-3.287106 2.540037 19.531232 212 212 212 0
-3.225758 2.550599 19.612449 212 212 212 0
-3.133752 2.536847 19.506702 212 212 212 0
-3.049481 2.528838 19.445117 212 212 212 0
-2.973915 2.527828 19.437352 213 213 213 0
-2.911323 2.538077 19.516161 212 212 212 0
-2.856947 2.556216 19.655639 213 213 213 0
-2.781617 2.556080 19.654598 212 212 212 0
-2.708640 2.558160 19.670585 212 212 212 0
-2.627618 2.552543 19.627401 212 212 212 0
-2.556621 2.556621 19.658755 213 213 213 0
-2.488900 2.564321 19.717966 213 213 213 0
-2.429182 2.581006 19.846256 213 213 213 0
-2.358934 2.587218 19.894029 213 213 213 0
-2.283956 2.588484 19.903759 213 213 213 0
-2.204858 2.585005 19.877012 213 213 213 0
-2.121361 2.575939 19.807297 213 213 213 0
-2.044881 2.575035 19.800345 214 214 214 0
-1.978192 2.586866 19.891321 213 213 213 0
-1.907401 2.594065 19.946678 214 214 214 0
-1.825358 2.585924 19.884074 213 213 213 0
-1.741842 2.574897 19.799285 214 214 214 0
-1.664224 2.571983 19.776879 214 214 214 0
-1.590308 2.574784 19.798417 213 213 213 0
-1.516685 2.578364 19.825947 213 213 213 0
-1.446251 2.588028 19.900256 214 214 214 0
-1.370471 2.588668 19.905171 214 214 214 0
-1.292390 2.584780 19.875282 214 214 214 0
-1.215495 2.582926 19.861026 213 213 213 0
-1.141825 2.588137 19.901093 214 214 214 0
-1.068414 2.594720 19.951709 213 213 213 0
-0.992200 2.594984 19.953742 214 214 214 0
-0.914851 2.592078 19.931399 214 214 214 0
-0.839863 2.595941 19.961098 214 214 214 0
-0.764173 2.598187 19.978367 213 213 213 0
-0.689095 2.603247 20.017275 214 214 214 0
-0.612558 2.603372 20.018236 213 213 213 0
-0.536794 2.607286 20.048332 214 214 214 0
-0.461180 2.613352 20.094976 214 214 214 0
-0.385328 2.620231 20.147876 214 214 214 0
-0.308195 2.619660 20.143484 214 214 214 0
-0.230459 2.611866 20.083555 215 215 215 0
-0.153372 2.607322 20.048610 214 214 214 0
-0.076730 2.608816 20.060099 214 214 214 0
0.000000 2.621288 20.156004 214 214 214 0
0.076990 2.617671 20.128190 214 214 214 0
0.153625 2.611620 20.081658 215 215 215 0
0.230083 2.607611 20.050837 214 214 214 0
0.306169 2.602434 20.011028 214 214 214 0
0.382599 2.601675 20.005191 214 214 214 0
0.461164 2.613262 20.094287 214 214 214 0
0.539372 2.619805 20.144595 215 215 215 0
0.615783 2.617077 20.123618 215 215 215 0
0.691342 2.611736 20.082553 215 215 215 0
0.768398 2.612552 20.088828 216 216 216 0
0.845827 2.614373 20.102831 215 215 215 0
0.924076 2.618216 20.132382 215 215 215 0
1.002145 2.620995 20.153745 215 215 215 0
1.079485 2.621607 20.158457 215 215 215 0
1.157025 2.622590 20.166011 215 215 215 0
1.233492 2.621171 20.155100 215 215 215 0
1.314025 2.628050 20.207995 215 215 215 0
1.394810 2.634640 20.258672 215 215 215 0
1.474718 2.638970 20.291963 215 215 215 0
1.550416 2.635707 20.266877 216 216 216 0
1.622189 2.626401 20.195318 215 215 215 0
1.697526 2.623449 20.172616 215 215 215 0
1.779472 2.630524 20.227023 215 215 215 0
1.862715 2.638847 20.291018 216 216 216 0
1.937005 2.634327 20.256265 216 216 216 0
2.011551 2.630490 20.226761 216 216 216 0
2.083769 2.624006 20.176899 216 216 216 0
2.157731 2.620101 20.146877 215 215 215 0
2.237702 2.623512 20.173104 215 215 215 0
2.323940 2.633799 20.252202 216 216 216 0
2.401826 2.634260 20.255750 216 216 216 0
2.475587 2.630311 20.225386 216 216 216 0
2.550861 2.628160 20.208844 216 216 216 0
2.629173 2.629173 20.216631 216 216 216 0
2.711721 2.634244 20.255622 216 216 216 0
2.789803 2.634814 20.260008 216 216 216 0
2.867903 2.635370 20.264286 217 217 217 0
2.944029 2.634131 20.254756 216 216 216 0
3.022932 2.635377 20.264336 217 217 217 0
3.105533 2.639703 20.297599 216 216 216 0
3.187875 2.643604 20.327594 217 217 217 0
3.269350 2.646617 20.350762 217 217 217 0
3.349306 2.648288 20.363615 216 216 216 0
3.425032 2.646615 20.350752 216 216 216 0
3.497021 2.642194 20.316752 217 217 217 0
3.571126 2.639528 20.296253 217 217 217 0
3.652454 2.642200 20.316805 217 217 217 0
3.738669 2.648224 20.363120 216 216 216 0
3.809986 2.643664 20.328055 217 217 217 0
3.883485 2.640770 20.305806 216 216 216 0
3.956876 2.637917 20.283870 216 216 216 0
4.030825 2.635539 20.265584 216 216 216 0
4.109244 2.636119 20.270039 217 217 217 0
4.194488 2.640974 20.307374 216 216 216 0
4.275508 2.643041 20.323270 217 217 217 0
4.351720 2.642116 20.316154 216 216 216 0
4.427098 2.640725 20.305459 217 217 217 0
4.508987 2.643199 20.324484 217 217 217 0
4.587091 2.643408 20.326093 217 217 217 0
4.663420 2.642605 20.319914 217 217 217 0
4.746080 2.645356 20.341068 217 217 217 0
4.824068 2.645457 20.341842 217 217 217 0
4.902557 2.645824 20.344670 217 217 217 0
4.980358 2.645815 20.344599 217 217 217 0
5.065154 2.649465 20.372666 217 217 217 0
5.153027 2.654590 20.412069 217 217 217 0
5.231043 2.654559 20.411835 217 217 217 0
5.303112 2.651556 20.388743 217 217 217 0
5.379843 2.650937 20.383985 217 217 217 0
5.453212 2.648703 20.366806 217 217 217 0
5.030010 2.408737 18.521625 217 217 217 0
5.619787 2.653788 20.405909 218 218 218 0
5.693002 2.651535 20.388582 218 218 218 0
5.758248 2.645682 20.343572 218 218 218 0
5.831174 2.643466 20.326532 217 217 217 0
5.904307 2.641401 20.310655 218 218 218 0
6.002129 2.650291 20.379014 217 217 217 0
6.084397 2.652173 20.393487 217 217 217 0
6.178521 2.659110 20.446829 218 218 218 0
-10.712951 4.686916 35.009645 210 210 210 0
-10.578829 4.686823 35.008950 210 210 210 0
-10.444823 4.686780 35.008625 210 210 210 0
-10.250064 4.659120 34.802015 210 210 210 0
-5.370409 2.473214 18.474058 210 210 210 0
-5.284040 2.465885 18.419311 210 210 210 0
-5.221336 2.469551 18.446690 210 210 210 0
-5.154675 2.471420 18.460651 210 210 210 0
-5.090525 2.474561 18.484113 210 210 210 0
-5.015223 2.472293 18.467176 210 210 210 0
-4.980458 2.490229 18.601150 210 210 210 0
-4.927662 2.499538 18.670689 210 210 210 0
-4.860434 2.501694 18.686792 210 210 210 0
-4.806358 2.510784 18.754689 211 211 211 0
-4.745143 2.516364 18.796368 211 211 211 0
-4.696771 2.529031 18.890986 210 210 210 0
-4.629066 2.531521 18.909585 211 211 211 0
-4.562600 2.534778 18.933915 211 211 211 0
-4.519361 2.551252 19.056973 211 211 211 0
-4.468777 2.564052 19.152586 211 211 211 0
-4.385580 2.558255 19.109279 211 211 211 0
-4.322769 2.564354 19.154841 212 212 212 0
-4.254419 2.567322 19.177007 212 212 212 0
-4.207392 2.583486 19.297751 211 211 211 0
-4.160444 2.600278 19.423177 211 211 211 0
-4.094649 2.605686 19.463572 211 211 211 0
-4.006144 2.596575 19.395515 212 212 212 0
-3.912944 2.584020 19.301735 211 211 211 0
-3.835702 2.581723 19.284577 211 211 211 0
-3.783682 2.596644 19.396036 211 211 211 0
-3.758242 2.630770 19.650940 211 211 211 0
-3.665913 2.618509 19.559361 211 211 211 0
-3.575042 2.606802 19.471908 212 212 212 0
-3.480860 2.592130 19.362314 212 212 212 0
-3.393355 2.581901 19.285907 212 212 212 0
-3.329128 2.589322 19.341341 212 212 212 0
-3.286328 2.614124 19.526605 212 212 212 0
-3.225178 2.625145 19.608925 212 212 212 0
-3.134209 2.611841 19.509549 212 212 212 0
-3.049489 2.603223 19.445174 212 212 212 0
-2.974640 2.602810 19.442090 212 212 212 0
-2.911851 2.613199 19.519697 212 212 212 0
-2.858561 2.632885 19.666741 212 212 212 0
-2.780585 2.630283 19.647308 212 212 212 0
-2.707375 2.632170 19.661399 213 213 213 0
-2.627175 2.627175 19.624087 212 212 212 0
-2.556239 2.631423 19.655819 213 213 213 0
-2.489066 2.639918 19.719277 213 213 213 0
-2.428604 2.656285 19.841534 213 213 213 0
-2.359859 2.664357 19.901828 212 212 212 0
-2.284250 2.664959 19.906322 213 213 213 0
-2.202862 2.658627 19.859022 213 213 213 0
-2.119370 2.649212 19.788699 213 213 213 0
-2.046671 2.653092 19.817682 213 213 213 0
-1.979498 2.664709 19.904458 213 213 213 0
-1.907638 2.670693 19.949157 213 213 213 0
-1.825304 2.661901 19.883484 213 213 213 0
-1.741488 2.650090 19.795260 213 213 213 0
-1.665676 2.649939 19.794131 213 213 213 0
-1.591773 2.652955 19.816654 214 214 214 0
-1.517133 2.654982 19.831798 213 213 213 0
-1.446460 2.664531 19.903129 214 214 214 0
-1.369726 2.663357 19.894355 213 213 213 0
-1.292310 2.660639 19.874053 213 213 213 0
-1.215988 2.659973 19.869083 214 214 214 0
-1.141556 2.663632 19.896409 214 214 214 0
-1.068489 2.671222 19.953103 214 214 214 0
-0.992108 2.671060 19.951897 214 214 214 0
-0.915018 2.668803 19.935040 213 213 213 0
-0.839982 2.672670 19.963923 214 214 214 0
-0.764505 2.675769 19.987070 214 214 214 0
-0.688669 2.678155 20.004896 214 214 214 0
-0.612389 2.679202 20.012713 213 213 213 0
-0.536774 2.683870 20.047585 214 214 214 0
-0.460851 2.688299 20.080664 215 215 215 0
-0.385186 2.696300 20.140428 215 215 215 0
-0.308026 2.695226 20.132408 215 215 215 0
-0.230448 2.688566 20.082656 215 215 215 0
-0.153358 2.683762 20.046772 214 214 214 0
-0.076769 2.686931 20.070445 215 215 215 0
0.000000 2.696772 20.143958 214 214 214 0
0.076994 2.694786 20.129118 215 215 215 0
0.153743 2.690499 20.097101 214 214 214 0
0.230065 2.684097 20.049279 215 215 215 0
0.306177 2.679048 20.011559 215 215 215 0
0.382837 2.679860 20.017628 215 215 215 0
0.460975 2.689021 20.086058 214 214 214 0
0.539192 2.695961 20.137901 214 214 214 0
0.615628 2.693373 20.118565 215 215 215 0
0.691086 2.687558 20.075132 215 215 215 0
0.767803 2.687309 20.073273 215 215 215 0
0.845939 2.691625 20.105511 214 214 214 0
0.924214 2.695624 20.135381 215 215 215 0
1.001955 2.697571 20.149925 214 214 214 0
1.079403 2.698507 20.156916 214 214 214 0
1.156053 2.697457 20.149070 215 215 215 0
1.233537 2.698362 20.155834 215 215 215 0
1.313936 2.705162 20.206623 216 216 216 0
1.394612 2.711746 20.255807 215 215 215 0
1.474016 2.715293 20.282304 215 215 215 0
1.549807 2.712162 20.258917 216 216 216 0
1.623139 2.705231 20.207142 216 216 216 0
1.697077 2.699895 20.167285 215 215 215 0
1.779231 2.707526 20.224281 215 215 215 0
1.863086 2.717000 20.295052 215 215 215 0
1.936012 2.710417 20.245878 215 215 215 0
2.011395 2.707647 20.225184 215 215 215 0
2.082978 2.700157 20.169239 216 216 216 0
2.157190 2.696487 20.141829 216 216 216 0
2.237575 2.700521 20.171960 216 216 216 0
2.324480 2.711893 20.256906 216 216 216 0
2.402271 2.712241 20.259505 216 216 216 0
2.475563 2.707647 20.225189 216 216 216 0
2.549269 2.703770 20.196227 216 216 216 0
2.629607 2.706948 20.219970 216 216 216 0
2.711962 2.711962 20.257416 216 216 216 0
2.791138 2.713606 20.269702 216 216 216 0
2.867781 2.712766 20.263426 216 216 216 0
2.944149 2.711716 20.255584 216 216 216 0
3.020298 2.710524 20.246675 216 216 216 0
3.104665 2.716582 20.291926 216 216 216 0
3.187548 2.721078 20.325512 216 216 216 0
3.270730 2.725608 20.359354 216 216 216 0
3.349289 2.726166 20.363516 217 217 217 0
3.424715 2.724205 20.348870 216 216 216 0
3.497171 2.720022 20.317621 217 217 217 0
3.571792 2.717668 20.300039 216 216 216 0
3.654791 2.721653 20.329809 216 216 216 0
3.737990 2.725617 20.359420 216 216 216 0
3.812389 2.723135 20.340879 216 216 216 0
3.884321 2.719025 20.310176 217 217 217 0
3.957231 2.715747 20.285691 216 216 216 0
4.029882 2.712421 20.260844 216 216 216 0
4.109814 2.714028 20.272853 216 216 216 0
4.193011 2.717692 20.300224 217 217 217 0
4.274234 2.719967 20.317215 217 217 217 0
4.352421 2.720263 20.319428 216 216 216 0
4.427583 2.718692 20.307687 216 216 216 0
4.509500 2.721250 20.326797 217 217 217 0
4.586170 2.720609 20.322012 217 217 217 0
4.664870 2.721174 20.326230 218 218 218 0
4.745692 2.722938 20.339408 217 217 217 0
4.824043 2.723250 20.341737 217 217 217 0
4.901707 2.723170 20.341142 217 217 217 0
4.980400 2.723656 20.344772 216 216 216 0
5.066990 2.728379 20.380050 217 217 217 0
5.153999 2.733181 20.415920 217 217 217 0
5.233222 2.733773 20.420338 217 217 217 0
5.304400 2.730206 20.393696 218 218 218 0
5.381337 2.729664 20.389646 217 217 217 0
5.459506 2.729753 20.390310 216 216 216 0
4.975635 2.452778 18.321403 217 217 217 0
5.621119 2.732488 20.410745 218 218 218 0
5.692083 2.729081 20.385290 217 217 217 0
5.758982 2.723843 20.346165 217 217 217 0
5.831609 2.721418 20.328050 217 217 217 0
5.905463 2.719621 20.314631 218 218 218 0
6.002731 2.728514 20.381057 217 217 217 0
6.083630 2.729834 20.390918 217 217 217 0
6.178987 2.737526 20.448374 217 217 217 0
-10.712964 4.820834 35.009687 210 210 210 0
-10.578826 4.820731 35.008939 210 210 210 0
-10.444825 4.820689 35.008632 210 210 210 0
-10.249828 4.792127 34.801214 210 210 210 0
-5.374328 2.545734 18.487541 210 210 210 0
-5.284865 2.536735 18.422188 211 211 211 0
-5.223746 2.541282 18.455206 210 210 210 0
-5.151081 2.540259 18.447780 211 211 211 0
-5.082139 2.541069 18.453663 210 210 210 0
-5.012078 2.541335 18.455593 210 210 210 0
-4.977987 2.560107 18.591920 210 210 210 0
-4.926024 2.570100 18.664485 210 210 210 0
-4.873469 2.580072 18.736907 210 210 210 0
-4.807290 2.583022 18.758327 211 211 211 0
-4.750784 2.591337 18.818714 210 210 210 0
-4.692567 2.598960 18.874077 211 211 211 0
-4.631169 2.605032 18.918172 211 211 211 0
-4.565173 2.608670 18.944592 211 211 211 0
-4.516515 2.622493 19.044973 210 210 210 0
-4.463572 2.634239 19.130279 210 210 210 0
-4.389486 2.633691 19.126300 211 211 211 0
-4.317923 2.634665 19.133371 211 211 211 0
-4.251711 2.638993 19.164800 210 210 210 0
-4.199502 2.652317 19.261561 211 211 211 0
-4.161431 2.675206 19.427782 211 211 211 0
-4.098291 2.682518 19.480885 211 211 211 0
-4.001524 2.667683 19.373149 212 212 212 0
-3.918884 2.661883 19.331035 211 211 211 0
-3.834501 2.654654 19.278535 212 212 212 0
-3.785352 2.672013 19.404600 211 211 211 0
-3.753561 2.702564 19.626462 212 212 212 0
-3.666876 2.694031 19.564496 212 212 212 0
-3.573760 2.680320 19.464926 211 211 211 0
-3.480531 2.665938 19.360481 212 212 212 0
-3.394252 2.656371 19.291001 211 211 211 0
-3.324976 2.659981 19.317217 212 212 212 0
-3.286747 2.689157 19.529097 212 212 212 0
-3.223179 2.698476 19.596772 212 212 212 0
-3.134197 2.686454 19.509473 213 213 213 0
-3.051234 2.679132 19.456297 212 212 212 0
-2.976187 2.678568 19.452200 212 212 212 0
-2.914111 2.689948 19.534846 212 212 212 0
-2.854868 2.704611 19.641332 212 212 212 0
-2.781147 2.705981 19.651278 213 213 213 0
-2.708778 2.708778 19.671590 213 213 213 0
-2.630048 2.705192 19.645552 213 213 213 0
-2.558972 2.709500 19.676834 213 213 213 0
-2.488357 2.714571 19.713658 213 213 213 0
-2.430709 2.734547 19.858732 213 213 213 0
-2.361245 2.742091 19.913516 213 213 213 0
-2.284063 2.740876 19.904692 213 213 213 0
-2.202452 2.734079 19.855330 212 212 212 0
-2.120640 2.726537 19.800560 213 213 213 0
-2.047308 2.729744 19.823847 213 213 213 0
-1.979546 2.740909 19.904934 213 213 213 0
-1.908474 2.748203 19.957903 213 213 213 0
-1.825524 2.738285 19.885878 213 213 213 0
-1.743333 2.728696 19.816237 213 213 213 0
-1.665647 2.725605 19.793791 213 213 213 0
-1.590319 2.726260 19.798550 214 214 214 0
-1.516760 2.730167 19.826923 214 214 214 0
-1.445659 2.739144 19.892111 213 213 213 0
-1.369054 2.738107 19.884585 214 214 214 0
-1.291422 2.734777 19.860398 213 213 213 0
-1.216487 2.737096 19.877239 213 213 213 0
-1.141380 2.739311 19.893326 214 214 214 0
-1.068255 2.746942 19.948747 213 213 213 0
-0.991889 2.746771 19.947500 214 214 214 0
-0.915241 2.745722 19.939882 214 214 214 0
-0.839640 2.747912 19.955787 213 213 213 0
-0.763859 2.749891 19.970159 213 213 213 0
-0.688259 2.753035 19.992995 213 213 213 0
-0.612611 2.756749 20.019964 215 215 215 0
-0.537074 2.762095 20.058788 214 214 214 0
-0.460960 2.765760 20.085401 214 214 214 0
-0.385020 2.772142 20.131751 214 214 214 0
-0.308007 2.772066 20.131195 214 214 214 0
-0.230372 2.764463 20.075983 214 214 214 0
-0.153311 2.759602 20.040686 214 214 214 0
-0.076752 2.763085 20.065975 214 214 214 0
0.000000 2.776341 20.162244 215 215 215 0
0.076989 2.771613 20.127906 214 214 214 0
0.153668 2.766032 20.087378 215 215 215 0
0.230091 2.761089 20.051480 215 215 215 0
0.306209 2.755884 20.013679 215 215 215 0
0.382576 2.754548 20.003981 215 215 215 0
0.460794 2.764762 20.078153 215 215 215 0
0.539264 2.773356 20.140564 215 215 215 0
0.615947 2.771760 20.128977 215 215 215 0
0.691227 2.764908 20.079213 215 215 215 0
0.768074 2.765067 20.080371 215 215 215 0
0.846182 2.769322 20.111268 215 215 215 0
0.924303 2.772908 20.137313 215 215 215 0
1.002386 2.775839 20.158598 216 216 216 0
1.080292 2.777893 20.173514 215 215 215 0
1.156444 2.775465 20.155880 216 216 216 0
1.232907 2.774041 20.145544 215 215 215 0
1.314310 2.783246 20.212386 215 215 215 0
1.394182 2.788365 20.249561 215 215 215 0
1.474311 2.793431 20.286351 216 216 216 0
1.549566 2.789219 20.255765 215 215 215 0
1.622346 2.781165 20.197278 215 215 215 0
1.696515 2.776115 20.160603 216 216 216 0
1.779038 2.784581 20.222081 215 215 215 0
1.862085 2.793128 20.284154 215 215 215 0
1.936069 2.787940 20.246475 215 215 215 0
2.011175 2.784704 20.222979 215 215 215 0
2.083097 2.777463 20.170390 216 216 216 0
2.157404 2.773806 20.143832 216 216 216 0
2.236684 2.776573 20.163930 216 216 216 0
2.323489 2.788187 20.248271 216 216 216 0
2.402071 2.789501 20.257816 216 216 216 0
2.476315 2.785854 20.231331 216 216 216 0
2.549669 2.781457 20.199397 216 216 216 0
2.629815 2.784510 20.221566 216 216 216 0
2.712800 2.790309 20.263680 215 215 215 0
2.791883 2.791883 20.275114 216 216 216 0
2.868076 2.790560 20.265507 216 216 216 0
2.945167 2.790158 20.262589 216 216 216 0
3.020089 2.787775 20.245277 216 216 216 0
3.104196 2.793777 20.288864 216 216 216 0
3.187156 2.798478 20.323010 216 216 216 0
3.269473 2.802406 20.351531 216 216 216 0
3.350576 2.805133 20.371338 216 216 216 0
3.425508 2.802689 20.353584 217 217 217 0
3.497334 2.797867 20.318573 216 216 216 0
3.571267 2.794904 20.297055 217 217 217 0
3.653585 2.798490 20.323096 216 216 216 0
3.738408 2.803806 20.361697 216 216 216 0
3.810733 2.799722 20.332042 217 217 217 0
3.883565 2.796167 20.306221 216 216 216 0
3.956721 2.792980 20.283077 217 217 217 0
4.030312 2.790216 20.263008 217 217 217 0
4.110054 2.791735 20.274036 216 216 216 0
4.195676 2.797118 20.313127 216 216 216 0
4.276856 2.799397 20.329680 216 216 216 0
4.353186 2.798477 20.322996 217 217 217 0
4.427908 2.796574 20.309176 217 217 217 0
4.509715 2.799133 20.327764 217 217 217 0
4.587439 2.799115 20.327635 217 217 217 0
4.663787 2.798272 20.321513 216 216 216 0
4.744715 2.800160 20.335218 216 216 216 0
4.823258 2.800601 20.338427 217 217 217 0
4.903215 2.801837 20.347401 217 217 217 0
4.980403 2.801477 20.344785 217 217 217 0
5.067635 2.806690 20.382643 217 217 217 0
5.153374 2.810931 20.413444 217 217 217 0
5.233137 2.811835 20.420006 217 217 217 0
5.303707 2.807845 20.391030 218 218 218 0
5.381264 2.807616 20.389370 218 218 218 0
5.460821 2.808422 20.395224 217 217 217 0
4.955474 2.512635 18.247167 217 217 217 0
5.619681 2.809841 20.405524 217 217 217 0
5.694305 2.808151 20.393250 217 217 217 0
5.759656 2.801995 20.348548 217 217 217 0
5.831787 2.799258 20.328669 217 217 217 0
5.905087 2.797146 20.313336 217 217 217 0
5.998170 2.804339 20.365571 218 218 218 0
6.084105 2.808048 20.392508 218 218 218 0
6.178474 2.815507 20.446675 218 218 218 0
-10.712926 4.954728 35.009562 209 209 209 0
-10.578821 4.954638 35.008923 209 209 209 0
-10.444825 4.954596 35.008630 209 209 209 0
-10.250288 4.925463 34.802777 210 210 210 0
-5.376727 2.617617 18.495792 210 210 210 0
-5.289358 2.609416 18.437848 210 210 210 0
-5.217934 2.608967 18.434672 210 210 210 0
-5.153324 2.611959 18.455812 211 211 211 0
-5.076400 2.608706 18.432826 210 210 210 0
-5.016489 2.614227 18.471837 210 210 210 0
-4.975128 2.629711 18.581245 211 211 211 0
-4.925026 2.640956 18.660702 211 211 211 0
-4.868884 2.649245 18.719276 211 211 211 0
-4.807147 2.654693 18.757769 210 210 210 0
-4.752479 2.664269 18.825429 210 210 210 0
-4.691721 2.670672 18.870672 210 210 210 0
-4.626074 2.674449 18.897360 211 211 211 0
-4.555492 2.675447 18.904416 211 211 211 0
-4.517609 2.695992 19.049583 211 211 211 0
-4.458708 2.704462 19.109432 211 211 211 0
-4.388877 2.706474 19.123647 212 212 212 0
-4.321247 2.709935 19.148098 211 211 211 0
-4.255840 2.714932 19.183411 210 210 210 0
-4.204308 2.729112 19.283607 211 211 211 0
-4.157073 2.746637 19.407435 211 211 211 0
-4.096593 2.755890 19.472813 211 211 211 0
-4.004317 2.743698 19.386669 211 211 211 0
-3.915974 2.733793 19.316681 212 212 212 0
-3.833836 2.727922 19.275193 212 212 212 0
-3.784664 2.745737 19.401074 211 211 211 0
-3.757350 2.780439 19.646272 211 211 211 0
-3.665269 2.767652 19.555926 211 211 211 0
-3.574994 2.755725 19.471647 212 212 212 0
-3.480548 2.740006 19.360581 211 211 211 0
-3.394646 2.730476 19.293244 212 212 212 0
-3.327890 2.736265 19.334149 212 212 212 0
-3.286451 2.763606 19.527337 212 212 212 0
-3.221188 2.771720 19.584668 212 212 212 0
-3.134615 2.761447 19.512078 212 212 212 0
-3.049040 2.751573 19.442310 212 212 212 0
-2.975300 2.752153 19.446408 212 212 212 0
-2.913099 2.763709 19.528063 212 212 212 0
-2.857893 2.782685 19.662147 212 212 212 0
-2.782660 2.782660 19.661965 212 212 212 0
-2.706838 2.782028 19.657503 213 213 213 0
-2.628117 2.778295 19.631128 213 213 213 0
-2.557585 2.783254 19.666166 213 213 213 0
-2.490403 2.792270 19.729872 213 213 213 0
-2.429049 2.808588 19.845173 212 212 212 0
-2.359183 2.815799 19.896125 213 213 213 0
-2.284296 2.817298 19.906719 213 213 213 0
-2.204701 2.812894 19.875596 212 212 212 0
-2.119441 2.800690 19.789368 213 213 213 0
-2.047245 2.805484 19.823238 213 213 213 0
-1.979442 2.816898 19.903889 213 213 213 0
-1.909026 2.825359 19.963675 213 213 213 0
-1.825359 2.814095 19.884081 213 213 213 0
-1.744595 2.806522 19.830573 214 214 214 0
-1.664987 2.800205 19.785937 213 213 213 0
-1.590965 2.803129 19.806597 213 213 213 0
-1.516802 2.806084 19.827480 213 213 213 0
-1.446643 2.817148 19.905653 213 213 213 0
-1.369021 2.814099 19.884112 214 214 214 0
-1.292550 2.813198 19.877744 213 213 213 0
-1.216098 2.812226 19.870878 214 214 214 0
-1.141727 2.816259 19.899375 214 214 214 0
-1.069197 2.825735 19.966330 213 213 213 0
-0.992289 2.824206 19.955527 214 214 214 0
-0.914432 2.819497 19.922257 214 214 214 0
-0.840160 2.825992 19.968148 214 214 214 0
-0.764099 2.827165 19.976437 213 213 213 0
-0.688642 2.831086 20.004139 214 214 214 0
-0.612230 2.831565 20.007525 214 214 214 0
-0.536863 2.837702 20.050891 215 215 215 0
-0.461075 2.843297 20.090420 214 214 214 0
-0.385340 2.851518 20.148509 214 214 214 0
-0.307861 2.847714 20.121632 214 214 214 0
-0.230352 2.841013 20.074281 214 214 214 0
-0.153311 2.836260 20.040698 214 214 214 0
-0.076774 2.840642 20.071662 214 214 214 0
0.000000 2.852742 20.157159 215 215 215 0
0.077012 2.849442 20.133843 215 215 215 0
0.153787 2.845054 20.102838 215 215 215 0
0.230138 2.838366 20.055579 214 214 214 0
0.306229 2.832617 20.014960 214 214 214 0
0.382736 2.832243 20.012319 215 215 215 0
0.460821 2.841728 20.079333 215 215 215 0
0.539300 2.850587 20.141930 215 215 215 0
0.616185 2.849858 20.136780 214 214 214 0
0.691578 2.843155 20.089420 215 215 215 0
0.768059 2.841817 20.079967 214 214 214 0
0.846236 2.846431 20.112564 215 215 215 0
0.923995 2.848983 20.130600 215 215 215 0
1.001975 2.851775 20.150330 214 214 214 0
1.079987 2.854250 20.167816 215 215 215 0
1.156723 2.853250 20.160748 215 215 215 0
1.233591 2.852679 20.156717 215 215 215 0
1.314226 2.860375 20.211090 215 215 215 0
1.394597 2.866673 20.255591 215 215 215 0
1.474412 2.871223 20.287747 215 215 215 0
1.550088 2.867663 20.262591 216 216 216 0
1.622760 2.859148 20.202422 215 215 215 0
1.696414 2.853060 20.159404 215 215 215 0
1.778804 2.861554 20.219426 215 215 215 0
1.861717 2.870147 20.280141 215 215 215 0
1.935847 2.865053 20.244147 215 215 215 0
2.011814 2.862966 20.229401 215 215 215 0
2.084003 2.855856 20.179163 215 215 215 0
2.158092 2.851765 20.150256 216 216 216 0
2.236085 2.852936 20.158527 216 216 216 0
2.323001 2.865034 20.244014 216 216 216 0
2.401214 2.865965 20.250594 216 216 216 0
2.475624 2.862440 20.225685 215 215 215 0
2.549377 2.858392 20.197083 216 216 216 0
2.629594 2.861617 20.219872 216 216 216 0
2.713332 2.868379 20.267650 215 215 215 0
2.791667 2.869213 20.273544 216 216 216 0
2.868585 2.868585 20.269102 216 216 216 0
2.944485 2.866999 20.257898 216 216 216 0
3.022548 2.867546 20.261762 216 216 216 0
3.104950 2.872079 20.293792 216 216 216 0
3.189319 2.878166 20.336801 217 217 217 0
3.269776 2.880517 20.353417 216 216 216 0
3.350488 2.882978 20.370804 216 216 216 0
3.425789 2.880777 20.355250 216 216 216 0
3.496674 2.875043 20.314735 216 216 216 0
3.571150 2.872447 20.296390 217 217 217 0
3.653653 2.876280 20.323477 216 216 216 0
3.738304 2.881609 20.361131 217 217 217 0
3.811441 2.878027 20.335822 217 217 217 0
3.882600 2.873124 20.301175 216 216 216 0
3.957605 2.871203 20.287605 217 217 217 0
4.031319 2.868438 20.268067 217 217 217 0
4.109719 2.869049 20.272385 216 216 216 0
4.195470 2.874674 20.312126 216 216 216 0
4.277098 2.877321 20.330830 216 216 216 0
4.352180 2.875547 20.318301 216 216 216 0
4.426535 2.873365 20.302876 217 217 217 0
4.510187 2.877188 20.329892 216 216 216 0
4.587287 2.876773 20.326963 217 217 217 0
4.663823 2.876024 20.321670 217 217 217 0
4.745439 2.878381 20.338323 216 216 216 0
4.825406 2.879678 20.347486 217 217 217 0
4.905258 2.880866 20.355879 217 217 217 0
4.982028 2.880235 20.351420 217 217 217 0
5.068159 2.884952 20.384751 217 217 217 0
5.152095 2.888296 20.408377 217 217 217 0
5.231942 2.889281 20.415343 217 217 217 0
5.303280 2.885608 20.389389 216 216 216 0
5.379757 2.884797 20.383658 217 217 217 0
5.461362 2.886720 20.397245 218 218 218 0
4.954004 2.581664 18.241751 217 217 217 0
5.619577 2.887838 20.405143 217 217 217 0
5.693194 2.885592 20.389271 218 218 218 0
5.761090 2.880545 20.353611 217 217 217 0
5.830458 2.876359 20.324035 217 217 217 0
5.903236 2.873944 20.306970 217 217 217 0
6.000767 2.883485 20.374388 217 217 217 0
6.083135 2.885590 20.389257 218 218 218 0
6.178409 2.893685 20.446461 217 217 217 0
-10.712927 5.088640 35.009565 209 209 209 0
-10.578809 5.088541 35.008881 209 209 209 0
-10.444816 5.088500 35.008601 209 209 209 0
-10.249838 5.058361 34.801249 210 210 210 0
-5.381785 2.690892 18.513191 210 210 210 0
-5.287426 2.678962 18.431114 210 210 210 0
-5.218175 2.679603 18.435523 210 210 210 0
-5.146466 2.678983 18.431252 210 210 210 0
-5.075634 2.678807 18.430043 211 211 211 0
-5.018907 2.686176 18.480741 210 210 210 0
-4.975332 2.700895 18.582006 210 210 210 0
-4.926014 2.712877 18.664445 211 211 211 0
-4.862395 2.717221 18.694330 210 210 210 0
-4.805592 2.725560 18.751702 211 211 211 0
-4.752267 2.736154 18.824586 210 210 210 0
-4.690110 2.741911 18.864194 211 211 211 0
-4.624966 2.746074 18.892835 211 211 211 0
-4.557451 2.748939 18.912547 211 211 211 0
-4.529238 2.775984 19.098619 211 211 211 0
-4.450614 2.772514 19.074742 211 211 211 0
-4.391648 2.781377 19.135722 211 211 211 0
-4.321961 2.783636 19.151261 211 211 211 0
-4.249411 2.784097 19.154433 211 211 211 0
-4.207448 2.804965 19.298005 211 211 211 0
-4.154413 2.819066 19.395018 211 211 211 0
-4.097172 2.830773 19.475564 211 211 211 0
-4.004210 2.817778 19.386155 211 211 211 0
-3.915670 2.807462 19.315183 212 212 212 0
-3.836011 2.803239 19.286128 211 211 211 0
-3.785950 2.820904 19.407664 211 211 211 0
-3.754929 2.853746 19.633614 212 212 212 0
-3.669679 2.845874 19.579455 212 212 212 0
-3.574341 2.829687 19.468091 211 211 211 0
-3.481140 2.814539 19.363873 211 211 211 0
-3.394580 2.804218 19.292866 212 212 212 0
-3.328706 2.810908 19.338890 212 212 212 0
-3.288605 2.840159 19.540137 212 212 212 0
-3.222920 2.848162 19.595196 212 212 212 0
-3.134928 2.836363 19.514024 212 212 212 0
-3.048504 2.825443 19.438893 212 212 212 0
-2.971296 2.822731 19.420232 213 213 213 0
-2.911721 2.837062 19.518827 213 213 213 0
-2.853343 2.853343 19.630844 212 212 212 0
-2.784594 2.859853 19.675631 213 213 213 0
-2.708561 2.859036 19.670013 212 212 212 0
-2.628540 2.853844 19.634287 212 212 212 0
-2.558125 2.859080 19.670316 213 213 213 0
-2.488419 2.865453 19.714156 213 213 213 0
-2.428937 2.884363 19.844259 212 212 212 0
-2.360154 2.893092 19.904313 213 213 213 0
-2.284883 2.894185 19.911832 213 213 213 0
-2.203275 2.887050 19.862744 213 213 213 0
-2.120074 2.877243 19.795275 212 212 212 0
-2.046549 2.880328 19.816500 212 212 212 0
-1.980177 2.894105 19.911283 213 213 213 0
-1.908669 2.901177 19.959936 214 214 214 0
-1.825457 2.890308 19.885157 214 214 214 0
-1.742917 2.879603 19.811507 213 213 213 0
-1.664831 2.875617 19.784087 213 213 213 0
-1.589532 2.876296 19.788758 213 213 213 0
-1.517338 2.882942 19.834486 213 213 213 0
-1.446531 2.893061 19.904101 213 213 213 0
-1.369901 2.892014 19.896897 214 214 214 0
-1.292667 2.889492 19.879544 214 214 214 0
-1.214889 2.885362 19.851129 213 213 213 0
-1.141357 2.891436 19.892924 214 214 214 0
-1.068520 2.900269 19.953690 214 214 214 0
-0.991371 2.897854 19.937075 214 214 214 0
-0.915193 2.898111 19.938846 214 214 214 0
-0.839881 2.901406 19.961513 214 214 214 0
-0.764199 2.903957 19.979065 213 213 213 0
-0.688681 2.907763 20.005246 214 214 214 0
-0.612441 2.909093 20.014402 214 214 214 0
-0.536804 2.914079 20.048706 214 214 214 0
-0.461026 2.919832 20.088282 214 214 214 0
-0.385295 2.928244 20.146156 214 214 214 0
-0.308069 2.926652 20.135206 214 214 214 0
-0.230423 2.918697 20.080473 214 214 214 0
-0.153315 2.912985 20.041177 214 214 214 0
-0.076806 2.918626 20.079988 214 214 214 0
0.000000 2.930958 20.164827 214 214 214 0
0.077020 2.926747 20.135860 214 214 214 0
0.153737 2.921000 20.096318 214 214 214 0
0.230128 2.914955 20.054731 214 214 214 0
0.306200 2.908901 20.013079 215 215 215 0
0.382496 2.906966 19.999768 215 215 215 0
0.460640 2.917387 20.071460 215 215 215 0
0.539292 2.927586 20.141632 215 215 215 0
0.616188 2.926894 20.136867 215 215 215 0
0.691600 2.920089 20.090053 215 215 215 0
0.767980 2.918324 20.077907 215 215 215 0
0.846250 2.923410 20.112902 215 215 215 0
0.924718 2.928273 20.146360 215 215 215 0
1.002453 2.930246 20.159931 215 215 215 0
1.080193 2.931953 20.171673 215 215 215 0
1.157103 2.931327 20.167371 216 216 216 0
1.233160 2.928755 20.149672 215 215 215 0
1.314740 2.938832 20.218999 215 215 215 0
1.395099 2.945209 20.262877 215 215 215 0
1.474701 2.949402 20.291721 215 215 215 0
1.549462 2.943978 20.254405 215 215 215 0
1.622932 2.936735 20.204573 215 215 215 0
1.696335 2.930033 20.158467 215 215 215 0
1.778662 2.938659 20.217812 216 216 216 0
1.862532 2.949008 20.289015 216 216 216 0
1.934738 2.940802 20.232553 216 216 216 0
2.011023 2.939187 20.221448 216 216 216 0
2.082818 2.931374 20.167691 216 216 216 0
2.157124 2.927526 20.141216 216 216 216 0
2.235342 2.929069 20.151833 215 215 215 0
2.322996 2.942462 20.243973 216 216 216 0
2.402234 2.944673 20.259190 216 216 216 0
2.477232 2.941713 20.238824 216 216 216 0
2.549478 2.935762 20.197883 216 216 216 0
2.628919 2.938203 20.214676 216 216 216 0
2.713732 2.946338 20.270640 216 216 216 0
2.791652 2.946744 20.273435 216 216 216 0
2.868576 2.946105 20.269041 215 215 215 0
2.944881 2.944881 20.260619 216 216 216 0
3.023224 2.945706 20.266292 217 217 217 0
3.104807 2.949567 20.292857 217 217 217 0
3.188893 2.955559 20.334086 216 216 216 0
3.269884 2.958466 20.354084 216 216 216 0
3.349436 2.959967 20.364407 216 216 216 0
3.425054 2.958001 20.350883 216 216 216 0
3.497985 2.953854 20.322350 216 216 216 0
3.570819 2.949807 20.294511 216 216 216 0
3.654139 2.954411 20.326182 217 217 217 0
3.737871 2.959148 20.358772 216 216 216 0
3.810776 2.955295 20.332270 216 216 216 0
3.881032 2.949584 20.292976 217 217 217 0
3.955747 2.947419 20.278083 217 217 217 0
4.029668 2.944758 20.259770 217 217 217 0
4.110330 2.947029 20.275397 217 217 217 0
4.195510 2.952396 20.312324 216 216 216 0
4.275809 2.954196 20.324703 216 216 216 0
4.352235 2.953302 20.318557 216 216 216 0
4.426797 2.951198 20.304082 217 217 217 0
4.509810 2.954703 20.328197 217 217 217 0
4.586325 2.953904 20.322697 217 217 217 0
4.664156 2.953966 20.323122 217 217 217 0
4.744326 2.955482 20.333551 216 216 216 0
4.822881 2.955959 20.336837 217 217 217 0
4.903282 2.957535 20.347678 217 217 217 0
4.981483 2.957755 20.349195 217 217 217 0
5.066868 2.962169 20.379560 217 217 217 0
5.152045 2.966329 20.408179 217 217 217 0
5.231864 2.967326 20.415039 217 217 217 0
5.302372 2.963090 20.385898 217 217 217 0
5.381614 2.963787 20.390694 217 217 217 0
5.455175 2.961381 20.374136 217 217 217 0
4.973244 2.661736 18.312599 218 218 218 0
5.620865 2.966568 20.409823 217 217 217 0
5.692681 2.963314 20.387435 217 217 217 0
5.760822 2.958260 20.352664 217 217 217 0
5.831216 2.954483 20.326679 217 217 217 0
5.905286 2.952643 20.314022 218 218 218 0
6.000251 2.961163 20.372636 218 218 218 0
6.083127 2.963575 20.389230 218 218 218 0
6.176159 2.970811 20.439014 218 218 218 0
-10.712939 5.222558 35.009606 210 210 210 0
-10.578821 5.222456 35.008921 209 209 209 0
-10.444823 5.222412 35.008626 210 210 210 0
-10.249651 5.191382 34.800615 210 210 210 0
-5.379416 2.760490 18.505042 210 210 210 0
-5.295166 2.753486 18.458094 210 210 210 0
-5.222538 2.752418 18.450936 211 211 211 0
-5.147863 2.750228 18.436253 210 210 210 0
-5.083461 2.753542 18.458465 210 210 210 0
-5.015969 2.755251 18.469922 211 211 211 0
-4.984870 2.777285 18.617628 210 210 210 0
-4.923010 2.782571 18.653064 211 211 211 0
-4.863407 2.789307 18.698218 211 211 211 0
-4.811710 2.800846 18.775575 210 210 210 0
-4.748173 2.805739 18.808370 210 210 210 0
-4.689996 2.813997 18.863733 210 210 210 0
-4.624721 2.818189 18.891835 211 211 211 0
-4.555967 2.820361 18.906389 210 210 210 0
-4.518452 2.842252 19.053140 211 211 211 0
-4.462954 2.853364 19.127629 211 211 211 0
-4.390622 2.853904 19.131250 210 210 210 0
-4.319902 2.855529 19.142139 211 211 211 0
-4.252132 2.859192 19.166696 212 212 212 0
-4.203173 2.875855 19.278400 211 211 211 0
-4.154900 2.893591 19.397290 211 211 211 0
-4.099589 2.906982 19.487056 211 211 211 0
-4.004176 2.891905 19.385990 211 211 211 0
-3.918791 2.883639 19.330578 212 212 212 0
-3.835674 2.876756 19.284435 211 211 211 0
-3.787928 2.896651 19.417806 212 212 212 0
-3.757809 2.931091 19.648677 212 212 212 0
-3.669111 2.920313 19.576425 211 211 211 0
-3.574236 2.904067 19.467515 211 211 211 0
-3.480946 2.888444 19.362791 212 212 212 0
-3.394816 2.878213 19.294207 212 212 212 0
-3.328539 2.884734 19.337918 212 212 212 0
-3.288686 2.914971 19.540616 212 212 212 0
-3.223292 2.923451 19.597458 212 212 212 0
-3.132590 2.908834 19.499471 212 212 212 0
-3.051085 2.902251 19.455346 212 212 212 0
-2.975554 2.901165 19.448065 212 212 212 0
-2.910559 2.910559 19.511034 212 212 212 0
-2.857692 2.932894 19.660762 212 212 212 0
-2.785153 2.935701 19.679580 212 212 212 0
-2.707724 2.933367 19.663935 212 212 212 0
-2.630161 2.930751 19.646398 213 213 213 0
-2.556377 2.932315 19.656877 212 212 212 0
-2.491523 2.944527 19.738741 213 213 213 0
-2.431758 2.963704 19.867300 212 212 212 0
-2.359826 2.968813 19.901544 213 213 213 0
-2.284979 2.970473 19.912673 213 213 213 0
-2.203884 2.963844 19.868232 213 213 213 0
-2.121762 2.955311 19.811034 213 213 213 0
-2.045929 2.955231 19.810495 212 212 212 0
-1.979614 2.969421 19.905623 213 213 213 0
-1.907917 2.976350 19.952069 213 213 213 0
-1.824143 2.964232 19.870839 213 213 213 0
-1.741745 2.953394 19.798180 214 214 214 0
-1.665251 2.952037 19.789085 214 214 214 0
-1.590097 2.953037 19.795791 213 213 213 0
-1.516945 2.958044 19.829352 214 214 214 0
-1.446683 2.969507 19.906198 213 213 213 0
-1.369747 2.967785 19.894652 213 213 213 0
-1.292879 2.966017 19.882799 213 213 213 0
-1.216248 2.964605 19.873338 214 214 214 0
-1.141662 2.968321 19.898246 214 214 214 0
-1.068217 2.975747 19.948027 213 213 213 0
-0.992794 2.978383 19.965696 213 213 213 0
-0.914587 2.972409 19.925649 214 214 214 0
-0.839718 2.977183 19.957655 214 214 214 0
-0.764123 2.980079 19.977066 214 214 214 0
-0.688817 2.984874 20.009214 214 214 214 0
-0.612453 2.985706 20.014788 214 214 214 0
-0.536712 2.990252 20.045262 213 213 213 0
-0.460957 2.996221 20.085275 214 214 214 0
-0.385153 3.004191 20.138706 214 214 214 0
-0.307843 3.001471 20.120471 214 214 214 0
-0.230434 2.995646 20.081418 215 215 215 0
-0.153347 2.990261 20.045325 214 214 214 0
-0.076805 2.995376 20.079613 214 214 214 0
0.000000 3.007700 20.162225 215 215 215 0
0.076994 3.002771 20.129184 214 214 214 0
0.153702 2.997189 20.091762 214 214 214 0
0.230152 2.991973 20.056801 215 215 215 0
0.306141 2.984878 20.009236 214 214 214 0
0.382762 2.985542 20.013687 214 214 214 0
0.461050 2.996828 20.089342 215 215 215 0
0.539152 3.003847 20.136399 215 215 215 0
0.616037 3.003181 20.131932 214 214 214 0
0.691449 2.996281 20.085677 214 214 214 0
0.767803 2.994431 20.073274 215 215 215 0
0.845173 2.996522 20.087291 215 215 215 0
0.923876 3.002597 20.128017 215 215 215 0
1.003091 3.009274 20.172777 216 216 216 0
1.079978 3.008509 20.167651 215 215 215 0
1.156090 3.005833 20.149710 215 215 215 0
1.233487 3.006625 20.155021 215 215 215 0
1.314129 3.014765 20.209589 215 215 215 0
1.394278 3.020936 20.250953 215 215 215 0
1.475011 3.027654 20.295985 215 215 215 0
1.550229 3.022947 20.264437 215 215 215 0
1.622414 3.013054 20.198118 216 216 216 0
1.697041 3.008391 20.166857 215 215 215 0
1.778393 3.015536 20.214754 216 216 216 0
1.861558 3.025031 20.278405 216 216 216 0
1.934772 3.018244 20.232907 216 216 216 0
2.011160 3.016740 20.222824 215 215 215 0
2.083575 3.009608 20.175017 215 215 215 0
2.159080 3.007290 20.159474 215 215 215 0
2.236969 3.008338 20.166503 216 216 216 0
2.322673 3.019475 20.241157 216 216 216 0
2.401603 3.021372 20.253874 216 216 216 0
2.477136 3.019009 20.238035 215 215 215 0
2.551911 3.015894 20.217156 216 216 216 0
2.629714 3.016437 20.220794 216 216 216 0
2.712657 3.022675 20.262613 216 216 216 0
2.791455 3.024077 20.272006 216 216 216 0
2.867964 3.022989 20.264718 216 216 216 0
2.945323 3.022831 20.263658 216 216 216 0
3.020931 3.020931 20.250918 216 216 216 0
3.104403 3.026792 20.290213 216 216 216 0
3.187572 3.032081 20.325663 217 217 217 0
3.269916 3.036351 20.354289 216 216 216 0
3.349796 3.038187 20.366598 216 216 216 0
3.427384 3.037908 20.364728 216 216 216 0
3.496841 3.030596 20.315709 216 216 216 0
3.570527 3.027186 20.292850 216 216 216 0
3.653173 3.031356 20.320804 216 216 216 0
3.737147 3.036432 20.354832 217 217 217 0
3.810860 3.033133 20.332720 216 216 216 0
3.882464 3.028322 20.300468 216 216 216 0
3.957389 3.026239 20.286501 216 216 216 0
4.030509 3.022882 20.263999 217 217 217 0
4.109902 3.024268 20.273287 217 217 217 0
4.195121 3.029809 20.310437 217 217 217 0
4.275830 3.031952 20.324800 217 217 217 0
4.352709 3.031351 20.320772 217 217 217 0
4.426608 3.028732 20.303213 216 216 216 0
4.510882 3.033179 20.333025 216 216 216 0
4.588503 3.033078 20.332348 217 217 217 0
4.665335 3.032468 20.328259 216 216 216 0
4.744156 3.033149 20.332822 217 217 217 0
4.824897 3.035016 20.345338 217 217 217 0
4.903116 3.035263 20.346992 217 217 217 0
4.980850 3.035205 20.346608 217 217 217 0
5.066481 3.039888 20.378002 217 217 217 0
5.154934 3.046097 20.419624 217 217 217 0
5.232847 3.045986 20.418875 217 217 217 0
5.302935 3.041389 20.388063 217 217 217 0
5.379702 3.040701 20.383448 217 217 217 0
5.454218 3.038778 20.370561 218 218 218 0
4.999219 2.746050 18.408246 217 217 217 0
5.618568 3.043391 20.401483 217 217 217 0
5.691378 3.040599 20.382766 217 217 217 0
5.758468 3.034868 20.344350 217 217 217 0
5.829532 3.031357 20.320809 217 217 217 0
5.903355 3.029353 20.307378 218 218 218 0
