ply
    format ascii 1.0
    element vertex 25600
    property float x
    property float y
    property float z
    property uchar red
    property uchar green
    property uchar blue
    property uchar alpha
    end_header
2.642797 -0.679576 19.740784 217 217 217 0
2.718296 -0.679574 19.740711 217 217 217 0
2.800220 -0.681135 19.786043 216 216 216 0
2.878523 -0.681755 19.804080 216 216 216 0
2.952968 -0.681454 19.795326 217 217 217 0
3.027359 -0.681156 19.786661 217 217 217 0
3.102067 -0.680941 19.780434 217 217 217 0
3.185137 -0.682529 19.826561 217 217 217 0
3.263316 -0.683020 19.840805 217 217 217 0
3.343942 -0.683988 19.868936 217 217 217 0
3.423760 -0.684752 19.891127 216 216 216 0
3.499498 -0.684684 19.889163 217 217 217 0
3.573384 -0.684265 19.876980 217 217 217 0
3.644854 -0.683410 19.852146 217 217 217 0
3.724159 -0.684029 19.870130 217 217 217 0
3.811264 -0.686028 19.928179 217 217 217 0
3.880077 -0.684719 19.890181 217 217 217 0
3.949775 -0.683615 19.858094 217 217 217 0
4.020540 -0.682733 19.832480 217 217 217 0
4.091770 -0.681962 19.810073 218 218 218 0
4.166147 -0.681733 19.803433 217 217 217 0
4.245782 -0.682358 19.821578 218 218 218 0
4.325486 -0.682972 19.839405 217 217 217 0
4.401531 -0.682996 19.840122 218 218 218 0
4.476545 -0.682863 19.836246 217 217 217 0
4.553229 -0.682984 19.839779 217 217 217 0
4.630523 -0.683192 19.845808 217 217 217 0
4.710697 -0.683811 19.863785 217 217 217 0
4.785416 -0.683631 19.858556 217 217 217 0
4.867433 -0.684483 19.883303 218 218 218 0
4.942363 -0.684327 19.878786 218 218 218 0
5.023790 -0.685062 19.900138 218 218 218 0
5.102343 -0.685389 19.909638 218 218 218 0
5.183032 -0.685990 19.927075 218 218 218 0
5.270032 -0.687396 19.967916 218 218 218 0
5.341756 -0.686797 19.950535 218 218 218 0
5.411311 -0.685941 19.925660 218 218 218 0
5.479638 -0.684955 19.897014 218 218 218 0
5.560112 -0.685493 19.912658 217 217 217 0
5.647020 -0.686800 19.950609 218 218 218 0
5.718805 -0.686257 19.934832 218 218 218 0
5.788210 -0.685446 19.911283 218 218 218 0
5.861614 -0.685124 19.901922 218 218 218 0
5.936583 -0.684990 19.898051 218 218 218 0
6.017048 -0.685486 19.912462 218 218 218 0
-10.712849 -1.071285 35.009309 210 210 210 0
-10.578690 -1.071260 35.008490 211 211 211 0
-10.444710 -1.071252 35.008246 210 210 210 0
-10.254388 -1.065391 34.816698 210 210 210 0
-10.123674 -1.065650 34.825160 211 211 211 0
-5.183843 -0.552943 18.070042 210 210 210 0
-5.071058 -0.548222 17.915768 211 211 211 0
-5.022104 -0.550368 17.985868 211 211 211 0
-4.955619 -0.550624 17.994260 211 211 211 0
-4.893419 -0.551371 18.018664 210 210 210 0
-4.824225 -0.551340 18.017646 211 211 211 0
-4.809670 -0.557643 18.223624 211 211 211 0
-4.745783 -0.558327 18.245995 211 211 211 0
-4.680933 -0.558917 18.265273 211 211 211 0
-4.624112 -0.560498 18.316943 211 211 211 0
-4.564292 -0.561759 18.358138 212 212 212 0
-4.504513 -0.563064 18.400789 211 211 211 0
-4.438062 -0.563563 18.417106 211 211 211 0
-4.380887 -0.565276 18.473065 212 212 212 0
-4.347130 -0.570115 18.631224 212 212 212 0
-4.290440 -0.572059 18.694727 211 211 211 0
-4.222839 -0.572588 18.712037 212 212 212 0
-4.137454 -0.570683 18.649781 211 211 211 0
-4.090526 -0.574109 18.761728 212 212 212 0
-4.037975 -0.576854 18.851424 212 212 212 0
-4.009718 -0.583232 19.059860 212 212 212 0
-3.932526 -0.582597 19.039102 211 211 211 0
-3.847482 -0.580752 18.978823 212 212 212 0
-3.757355 -0.578055 18.890675 212 212 212 0
-3.680564 -0.577343 18.867433 212 212 212 0
-3.628029 -0.580485 18.970089 213 213 213 0
-3.588813 -0.585929 19.147997 212 212 212 0
-3.502214 -0.583702 19.075237 212 212 212 0
-3.415071 -0.581289 18.996360 212 212 212 0
-3.331890 -0.579459 18.936575 213 213 213 0
-3.248848 -0.577573 18.874934 213 213 213 0
-3.179446 -0.578081 18.891539 213 213 213 0
-3.142661 -0.584681 19.107228 212 212 212 0
-3.074901 -0.585695 19.140373 213 213 213 0
-2.994910 -0.584373 19.097146 213 213 213 0
-2.911961 -0.582392 19.032422 213 213 213 0
-2.834115 -0.581357 18.998590 213 213 213 0
-2.772681 -0.583722 19.075892 212 212 212 0
-2.718124 -0.587703 19.205964 213 213 213 0
-2.647164 -0.588259 19.224138 213 213 213 0
-2.575939 -0.588786 19.241376 213 213 213 0
-2.498952 -0.587989 19.215314 214 214 214 0
-2.423802 -0.587588 19.202235 214 214 214 0
-2.356895 -0.589224 19.255675 213 213 213 0
-2.300060 -0.593564 19.397516 214 214 214 0
-2.230410 -0.594776 19.437127 213 213 213 0
-2.157641 -0.595211 19.451353 213 213 213 0
-2.079257 -0.594074 19.414167 213 213 213 0
-1.998342 -0.592101 19.349721 214 214 214 0
-1.922392 -0.591505 19.330234 214 214 214 0
-1.857144 -0.594286 19.421116 214 214 214 0
-1.795784 -0.598595 19.561916 214 214 214 0
-1.713878 -0.596131 19.481418 214 214 214 0
-1.634120 -0.594226 19.419136 214 214 214 0
-1.553555 -0.591830 19.340862 214 214 214 0
-1.477839 -0.591136 19.318163 214 214 214 0
-1.404206 -0.591245 19.321724 214 214 214 0
-1.331124 -0.591611 19.333678 215 215 215 0
-1.262072 -0.593916 19.409031 215 215 215 0
-1.188677 -0.594339 19.422832 214 214 214 0
-1.113770 -0.594011 19.412114 214 214 214 0
-1.041087 -0.594907 19.441396 214 214 214 0
-0.968102 -0.595755 19.469116 214 214 214 0
-0.894815 -0.596543 19.494870 214 214 214 0
-0.820515 -0.596738 19.501252 215 215 215 0
-0.746156 -0.596925 19.507350 215 215 215 0
-0.671451 -0.596845 19.504748 215 215 215 0
-0.598546 -0.598546 19.560339 215 215 215 0
-0.523759 -0.598581 19.561480 214 214 214 0
-0.449747 -0.599663 19.596823 215 215 215 0
-0.375105 -0.600168 19.613336 215 215 215 0
-0.300550 -0.601100 19.643795 214 214 214 0
-0.225959 -0.602556 19.691376 214 214 214 0
-0.150183 -0.600734 19.631821 215 215 215 0
-0.074971 -0.599769 19.600283 215 215 215 0
0.000000 -0.599340 19.586284 215 215 215 0
0.074281 -0.594248 19.419865 215 215 215 0
0.150894 -0.603575 19.724675 215 215 215 0
0.225938 -0.602502 19.689599 215 215 215 0
0.300126 -0.600253 19.616108 215 215 215 0
0.374702 -0.599524 19.592282 215 215 215 0
0.449086 -0.598781 19.568005 216 216 216 0
0.524735 -0.599697 19.597939 215 215 215 0
0.601211 -0.601211 19.647421 215 215 215 0
0.677198 -0.601954 19.671694 215 215 215 0
0.752221 -0.601777 19.665907 216 216 216 0
0.825396 -0.600288 19.617266 216 216 216 0
0.901515 -0.601010 19.640845 216 216 216 0
0.977587 -0.601592 19.659879 216 216 216 0
1.053722 -0.602127 19.677342 216 216 216 0
1.130799 -0.603093 19.708912 216 216 216 0
1.206008 -0.603004 19.706017 215 215 215 0
1.281016 -0.602831 19.700364 215 215 215 0
1.356199 -0.602755 19.697884 216 216 216 0
1.435970 -0.604619 19.758789 216 216 216 0
1.515468 -0.606187 19.810037 216 216 216 0
1.593353 -0.606992 19.836333 216 216 216 0
1.666171 -0.605881 19.800017 216 216 216 0
1.737348 -0.604295 19.748203 216 216 216 0
1.809788 -0.603263 19.714461 216 216 216 0
1.890711 -0.605028 19.772141 216 216 216 0
1.972021 -0.606776 19.829270 216 216 216 0
2.045701 -0.606134 19.808291 216 216 216 0
2.115770 -0.604506 19.755092 216 216 216 0
2.187147 -0.603351 19.717345 216 216 216 0
2.259869 -0.602632 19.693850 217 217 217 0
2.336698 -0.603019 19.706496 217 217 217 0
2.421163 -0.605291 19.780743 216 216 216 0
2.496695 -0.605259 19.779720 217 217 217 0
2.569059 -0.604484 19.754394 217 217 217 0
2.642180 -0.603927 19.736170 216 216 216 0
2.719906 -0.604424 19.752405 216 216 216 0
2.801194 -0.605664 19.792929 217 217 217 0
2.878778 -0.606059 19.805836 217 217 217 0
2.951972 -0.605533 19.788649 217 217 217 0
3.025508 -0.605102 19.774559 217 217 217 0
3.102034 -0.605275 19.780229 217 217 217 0
3.184599 -0.606590 19.823211 217 217 217 0
3.263255 -0.607117 19.840429 217 217 217 0
3.343818 -0.607967 19.868197 217 217 217 0
3.422606 -0.608463 19.884420 217 217 217 0
3.499928 -0.608683 19.891607 218 218 218 0
3.572772 -0.608131 19.873577 217 217 217 0
3.644892 -0.607482 19.852351 217 217 217 0
3.723415 -0.607904 19.866159 217 217 217 0
3.811974 -0.609916 19.931889 217 217 217 0
3.881552 -0.608871 19.897742 217 217 217 0
3.949639 -0.607637 19.857413 217 217 217 0
4.020454 -0.606861 19.832060 218 218 218 0
4.091377 -0.606130 19.808168 218 218 218 0
4.165251 -0.605855 19.799175 218 218 218 0
4.246420 -0.606631 19.824557 218 218 218 0
4.325784 -0.607128 19.840770 217 217 217 0
4.402606 -0.607256 19.844967 217 217 217 0
4.474363 -0.606693 19.826579 218 218 218 0
4.553815 -0.607175 19.842330 217 217 217 0
4.631533 -0.607414 19.850137 217 217 217 0
4.709564 -0.607686 19.859009 218 218 218 0
4.786506 -0.607810 19.863079 218 218 218 0
4.866197 -0.608275 19.878257 218 218 218 0
4.943303 -0.608406 19.882565 217 217 217 0
5.024260 -0.609001 19.902001 217 217 217 0
5.103352 -0.609355 19.913578 217 217 217 0
5.182447 -0.609700 19.924827 217 217 217 0
5.269475 -0.610954 19.965807 217 217 217 0
5.343371 -0.610671 19.956566 218 218 218 0
5.410635 -0.609649 19.923169 218 218 218 0
5.478075 -0.608675 19.891338 218 218 218 0
5.560583 -0.609379 19.914347 218 218 218 0
5.646632 -0.610447 19.949240 218 218 218 0
5.721233 -0.610265 19.943295 218 218 218 0
5.788675 -0.609334 19.912883 218 218 218 0
5.861173 -0.608953 19.900427 219 219 219 0
5.934149 -0.608631 19.889891 218 218 218 0
6.018785 -0.609497 19.918211 218 218 218 0
-10.712872 -0.937376 35.009386 210 210 210 0
-10.578687 -0.937352 35.008479 211 211 211 0
-10.444697 -0.937345 35.008201 210 210 210 0
-10.254372 -0.932216 34.816645 211 211 211 0
-10.123730 -0.932449 34.825351 211 211 211 0
-5.184867 -0.483921 18.073610 210 210 210 0
-5.074245 -0.479996 17.927026 211 211 211 0
-5.005381 -0.479968 17.925976 211 211 211 0
-4.957882 -0.482016 18.002478 211 211 211 0
-4.891919 -0.482302 18.013144 210 210 210 0
-4.826267 -0.482627 18.025272 211 211 211 0
-4.803716 -0.487334 18.201065 211 211 211 0
-4.739784 -0.487919 18.222931 211 211 211 0
-4.683842 -0.489357 18.276623 211 211 211 0
-4.627426 -0.490788 18.330070 212 212 212 0
-4.569264 -0.492075 18.378136 211 211 211 0
-4.506530 -0.492902 18.409026 211 211 211 0
-4.446223 -0.494025 18.450971 212 212 212 0
-4.376697 -0.494143 18.455395 211 211 211 0
-4.340260 -0.498063 18.601778 211 211 211 0
-4.288229 -0.500293 18.685094 212 212 212 0
-4.225691 -0.501353 18.724674 212 212 212 0
-4.141310 -0.499813 18.667162 212 212 212 0
-4.096140 -0.503035 18.787477 211 211 211 0
-4.045692 -0.505711 18.887451 212 212 212 0
-4.005206 -0.509753 19.038412 212 212 212 0
-3.937798 -0.510455 19.064626 212 212 212 0
-3.842727 -0.507530 18.955369 212 212 212 0
-3.753526 -0.505282 18.871421 212 212 212 0
-3.679582 -0.505041 18.862398 213 213 213 0
-3.627805 -0.507893 18.968917 212 212 212 0
-3.588783 -0.512683 19.147836 213 213 213 0
-3.503696 -0.510956 19.083310 212 212 212 0
-3.417509 -0.508991 19.009926 212 212 212 0
-3.334761 -0.507464 18.952891 212 212 212 0
-3.249148 -0.505423 18.876675 213 213 213 0
-3.180795 -0.506036 18.899554 213 213 213 0
-3.143135 -0.511673 19.110109 212 212 212 0
-3.076939 -0.512823 19.153060 213 213 213 0
-2.995854 -0.511487 19.103168 213 213 213 0
-2.913337 -0.509834 19.041420 213 213 213 0
-2.839519 -0.509657 19.034819 214 214 214 0
-2.777767 -0.511694 19.110883 213 213 213 0
-2.715029 -0.513654 19.184093 212 212 212 0
-2.644588 -0.514226 19.205435 213 213 213 0
-2.577365 -0.515473 19.252026 214 214 214 0
-2.500056 -0.514717 19.223804 213 213 213 0
-2.425939 -0.514593 19.219162 213 213 213 0
-2.355347 -0.515232 19.243035 213 213 213 0
-2.301489 -0.519691 19.409561 214 214 214 0
-2.230495 -0.520449 19.437864 214 214 214 0
-2.156309 -0.520488 19.439345 213 213 213 0
-2.077704 -0.519426 19.399664 213 213 213 0
-1.997872 -0.517967 19.345162 213 213 213 0
-1.922983 -0.517726 19.336176 213 213 213 0
-1.856985 -0.519956 19.419456 213 213 213 0
-1.796353 -0.523936 19.568119 214 214 214 0
-1.714934 -0.521936 19.493421 214 214 214 0
-1.633285 -0.519682 19.409213 214 214 214 0
-1.553442 -0.517814 19.339457 214 214 214 0
-1.477405 -0.517092 19.312489 214 214 214 0
-1.404277 -0.517365 19.322701 214 214 214 0
-1.332742 -0.518289 19.357185 214 214 214 0
-1.262364 -0.519797 19.413511 214 214 214 0
-1.189272 -0.520307 19.432555 215 215 215 0
-1.112842 -0.519326 19.395938 214 214 214 0
-1.040859 -0.520429 19.437141 215 215 215 0
-0.967060 -0.520725 19.448163 214 214 214 0
-0.894127 -0.521574 19.479886 215 215 215 0
-0.820907 -0.522395 19.510554 214 214 214 0
-0.746151 -0.522306 19.507210 214 214 214 0
-0.671142 -0.521999 19.495769 214 214 214 0
-0.597646 -0.522940 19.530909 214 214 214 0
-0.524011 -0.524011 19.570897 215 215 215 0
-0.449843 -0.524817 19.601010 214 214 214 0
-0.375049 -0.525068 19.610380 215 215 215 0
-0.300848 -0.526483 19.663249 214 214 214 0
-0.225817 -0.526906 19.679016 215 215 215 0
-0.150182 -0.525638 19.631668 215 215 215 0
-0.074974 -0.524820 19.601134 214 214 214 0
0.000000 -0.524110 19.574613 215 215 215 0
0.074441 -0.521088 19.461733 215 215 215 0
0.150896 -0.528137 19.725015 215 215 215 0
0.225842 -0.526964 19.681201 216 216 216 0
0.300122 -0.525213 19.615788 215 215 215 0
0.374659 -0.524522 19.590000 215 215 215 0
0.449123 -0.523977 19.569623 215 215 215 0
0.524895 -0.524895 19.603915 215 215 215 0
0.601103 -0.525965 19.643885 216 216 216 0
0.677339 -0.526819 19.675781 216 216 216 0
0.751425 -0.525997 19.645090 216 216 216 0
0.825257 -0.525163 19.613947 216 216 216 0
0.901396 -0.525814 19.638247 215 215 215 0
0.977281 -0.526228 19.653718 216 216 216 0
1.053643 -0.526822 19.675881 216 216 216 0
1.130426 -0.527532 19.702417 216 216 216 0
1.206163 -0.527696 19.708541 216 216 216 0
1.280188 -0.527136 19.687624 216 216 216 0
1.356479 -0.527519 19.701940 215 215 215 0
1.436672 -0.529300 19.768443 216 216 216 0
1.514726 -0.530154 19.800335 216 216 216 0
1.592923 -0.530974 19.830970 215 215 215 0
1.666866 -0.530367 19.808277 216 216 216 0
1.737222 -0.528720 19.746768 216 216 216 0
1.810608 -0.528094 19.723398 216 216 216 0
1.891369 -0.529583 19.779025 217 217 217 0
1.972032 -0.530932 19.829387 216 216 216 0
2.044568 -0.530073 19.797321 216 216 216 0
2.115565 -0.528891 19.753173 216 216 216 0
2.186385 -0.527748 19.710476 217 217 217 0
2.259453 -0.527206 19.690225 217 217 217 0
2.336821 -0.527669 19.707533 216 216 216 0
2.422131 -0.529841 19.788650 217 217 217 0
2.497491 -0.529771 19.786027 217 217 217 0
2.567881 -0.528681 19.745336 217 217 217 0
2.642769 -0.528554 19.740571 216 216 216 0
2.718847 -0.528665 19.744710 216 216 216 0
2.801355 -0.529986 19.794065 216 216 216 0
2.878763 -0.530298 19.805733 216 216 216 0
2.952822 -0.529994 19.794348 216 216 216 0
3.027008 -0.529726 19.784367 217 217 217 0
3.101847 -0.529584 19.779036 217 217 217 0
3.184327 -0.530721 19.821520 217 217 217 0
3.261083 -0.530874 19.827225 217 217 217 0
3.343523 -0.531924 19.866450 217 217 217 0
3.423454 -0.532537 19.889349 217 217 217 0
3.498695 -0.532410 19.884596 217 217 217 0
3.572506 -0.532075 19.872098 217 217 217 0
3.645335 -0.531611 19.854764 218 218 218 0
3.723125 -0.531875 19.864611 217 217 217 0
3.813567 -0.533899 19.940217 218 218 218 0
3.878564 -0.532352 19.882422 217 217 217 0
3.949135 -0.531614 19.854877 217 217 217 0
4.019708 -0.530905 19.828376 217 217 217 0
4.090331 -0.530228 19.803102 217 217 217 0
4.166670 -0.530303 19.805920 217 217 217 0
4.246854 -0.530857 19.826581 217 217 217 0
4.324842 -0.531121 19.836449 217 217 217 0
4.403203 -0.531421 19.847660 217 217 217 0
4.474611 -0.530886 19.827676 217 217 217 0
4.554005 -0.531301 19.843159 217 217 217 0
4.630199 -0.531334 19.844418 218 218 218 0
4.710462 -0.531826 19.862796 217 217 217 0
4.784020 -0.531558 19.852764 217 217 217 0
4.864897 -0.532098 19.872945 217 217 217 0
4.940157 -0.532017 19.869912 218 218 218 0
5.024093 -0.532858 19.901339 218 218 218 0
5.102096 -0.533055 19.908678 218 218 218 0
5.183007 -0.533545 19.926976 218 218 218 0
5.268786 -0.534515 19.963193 218 218 218 0
5.341812 -0.534181 19.950745 217 217 217 0
5.410513 -0.533431 19.922722 217 217 217 0
5.479454 -0.532725 19.896347 218 218 218 0
5.560294 -0.533179 19.913312 218 218 218 0
5.648989 -0.534364 19.957565 218 218 218 0
5.719594 -0.533829 19.937584 219 219 219 0
5.790708 -0.533355 19.919876 218 218 218 0
5.862601 -0.532964 19.905274 218 218 218 0
5.937672 -0.532868 19.901701 218 218 218 0
6.020397 -0.533453 19.923545 218 218 218 0
-10.712857 -0.803464 35.009337 210 210 210 0
-10.578697 -0.803445 35.008513 211 211 211 0
-10.444705 -0.803439 35.008229 210 210 210 0
-10.254282 -0.799035 34.816338 210 210 210 0
-10.123888 -0.799254 34.825897 210 210 210 0
-5.184266 -0.414741 18.071517 210 210 210 0
-5.078629 -0.411781 17.942517 211 211 211 0
-5.008913 -0.411692 17.938628 211 211 211 0
-4.957928 -0.413161 18.002645 211 211 211 0
-4.900177 -0.414099 18.043550 211 211 211 0
-4.829144 -0.413927 18.036019 212 212 212 0
-4.797395 -0.417165 18.177115 211 211 211 0
-4.743389 -0.418534 18.236789 211 211 211 0
-4.674301 -0.418594 18.239395 212 212 212 0
-4.630274 -0.420934 18.341353 211 211 211 0
-4.568742 -0.421730 18.376037 211 211 211 0
-4.509850 -0.422798 18.422592 212 212 212 0
-4.442088 -0.423056 18.433811 212 212 212 0
-4.378178 -0.423695 18.461639 211 211 211 0
-4.341598 -0.427042 18.607513 212 212 212 0
-4.290508 -0.429051 18.695023 211 211 211 0
-4.224717 -0.429632 18.720358 211 211 211 0
-4.137383 -0.428005 18.649463 212 212 212 0
-4.095124 -0.431066 18.782821 212 212 212 0
-4.050677 -0.434001 18.910725 212 212 212 0
-4.004914 -0.436900 19.037025 211 211 211 0
-3.935339 -0.437260 19.052717 212 212 212 0
-3.843490 -0.435112 18.959131 211 211 211 0
-3.754501 -0.433212 18.876323 212 212 212 0
-3.677264 -0.432619 18.850516 212 212 212 0
-3.628719 -0.435446 18.973695 212 212 212 0
-3.585907 -0.439091 19.132489 212 212 212 0
-3.500865 -0.437608 19.067894 212 212 212 0
-3.421222 -0.436752 19.030575 212 212 212 0
-3.332333 -0.434652 18.939089 212 212 212 0
-3.249502 -0.433267 18.878732 213 213 213 0
-3.183949 -0.434175 18.918295 212 212 212 0
-3.145482 -0.438904 19.124378 213 213 213 0
-3.078182 -0.439740 19.160799 213 213 213 0
-2.993891 -0.438130 19.090650 213 213 213 0
-2.913529 -0.437029 19.042671 213 213 213 0
-2.841732 -0.437190 19.049655 212 212 212 0
-2.777007 -0.438475 19.105656 213 213 213 0
-2.714882 -0.440251 19.183059 213 213 213 0
-2.645797 -0.440966 19.214214 213 213 213 0
-2.576436 -0.441675 19.245088 213 213 213 0
-2.499996 -0.441176 19.223345 213 213 213 0
-2.427876 -0.441432 19.234514 214 214 214 0
-2.358809 -0.442277 19.271317 214 214 214 0
-2.301929 -0.445535 19.413274 213 213 213 0
-2.231736 -0.446347 19.448678 213 213 213 0
-2.154640 -0.445788 19.424295 213 213 213 0
-2.079790 -0.445669 19.419145 213 213 213 0
-1.998116 -0.444026 19.347526 214 214 214 0
-1.921945 -0.443526 19.325741 214 214 214 0
-1.857884 -0.445892 19.428852 214 214 214 0
-1.796861 -0.449215 19.573654 214 214 214 0
-1.714189 -0.447180 19.484954 214 214 214 0
-1.633176 -0.445412 19.407919 213 213 213 0
-1.554051 -0.444015 19.347038 214 214 214 0
-1.478257 -0.443477 19.323621 213 213 213 0
-1.404615 -0.443563 19.327343 214 214 214 0
-1.332877 -0.444292 19.359146 214 214 214 0
-1.263279 -0.445863 19.427587 214 214 214 0
-1.188286 -0.445607 19.416431 214 214 214 0
-1.112961 -0.445184 19.398015 215 215 215 0
-1.040734 -0.446029 19.434804 215 215 215 0
-0.968175 -0.446850 19.470584 215 215 215 0
-0.894647 -0.447324 19.491227 214 214 214 0
-0.820919 -0.447774 19.510840 214 214 214 0
-0.745343 -0.447206 19.486082 214 214 214 0
-0.671647 -0.447765 19.510438 215 215 215 0
-0.598257 -0.448693 19.550893 215 215 215 0
-0.524205 -0.449318 19.578143 215 215 215 0
-0.449752 -0.449752 19.597043 215 215 215 0
-0.375212 -0.450255 19.618951 214 214 214 0
-0.300629 -0.450944 19.648960 215 215 215 0
-0.225785 -0.451569 19.676217 215 215 215 0
-0.150171 -0.450512 19.630164 215 215 215 0
-0.074988 -0.449929 19.604768 215 215 215 0
0.000000 -0.449423 19.582707 215 215 215 0
0.074509 -0.447056 19.479575 215 215 215 0
0.150814 -0.452442 19.714249 215 215 215 0
0.225818 -0.451636 19.679142 214 214 214 0
0.300229 -0.450343 19.622809 215 215 215 0
0.374690 -0.449628 19.591618 215 215 215 0
0.449120 -0.449120 19.569519 215 215 215 0
0.524765 -0.449799 19.599064 215 215 215 0
0.601228 -0.450921 19.647984 215 215 215 0
0.676977 -0.451318 19.665264 215 215 215 0
0.751749 -0.451050 19.653577 215 215 215 0
0.825695 -0.450379 19.624366 215 215 215 0
0.901311 -0.450656 19.636413 216 216 216 0
0.977755 -0.451272 19.663255 215 215 215 0
1.054320 -0.451851 19.688517 215 215 215 0
1.130358 -0.452143 19.701228 216 216 216 0
1.206020 -0.452258 19.706215 216 216 216 0
1.280553 -0.451960 19.693237 215 215 215 0
1.356274 -0.452091 19.698968 216 216 216 0
1.436720 -0.453701 19.769113 216 216 216 0
1.516105 -0.454832 19.818366 216 216 216 0
1.593409 -0.455260 19.837029 216 216 216 0
1.666826 -0.454589 19.807792 216 216 216 0
1.737155 -0.453171 19.746009 216 216 216 0
1.810003 -0.452501 19.716811 216 216 216 0
1.890413 -0.453699 19.769025 216 216 216 0
1.971659 -0.454998 19.825626 216 216 216 0
2.045340 -0.454520 19.804795 216 216 216 0
2.115702 -0.453365 19.754452 216 216 216 0
2.187261 -0.452537 19.718379 216 216 216 0
2.258562 -0.451712 19.682458 216 216 216 0
2.336153 -0.452159 19.701901 217 217 217 0
2.422115 -0.454147 19.788519 217 217 217 0
2.496620 -0.453931 19.779124 216 216 216 0
2.568180 -0.453208 19.747636 217 217 217 0
2.642114 -0.452934 19.735677 216 216 216 0
2.719108 -0.453185 19.746605 216 216 216 0
2.799394 -0.453956 19.780211 217 217 217 0
2.880381 -0.454797 19.816866 217 217 217 0
2.953286 -0.454352 19.797458 217 217 217 0
3.026798 -0.454020 19.782992 217 217 217 0
3.102196 -0.453980 19.781258 217 217 217 0
3.184178 -0.454883 19.820591 216 216 216 0
3.261502 -0.455093 19.829772 217 217 217 0
3.342985 -0.455862 19.863252 216 216 216 0
3.421544 -0.456206 19.878251 217 217 217 0
3.499544 -0.456462 19.889421 217 217 217 0
3.573881 -0.456240 19.879747 217 217 217 0
3.643788 -0.455473 19.846338 217 217 217 0
3.723335 -0.455919 19.865731 217 217 217 0
3.815230 -0.457828 19.948914 217 217 217 0
3.879218 -0.456379 19.885778 217 217 217 0
3.948876 -0.455640 19.853574 217 217 217 0
4.021454 -0.455259 19.836991 217 217 217 0
4.092151 -0.454683 19.811916 217 217 217 0
4.167127 -0.454596 19.808092 217 217 217 0
4.247350 -0.455073 19.828899 218 218 218 0
4.325899 -0.455358 19.841297 217 217 217 0
4.400694 -0.455244 19.836348 217 217 217 0
4.474108 -0.454994 19.825446 217 217 217 0
4.553118 -0.455312 19.839292 218 218 218 0
4.629683 -0.455379 19.842209 218 218 218 0
4.711664 -0.455967 19.867865 218 218 218 0
4.784987 -0.455713 19.856776 217 217 217 0
4.866278 -0.456214 19.878585 218 218 218 0
4.942662 -0.456246 19.879988 218 218 218 0
5.022817 -0.456620 19.896285 218 218 218 0
5.103948 -0.457070 19.915904 217 217 217 0
5.184262 -0.457435 19.931802 217 217 217 0
5.269934 -0.458255 19.967544 218 218 218 0
5.343017 -0.457973 19.955245 218 218 218 0
5.411367 -0.457299 19.925866 217 217 217 0
5.480299 -0.456692 19.899414 218 218 218 0
5.558046 -0.456826 19.905258 217 217 217 0
5.648340 -0.457973 19.955271 218 218 218 0
5.720163 -0.457613 19.939566 217 217 217 0
5.789442 -0.457061 19.915520 218 218 218 0
5.862746 -0.456837 19.905767 218 218 218 0
5.937396 -0.456723 19.900774 218 218 218 0
6.018309 -0.457087 19.916636 218 218 218 0
-10.712844 -0.669553 35.009293 210 210 210 0
-10.578686 -0.669537 35.008476 211 211 211 0
-10.444707 -0.669532 35.008235 211 211 211 0
-10.254848 -0.665899 34.818259 210 210 210 0
-10.124060 -0.666057 34.826489 211 211 211 0
-5.181963 -0.345464 18.063487 211 211 211 0
-5.083914 -0.343508 17.961187 211 211 211 0
-4.997783 -0.342314 17.898767 211 211 211 0
-4.956576 -0.344207 17.997735 211 211 211 0
-4.894020 -0.344649 18.020879 211 211 211 0
-4.827577 -0.344827 18.030168 211 211 211 0
-4.811133 -0.348633 18.229166 211 211 211 0
-4.738726 -0.348436 18.218860 211 211 211 0
-4.687098 -0.349783 18.289329 211 211 211 0
-4.634187 -0.351075 18.356852 210 210 210 0
-4.572367 -0.351721 18.390615 211 211 211 0
-4.508589 -0.352234 18.417439 211 211 211 0
-4.444268 -0.352720 18.442858 212 212 212 0
-4.382566 -0.353433 18.480142 211 211 211 0
-4.340151 -0.355750 18.601312 211 211 211 0
-4.284885 -0.357074 18.670525 212 212 212 0
-4.224585 -0.358016 18.719776 212 212 212 0
-4.144836 -0.357313 18.683057 211 211 211 0
-4.095727 -0.359274 18.785584 212 212 212 0
-4.045283 -0.361186 18.885544 212 212 212 0
-4.002773 -0.363888 19.026846 212 212 212 0
-3.935795 -0.364425 19.054927 212 212 212 0
-3.839509 -0.362218 18.939496 212 212 212 0
-3.754171 -0.360978 18.874666 212 212 212 0
-3.680694 -0.360852 18.868097 213 213 213 0
-3.625345 -0.362535 18.956053 212 212 212 0
-3.588369 -0.366160 19.145626 212 212 212 0
-3.501026 -0.364690 19.068766 213 213 213 0
-3.416152 -0.363420 19.002378 212 212 212 0
-3.334572 -0.362454 18.951818 213 213 213 0
-3.247303 -0.360811 18.865955 213 213 213 0
-3.184283 -0.361850 18.920280 213 213 213 0
-3.142053 -0.365355 19.103531 213 213 213 0
-3.077530 -0.366373 19.156737 213 213 213 0
-2.995660 -0.365324 19.101928 213 213 213 0
-2.912903 -0.364113 19.038582 213 213 213 0
-2.838667 -0.363932 19.029106 213 213 213 0
-2.777809 -0.365501 19.111176 212 212 212 0
-2.714845 -0.366871 19.182798 213 213 213 0
-2.646361 -0.367550 19.218310 212 212 212 0
-2.576449 -0.368064 19.245184 213 213 213 0
-2.500045 -0.367654 19.223720 213 213 213 0
-2.427190 -0.367756 19.229078 214 214 214 0
-2.357712 -0.368392 19.262350 213 213 213 0
-2.299583 -0.370900 19.393486 214 214 214 0
-2.231089 -0.371848 19.443038 213 213 213 0
-2.157421 -0.371969 19.449368 213 213 213 0
-2.077564 -0.370994 19.398357 213 213 213 0
-1.998568 -0.370105 19.351904 213 213 213 0
-1.921875 -0.369591 19.325038 214 214 214 0
-1.858701 -0.371740 19.437396 213 213 213 0
-1.795896 -0.374145 19.563135 214 214 214 0
-1.713884 -0.372584 19.481491 214 214 214 0
-1.634457 -0.371467 19.423133 214 214 214 0
-1.553715 -0.369932 19.342859 214 214 214 0
-1.478093 -0.369523 19.321481 214 214 214 0
-1.404761 -0.369674 19.329362 213 213 213 0
-1.333163 -0.370323 19.363297 214 214 214 0
-1.262535 -0.371334 19.416146 213 213 213 0
-1.188731 -0.371478 19.423710 214 214 214 0
-1.112699 -0.370900 19.393448 214 214 214 0
-1.040925 -0.371759 19.438384 215 215 215 0
-0.968503 -0.372501 19.477175 215 215 215 0
-0.894589 -0.372746 19.489962 214 214 214 0
-0.820736 -0.373062 19.506501 214 214 214 0
-0.745313 -0.372656 19.485306 214 214 214 0
-0.671022 -0.372790 19.492291 214 214 214 0
-0.598113 -0.373820 19.546170 214 214 214 0
-0.524213 -0.374438 19.578467 215 215 215 0
-0.449850 -0.374875 19.601314 215 215 215 0
-0.375288 -0.375288 19.622911 215 215 215 0
-0.300703 -0.375879 19.653795 215 215 215 0
-0.225915 -0.376525 19.687586 215 215 215 0
-0.150191 -0.375478 19.632829 215 215 215 0
-0.074976 -0.374879 19.601512 215 215 215 0
0.000000 -0.374385 19.575680 215 215 215 0
0.074639 -0.373194 19.513418 215 215 215 0
0.150840 -0.377100 19.717624 215 215 215 0
0.225654 -0.376090 19.664827 215 215 215 0
0.300136 -0.375171 19.616764 216 216 216 0
0.374809 -0.374809 19.597846 215 215 215 0
0.449174 -0.374312 19.571866 215 215 215 0
0.524722 -0.374801 19.597451 216 216 216 0
0.601391 -0.375869 19.653292 215 215 215 0
0.676936 -0.376076 19.664094 215 215 215 0
0.751424 -0.375712 19.645072 215 215 215 0
0.825608 -0.375276 19.622296 216 216 216 0
0.901460 -0.375608 19.639653 216 216 216 0
0.977220 -0.375854 19.652492 215 215 215 0
1.054188 -0.376496 19.686050 216 216 216 0
1.130730 -0.376910 19.707712 216 216 216 0
1.206143 -0.376920 19.708214 216 216 216 0
1.281048 -0.376779 19.700850 215 215 215 0
1.356411 -0.376781 19.700956 216 216 216 0
1.436947 -0.378144 19.772233 216 216 216 0
1.515226 -0.378807 19.806879 216 216 216 0
1.593559 -0.379419 19.838890 217 217 217 0
1.666814 -0.378821 19.807649 216 216 216 0
1.737400 -0.377696 19.748787 216 216 216 0
1.809835 -0.377049 19.714977 217 217 217 0
1.891319 -0.378264 19.778496 216 216 216 0
1.971250 -0.379087 19.821523 216 216 216 0
2.045187 -0.378738 19.803314 216 216 216 0
2.116687 -0.377980 19.763650 216 216 216 0
2.186884 -0.377049 19.714977 216 216 216 0
2.259156 -0.376526 19.687634 216 216 216 0
2.336768 -0.376898 19.707087 217 217 217 0
2.420132 -0.378146 19.772320 216 216 216 0
2.496787 -0.378301 19.780446 217 217 217 0
2.569069 -0.377804 19.754471 216 216 216 0
2.641763 -0.377395 19.733060 216 216 216 0
2.719862 -0.377759 19.752087 216 216 216 0
2.801028 -0.378517 19.791757 216 216 216 0
2.878952 -0.378809 19.807030 217 217 217 0
2.952766 -0.378560 19.793976 216 216 216 0
3.027841 -0.378480 19.789812 217 217 217 0
3.100367 -0.378093 19.769595 217 217 217 0
3.184797 -0.379142 19.824443 217 217 217 0
3.262410 -0.379350 19.835292 217 217 217 0
3.343008 -0.379887 19.863386 217 217 217 0
3.421263 -0.380140 19.876617 216 216 216 0
3.500013 -0.380436 19.892087 217 217 217 0
3.572057 -0.380006 19.869598 216 216 216 0
3.644674 -0.379654 19.851165 217 217 217 0
3.723043 -0.379902 19.864174 217 217 217 0
3.814330 -0.381433 19.944207 217 217 217 0
3.878980 -0.380292 19.884555 217 217 217 0
3.949429 -0.379753 19.856353 217 217 217 0
4.019491 -0.379197 19.827307 217 217 217 0
4.092965 -0.378978 19.815856 217 217 217 0
4.165712 -0.378701 19.801366 217 217 217 0
4.247522 -0.379243 19.829699 217 217 217 0
4.326455 -0.379514 19.843847 218 218 218 0
4.401821 -0.379467 19.841431 218 218 218 0
4.476594 -0.379372 19.836464 217 217 217 0
4.555755 -0.379646 19.850784 217 217 217 0
4.631913 -0.379665 19.851763 217 217 217 0
4.710927 -0.379913 19.864756 217 217 217 0
4.786566 -0.379886 19.863332 218 218 218 0
4.866611 -0.380204 19.879949 218 218 218 0
4.943003 -0.380231 19.881360 218 218 218 0
5.023753 -0.380587 19.899990 218 218 218 0
5.103401 -0.380851 19.913770 218 218 218 0
5.183369 -0.381130 19.928369 218 218 218 0
5.270248 -0.381902 19.968733 218 218 218 0
5.343531 -0.381681 19.957167 218 218 218 0
5.411163 -0.381068 19.925113 218 218 218 0
5.478783 -0.380471 19.893909 218 218 218 0
5.559569 -0.380792 19.910715 218 218 218 0
5.649235 -0.381705 19.958436 217 217 217 0
5.719150 -0.381277 19.936034 219 219 219 0
5.789983 -0.380920 19.917381 218 218 218 0
5.863058 -0.380718 19.906827 218 218 218 0
5.937975 -0.380639 19.902714 218 218 218 0
6.017842 -0.380876 19.915090 218 218 218 0
-10.712843 -0.535642 35.009291 211 211 211 0
-10.578680 -0.535629 35.008457 211 211 211 0
-10.444704 -0.535626 35.008225 211 211 211 0
-10.254073 -0.532679 34.815629 211 211 211 0
-10.124236 -0.532855 34.827092 211 211 211 0
-5.178719 -0.276198 18.052180 210 210 210 0
-5.075805 -0.274368 17.932540 210 210 210 0
-5.008102 -0.274417 17.935723 211 211 211 0
-4.959945 -0.275553 18.009968 211 211 211 0
-4.891556 -0.275581 18.011806 211 211 211 0
-4.823845 -0.275648 18.016226 210 210 210 0
-4.809192 -0.278794 18.221813 211 211 211 0
-4.743297 -0.279017 18.236437 211 211 211 0
-4.684246 -0.279656 18.278200 211 211 211 0
-4.629840 -0.280596 18.339634 211 211 211 0
-4.571009 -0.281293 18.385154 212 212 212 0
-4.512378 -0.282024 18.432918 212 212 212 0
-4.442851 -0.282086 18.436978 212 212 212 0
-4.383658 -0.282817 18.484747 212 212 212 0
-4.342492 -0.284754 18.611346 212 212 212 0
-4.291045 -0.286070 18.697362 212 212 212 0
-4.227724 -0.286625 18.733681 212 212 212 0
-4.142051 -0.285659 18.670504 212 212 212 0
-4.096908 -0.287502 18.791002 212 212 212 0
-4.045320 -0.288951 18.885714 212 212 212 0
-4.001870 -0.291045 19.022554 212 212 212 0
-3.932722 -0.291313 19.040050 212 212 212 0
-3.842751 -0.290019 18.955489 212 212 212 0
-3.750898 -0.288531 18.858211 212 212 212 0
-3.677753 -0.288451 18.853021 212 212 212 0
-3.622122 -0.289770 18.939198 213 213 213 0
-3.585814 -0.292719 19.131993 212 212 212 0
-3.497054 -0.291421 19.047137 213 213 213 0
-3.417973 -0.290891 19.012505 213 213 213 0
-3.331404 -0.289687 18.933811 213 213 213 0
-3.249288 -0.288826 18.877489 213 213 213 0
-3.183782 -0.289435 18.917304 212 212 212 0
-3.142593 -0.292334 19.106810 213 213 213 0
-3.077013 -0.293049 19.153519 212 212 212 0
-2.995034 -0.292198 19.097936 213 213 213 0
-2.911064 -0.291106 19.026561 213 213 213 0
-2.840390 -0.291322 19.040658 213 213 213 0
-2.777933 -0.292414 19.112026 213 213 213 0
-2.715684 -0.293588 19.188726 212 212 212 0
-2.647673 -0.294186 19.227837 213 213 213 0
-2.575730 -0.294369 19.239816 213 213 213 0
-2.498532 -0.293945 19.212085 213 213 213 0
-2.423233 -0.293725 19.197729 214 214 214 0
-2.356901 -0.294613 19.255729 213 213 213 0
-2.299160 -0.296666 19.389919 214 214 214 0
-2.230782 -0.297438 19.440369 213 213 213 0
-2.156179 -0.297404 19.438172 213 213 213 0
-2.079169 -0.297024 19.413340 213 213 213 0
-1.998147 -0.296022 19.347833 213 213 213 0
-1.922725 -0.295804 19.333582 214 214 214 0
-1.857228 -0.297156 19.421992 214 214 214 0
-1.795001 -0.299167 19.553389 214 214 214 0
-1.712537 -0.297833 19.466179 214 214 214 0
-1.633413 -0.296984 19.410727 214 214 214 0
-1.554280 -0.296053 19.349892 213 213 213 0
-1.477185 -0.295437 19.309614 214 214 214 0
-1.404790 -0.295745 19.329758 214 214 214 0
-1.333851 -0.296411 19.373287 214 214 214 0
-1.263009 -0.297179 19.423432 214 214 214 0
-1.189035 -0.297259 19.428683 214 214 214 0
-1.112691 -0.296718 19.393306 215 215 215 0
-1.040333 -0.297238 19.427316 215 215 215 0
-0.968406 -0.297971 19.475232 215 215 215 0
-0.895044 -0.298348 19.499874 214 214 214 0
-0.820693 -0.298434 19.505479 215 215 215 0
-0.746346 -0.298538 19.512308 214 214 214 0
-0.671821 -0.298587 19.515485 215 215 215 0
-0.597684 -0.298842 19.532172 214 214 214 0
-0.524128 -0.299502 19.575293 215 215 215 0
-0.449995 -0.299997 19.607634 215 215 215 0
-0.375124 -0.300099 19.614325 215 215 215 0
-0.300600 -0.300600 19.647087 214 214 214 0
-0.225801 -0.301067 19.677605 215 215 215 0
-0.150245 -0.300489 19.639833 215 215 215 0
-0.075006 -0.300023 19.609340 215 215 215 0
0.000000 -0.299440 19.571259 215 215 215 0
0.074719 -0.298874 19.534260 215 215 215 0
0.150890 -0.301779 19.724136 215 215 215 0
0.225661 -0.300881 19.665426 215 215 215 0
0.300045 -0.300045 19.610802 215 215 215 0
0.374536 -0.299629 19.583599 215 215 215 0
0.449191 -0.299461 19.572588 215 215 215 0
0.524377 -0.299644 19.584594 215 215 215 0
0.601053 -0.300526 19.642253 216 216 216 0
0.677246 -0.300998 19.673097 215 215 215 0
0.751685 -0.300674 19.651893 216 216 216 0
0.825465 -0.300169 19.618898 216 216 216 0
0.901082 -0.300361 19.631406 215 215 215 0
0.977421 -0.300745 19.656529 216 216 216 0
1.054584 -0.301310 19.693437 215 215 215 0
1.131201 -0.301654 19.715926 215 215 215 0
1.206613 -0.301653 19.715905 216 216 216 0
1.282167 -0.301686 19.718060 216 216 216 0
1.356581 -0.301462 19.703430 216 216 216 0
1.437144 -0.302557 19.774944 217 217 217 0
1.515204 -0.303041 19.806585 216 216 216 0
1.593885 -0.303597 19.842955 216 216 216 0
1.666782 -0.303051 19.807273 216 216 216 0
1.737337 -0.302146 19.748077 216 216 216 0
1.810133 -0.301689 19.718224 216 216 216 0
1.890703 -0.302512 19.772053 216 216 216 0
1.971473 -0.303304 19.823762 216 216 216 0
2.045176 -0.302989 19.803204 216 216 216 0
2.116697 -0.302385 19.763748 216 216 216 0
2.186863 -0.301636 19.714793 216 216 216 0
2.259255 -0.301234 19.688494 216 216 216 0
2.336854 -0.301530 19.707813 217 217 217 0
2.419993 -0.302499 19.771188 216 216 216 0
2.497916 -0.302778 19.789390 217 217 217 0
2.567455 -0.302053 19.742058 216 216 216 0
2.642373 -0.301986 19.737615 216 216 216 0
2.719759 -0.302195 19.751339 217 217 217 0
2.801559 -0.302871 19.795509 216 216 216 0
2.879108 -0.303064 19.808104 217 217 217 0
2.952327 -0.302803 19.791031 217 217 217 0
3.026622 -0.302662 19.781841 217 217 217 0
3.100545 -0.302492 19.770729 217 217 217 0
3.184564 -0.303292 19.822991 217 217 217 0
3.262438 -0.303483 19.835462 216 216 216 0
3.343695 -0.303972 19.867471 217 217 217 0
3.421710 -0.304152 19.879213 217 217 217 0
3.499945 -0.304343 19.891701 217 217 217 0
3.572353 -0.304030 19.871244 217 217 217 0
3.646514 -0.303876 19.861189 217 217 217 0
3.724343 -0.304028 19.871113 217 217 217 0
3.816722 -0.305338 19.956717 217 217 217 0
3.878193 -0.304172 19.880522 217 217 217 0
3.947344 -0.303642 19.845872 217 217 217 0
4.020097 -0.303404 19.830295 218 218 218 0
4.092616 -0.303157 19.814167 217 217 217 0
4.167078 -0.303060 19.807855 218 218 218 0
4.246504 -0.303322 19.824947 217 217 217 0
4.326380 -0.303606 19.843506 217 217 217 0
4.401286 -0.303537 19.839016 218 218 218 0
4.476644 -0.303501 19.836686 218 218 218 0
4.555013 -0.303668 19.847549 217 217 217 0
4.632039 -0.303740 19.852304 218 218 218 0
4.711619 -0.303975 19.867674 217 217 217 0
4.786198 -0.303886 19.861805 218 218 218 0
4.865746 -0.304109 19.876414 218 218 218 0
4.943235 -0.304199 19.882291 217 217 217 0
5.024595 -0.304521 19.903326 218 218 218 0
5.103393 -0.304680 19.913739 218 218 218 0
5.184180 -0.304952 19.931488 218 218 218 0
5.269273 -0.305465 19.965039 218 218 218 0
5.343245 -0.305328 19.956098 218 218 218 0
5.410982 -0.304844 19.924447 218 218 218 0
5.478110 -0.304339 19.891469 218 218 218 0
5.560144 -0.304665 19.912772 218 218 218 0
5.651446 -0.305484 19.966245 218 218 218 0
5.720354 -0.305086 19.940230 218 218 218 0
5.789680 -0.304720 19.916340 218 218 218 0
5.861979 -0.304518 19.903164 219 219 219 0
5.936187 -0.304420 19.896721 217 217 217 0
6.018107 -0.304714 19.915965 218 218 218 0
-10.712842 -0.401732 35.009289 211 211 211 0
-10.578710 -0.401723 35.008556 210 210 210 0
-10.444702 -0.401719 35.008218 211 211 211 0
-10.254206 -0.399515 34.816081 210 210 210 0
-10.123508 -0.399612 34.824588 211 211 211 0
-5.177255 -0.207090 18.047077 211 211 211 0
-5.071633 -0.205607 17.917799 211 211 211 0
-5.008646 -0.205835 17.937669 211 211 211 0
-4.955062 -0.206461 17.992238 211 211 211 0
-4.896450 -0.206892 18.029826 211 211 211 0
-4.825053 -0.206788 18.020740 211 211 211 0
-4.797242 -0.208576 18.176535 211 211 211 0
-4.744800 -0.209329 18.242213 211 211 211 0
-4.683848 -0.209725 18.276650 211 211 211 0
-4.634070 -0.210640 18.356386 212 212 212 0
-4.567432 -0.210805 18.370768 212 212 212 0
-4.508894 -0.211354 18.418686 211 211 211 0
-4.444166 -0.211627 18.442436 211 211 211 0
-4.387928 -0.212319 18.502755 211 211 211 0
-4.348701 -0.213871 18.637958 212 212 212 0
-4.294738 -0.214737 18.713457 212 212 212 0
-4.227857 -0.214976 18.734272 212 212 212 0
-4.148828 -0.214595 18.701050 211 211 211 0
-4.095181 -0.215536 18.783080 212 212 212 0
-4.045838 -0.216741 18.888134 212 212 212 0
-4.005079 -0.218459 19.037809 212 212 212 0
-3.930713 -0.218373 19.030322 212 212 212 0
-3.846080 -0.217703 18.971910 211 211 211 0
-3.753709 -0.216560 18.872345 212 212 212 0
-3.679214 -0.216424 18.860511 213 213 213 0
-3.623771 -0.217426 18.947823 212 212 212 0
-3.589570 -0.219770 19.152036 213 213 213 0
-3.499306 -0.218707 19.059399 213 213 213 0
-3.415013 -0.217980 18.996039 213 213 213 0
-3.331680 -0.217283 18.935380 212 212 212 0
-3.248583 -0.216572 18.873392 212 212 212 0
-3.183405 -0.217050 18.915064 212 212 212 0
-3.144964 -0.219416 19.121230 213 213 213 0
-3.077060 -0.219790 19.153814 212 212 212 0
-2.995276 -0.219167 19.099481 213 213 213 0
-2.915704 -0.218678 19.056889 213 213 213 0
-2.841323 -0.218563 19.046909 213 213 213 0
-2.778758 -0.219376 19.117700 213 213 213 0
-2.714940 -0.220130 19.183464 213 213 213 0
-2.646852 -0.220571 19.221874 213 213 213 0
-2.573508 -0.220586 19.223215 213 213 213 0
-2.498045 -0.220416 19.208347 213 213 213 0
-2.424117 -0.220374 19.204731 213 213 213 0
-2.356792 -0.220949 19.254837 213 213 213 0
-2.299421 -0.222525 19.392127 213 213 213 0
-2.230562 -0.223056 19.438452 213 213 213 0
-2.157552 -0.223195 19.450549 213 213 213 0
-2.078174 -0.222662 19.404054 214 214 214 0
-1.999245 -0.222138 19.358458 214 214 214 0
-1.923800 -0.221977 19.344392 214 214 214 0
-1.857657 -0.222919 19.426482 214 214 214 0
-1.795237 -0.224405 19.555964 213 213 213 0
-1.713995 -0.223565 19.482747 214 214 214 0
-1.634469 -0.222882 19.423279 214 214 214 0
-1.554076 -0.222011 19.347350 214 214 214 0
-1.478439 -0.221766 19.326004 214 214 214 0
-1.405768 -0.221963 19.343208 215 215 215 0
-1.332745 -0.222124 19.357227 214 214 214 0
-1.262133 -0.222729 19.409965 215 215 215 0
-1.188459 -0.222836 19.419266 215 215 215 0
-1.112123 -0.222425 19.383409 214 214 214 0
-1.041202 -0.223115 19.443557 214 214 214 0
-0.968162 -0.223422 19.470330 214 214 214 0
-0.894605 -0.223651 19.490306 214 214 214 0
-0.820663 -0.223817 19.504774 214 214 214 0
-0.746205 -0.223862 19.508640 214 214 214 0
-0.671909 -0.223970 19.518059 215 215 215 0
-0.598494 -0.224435 19.558620 214 214 214 0
-0.524173 -0.224646 19.576958 215 215 215 0
-0.450060 -0.225030 19.610454 215 215 215 0
-0.375247 -0.225148 19.620770 215 215 215 0
-0.300751 -0.225563 19.656917 215 215 215 0
-0.225870 -0.225870 19.683649 214 214 214 0
-0.150259 -0.225388 19.641667 215 215 215 0
-0.074993 -0.224979 19.605995 215 215 215 0
0.000000 -0.224709 19.582495 215 215 215 0
0.074725 -0.224174 19.535889 215 215 215 0
0.150742 -0.226113 19.704862 215 215 215 0
0.225675 -0.225675 19.666709 215 215 215 0
0.300189 -0.225141 19.620165 215 215 215 0
0.374677 -0.224806 19.590948 216 216 216 0
0.449132 -0.224566 19.570022 215 215 215 0
0.524794 -0.224912 19.600152 215 215 215 0
0.600974 -0.225365 19.639680 215 215 215 0
0.677386 -0.225795 19.677156 215 215 215 0
0.751614 -0.225484 19.650047 215 215 215 0
0.825418 -0.225114 19.617775 216 216 216 0
0.901464 -0.225366 19.639734 216 216 216 0
0.977343 -0.225541 19.654961 216 216 216 0
1.054365 -0.225935 19.689361 216 216 216 0
1.131304 -0.226261 19.717719 216 216 216 0
1.206696 -0.226256 19.717255 216 216 216 0
1.281962 -0.226229 19.714910 216 216 216 0
1.356719 -0.226120 19.705426 216 216 216 0
1.437450 -0.226966 19.779156 216 216 216 0
1.515109 -0.227266 19.805349 216 216 216 0
1.593589 -0.227656 19.839263 216 216 216 0
1.666787 -0.227289 19.807333 216 216 216 0
1.737833 -0.226674 19.753712 216 216 216 0
1.810617 -0.226327 19.723494 216 216 216 0
1.890760 -0.226891 19.772653 216 216 216 0
1.971969 -0.227535 19.828752 216 216 216 0
2.045257 -0.227251 19.803994 216 216 216 0
2.116728 -0.226792 19.764033 216 216 216 0
2.186549 -0.226195 19.711956 216 216 216 0
2.259523 -0.225952 19.690833 216 216 216 0
2.336570 -0.226120 19.705418 216 216 216 0
2.421261 -0.226993 19.781544 216 216 216 0
2.498055 -0.227096 19.790490 216 216 216 0
2.568269 -0.226612 19.748318 216 216 216 0
2.643022 -0.226545 19.742461 216 216 216 0
2.718462 -0.226538 19.741914 217 217 217 0
2.800894 -0.227099 19.790805 217 217 217 0
2.879135 -0.227300 19.808292 217 217 217 0
2.953875 -0.227221 19.801410 217 217 217 0
3.027432 -0.227057 19.787139 216 216 216 0
3.101028 -0.226904 19.773809 217 217 217 0
3.184500 -0.227464 19.822598 217 217 217 0
3.263168 -0.227663 19.839903 217 217 217 0
3.344665 -0.228045 19.873231 217 217 217 0
3.423086 -0.228206 19.887211 217 217 217 0
3.499085 -0.228201 19.886816 217 217 217 0
3.571681 -0.227980 19.867509 218 218 218 0
3.645303 -0.227831 19.854594 218 218 218 0
3.722904 -0.227933 19.863435 217 217 217 0
3.816953 -0.229017 19.957925 217 217 217 0
3.878989 -0.228176 19.884604 217 217 217 0
3.949512 -0.227856 19.856770 217 217 217 0
4.019916 -0.227542 19.829403 217 217 217 0
4.091358 -0.227298 19.808076 217 217 217 0
4.167200 -0.227302 19.808435 217 217 217 0
4.246521 -0.227492 19.825027 217 217 217 0
4.325444 -0.227655 19.839213 218 218 218 0
4.403173 -0.227750 19.847524 217 217 217 0
4.476611 -0.227624 19.836539 217 217 217 0
4.554530 -0.227726 19.845445 218 218 218 0
4.630887 -0.227749 19.847369 217 217 217 0
4.712001 -0.228000 19.869286 217 217 217 0
4.785799 -0.227895 19.860149 217 217 217 0
4.867196 -0.228150 19.882336 218 218 218 0
4.945943 -0.228274 19.893185 218 218 218 0
5.024546 -0.228388 19.903133 218 218 218 0
5.103124 -0.228498 19.912689 218 218 218 0
5.183259 -0.228673 19.927947 218 218 218 0
5.270428 -0.229149 19.969416 218 218 218 0
5.343171 -0.228993 19.955821 218 218 218 0
5.410769 -0.228624 19.923663 217 217 217 0
5.477620 -0.228234 19.889689 218 218 218 0
5.556852 -0.228364 19.900982 217 217 217 0
5.650241 -0.229064 19.961990 218 218 218 0
5.719877 -0.228795 19.938567 218 218 218 0
5.787356 -0.228448 19.908346 219 219 219 0
5.862631 -0.228414 19.905378 218 218 218 0
5.934457 -0.228248 19.890923 218 218 218 0
6.016956 -0.228492 19.912157 219 219 219 0
-10.712843 -0.267821 35.009289 211 211 211 0
-10.578696 -0.267815 35.008509 210 210 210 0
-10.444709 -0.267813 35.008241 210 210 210 0
-10.254363 -0.266347 34.816613 211 211 211 0
-10.123620 -0.266411 34.824973 210 210 210 0
-5.173733 -0.137966 18.034799 211 211 211 0
-5.077146 -0.137220 17.937276 210 210 210 0
-5.015230 -0.137404 17.961251 211 211 211 0
-4.948911 -0.137470 17.969902 211 211 211 0
-4.892878 -0.137828 18.016675 211 211 211 0
-4.823688 -0.137820 18.015642 210 210 210 0
-4.805050 -0.139277 18.206118 211 211 211 0
-4.750364 -0.139717 18.263607 211 211 211 0
-4.686147 -0.139885 18.285618 211 211 211 0
-4.635463 -0.140469 18.361907 211 211 211 0
-4.564294 -0.140440 18.358145 212 212 212 0
-4.514014 -0.141063 18.439601 211 211 211 0
-4.446685 -0.141165 18.452891 211 211 211 0
-4.386909 -0.141513 18.498457 212 212 212 0
-4.351911 -0.142686 18.651715 212 212 212 0
-4.290341 -0.143011 18.694298 212 212 212 0
-4.226507 -0.143271 18.728292 212 212 212 0
-4.146309 -0.142976 18.689694 212 212 212 0
-4.099322 -0.143836 18.802072 212 212 212 0
-4.044855 -0.144459 18.883543 212 212 212 0
-4.003658 -0.145588 19.031054 212 212 212 0
-3.932461 -0.145647 19.038787 212 212 212 0
-3.842247 -0.144990 18.952998 212 212 212 0
-3.755022 -0.144424 18.878946 212 212 212 0
-3.681168 -0.144360 18.870525 212 212 212 0
-3.628110 -0.145124 18.970508 213 213 213 0
-3.588216 -0.146458 19.144809 212 212 212 0
-3.497489 -0.145729 19.049503 212 212 212 0
-3.415435 -0.145338 18.998387 213 213 213 0
-3.331030 -0.144827 18.931685 212 212 212 0
-3.248267 -0.144367 18.871556 213 213 213 0
-3.182872 -0.144676 18.911898 212 212 212 0
-3.144079 -0.146236 19.115846 213 213 213 0
-3.073928 -0.146378 19.134317 212 212 212 0
-2.997733 -0.146231 19.115149 213 213 213 0
-2.914034 -0.145702 19.045975 213 213 213 0
-2.840608 -0.145672 19.042117 213 213 213 0
-2.776389 -0.146126 19.101402 213 213 213 0
-2.713922 -0.146698 19.176272 213 213 213 0
-2.644699 -0.146928 19.206237 213 213 213 0
-2.576665 -0.147238 19.246801 213 213 213 0
-2.496650 -0.146862 19.197619 213 213 213 0
-2.424986 -0.146969 19.211612 213 213 213 0
-2.357362 -0.147335 19.259497 213 213 213 0
-2.299195 -0.148335 19.390216 213 213 213 0
-2.230547 -0.148703 19.438322 213 213 213 0
-2.155940 -0.148685 19.436012 214 214 214 0
-2.079774 -0.148555 19.418994 214 214 214 0
-1.996945 -0.147922 19.336194 213 213 213 0
-1.922615 -0.147893 19.332474 214 214 214 0
-1.858029 -0.148642 19.430368 214 214 214 0
-1.794856 -0.149571 19.551809 214 214 214 0
-1.713071 -0.148963 19.472245 213 213 213 0
-1.632582 -0.148417 19.400854 214 214 214 0
-1.553466 -0.147949 19.339757 214 214 214 0
-1.478024 -0.147802 19.320579 214 214 214 0
-1.403221 -0.147708 19.308171 214 214 214 0
-1.333359 -0.148151 19.366137 214 214 214 0
-1.263003 -0.148589 19.423344 215 215 215 0
-1.188266 -0.148533 19.416112 214 214 214 0
-1.113059 -0.148408 19.399724 214 214 214 0
-1.040501 -0.148643 19.430456 214 214 214 0
-0.968008 -0.148924 19.467240 214 214 214 0
-0.894281 -0.149047 19.483236 215 215 215 0
-0.820322 -0.149149 19.496655 215 215 215 0
-0.746183 -0.149237 19.508048 215 215 215 0
-0.671367 -0.149193 19.502318 215 215 215 0
-0.598198 -0.149550 19.548967 215 215 215 0
-0.524054 -0.149730 19.572517 215 215 215 0
-0.449930 -0.149977 19.604794 214 214 214 0
-0.375087 -0.150035 19.612414 215 215 215 0
-0.300793 -0.150396 19.659641 215 215 215 0
-0.225901 -0.150601 19.686349 215 215 215 0
-0.150188 -0.150188 19.632402 214 214 214 0
-0.074983 -0.149967 19.603473 216 216 216 0
0.000000 -0.149820 19.584326 215 215 215 0
0.074687 -0.149375 19.526121 215 215 215 0
0.150853 -0.150853 19.719334 215 215 215 0
0.225691 -0.150460 19.668032 216 216 216 0
0.300090 -0.150045 19.613748 215 215 215 0
0.374754 -0.149901 19.594964 215 215 215 0
0.449050 -0.149683 19.566446 216 216 216 0
0.524985 -0.149996 19.607288 215 215 215 0
0.601253 -0.150313 19.648791 215 215 215 0
0.676848 -0.150411 19.661520 216 216 216 0
0.751404 -0.150281 19.644541 216 216 216 0
0.825596 -0.150108 19.622002 215 215 215 0
