ply
    format ascii 1.0
    element vertex 25600
    property float x
    property float y
    property float z
    property uchar red
    property uchar green
    property uchar blue
    property uchar alpha
    end_header
-4.060095 -4.340102 18.301083 212 212 212 0
-3.984662 -4.334194 18.276172 212 212 212 0
-3.928826 -4.349772 18.341858 212 212 212 0
-3.884625 -4.379032 18.465240 211 211 211 0
-3.840166 -4.409080 18.591945 213 213 213 0
-3.770332 -4.410577 18.598258 212 212 212 0
-3.680250 -4.387990 18.503017 212 212 212 0
-3.592646 -4.367531 18.416743 212 212 212 0
-3.515146 -4.358781 18.379849 212 212 212 0
-3.470852 -4.391690 18.518616 212 212 212 0
-3.435875 -4.438006 18.713918 213 213 213 0
-3.351015 -4.420488 18.640050 212 212 212 0
-3.267747 -4.404355 18.572020 212 212 212 0
-3.183297 -4.385876 18.494101 212 212 212 0
-3.101294 -4.370006 18.427180 213 213 213 0
-3.037344 -4.379426 18.466903 212 212 212 0
-2.995645 -4.422142 18.647026 212 212 212 0
-2.934750 -4.437914 18.713532 212 212 212 0
-2.853140 -4.422367 18.647972 213 213 213 0
-2.775071 -4.411652 18.602791 213 213 213 0
-2.705511 -4.414254 18.613765 214 214 214 0
-2.642588 -4.428121 18.672236 213 213 213 0
-2.584227 -4.450614 18.767082 213 213 213 0
-2.518886 -4.462027 18.815210 213 213 213 0
-2.445157 -4.458817 18.801672 212 212 212 0
-2.367238 -4.447539 18.754117 213 213 213 0
-2.294040 -4.444703 18.742158 213 213 213 0
-2.230623 -4.461247 18.811920 214 214 214 0
-2.171287 -4.487327 18.921894 213 213 213 0
-2.106143 -4.502788 18.987088 213 213 213 0
-2.034095 -4.504067 18.992481 213 213 213 0
-1.960169 -4.501128 18.980091 214 214 214 0
-1.881965 -4.487764 18.923735 213 213 213 0
-1.808717 -4.485618 18.914688 213 213 213 0
-1.737801 -4.489320 18.930298 214 214 214 0
-1.674456 -4.513750 19.033312 214 214 214 0
-1.606980 -4.528762 19.096614 214 214 214 0
-1.526725 -4.507474 19.006848 214 214 214 0
-1.447744 -4.488006 18.924756 214 214 214 0
-1.373705 -4.482618 18.902036 214 214 214 0
-1.299536 -4.476178 18.874882 214 214 214 0
-1.230741 -4.488586 18.927200 214 214 214 0
-1.160947 -4.498670 18.969725 214 214 214 0
-1.089071 -4.501493 18.981626 214 214 214 0
-1.015331 -4.496464 18.960422 214 214 214 0
-0.942007 -4.492648 18.944333 215 215 215 0
-0.872340 -4.507090 19.005229 215 215 215 0
-0.801196 -4.515833 19.042096 214 214 214 0
-0.728780 -4.518437 19.053076 214 214 214 0
-0.655742 -4.517332 19.048415 214 214 214 0
-0.583161 -4.519496 19.057542 215 215 215 0
-0.510431 -4.520959 19.063712 215 215 215 0
-0.438222 -4.528294 19.094642 214 214 214 0
-0.365693 -4.534591 19.121195 215 215 215 0
-0.293227 -4.545013 19.165141 215 215 215 0
-0.220261 -4.552058 19.194846 215 215 215 0
-0.147235 -4.564293 19.246441 215 215 215 0
-0.073599 -4.563151 19.241622 215 215 215 0
0.000000 -4.550057 19.186411 214 214 214 0
0.073255 -4.541786 19.151534 215 215 215 0
0.146586 -4.544171 19.161591 215 215 215 0
0.220435 -4.555663 19.210047 214 214 214 0
0.293649 -4.551554 19.192724 214 214 214 0
0.367025 -4.551108 19.190841 216 216 216 0
0.439739 -4.543965 19.160722 215 215 215 0
0.512131 -4.536018 19.127210 215 215 215 0
0.584902 -4.532993 19.114454 215 215 215 0
0.659510 -4.543289 19.157871 216 216 216 0
0.733854 -4.549894 19.185721 215 215 215 0
0.807886 -4.553538 19.201089 216 216 216 0
0.881205 -4.552891 19.198360 216 216 216 0
0.953719 -4.548505 19.179867 215 215 215 0
1.027557 -4.550610 19.188741 215 215 215 0
1.101828 -4.554221 19.203970 215 215 215 0
1.176908 -4.560519 19.230524 216 216 216 0
1.251388 -4.563886 19.244723 215 215 215 0
1.325732 -4.566411 19.255371 216 216 216 0
1.398118 -4.562281 19.237955 215 215 215 0
1.472377 -4.564370 19.246762 216 216 216 0
1.550919 -4.578903 19.308046 215 215 215 0
1.627281 -4.585972 19.337855 216 216 216 0
1.703608 -4.592334 19.364679 215 215 215 0
1.775633 -4.587051 19.342405 216 216 216 0
1.845389 -4.576565 19.298188 216 216 216 0
1.917104 -4.571557 19.277068 217 217 217 0
1.994452 -4.579853 19.312053 216 216 216 0
2.076217 -4.597337 19.385777 216 216 216 0
2.144413 -4.584607 19.332100 216 216 216 0
2.215431 -4.578558 19.306591 216 216 216 0
2.283435 -4.566871 19.257308 216 216 216 0
2.355121 -4.563047 19.241184 216 216 216 0
2.429082 -4.563730 19.244064 217 217 217 0
2.510447 -4.577873 19.303704 216 216 216 0
2.585467 -4.579971 19.312548 216 216 216 0
2.657902 -4.577498 19.302121 216 216 216 0
2.729686 -4.574068 19.287659 217 217 217 0
2.804463 -4.575703 19.294554 216 216 216 0
2.883575 -4.584145 19.330150 216 216 216 0
2.961118 -4.589732 19.353711 216 216 216 0
3.034273 -4.588413 19.348148 217 217 217 0
3.105839 -4.584810 19.332955 217 217 217 0
3.178394 -4.582801 19.324483 216 216 216 0
3.254447 -4.585811 19.337175 217 217 217 0
3.332316 -4.591191 19.359861 217 217 217 0
3.414934 -4.602737 19.408548 217 217 217 0
3.489519 -4.603195 19.410477 217 217 217 0
3.566162 -4.606293 19.423541 217 217 217 0
3.638320 -4.603588 19.412137 217 217 217 0
3.711117 -4.601785 19.404531 217 217 217 0
3.784227 -4.600432 19.398830 217 217 217 0
3.858855 -4.600942 19.400979 217 217 217 0
3.939887 -4.608924 19.434638 217 217 217 0
4.005078 -4.598423 19.390357 217 217 217 0
4.075111 -4.593762 19.370701 217 217 217 0
4.146966 -4.591284 19.360251 218 218 218 0
4.217596 -4.587561 19.344554 217 217 217 0
4.288870 -4.584654 19.332296 217 217 217 0
4.371185 -4.593449 19.369383 217 217 217 0
4.450081 -4.598417 19.390330 217 217 217 0
4.519659 -4.593752 19.370659 218 218 218 0
4.596783 -4.596783 19.383440 217 217 217 0
4.666482 -4.592411 19.365006 218 218 218 0
4.744278 -4.596019 19.380219 217 217 217 0
4.821548 -4.599015 19.392854 218 218 218 0
4.895862 -4.599143 19.393391 217 217 217 0
4.973127 -4.601998 19.405433 217 217 217 0
5.048248 -4.602814 19.408872 217 217 217 0
5.126862 -4.606746 19.425452 218 218 218 0
5.205296 -4.610405 19.440882 218 218 218 0
5.281192 -4.611745 19.446533 217 217 217 0
5.365334 -4.620149 19.481969 217 217 217 0
5.438600 -4.619085 19.477481 218 218 218 0
5.504698 -4.612044 19.447794 217 217 217 0
5.570140 -4.604649 19.416612 218 218 218 0
5.634995 -4.596970 19.384228 218 218 218 0
5.742794 -4.624068 19.498493 218 218 218 0
5.797871 -4.608564 19.433120 217 217 217 0
5.870664 -4.607356 19.428026 218 218 218 0
-10.712737 -8.168462 35.008945 211 211 211 0
-10.578615 -8.168298 35.008241 211 211 211 0
-10.444587 -8.168203 35.007834 210 210 210 0
-10.257479 -8.126055 34.827193 211 211 211 0
-10.127037 -8.128280 34.836729 210 210 210 0
-5.060906 -4.116203 17.641501 211 211 211 0
-4.975555 -4.101471 17.578361 210 210 210 0
-4.908932 -4.101984 17.580561 211 211 211 0
-4.842512 -4.102684 17.583560 210 210 210 0
-4.765389 -4.094207 17.547229 210 210 210 0
-4.705008 -4.100078 17.572391 211 211 211 0
-4.635549 -4.098094 17.563888 211 211 211 0
-4.614582 -4.139551 17.741567 211 211 211 0
-4.568354 -4.159248 17.825985 211 211 211 0
-4.501720 -4.160680 17.832124 211 211 211 0
-4.455370 -4.181193 17.920039 212 212 212 0
-4.390366 -4.184568 17.934502 211 211 211 0
-4.336008 -4.198357 17.993602 212 212 212 0
-4.284841 -4.215731 18.068064 211 211 211 0
-4.226695 -4.226695 18.115053 211 211 211 0
-4.185455 -4.255213 18.237278 212 212 212 0
-4.125974 -4.265837 18.282812 212 212 212 0
-4.059361 -4.269328 18.297773 212 212 212 0
-3.985127 -4.264785 18.278302 211 211 211 0
-3.928070 -4.278790 18.338328 212 212 212 0
-3.884579 -4.308351 18.465023 212 212 212 0
-3.842379 -4.340465 18.602656 212 212 212 0
-3.773430 -4.343004 18.613539 212 212 212 0
-3.676579 -4.312909 18.484558 212 212 212 0
-3.591779 -4.296049 18.412297 212 212 212 0
-3.515259 -4.288615 18.380437 213 213 213 0
-3.469044 -4.318605 18.508970 212 212 212 0
-3.440604 -4.372434 18.739674 212 212 212 0
-3.351041 -4.349224 18.640196 213 213 213 0
-3.267539 -4.333041 18.570837 212 212 212 0
-3.185961 -4.318747 18.509579 213 213 213 0
-3.103376 -4.302407 18.439546 213 213 213 0
-3.035508 -4.306185 18.455739 212 212 212 0
-2.997781 -4.353920 18.660324 212 212 212 0
-2.935043 -4.366771 18.715403 213 213 213 0
-2.854187 -4.352636 18.654820 213 213 213 0
-2.776953 -4.343439 18.615401 213 213 213 0
-2.704469 -4.341384 18.606598 213 213 213 0
-2.638584 -4.350097 18.643940 213 213 213 0
-2.584448 -4.379203 18.768683 213 213 213 0
-2.517137 -4.387010 18.802143 213 213 213 0
-2.447038 -4.390274 18.816130 213 213 213 0
-2.369998 -4.380905 18.775976 213 213 213 0
-2.295117 -4.375067 18.750956 214 214 214 0
-2.230641 -4.389326 18.812067 213 213 213 0
-2.170312 -4.412968 18.913394 213 213 213 0
-2.106258 -4.430404 18.988123 213 213 213 0
-2.033868 -4.430926 18.990363 213 213 213 0
-1.959666 -4.427394 18.975223 213 213 213 0
-1.880284 -4.411436 18.906830 214 214 214 0
-1.808821 -4.413523 18.915772 214 214 214 0
-1.739147 -4.420333 18.944959 213 213 213 0
-1.674550 -4.441198 19.034384 214 214 214 0
-1.607894 -4.458252 19.107475 214 214 214 0
-1.526512 -4.434154 19.004198 213 213 213 0
-1.447510 -4.414905 18.921699 214 214 214 0
-1.373360 -4.409208 18.897279 214 214 214 0
-1.300238 -4.406362 18.885084 214 214 214 0
-1.229867 -4.413053 18.913759 215 215 215 0
-1.160619 -4.424860 18.964365 215 215 215 0
-1.089039 -4.428760 18.981078 214 214 214 0
-1.015230 -4.423504 18.958550 214 214 214 0
-0.942106 -4.420650 18.946319 215 215 215 0
-0.872136 -4.433357 19.000781 215 215 215 0
-0.801514 -4.444760 19.049650 214 214 214 0
-0.729013 -4.446978 19.059158 214 214 214 0
-0.656321 -4.448399 19.065250 214 214 214 0
-0.583163 -4.446616 19.057606 214 214 214 0
-0.510346 -4.447298 19.060531 215 215 215 0
-0.438619 -4.459298 19.111960 215 215 215 0
-0.365815 -4.462946 19.127596 215 215 215 0
-0.293233 -4.471805 19.165564 215 215 215 0
-0.220288 -4.479187 19.197203 215 215 215 0
-0.147248 -4.491064 19.248106 215 215 215 0
-0.073619 -4.490776 19.246870 215 215 215 0
0.000000 -4.476746 19.186740 214 214 214 0
0.073229 -4.466977 19.144873 215 215 215 0
0.146531 -4.469186 19.154337 214 214 214 0
0.220482 -4.483127 19.214086 215 215 215 0
0.293725 -4.479302 19.197694 215 215 215 0
0.366910 -4.476301 19.184831 215 215 215 0
0.439810 -4.471397 19.163817 216 216 216 0
0.512472 -4.465828 19.139945 215 215 215 0
0.584705 -4.458372 19.107990 216 216 216 0
0.659769 -4.471767 19.165398 215 215 215 0
0.734076 -4.477864 19.191532 216 216 216 0
0.807830 -4.479784 19.199761 215 215 215 0
0.880983 -4.478329 19.193525 215 215 215 0
0.953404 -4.473667 19.173544 216 216 216 0
1.027855 -4.478510 19.194301 216 216 216 0
1.102131 -4.481999 19.209255 215 215 215 0
1.176420 -4.485103 19.222557 215 215 215 0
1.252436 -4.494035 19.260836 216 216 216 0
1.325637 -4.492437 19.253988 216 216 216 0
1.398583 -4.490188 19.244349 216 216 216 0
1.472501 -4.491128 19.248378 216 216 216 0
1.550644 -4.504252 19.304626 215 215 215 0
1.627320 -4.512113 19.338320 215 215 215 0
1.704349 -4.520230 19.373107 217 217 217 0
1.775560 -4.512883 19.341616 216 216 216 0
1.845817 -4.503793 19.302661 216 216 216 0
1.916932 -4.497418 19.275337 216 216 216 0
1.994364 -4.505785 19.311195 216 216 216 0
2.077371 -4.525700 19.396550 216 216 216 0
2.144388 -4.510609 19.331870 216 216 216 0
2.215387 -4.504621 19.306208 217 217 217 0
2.283699 -4.493731 19.259533 216 216 216 0
2.354651 -4.488553 19.237343 217 217 217 0
2.428141 -4.488382 19.236611 216 216 216 0
2.509463 -4.502273 19.296144 216 216 216 0
2.585514 -4.506182 19.312897 216 216 216 0
2.656635 -4.501521 19.292922 216 216 216 0
2.730114 -4.500999 19.290685 216 216 216 0
2.805872 -4.504164 19.304248 217 217 217 0
2.884582 -4.511783 19.336903 217 217 217 0
2.961168 -4.515782 19.354041 216 216 216 0
3.032499 -4.511767 19.336833 217 217 217 0
3.105153 -4.509865 19.328682 217 217 217 0
3.178421 -4.508922 19.324642 216 216 216 0
3.256037 -4.514051 19.346624 216 216 216 0
3.331075 -4.515457 19.352649 217 217 217 0
3.413749 -4.526929 19.401815 217 217 217 0
3.489113 -4.528424 19.408223 218 218 218 0
3.566236 -4.532091 19.423942 217 217 217 0
3.638458 -4.529508 19.412872 216 216 216 0
3.711725 -4.528305 19.407713 217 217 217 0
3.783609 -4.525494 19.395665 217 217 217 0
3.859582 -4.527586 19.404633 217 217 217 0
3.940260 -4.535017 19.436479 216 216 216 0
4.005834 -4.525108 19.394015 217 217 217 0
4.077081 -4.521853 19.380064 216 216 216 0
4.146733 -4.516977 19.359165 217 217 217 0
4.217942 -4.513937 19.346137 217 217 217 0
4.290035 -4.511933 19.337547 218 218 218 0
4.371443 -4.519628 19.370524 218 218 218 0
4.449468 -4.523626 19.387660 217 217 217 0
4.520183 -4.520183 19.372905 217 217 217 0
4.596352 -4.522217 19.381623 217 217 217 0
4.668532 -4.520324 19.373510 217 217 217 0
4.744680 -4.522273 19.381863 217 217 217 0
4.821399 -4.524698 19.392255 218 218 218 0
4.895571 -4.524694 19.392240 217 217 217 0
4.974815 -4.529309 19.412017 218 218 218 0
5.048308 -4.528629 19.409103 218 218 218 0
5.125435 -4.531181 19.420042 218 218 218 0
5.205215 -4.535973 19.440579 218 218 218 0
5.282764 -4.538713 19.452321 218 218 218 0
5.365391 -4.545678 19.482174 218 218 218 0
5.442438 -4.547791 19.491228 218 218 218 0
5.506679 -4.539289 19.454792 218 218 218 0
5.570459 -4.530640 19.417723 218 218 218 0
5.633347 -4.521502 19.378557 217 217 217 0
5.744091 -4.550514 19.502899 218 218 218 0
5.798636 -4.534830 19.435681 218 218 218 0
5.871572 -4.533745 19.431031 218 218 218 0
-10.712722 -8.034541 35.008894 211 211 211 0
-10.578604 -8.034382 35.008202 210 210 210 0
-10.444573 -8.034287 35.007786 211 211 211 0
-10.257606 -7.992940 34.827625 210 210 210 0
-10.126850 -7.994882 34.836085 210 210 210 0
-5.062005 -4.049604 17.645334 211 211 211 0
-4.976306 -4.034843 17.581014 210 210 210 0
-4.904122 -4.030785 17.563333 211 211 211 0
-4.837251 -4.031043 17.564456 211 211 211 0
-4.765920 -4.027538 17.549187 212 212 212 0
-4.699745 -4.028353 17.552735 211 211 211 0
-4.630734 -4.026725 17.545644 210 210 210 0
-4.605988 -4.064107 17.708529 211 211 211 0
-4.569521 -4.092109 17.830539 212 212 212 0
-4.500743 -4.091584 17.828253 211 211 211 0
-4.456396 -4.113596 17.924167 211 211 211 0
-4.394189 -4.119553 17.950120 212 212 212 0
-4.343760 -4.136914 18.025769 211 211 211 0
-4.286135 -4.147872 18.073518 212 212 212 0
-4.223846 -4.154603 18.102844 211 211 211 0
-4.182561 -4.182561 18.224667 211 211 211 0
-4.124870 -4.194783 18.277923 212 212 212 0
-4.060437 -4.200452 18.302624 211 211 211 0
-3.981374 -4.190920 18.261088 212 212 212 0
-3.926164 -4.206604 18.329430 212 212 212 0
-3.881045 -4.233867 18.448223 212 212 212 0
-3.836102 -4.262336 18.572271 211 211 211 0
-3.775683 -4.274359 18.624656 212 212 212 0
-3.679674 -4.245778 18.500121 211 211 211 0
-3.594802 -4.229178 18.427793 212 212 212 0
-3.516990 -4.220388 18.389490 212 212 212 0
-3.464977 -4.242829 18.487272 212 212 212 0
-3.436848 -4.296059 18.719213 212 212 212 0
-3.348477 -4.274652 18.625933 213 213 213 0
-3.267829 -4.262386 18.572489 213 213 213 0
-3.186013 -4.248017 18.509877 212 212 212 0
-3.104366 -4.233226 18.445428 213 213 213 0
-3.037488 -4.238356 18.467780 213 213 213 0
-2.995387 -4.279124 18.645420 213 213 213 0
-2.934842 -4.294891 18.714121 213 213 213 0
-2.856714 -4.285070 18.671331 213 213 213 0
-2.774552 -4.268541 18.599306 212 212 212 0
-2.702448 -4.267023 18.592691 213 213 213 0
-2.641369 -4.283301 18.663621 213 213 213 0
-2.583187 -4.305311 18.759527 213 213 213 0
-2.520484 -4.320830 18.827147 213 213 213 0
-2.447337 -4.318830 18.818432 212 212 212 0
-2.369159 -4.307562 18.769334 213 213 213 0
-2.295311 -4.303708 18.752540 213 213 213 0
-2.228328 -4.312894 18.792566 213 213 213 0
-2.171952 -4.343904 18.927688 213 213 213 0
-2.103213 -4.351475 18.960675 214 214 214 0
-2.035308 -4.361374 19.003809 214 214 214 0
-1.959407 -4.354239 18.972718 213 213 213 0
-1.882999 -4.345382 18.934125 213 213 213 0
-1.809660 -4.343185 18.924552 213 213 213 0
-1.739225 -4.348062 18.945802 214 214 214 0
-1.673658 -4.366065 19.024249 214 214 214 0
-1.607276 -4.383481 19.100135 214 214 214 0
-1.527014 -4.362897 19.010446 214 214 214 0
-1.447390 -4.342169 18.920128 214 214 214 0
-1.373601 -4.337688 18.900603 214 214 214 0
-1.300178 -4.333928 18.884218 214 214 214 0
-1.229383 -4.338998 18.906309 214 214 214 0
-1.161335 -4.355008 18.976068 214 214 214 0
-1.088997 -4.355988 18.980341 214 214 214 0
-1.015106 -4.350456 18.956234 214 214 214 0
-0.942176 -4.348505 18.947733 214 214 214 0
-0.872012 -4.360059 18.998078 214 214 214 0
-0.801714 -4.372986 19.054406 215 215 215 0
-0.729387 -4.376325 19.068954 214 214 214 0
-0.656494 -4.376629 19.070278 214 214 214 0
-0.583002 -4.372519 19.052369 214 214 214 0
-0.510417 -4.374999 19.063178 214 214 214 0
-0.438212 -4.382124 19.094223 214 214 214 0
-0.365591 -4.387088 19.115850 215 215 215 0
-0.293045 -4.395676 19.153274 215 215 215 0
-0.220192 -4.403850 19.188888 214 214 214 0
-0.147241 -4.417233 19.247204 215 215 215 0
-0.073577 -4.414647 19.235933 215 215 215 0
0.000000 -4.403753 19.188464 215 215 215 0
0.073248 -4.394870 19.149761 215 215 215 0
0.146609 -4.398279 19.164615 215 215 215 0
0.220458 -4.409166 19.212052 215 215 215 0
0.293797 -4.406954 19.202414 214 214 214 0
0.366945 -4.403337 19.186653 214 214 214 0
0.439702 -4.397016 19.159110 215 215 215 0
0.512367 -4.391715 19.136014 215 215 215 0
0.585093 -4.388198 19.120689 215 215 215 0
0.659713 -4.398090 19.163790 215 215 215 0
0.734021 -4.404124 19.190083 215 215 215 0
0.807959 -4.407048 19.202823 215 215 215 0
0.880964 -4.404820 19.193115 215 215 215 0
0.953508 -4.400807 19.175629 215 215 215 0
1.027523 -4.403671 19.188108 215 215 215 0
1.102688 -4.410752 19.218965 216 216 216 0
1.177290 -4.414836 19.236759 216 216 216 0
1.252375 -4.420147 19.259898 216 216 216 0
1.325323 -4.417744 19.249428 216 216 216 0
1.398508 -4.416341 19.243315 215 215 215 0
1.472750 -4.418251 19.251640 216 216 216 0
1.550915 -4.431185 19.307995 216 216 216 0
1.627448 -4.438495 19.339847 216 216 216 0
1.703428 -4.443724 19.362632 216 216 216 0
1.776218 -4.440546 19.348785 216 216 216 0
1.845989 -4.430373 19.304458 216 216 216 0
1.916036 -4.421620 19.266320 216 216 216 0
1.995027 -4.433394 19.317622 216 216 216 0
2.077029 -4.450776 19.393357 216 216 216 0
2.144873 -4.437669 19.336248 216 216 216 0
2.216455 -4.432909 19.315509 216 216 216 0
2.284116 -4.420870 19.263050 216 216 216 0
2.355584 -4.416720 19.244968 216 216 216 0
2.428566 -4.415575 19.239976 216 216 216 0
2.509023 -4.427688 19.292759 216 216 216 0
2.585412 -4.432135 19.312134 217 217 217 0
2.656620 -4.427700 19.292812 217 217 217 0
2.729338 -4.425954 19.285201 216 216 216 0
2.804952 -4.428871 19.297913 216 216 216 0
2.884529 -4.437738 19.336548 216 216 216 0
2.960627 -4.440941 19.350505 217 217 217 0
3.033503 -4.439273 19.343239 217 217 217 0
3.107140 -4.438771 19.341050 217 217 217 0
3.179003 -4.435819 19.328187 217 217 217 0
3.255094 -4.438764 19.341022 217 217 217 0
3.332093 -4.442790 19.358564 217 217 217 0
3.413912 -4.452929 19.402742 217 217 217 0
3.489996 -4.455315 19.413135 216 216 216 0
3.567392 -4.459240 19.430240 217 217 217 0
3.639176 -4.456134 19.416706 217 217 217 0
3.711370 -4.453644 19.405855 217 217 217 0
3.783199 -4.450823 19.393563 217 217 217 0
3.859066 -4.452768 19.402040 217 217 217 0
3.938171 -4.458307 19.426174 217 217 217 0
4.006062 -4.451180 19.395121 217 217 217 0
4.076994 -4.447630 19.379652 217 217 217 0
4.147625 -4.443884 19.363327 217 217 217 0
4.218777 -4.440818 19.349970 217 217 217 0
4.291493 -4.439475 19.344120 217 217 217 0
4.370075 -4.444144 19.364463 218 218 218 0
4.449366 -4.449366 19.387214 217 217 217 0
4.520058 -4.445958 19.372367 217 217 217 0
4.597161 -4.448866 19.385037 217 217 217 0
4.669990 -4.447610 19.379563 218 218 218 0
4.744068 -4.447564 19.379362 217 217 217 0
4.818743 -4.448070 19.381570 217 217 217 0
4.895274 -4.450249 19.391063 217 217 217 0
4.974225 -4.454529 19.409714 218 218 218 0
5.045780 -4.452159 19.399384 217 217 217 0
5.126889 -4.458164 19.425552 217 217 217 0
5.203513 -4.460154 19.434222 218 218 218 0
5.281999 -4.463661 19.449504 218 218 218 0
5.366500 -4.472083 19.486202 217 217 217 0
5.438330 -4.469861 19.476517 217 217 217 0
5.504586 -4.463178 19.447397 218 218 218 0
5.572058 -4.457647 19.423297 218 218 218 0
5.633354 -4.447385 19.378583 218 218 218 0
5.744856 -4.476511 19.505495 217 217 217 0
5.796732 -4.459025 19.429302 218 218 218 0
5.870342 -4.458488 19.426962 218 218 218 0
-10.712736 -7.900643 35.008943 211 211 211 0
-10.578618 -7.900487 35.008249 210 210 210 0
-10.444588 -7.900394 35.007837 210 210 210 0
-10.257704 -7.859799 34.827958 211 211 211 0
-10.127071 -7.861805 34.836844 211 211 211 0
-5.066674 -3.985784 17.661609 210 210 210 0
-4.971890 -3.964074 17.565412 211 211 211 0
-4.914493 -3.971987 17.600475 211 211 211 0
-4.846354 -3.971318 17.597509 211 211 211 0
-4.763822 -3.958669 17.541460 211 211 211 0
-4.698313 -3.960007 17.547387 211 211 211 0
-4.631980 -3.960679 17.550365 211 211 211 0
-4.605778 -3.996190 17.707720 212 212 212 0
-4.568819 -4.023288 17.827798 211 211 211 0
-4.509598 -4.031307 17.863330 211 211 211 0
-4.463794 -4.051751 17.953921 211 211 211 0
-4.395638 -4.052229 17.956037 211 211 211 0
-4.340788 -4.065182 18.013435 211 211 211 0
-4.282685 -4.075458 18.058969 212 212 212 0
-4.224390 -4.085886 18.105176 212 212 212 0
-4.189070 -4.119252 18.253028 211 211 211 0
-4.121459 -4.121459 18.262809 211 211 211 0
-4.059282 -4.129270 18.297418 211 211 211 0
-3.979919 -4.119566 18.254418 212 212 212 0
-3.927988 -4.138415 18.337944 211 211 211 0
-3.882835 -4.165223 18.456733 212 212 212 0
-3.841784 -4.197504 18.599775 212 212 212 0
-3.774049 -4.201300 18.616594 212 212 212 0
-3.675267 -4.170015 18.477964 212 212 212 0
-3.595264 -4.159227 18.430164 212 212 212 0
-3.518523 -4.151857 18.397504 212 212 212 0
-3.465184 -4.172364 18.488376 213 213 213 0
-3.440041 -4.228384 18.736607 212 212 212 0
-3.352234 -4.208123 18.646829 213 213 213 0
-3.268425 -4.192110 18.575874 213 213 213 0
-3.184755 -4.175568 18.502573 212 212 212 0
-3.103602 -4.161648 18.440893 213 213 213 0
-3.038398 -4.168964 18.473310 213 213 213 0
-2.995525 -4.207999 18.646280 212 212 212 0
-2.936498 -4.225692 18.724680 213 213 213 0
-2.855774 -4.212266 18.665187 213 213 213 0
-2.776767 -4.200751 18.614160 213 213 213 0
-2.701390 -4.194264 18.585415 213 213 213 0
-2.640075 -4.209850 18.654481 213 213 213 0
-2.580098 -4.228493 18.737092 214 214 214 0
-2.518089 -4.244778 18.809254 214 214 214 0
-2.444642 -4.242173 18.797708 214 214 214 0
-2.369152 -4.235756 18.769274 213 213 213 0
-2.294871 -4.231169 18.748949 213 213 213 0
-2.230417 -4.244988 18.810183 213 213 213 0
-2.170486 -4.268622 18.914908 214 214 214 0
-2.104998 -4.282582 18.976769 213 213 213 0
-2.033620 -4.285127 18.988045 214 214 214 0
-1.960042 -4.283054 18.978858 214 214 214 0
-1.881488 -4.269530 18.918932 213 213 213 0
-1.809602 -4.270660 18.923938 214 214 214 0
-1.738998 -4.275036 18.943330 214 214 214 0
-1.674774 -4.296160 19.036935 214 214 214 0
-1.607208 -4.310239 19.099318 214 214 214 0
-1.525744 -4.286615 18.994638 214 214 214 0
-1.447272 -4.269451 18.918582 215 215 215 0
-1.373209 -4.264175 18.895201 214 214 214 0
-1.299833 -4.260565 18.879207 214 214 214 0
-1.230376 -4.270127 18.921579 214 214 214 0
-1.160327 -4.278708 18.959599 215 215 215 0
-1.089039 -4.283552 18.981065 214 214 214 0
-1.015268 -4.278631 18.959258 214 214 214 0
-0.942196 -4.276120 18.948134 214 214 214 0
-0.871599 -4.285362 18.989085 215 215 215 0
-0.800878 -4.295618 19.034533 215 215 215 0
-0.728922 -4.300640 19.056785 214 214 214 0
-0.655763 -4.298890 19.049031 215 215 215 0
-0.582789 -4.298070 19.045396 214 214 214 0
-0.510411 -4.302034 19.062961 214 214 214 0
-0.438476 -4.311679 19.105699 215 215 215 0
-0.365580 -4.313841 19.115279 214 214 214 0
-0.293018 -4.322015 19.151501 214 214 214 0
-0.220195 -4.330497 19.189088 215 215 215 0
-0.147232 -4.343337 19.245982 214 214 214 0
-0.073591 -4.341878 19.239515 215 215 215 0
0.000000 -4.332354 19.197314 216 216 216 0
0.073277 -4.323326 19.157309 214 214 214 0
0.146579 -4.324083 19.160664 215 215 215 0
0.220310 -4.332771 19.199162 215 215 215 0
0.293720 -4.332373 19.197400 215 215 215 0
0.367036 -4.331026 19.191429 215 215 215 0
0.439594 -4.322675 19.154427 215 215 215 0
0.512546 -4.320029 19.142700 216 216 216 0
0.584865 -4.313379 19.113233 215 215 215 0
0.659634 -4.324268 19.161483 215 215 215 0
0.734047 -4.330875 19.190761 215 215 215 0
0.807797 -4.332729 19.198976 216 216 216 0
0.881136 -4.332250 19.196856 216 216 216 0
0.953999 -4.329687 19.185498 215 215 215 0
1.027619 -4.330681 19.189903 215 215 215 0
1.102429 -4.336220 19.214444 216 216 216 0
1.177311 -4.341333 19.237102 216 216 216 0
1.251849 -4.344653 19.251816 216 216 216 0
1.325492 -4.344668 19.251882 216 216 216 0
1.399427 -4.345590 19.255966 216 216 216 0
1.472639 -4.344286 19.250187 216 216 216 0
1.550772 -4.356932 19.306224 216 216 216 0
1.627092 -4.363565 19.335614 215 215 215 0
1.704049 -4.371257 19.369701 216 216 216 0
1.774745 -4.362915 19.332736 216 216 216 0
1.845783 -4.356048 19.302308 216 216 216 0
1.916556 -4.349109 19.271558 216 216 216 0
1.994295 -4.357904 19.310530 216 216 216 0
2.077810 -4.378243 19.400657 217 217 217 0
2.146932 -4.367896 19.354805 217 217 217 0
2.216817 -4.359741 19.318671 217 217 217 0
2.283390 -4.345806 19.256923 216 216 216 0
2.354808 -4.341678 19.238631 216 216 216 0
2.428608 -4.342058 19.240313 216 216 216 0
2.509241 -4.354272 19.294435 217 217 217 0
2.585420 -4.358280 19.312198 216 216 216 0
2.657542 -4.355417 19.299509 217 217 217 0
2.729401 -4.352287 19.285642 217 217 217 0
2.804058 -4.353669 19.291763 216 216 216 0
2.884094 -4.363117 19.333631 217 217 217 0
2.960797 -4.367176 19.351617 217 217 217 0
3.034100 -4.366144 19.347045 217 217 217 0
3.106109 -4.363343 19.334632 217 217 217 0
3.179814 -4.363000 19.333112 217 217 217 0
3.255818 -4.365755 19.345322 217 217 217 0
3.331971 -4.368585 19.357858 217 217 217 0
3.414974 -4.380075 19.408776 217 217 217 0
3.488831 -4.379596 19.406650 217 217 217 0
3.566334 -4.383619 19.424480 218 218 218 0
3.639166 -4.381852 19.416650 217 217 217 0
3.708918 -4.376523 19.393034 217 217 217 0
3.784396 -4.378026 19.399696 217 217 217 0
3.858947 -4.378421 19.401445 218 218 218 0
3.939379 -4.385346 19.432131 217 217 217 0
4.005575 -4.376462 19.392763 217 217 217 0
4.076694 -4.373181 19.378223 218 218 218 0
4.147374 -4.369555 19.362159 217 217 217 0
4.218128 -4.366132 19.346992 217 217 217 0
4.290173 -4.364141 19.338170 218 218 218 0
4.370985 -4.370985 19.368496 217 217 217 0
4.449935 -4.375769 19.389694 217 217 217 0
4.520844 -4.372620 19.375738 217 217 217 0
4.597981 -4.375498 19.388492 217 217 217 0
4.672367 -4.375708 19.389424 218 218 218 0
4.745051 -4.374344 19.383379 218 218 218 0
4.820819 -4.375821 19.389922 217 217 217 0
4.898786 -4.379218 19.404974 218 218 218 0
4.974709 -4.380714 19.411606 218 218 218 0
5.048005 -4.379887 19.407941 217 217 217 0
5.126723 -4.383719 19.424922 217 217 217 0
5.203695 -4.385971 19.434901 218 218 218 0
5.284284 -4.391165 19.457916 218 218 218 0
5.366294 -4.397380 19.485455 217 217 217 0
5.439259 -4.396114 19.479843 218 218 218 0
5.504910 -4.389050 19.448541 218 218 218 0
5.569230 -4.381128 19.413439 218 218 218 0
5.634760 -4.374353 19.383420 218 218 218 0
5.743452 -4.400827 19.500729 218 218 218 0
5.797634 -4.385390 19.432324 218 218 218 0
5.871484 -4.385033 19.430742 218 218 218 0
-10.712733 -7.766731 35.008930 210 210 210 0
-10.578601 -7.766568 35.008193 210 210 210 0
-10.444579 -7.766482 35.007806 210 210 210 0
-10.257178 -7.726186 34.826170 210 210 210 0
-10.126678 -7.728255 34.835495 211 211 211 0
-5.061120 -3.913933 17.642249 211 211 211 0
-4.976984 -3.900879 17.583408 211 211 211 0
-4.907492 -3.899104 17.575405 211 211 211 0
-4.835206 -3.895027 17.557029 211 211 211 0
-4.768481 -3.895379 17.558614 211 211 211 0
-4.699374 -3.893767 17.551350 211 211 211 0
-4.632084 -3.893636 17.550759 211 211 211 0
-4.610466 -3.932456 17.725743 211 211 211 0
-4.569033 -3.955283 17.828635 212 212 212 0
-4.503928 -3.957997 17.840872 211 211 211 0
-4.458092 -3.977989 17.930987 211 211 211 0
-4.398883 -3.986488 17.969294 211 211 211 0
-4.337715 -3.993452 18.000683 212 212 212 0
-4.285566 -4.009078 18.071121 212 212 212 0
-4.228929 -4.020949 18.124627 211 211 211 0
-4.183039 -4.043604 18.226748 211 211 211 0
-4.119730 -4.049904 18.255146 211 211 211 0
-4.059523 -4.059523 18.298505 212 212 212 0
-3.984491 -4.054394 18.275386 212 212 212 0
-3.928977 -4.069297 18.342562 212 212 212 0
-3.881647 -4.093373 18.451084 212 212 212 0
-3.839149 -4.123530 18.587018 212 212 212 0
-3.771276 -4.127056 18.602913 212 212 212 0
-3.678966 -4.103463 18.496563 213 213 213 0
-3.595531 -4.089036 18.431534 213 213 213 0
-3.515532 -4.078018 18.381869 213 213 213 0
-3.467744 -4.104677 18.502035 212 212 212 0
-3.439345 -4.155875 18.732814 212 212 212 0
-3.352552 -4.137192 18.648601 212 212 212 0
-3.268967 -4.121741 18.578956 212 212 212 0
-3.189960 -4.111504 18.532812 212 212 212 0
-3.102787 -4.090038 18.436050 212 212 212 0
-3.039097 -4.099247 18.477560 213 213 213 0
-2.999885 -4.142698 18.673418 213 213 213 0
-2.935220 -4.152262 18.716529 213 213 213 0
-2.852812 -4.136578 18.645831 213 213 213 0
-2.774766 -4.126575 18.600745 213 213 213 0
-2.702608 -4.125033 18.593791 213 213 213 0
-2.637458 -4.134394 18.635988 213 213 213 0
-2.583631 -4.162517 18.762753 213 213 213 0
-2.518728 -4.173892 18.814026 213 213 213 0
-2.444948 -4.170794 18.800062 213 213 213 0
-2.367213 -4.160556 18.753913 214 214 214 0
-2.295587 -4.160751 18.754793 213 213 213 0
-2.232457 -4.176855 18.827383 213 213 213 0
-2.170528 -4.196355 18.915279 214 214 214 0
-2.104616 -4.209231 18.973321 213 213 213 0
-2.032976 -4.211164 18.982034 214 214 214 0
-1.959968 -4.210302 18.978148 214 214 214 0
-1.882942 -4.200409 18.933552 214 214 214 0
-1.808272 -4.195191 18.910033 214 214 214 0
-1.738952 -4.202467 18.942832 214 214 214 0
-1.674343 -4.222256 19.032031 214 214 214 0
-1.606957 -4.236522 19.096337 214 214 214 0
-1.526216 -4.215264 19.000516 215 215 215 0
-1.447584 -4.197993 18.922663 214 214 214 0
-1.373587 -4.193056 18.900411 214 214 214 0
-1.299676 -4.187844 18.876915 214 214 214 0
-1.229312 -4.194124 18.905225 214 214 214 0
-1.160292 -4.206060 18.959028 214 214 214 0
-1.088674 -4.209541 18.974717 214 214 214 0
-1.015564 -4.207336 18.964779 214 214 214 0
-0.942483 -4.204923 18.953902 215 215 215 0
-0.871049 -4.210071 18.977107 215 215 215 0
-0.800918 -4.223025 19.035495 214 214 214 0
-0.728833 -4.227231 19.054454 214 214 214 0
-0.655980 -4.227427 19.055339 214 214 214 0
-0.583307 -4.228973 19.062309 215 215 215 0
-0.510715 -4.231638 19.074321 214 214 214 0
-0.438152 -4.235474 19.091612 214 214 214 0
-0.365609 -4.241068 19.116827 214 214 214 0
-0.293037 -4.249035 19.152739 215 215 215 0
-0.220170 -4.256613 19.186897 215 215 215 0
-0.147189 -4.268494 19.240452 215 215 215 0
-0.073583 -4.267809 19.237365 215 215 215 0
0.000000 -4.258605 19.195875 215 215 215 0
0.073275 -4.249926 19.156754 215 215 215 0
0.146687 -4.253935 19.174824 215 215 215 0
0.220337 -4.259843 19.201457 215 215 215 0
0.293787 -4.259912 19.201769 215 215 215 0
0.367109 -4.258467 19.195255 215 215 215 0
0.439989 -4.253230 19.171648 215 215 215 0
0.512408 -4.245663 19.137540 215 215 215 0
0.584806 -4.239841 19.111296 215 215 215 0
0.659398 -4.249456 19.154636 216 216 216 0
0.733949 -4.256906 19.188219 215 215 215 0
0.807896 -4.259815 19.201328 216 216 216 0
0.880874 -4.257558 19.191155 216 216 216 0
0.953385 -4.253562 19.173145 216 216 216 0
1.028490 -4.260886 19.206158 216 216 216 0
1.102395 -4.262593 19.213852 216 216 216 0
1.177310 -4.267750 19.237096 215 215 215 0
1.252091 -4.271841 19.255540 216 216 216 0
1.325177 -4.270016 19.247312 216 216 216 0
1.397845 -4.267106 19.234195 216 216 216 0
1.472644 -4.270668 19.250252 216 216 216 0
1.550765 -4.283065 19.306130 216 216 216 0
1.626714 -4.288610 19.331124 216 216 216 0
1.703318 -4.295323 19.361382 216 216 216 0
1.775320 -4.290357 19.338998 216 216 216 0
1.845447 -4.281436 19.298789 216 216 216 0
1.916362 -4.274961 19.269603 216 216 216 0
1.993628 -4.282608 19.304071 216 216 216 0
2.078204 -4.304851 19.404332 216 216 216 0
2.146314 -4.292628 19.349236 216 216 216 0
2.216896 -4.285998 19.319351 216 216 216 0
2.283043 -4.271500 19.253999 217 217 217 0
2.353785 -4.266235 19.230270 216 216 216 0
2.428066 -4.267510 19.236015 216 216 216 0
2.508974 -4.280015 19.292381 217 217 217 0
2.585733 -4.284929 19.314533 216 216 216 0
2.657232 -4.281097 19.297257 217 217 217 0
2.729926 -4.279343 19.289354 217 217 217 0
2.804709 -4.280872 19.296246 217 217 217 0
2.884296 -4.289466 19.334985 217 217 217 0
2.960728 -4.293056 19.351164 217 217 217 0
3.033958 -4.291941 19.346138 217 217 217 0
3.108567 -4.292783 19.349934 217 217 217 0
3.178861 -4.287766 19.327322 217 217 217 0
3.256837 -4.293103 19.351379 217 217 217 0
3.332642 -4.295406 19.361757 217 217 217 0
3.415305 -4.306254 19.410657 216 216 216 0
3.488735 -4.305248 19.406121 216 216 216 0
3.565118 -4.307851 19.417854 217 217 217 0
3.639193 -4.307616 19.416795 217 217 217 0
3.710491 -4.304169 19.401259 217 217 217 0
3.785642 -4.305240 19.406085 217 217 217 0
3.858199 -4.303376 19.397684 217 217 217 0
3.937945 -4.309449 19.425059 217 217 217 0
4.004554 -4.301188 19.387820 217 217 217 0
4.076308 -4.298652 19.376391 217 217 217 0
4.147963 -4.296104 19.364905 218 218 218 0
4.217635 -4.291629 19.344731 217 217 217 0
4.289847 -4.289847 19.336701 217 217 217 0
4.371410 -4.297318 19.370377 217 217 217 0
4.448901 -4.300605 19.385191 218 218 218 0
4.519969 -4.297675 19.371986 218 218 218 0
4.597871 -4.301235 19.388031 217 217 217 0
4.669920 -4.299292 19.379273 218 218 218 0
4.744896 -4.300062 19.382747 217 217 217 0
4.818903 -4.299944 19.382214 218 218 218 0
4.896944 -4.303375 19.397679 217 217 217 0
4.974176 -4.306003 19.409523 218 218 218 0
5.046773 -4.304601 19.403203 218 218 218 0
5.126099 -4.308895 19.422561 218 218 218 0
5.203750 -4.311679 19.435109 217 217 217 0
5.283895 -4.316421 19.456484 218 218 218 0
5.366367 -4.322906 19.485718 218 218 218 0
5.439701 -4.321954 19.481425 218 218 218 0
5.504391 -4.314252 19.446709 217 217 217 0
5.569449 -4.307040 19.414200 218 218 218 0
5.634273 -4.299840 19.381744 218 218 218 0
5.742396 -4.325441 19.497142 219 219 219 0
5.801004 -4.313567 19.443618 218 218 218 0
5.872687 -4.311593 19.434721 218 218 218 0
-10.712711 -7.632806 35.008858 210 210 210 0
-10.578606 -7.632665 35.008210 210 210 210 0
-10.444571 -7.632571 35.007779 210 210 210 0
-10.257246 -7.593026 34.826402 211 211 211 0
-10.127117 -7.595337 34.837002 211 211 211 0
-5.072148 -3.854833 17.680691 211 211 211 0
-4.982821 -3.838119 17.604033 211 211 211 0
-4.907756 -3.832083 17.576348 211 211 211 0
-4.832675 -3.825868 17.547839 211 211 211 0
-4.766365 -3.826518 17.550823 211 211 211 0
-4.696845 -3.824573 17.541903 211 211 211 0
-4.638449 -3.831762 17.574876 211 211 211 0
-4.612808 -3.866618 17.734747 211 211 211 0
-4.569739 -3.887689 17.831389 211 211 211 0
-4.510580 -3.895501 17.867221 212 212 212 0
-4.462368 -3.913154 17.948188 211 211 211 0
-4.393054 -3.912564 17.945484 211 211 211 0
-4.344771 -3.930983 18.029967 212 212 212 0
-4.284872 -3.939317 18.068191 212 212 212 0
-4.223234 -3.946300 18.100220 212 212 212 0
-4.180656 -3.971624 18.216368 212 212 212 0
-4.126965 -3.987068 18.287204 212 212 212 0
-4.060835 -3.990820 18.304416 212 212 212 0
-3.988915 -3.988915 18.295678 212 212 212 0
-3.925825 -3.995929 18.327847 212 212 212 0
-3.874749 -4.015649 18.418294 212 212 212 0
-3.839877 -4.053204 18.590545 212 212 212 0
-3.767447 -4.051783 18.584027 212 212 212 0
-3.677365 -4.030958 18.488512 212 212 212 0
-3.595849 -4.018890 18.433162 212 212 212 0
-3.518582 -4.011183 18.397814 212 212 212 0
-3.465482 -4.031275 18.489968 212 212 212 0
-3.436973 -4.081406 18.719897 212 212 212 0
-3.351122 -4.064126 18.640644 212 212 212 0
-3.271066 -4.053277 18.590884 213 213 213 0
-3.182097 -4.030657 18.487131 212 212 212 0
-3.104353 -4.021549 18.445355 213 213 213 0
-3.039141 -4.028629 18.477831 212 212 212 0
-2.993805 -4.063022 18.635577 212 212 212 0
-2.935017 -4.080390 18.715239 213 213 213 0
-2.854337 -4.067430 18.655799 212 212 212 0
-2.774705 -4.055338 18.600337 213 213 213 0
-2.703225 -4.054838 18.598042 213 213 213 0
-2.642794 -4.071331 18.673687 213 213 213 0
-2.583876 -4.091137 18.764531 213 213 213 0
-2.518214 -4.101091 18.810186 214 214 214 0
-2.445487 -4.099788 18.804209 212 212 212 0
-2.369012 -4.091930 18.768170 214 214 214 0
-2.298227 -4.093717 18.776365 214 214 214 0
-2.231637 -4.103333 18.820472 214 214 214 0
-2.171061 -4.125016 18.919922 213 213 213 0
-2.106056 -4.139489 18.986305 213 213 213 0
-2.032778 -4.138156 18.980191 213 213 213 0
-1.959456 -4.136628 18.973184 213 213 213 0
-1.881565 -4.124970 18.919709 214 214 214 0
-1.808385 -4.123118 18.911216 213 213 213 0
-1.739219 -4.130646 18.945745 214 214 214 0
-1.674919 -4.150886 19.038579 214 214 214 0
-1.607924 -4.165984 19.107826 214 214 214 0
-1.526523 -4.143420 19.004333 214 214 214 0
-1.446372 -4.122159 18.906818 213 213 213 0
-1.372711 -4.118132 18.888347 214 214 214 0
-1.300077 -4.116910 18.882744 214 214 214 0
-1.230103 -4.124463 18.917386 214 214 214 0
-1.160347 -4.133736 18.959916 215 215 215 0
-1.088925 -4.137914 18.979082 214 214 214 0
-1.015021 -4.132585 18.954638 215 215 215 0
-0.941357 -4.127489 18.931265 215 215 215 0
-0.872350 -4.143663 19.005450 214 214 214 0
-0.801298 -4.152182 19.044524 215 215 215 0
-0.728938 -4.154949 19.057214 215 215 215 0
-0.656287 -4.156482 19.064246 215 215 215 0
-0.583280 -4.155868 19.061427 215 215 215 0
-0.510366 -4.155834 19.061272 215 215 215 0
-0.438480 -4.165559 19.105878 215 215 215 0
-0.365723 -4.169246 19.122786 215 215 215 0
-0.293191 -4.177976 19.162831 215 215 215 0
-0.220175 -4.183318 19.187333 215 215 215 0
-0.147144 -4.193613 19.234549 214 214 214 0
-0.073588 -4.194500 19.238620 215 215 215 0
0.000000 -4.184742 19.193864 215 215 215 0
0.073287 -4.177333 19.159882 215 215 215 0
0.146499 -4.175223 19.150203 215 215 215 0
0.220403 -4.187663 19.207261 215 215 215 0
0.293782 -4.186399 19.201462 215 215 215 0
0.366997 -4.183765 19.189380 215 215 215 0
0.439927 -4.179307 19.168934 215 215 215 0
0.512529 -4.173454 19.142089 215 215 215 0
0.584780 -4.166556 19.110450 215 215 215 0
0.659799 -4.178726 19.166268 216 216 216 0
0.733926 -4.183378 19.187609 216 216 216 0
0.808147 -4.187669 19.207288 215 215 215 0
0.881237 -4.185876 19.199065 215 215 215 0
0.953379 -4.180200 19.173032 216 216 216 0
1.028120 -4.185916 19.199250 216 216 216 0
1.102355 -4.188949 19.213159 215 215 215 0
1.177362 -4.194353 19.237946 215 215 215 0
1.251547 -4.196364 19.247167 215 215 215 0
1.325606 -4.197752 19.253534 216 216 216 0
1.398381 -4.195144 19.241573 216 216 216 0
1.472300 -4.196054 19.245746 216 216 216 0
1.550015 -4.207184 19.296795 216 216 216 0
1.627373 -4.216376 19.338955 215 215 215 0
1.703243 -4.221081 19.360535 216 216 216 0
1.775403 -4.216581 19.339898 216 216 216 0
1.845714 -4.208227 19.301580 216 216 216 0
1.916104 -4.200689 19.267005 216 216 216 0
1.994092 -4.209751 19.308568 216 216 216 0
2.078382 -4.230991 19.405990 216 216 216 0
2.146109 -4.218214 19.347386 217 217 217 0
2.216416 -4.211191 19.315174 216 216 216 0
2.283916 -4.199458 19.261361 217 217 217 0
2.354717 -4.194340 19.237886 217 217 217 0
2.429135 -4.195779 19.244485 217 217 217 0
2.508662 -4.205698 19.289981 216 216 216 0
2.584979 -4.209823 19.308902 216 216 216 0
2.657716 -4.208050 19.300769 216 216 216 0
2.729133 -4.204339 19.283749 216 216 216 0
2.803366 -4.205049 19.287002 217 217 217 0
2.882240 -4.212505 19.321200 216 216 216 0
2.960420 -4.218598 19.349149 217 217 217 0
3.033887 -4.217843 19.345684 217 217 217 0
3.107620 -4.217485 19.344043 217 217 217 0
3.180134 -4.215526 19.335059 217 217 217 0
3.255312 -4.217108 19.342316 216 216 216 0
3.332131 -4.220699 19.358783 217 217 217 0
3.415617 -4.232395 19.412430 217 217 217 0
3.489016 -4.231359 19.407680 217 217 217 0
3.566415 -4.235118 19.424921 218 218 218 0
3.637562 -4.231450 19.408094 217 217 217 0
3.711840 -4.231498 19.408316 217 217 217 0
3.783744 -4.228891 19.396356 217 217 217 0
3.859624 -4.230742 19.404849 217 217 217 0
3.939304 -4.236610 19.431763 217 217 217 0
4.004386 -4.226851 19.387003 217 217 217 0
4.074298 -4.222455 19.366838 217 217 217 0
4.147894 -4.221964 19.364587 217 217 217 0
4.217640 -4.217640 19.344755 217 217 217 0
4.289495 -4.215538 19.335113 218 218 218 0
4.370449 -4.222298 19.366120 218 218 218 0
4.447698 -4.225313 19.379947 217 217 217 0
4.520804 -4.224358 19.375567 217 217 217 0
4.596450 -4.225769 19.382037 217 217 217 0
4.668757 -4.224113 19.374445 218 218 218 0
4.744589 -4.225649 19.381490 217 217 217 0
4.820489 -4.227198 19.388591 218 218 218 0
4.896311 -4.228632 19.395169 218 218 218 0
4.973204 -4.230935 19.405733 218 218 218 0
5.045822 -4.229586 19.399548 218 218 218 0
5.126027 -4.234544 19.422287 217 217 217 0
5.203893 -4.237456 19.435643 218 218 218 0
5.282820 -4.241137 19.452526 218 218 218 0
5.367530 -4.249295 19.489944 217 217 217 0
5.439643 -4.247392 19.481218 218 218 218 0
5.504414 -4.239886 19.446789 218 218 218 0
5.571762 -4.234539 19.422265 217 217 217 0
5.638514 -4.228886 19.396334 218 218 218 0
5.743338 -4.251562 19.500341 218 218 218 0
5.800923 -4.239136 19.443350 218 218 218 0
5.875598 -4.239355 19.444355 218 218 218 0
-10.712726 -7.498908 35.008909 210 210 210 0
-10.578600 -7.498755 35.008192 211 211 211 0
-10.444571 -7.498666 35.007779 210 210 210 0
-10.257200 -7.459782 34.826246 211 211 211 0
-10.127034 -7.462025 34.836718 211 211 211 0
-5.061439 -3.779208 17.643361 210 210 210 0
-4.982579 -3.770601 17.603178 211 211 211 0
-4.909136 -3.765913 17.581292 211 211 211 0
-4.843322 -3.767028 17.586500 211 211 211 0
-4.765817 -3.758954 17.548806 211 211 211 0
-4.695147 -3.756118 17.535563 211 211 211 0
-4.636583 -3.763024 17.567805 211 211 211 0
-4.608699 -3.795399 17.718951 211 211 211 0
-4.568701 -3.818616 17.827337 211 211 211 0
-4.502661 -3.820440 17.835852 211 211 211 0
-4.455739 -3.838791 17.921526 211 211 211 0
-4.395703 -3.846240 17.956302 212 212 212 0
-4.338932 -3.856829 18.005736 212 212 212 0
-4.284180 -3.869582 18.065276 212 212 212 0
-4.228119 -3.881552 18.121156 212 212 212 0
-4.177468 -3.898970 18.202475 211 211 211 0
-4.127205 -3.917347 18.288269 212 212 212 0
-4.062996 -3.922893 18.314160 213 213 213 0
-3.984335 -3.914434 18.274671 212 212 212 0
-3.926845 -3.926845 18.332610 212 212 212 0
-3.883381 -3.953988 18.459327 211 211 211 0
-3.843253 -3.985595 18.606888 212 212 212 0
-3.772921 -3.986483 18.611032 212 212 212 0
-3.679487 -3.962524 18.499178 212 212 212 0
-3.596571 -3.949176 18.436865 212 212 212 0
-3.520710 -3.943196 18.408943 213 213 213 0
-3.467778 -3.963175 18.502219 212 212 212 0
-3.438068 -4.011079 18.725858 213 213 213 0
-3.350652 -3.992266 18.638032 212 212 212 0
-3.271559 -3.982768 18.593686 213 213 213 0
-3.184899 -3.963430 18.503408 213 213 213 0
-3.102169 -3.948215 18.432378 212 212 212 0
-3.036955 -3.955105 18.464541 213 213 213 0
-2.997897 -3.997196 18.661044 213 213 213 0
-2.936038 -4.010198 18.721745 213 213 213 0
-2.854748 -3.996647 18.658483 213 213 213 0
-2.777135 -3.987681 18.616623 213 213 213 0
-2.705795 -3.987487 18.615719 213 213 213 0
-2.645053 -4.003324 18.689654 212 212 212 0
-2.583866 -4.019348 18.764463 213 213 213 0
-2.518536 -4.029657 18.812591 214 214 214 0
-2.445794 -4.028367 18.806570 213 213 213 0
-2.369714 -4.021333 18.773731 213 213 213 0
-2.292788 -4.012379 18.731929 214 214 214 0
-2.230871 -4.029960 18.814005 213 213 213 0
-2.173371 -4.056960 18.940055 213 213 213 0
-2.105338 -4.065481 18.979835 214 214 214 0
-2.034229 -4.068459 18.993739 214 214 214 0
-1.959603 -4.064361 18.974609 213 213 213 0
-1.881886 -4.053294 18.922940 214 214 214 0
-1.807936 -4.049778 18.906524 213 213 213 0
-1.739131 -4.057973 18.944787 214 214 214 0
-1.673459 -4.074508 19.021979 214 214 214 0
-1.608365 -4.094021 19.113075 213 213 213 0
-1.526553 -4.070809 19.004712 214 214 214 0
-1.447268 -4.052351 18.918539 214 214 214 0
-1.372173 -4.044298 18.880944 214 214 214 0
-1.299600 -4.043200 18.875817 214 214 214 0
-1.230150 -4.052259 18.918110 214 214 214 0
-1.160449 -4.061573 18.961590 214 214 214 0
-1.088801 -4.064858 18.976927 215 215 215 0
-1.015145 -4.060581 18.956960 214 214 214 0
-0.941726 -4.056666 18.938682 214 214 214 0
-0.871785 -4.068332 18.993148 214 214 214 0
-0.801044 -4.078045 19.038490 215 215 215 0
-0.729671 -4.086159 19.076374 214 214 214 0
-0.655808 -4.080582 19.050338 215 215 215 0
-0.583430 -4.084007 19.066324 215 215 215 0
-0.510351 -4.082811 19.060743 214 214 214 0
-0.438518 -4.092831 19.107519 215 215 215 0
-0.365607 -4.094800 19.116715 215 215 215 0
-0.293229 -4.105200 19.165266 215 215 215 0
-0.220247 -4.111286 19.193677 216 216 216 0
-0.147202 -4.121666 19.242136 214 214 214 0
-0.073589 -4.120974 19.238907 215 215 215 0
0.000000 -4.109826 19.186865 215 215 215 0
0.073291 -4.104304 19.161083 215 215 215 0
0.146546 -4.103288 19.156338 215 215 215 0
0.220400 -4.114138 19.206994 214 214 214 0
0.293816 -4.113429 19.203682 215 215 215 0
0.366990 -4.110289 19.189022 215 215 215 0
0.439933 -4.106040 19.169188 215 215 215 0
0.512299 -4.098394 19.133492 215 215 215 0
0.584743 -4.093202 19.109253 215 215 215 0
0.659838 -4.105658 19.167404 215 215 215 0
0.733665 -4.108524 19.180782 215 215 215 0
0.807709 -4.111971 19.196878 216 216 216 0
0.881114 -4.111866 19.196387 216 216 216 0
0.953480 -4.107299 19.175063 216 216 216 0
1.027609 -4.110437 19.189714 215 215 215 0
1.102142 -4.114664 19.209449 216 216 216 0
1.176583 -4.118040 19.225210 216 216 216 0
1.251476 -4.122510 19.246080 216 216 216 0
1.325470 -4.123685 19.251564 216 216 216 0
1.397920 -4.120184 19.235221 216 216 216 0
1.472141 -4.121996 19.243678 215 215 215 0
1.550469 -4.134583 19.302443 216 216 216 0
1.627538 -4.142823 19.340912 216 216 216 0
1.704143 -4.149218 19.370764 216 216 216 0
1.775434 -4.142679 19.340238 216 216 216 0
1.845683 -4.134330 19.301261 216 216 216 0
1.915635 -4.125982 19.262288 216 216 216 0
1.994023 -4.135751 19.307895 216 216 216 0
2.079803 -4.159606 19.419265 216 216 216 0
2.146542 -4.145047 19.351292 217 217 217 0
2.215754 -4.136074 19.309404 216 216 216 0
2.283278 -4.124631 19.255982 216 216 216 0
2.354361 -4.120131 19.234974 217 217 217 0
2.428136 -4.120472 19.236566 216 216 216 0
2.508424 -4.131522 19.288150 216 216 216 0
2.585957 -4.137531 19.316204 217 217 217 0
2.658034 -4.134719 19.303076 217 217 217 0
2.728611 -4.129789 19.280062 216 216 216 0
2.804217 -4.132530 19.292858 217 217 217 0
2.884176 -4.141381 19.334178 216 216 216 0
2.961740 -4.146435 19.357775 217 217 217 0
3.034341 -4.144465 19.348577 217 217 217 0
3.105501 -4.140668 19.330850 216 216 216 0
3.179755 -4.141076 19.332756 217 217 217 0
3.256105 -4.144133 19.347027 217 217 217 0
3.331274 -4.145586 19.353808 217 217 217 0
3.414207 -4.156426 19.404416 217 217 217 0
3.490485 -4.158876 19.415855 217 217 217 0
3.567008 -4.161510 19.428150 217 217 217 0
3.639525 -4.159457 19.418567 217 217 217 0
3.711167 -4.156507 19.404796 217 217 217 0
3.783600 -4.154541 19.395616 217 217 217 0
3.857161 -4.153866 19.392464 217 217 217 0
3.938249 -4.161169 19.426559 217 217 217 0
4.006838 -4.155240 19.398877 217 217 217 0
4.074354 -4.148433 19.367099 217 217 217 0
4.146025 -4.146025 19.355860 217 217 217 0
4.216325 -4.142355 19.338724 217 217 217 0
4.289306 -4.141399 19.334261 218 218 218 0
4.371343 -4.149071 19.370079 217 217 217 0
4.449878 -4.153219 19.389445 217 217 217 0
4.523251 -4.152493 19.386055 218 218 218 0
4.596682 -4.151842 19.383014 217 217 217 0
4.671986 -4.152877 19.387847 218 218 218 0
4.743960 -4.150965 19.378922 217 217 217 0
4.820686 -4.153207 19.389386 218 218 218 0
4.894986 -4.153322 19.389924 218 218 218 0
4.973199 -4.156704 19.405714 217 217 217 0
5.043943 -4.153836 19.392324 217 217 217 0
5.125935 -4.160179 19.421938 218 218 218 0
5.203228 -4.162582 19.433157 218 218 218 0
5.282741 -4.166669 19.452236 217 217 217 0
5.369091 -4.175960 19.495610 217 217 217 0
5.441247 -4.174107 19.486962 218 218 218 0
5.504924 -4.165889 19.448594 218 218 218 0
5.570863 -4.159578 19.419131 218 218 218 0
5.639112 -4.155135 19.398390 218 218 218 0
5.739928 -4.174493 19.488762 218 218 218 0
5.802291 -4.165747 19.447933 218 218 218 0
