ply
    format ascii 1.0
    element vertex 25599
    property float x
    property float y
    property float z
    property uchar red
    property uchar green
    property uchar blue
    property uchar alpha
    end_header
-2.719572 -1.813048 18.230751 214 214 214 0
-2.642195 -1.807818 18.178157 213 213 213 0
-2.568506 -1.804896 18.148777 214 214 214 0
-2.506970 -1.810589 18.206026 214 214 214 0
-2.443433 -1.815122 18.251604 214 214 214 0
-2.385786 -1.824425 18.345145 213 213 213 0
-2.317810 -1.826153 18.362528 214 214 214 0
-2.247322 -1.825949 18.360471 215 215 215 0
-2.176948 -1.825827 18.359251 214 214 214 0
-2.107450 -1.826457 18.365577 214 214 214 0
-2.046680 -1.834955 18.451030 214 214 214 0
-1.986154 -1.844286 18.544854 214 214 214 0
-1.918396 -1.847345 18.575613 215 215 215 0
-1.846237 -1.846237 18.564472 215 215 215 0
-1.771977 -1.842856 18.530479 214 214 214 0
-1.695563 -1.836860 18.470184 214 214 214 0
-1.625439 -1.837453 18.476147 214 214 214 0
-1.558759 -1.842170 18.523578 215 215 215 0
-1.494353 -1.850151 18.603835 215 215 215 0
-1.418323 -1.843820 18.540169 214 214 214 0
-1.343718 -1.838773 18.489418 215 215 215 0
-1.270817 -1.835625 18.457770 215 215 215 0
-1.198508 -1.833013 18.431501 215 215 215 0
-1.129048 -1.834703 18.448492 216 216 216 0
-1.060351 -1.837942 18.481070 215 215 215 0
-0.992586 -1.843374 18.535682 215 215 215 0
-0.921746 -1.843493 18.536878 216 216 216 0
-0.850310 -1.842338 18.525269 216 216 216 0
-0.779437 -1.842306 18.524943 215 215 215 0
-0.709888 -1.845708 18.559157 215 215 215 0
-0.639772 -1.848230 18.584519 215 215 215 0
-0.569124 -1.849653 18.598826 215 215 215 0
-0.496983 -1.845938 18.561466 215 215 215 0
-0.426467 -1.848022 18.582426 215 215 215 0
-0.355750 -1.849900 18.601309 215 215 215 0
-0.285157 -1.853519 18.637694 216 216 216 0
-0.214194 -1.856351 18.666175 216 216 216 0
-0.142957 -1.858447 18.687249 215 215 215 0
-0.071570 -1.860820 18.711106 216 216 216 0
0.000000 -1.866425 18.767468 216 216 216 0
0.071700 -1.864188 18.744979 216 216 216 0
0.143200 -1.861597 18.718922 216 216 216 0
0.214446 -1.858533 18.688114 216 216 216 0
0.286041 -1.859269 18.695511 216 216 216 0
0.358529 -1.864350 18.746604 217 217 217 0
0.429816 -1.862535 18.728352 216 216 216 0
0.501138 -1.861370 18.716643 216 216 216 0
0.571956 -1.858858 18.691378 217 217 217 0
0.642989 -1.857524 18.677972 216 216 216 0
0.713608 -1.855380 18.656415 216 216 216 0
0.786886 -1.859913 18.701990 216 216 216 0
0.859572 -1.862406 18.727058 216 216 216 0
0.931390 -1.862781 18.730825 217 217 217 0
1.003590 -1.863811 18.741182 216 216 216 0
1.073505 -1.860742 18.710325 217 217 217 0
1.146465 -1.863005 18.733083 217 217 217 0
1.218690 -1.863879 18.741875 217 217 217 0
1.291944 -1.866142 18.764626 217 217 217 0
1.365335 -1.868353 18.786853 217 217 217 0
1.437899 -1.869268 18.796059 217 217 217 0
1.509516 -1.868925 18.792611 217 217 217 0
1.581955 -1.869583 18.799222 217 217 217 0
1.657694 -1.873915 18.842786 217 217 217 0
1.732744 -1.877139 18.875202 217 217 217 0
1.808764 -1.881114 18.915177 217 217 217 0
1.878840 -1.878840 18.892311 217 217 217 0
1.947212 -1.875093 18.854628 217 217 217 0
2.016584 -1.872542 18.828979 217 217 217 0
2.088897 -1.872804 18.831615 217 217 217 0
2.164163 -1.875608 18.859805 216 216 216 0
2.242400 -1.880722 18.911235 217 217 217 0
2.306181 -1.873772 18.841350 218 218 218 0
2.373785 -1.870255 18.805985 217 217 217 0
2.443365 -1.868456 18.787889 217 217 217 0
2.513774 -1.867375 18.777026 217 217 217 0
2.588442 -1.869431 18.797694 217 217 217 0
2.666283 -1.873604 18.839659 218 218 218 0
2.738886 -1.873974 18.843382 218 218 218 0
2.809593 -1.873062 18.834206 217 217 217 0
2.882381 -1.873547 18.839089 217 217 217 0
2.956789 -1.875037 18.854065 217 217 217 0
3.031834 -1.876850 18.872295 217 217 217 0
3.105565 -1.877784 18.881684 218 218 218 0
3.178276 -1.878072 18.884588 217 217 217 0
3.248232 -1.876756 18.871354 218 218 218 0
3.321186 -1.877192 18.875739 218 218 218 0
3.398510 -1.880027 18.904244 218 218 218 0
3.474406 -1.881970 18.923779 218 218 218 0
3.549072 -1.883181 18.935959 218 218 218 0
3.624645 -1.884816 18.952394 218 218 218 0
3.698611 -1.885566 18.959941 218 218 218 0
3.767599 -1.883799 18.942177 218 218 218 0
3.838147 -1.882865 18.932776 218 218 218 0
3.908428 -1.881836 18.922432 217 217 217 0
3.985342 -1.883980 18.943989 218 218 218 0
4.065212 -1.887420 18.978580 218 218 218 0
4.128073 -1.882981 18.933943 218 218 218 0
4.192591 -1.879437 18.898313 218 218 218 0
4.260916 -1.877692 18.880763 218 218 218 0
4.331684 -1.877063 18.874442 219 219 219 0
4.408142 -1.878880 18.892712 218 218 218 0
4.486650 -1.881498 18.919039 218 218 218 0
4.561264 -1.882426 18.928369 219 219 219 0
4.634762 -1.882872 18.932851 219 219 219 0
4.703622 -1.881449 18.918540 218 218 218 0
4.779076 -1.882666 18.930781 219 219 219 0
4.852823 -1.883185 18.935998 218 218 218 0
4.925027 -1.883098 18.935128 219 219 219 0
4.999542 -1.883885 18.943041 219 219 219 0
5.073379 -1.884398 18.948192 218 218 218 0
5.148549 -1.885384 18.958112 219 219 219 0
5.221365 -1.885493 18.959206 219 219 219 0
5.300622 -1.887893 18.983335 218 218 218 0
6.540350 -2.297961 23.106694 218 218 218 0
6.625048 -2.296683 23.093849 219 219 219 0
6.696845 -2.291026 23.036964 218 218 218 0
6.773398 -2.287122 22.997703 219 219 219 0
6.854502 -2.284834 22.974700 218 218 218 0
6.925777 -2.279370 22.919755 219 219 219 0
-10.845685 -3.389277 35.443415 211 211 211 0
-10.578492 -3.347624 35.007833 211 211 211 0
-10.444455 -3.347582 35.007390 211 211 211 0
-10.260393 -3.331296 34.837087 211 211 211 0
-10.131665 -3.332784 34.852648 211 211 211 0
-10.002791 -3.334264 34.868116 211 211 211 0
-4.891666 -1.652590 17.281985 212 212 212 0
-4.788809 -1.640003 17.150359 211 211 211 0
-4.709042 -1.635084 17.098918 212 212 212 0
-4.652829 -1.638320 17.132758 212 212 212 0
-4.595768 -1.641346 17.164399 212 212 212 0
-4.540607 -1.645147 17.204157 212 212 212 0
-4.487604 -1.649854 17.253379 212 212 212 0
-4.454671 -1.662191 17.382387 212 212 212 0
-4.409206 -1.670154 17.465662 212 212 212 0
-4.348357 -1.672445 17.489619 212 212 212 0
-4.294729 -1.677629 17.543828 213 213 213 0
-4.229955 -1.678554 17.553501 212 212 212 0
-4.184509 -1.687302 17.644987 212 212 212 0
-4.122028 -1.689356 17.666464 212 212 212 0
-4.062911 -1.692880 17.703317 212 212 212 0
-4.015064 -1.701298 17.791355 212 212 212 0
-3.960841 -1.707259 17.853691 212 212 212 0
-3.894691 -1.708198 17.863506 212 212 212 0
-3.822659 -1.706544 17.846212 213 213 213 0
-3.775887 -1.716312 17.948362 213 213 213 0
-3.729155 -1.726460 18.054488 213 213 213 0
-3.680968 -1.736306 18.157444 213 213 213 0
-3.613246 -1.737137 18.166142 213 213 213 0
-3.527482 -1.729158 18.082698 213 213 213 0
-3.445346 -1.722673 18.014882 213 213 213 0
-3.375854 -1.722374 18.011759 212 212 212 0
-3.322325 -1.730378 18.095454 213 213 213 0
-3.284183 -1.746906 18.268295 213 213 213 0
-3.200295 -1.739291 18.188661 213 213 213 0
-3.120925 -1.733847 18.131736 213 213 213 0
-3.041488 -1.728118 18.071821 214 214 214 0
-2.963985 -1.723247 18.020884 214 214 214 0
-2.895922 -1.723763 18.026279 213 213 213 0
-2.849360 -1.737414 18.169039 213 213 213 0
-2.791803 -1.744877 18.247079 213 213 213 0
-2.720093 -1.743649 18.234241 213 213 213 0
-2.643818 -1.739354 18.189324 213 213 213 0
-2.569304 -1.736017 18.154421 214 214 214 0
-2.507002 -1.740974 18.206260 214 214 214 0
-2.445421 -1.746729 18.266449 214 214 214 0
-2.385269 -1.753874 18.341171 214 214 214 0
-2.318642 -1.756547 18.369122 214 214 214 0
-2.247081 -1.755532 18.358505 215 215 215 0
-2.176050 -1.754879 18.351679 215 215 215 0
-2.107988 -1.756657 18.370269 214 214 214 0
-2.046467 -1.764195 18.449101 215 215 215 0
-1.985019 -1.772338 18.534254 215 215 215 0
-1.918829 -1.776693 18.579800 215 215 215 0
-1.847092 -1.776050 18.573076 214 214 214 0
-1.771861 -1.771861 18.529266 214 214 214 0
-1.694590 -1.765198 18.459591 215 215 215 0
-1.625561 -1.766915 18.477538 214 214 214 0
-1.560187 -1.772940 18.540552 215 215 215 0
-1.493142 -1.777550 18.588756 215 215 215 0
-1.417880 -1.772350 18.534382 215 215 215 0
-1.343272 -1.767463 18.483277 215 215 215 0
-1.271167 -1.765509 18.462842 215 215 215 0
-1.199289 -1.763660 18.443502 214 214 214 0
-1.129436 -1.764744 18.454841 215 215 215 0
-1.060852 -1.768087 18.489800 215 215 215 0
-0.992064 -1.771542 18.525933 215 215 215 0
-0.922053 -1.773180 18.543054 215 215 215 0
-0.850681 -1.772251 18.533349 216 216 216 0
-0.779491 -1.771570 18.526225 215 215 215 0
-0.710478 -1.776195 18.574590 215 215 215 0
-0.639616 -1.776711 18.579988 215 215 215 0
-0.568693 -1.777165 18.584735 215 215 215 0
-0.497417 -1.776491 18.577684 215 215 215 0
-0.426743 -1.778094 18.594449 216 216 216 0
-0.355963 -1.779815 18.612447 215 215 215 0
-0.285334 -1.783336 18.649264 216 216 216 0
-0.214111 -1.784258 18.658905 215 215 215 0
-0.142958 -1.786977 18.687344 216 216 216 0
-0.071604 -1.790109 18.720092 215 215 215 0
0.000000 -1.795594 18.777458 216 216 216 0
0.071685 -1.792113 18.741051 216 216 216 0
0.143176 -1.789705 18.715874 216 216 216 0
0.214410 -1.786752 18.684987 216 216 216 0
0.286049 -1.787808 18.696033 216 216 216 0
0.358659 -1.793295 18.753414 216 216 216 0
0.429621 -1.790086 18.719857 216 216 216 0
0.501315 -1.790411 18.723252 216 216 216 0
0.571855 -1.787046 18.688062 216 216 216 0
0.643138 -1.786493 18.682284 216 216 216 0
0.713873 -1.784682 18.663345 217 217 217 0
0.786882 -1.788368 18.701885 216 216 216 0
0.859518 -1.790663 18.725888 216 216 216 0
0.931265 -1.790894 18.728304 216 216 216 0
1.003286 -1.791583 18.735504 217 217 217 0
1.073624 -1.789374 18.712405 216 216 216 0
1.145960 -1.790562 18.724837 217 217 217 0
1.218694 -1.792197 18.741927 216 216 216 0
1.291589 -1.793873 18.759459 217 217 217 0
1.365199 -1.796314 18.784988 216 216 216 0
1.437028 -1.796284 18.784674 217 217 217 0
1.509809 -1.797391 18.796247 217 217 217 0
1.580937 -1.796520 18.787133 216 216 216 0
1.657348 -1.801465 18.838851 217 217 217 0
1.732559 -1.804749 18.873197 217 217 217 0
1.808214 -1.808214 18.909427 216 216 216 0
1.877915 -1.805688 18.883008 216 216 216 0
1.947125 -1.802894 18.853791 217 217 217 0
2.015422 -1.799484 18.818131 217 217 217 0
2.088563 -1.800486 18.828607 217 217 217 0
2.165301 -1.804418 18.869726 217 217 217 0
2.243305 -1.809117 18.918873 217 217 217 0
2.305749 -1.801366 18.837817 218 218 218 0
2.374989 -1.799234 18.815519 218 218 218 0
2.443866 -1.796960 18.791742 217 217 217 0
2.514265 -1.795903 18.780690 218 218 218 0
2.588140 -1.797319 18.795494 218 218 218 0
2.666804 -1.801895 18.843342 218 218 218 0
2.739598 -1.802367 18.848286 217 217 217 0
2.810330 -1.801494 18.839152 217 217 217 0
2.883512 -1.802195 18.846484 217 217 217 0
2.957512 -1.803361 18.858676 217 217 217 0
3.033262 -1.805513 18.881184 218 218 218 0
3.106025 -1.805828 18.884478 218 218 218 0
3.176616 -1.804896 18.874726 217 217 217 0
3.248098 -1.804499 18.870575 218 218 218 0
3.320639 -1.804695 18.872626 218 218 218 0
3.396956 -1.806891 18.895597 217 217 217 0
3.474558 -1.809666 18.924607 218 218 218 0
3.548709 -1.810566 18.934023 218 218 218 0
3.623375 -1.811687 18.945751 218 218 218 0
3.698243 -1.812864 18.958057 218 218 218 0
3.766291 -1.810717 18.935601 218 218 218 0
3.838555 -1.810639 18.934790 218 218 218 0
3.908202 -1.809353 18.921338 218 218 218 0
3.984941 -1.811337 18.942086 218 218 218 0
4.063698 -1.814151 18.971514 218 218 218 0
4.128493 -1.810743 18.935870 218 218 218 0
4.192371 -1.807057 18.897323 218 218 218 0
4.261011 -1.805513 18.881184 218 218 218 0
4.331936 -1.804973 18.875537 219 219 219 0
4.407878 -1.806507 18.891579 218 218 218 0
4.484827 -1.808398 18.911353 218 218 218 0
4.562524 -1.810525 18.933597 218 218 218 0
4.634612 -1.810395 18.932239 219 219 219 0
4.702400 -1.808615 18.913623 218 218 218 0
4.779112 -1.810270 18.930925 218 218 218 0
4.850914 -1.810042 18.928548 219 219 219 0
4.925758 -1.810941 18.937940 218 218 218 0
4.999800 -1.811522 18.944016 219 219 219 0
5.072703 -1.811680 18.945671 218 218 218 0
5.144787 -1.811545 18.944258 219 219 219 0
5.222024 -1.813203 18.961598 219 219 219 0
5.302043 -1.815768 18.988424 219 219 219 0
5.379982 -1.817562 19.007179 219 219 219 0
6.625208 -2.208403 23.094407 219 219 219 0
6.696154 -2.202682 23.034586 218 218 218 0
6.772677 -2.198921 22.995254 219 219 219 0
6.852176 -2.196210 22.966906 219 219 219 0
6.924344 -2.191248 22.915013 218 218 218 0
-10.845673 -3.253702 35.443376 211 211 211 0
-10.578502 -3.213722 35.007865 211 211 211 0
-10.444454 -3.213678 35.007388 211 211 211 0
-10.260526 -3.198086 34.837538 211 211 211 0
-10.131035 -3.199274 34.850481 212 212 212 0
-10.002759 -3.200883 34.868004 211 211 211 0
-4.900798 -1.589448 17.314250 211 211 211 0
-4.792968 -1.575770 17.165254 212 212 212 0
-4.724084 -1.574695 17.153536 212 212 212 0
-4.657513 -1.574370 17.150005 212 212 212 0
-4.595741 -1.575683 17.164300 212 212 212 0
-4.538223 -1.578512 17.195122 212 212 212 0
-4.484710 -1.582839 17.242252 212 212 212 0
-4.456349 -1.596304 17.388935 212 212 212 0
-4.407786 -1.602831 17.460035 212 212 212 0
-4.345742 -1.604582 17.479102 212 212 212 0
-4.293280 -1.609980 17.537908 212 212 212 0
-4.231990 -1.612187 17.561946 212 212 212 0
-4.179994 -1.618062 17.625952 212 212 212 0
-4.118797 -1.620510 17.652620 212 212 212 0
-4.059326 -1.623730 17.687693 213 213 213 0
-4.019284 -1.634963 17.810054 212 212 212 0
-3.960178 -1.638694 17.850702 213 213 213 0
-3.893663 -1.639437 17.858790 213 213 213 0
-3.820169 -1.637215 17.834588 213 213 213 0
-3.774994 -1.647270 17.944117 212 212 212 0
-3.724380 -1.655280 18.031372 212 212 212 0
-3.684353 -1.668386 18.174142 213 213 213 0
-3.612932 -1.667507 18.164567 213 213 213 0
-3.527343 -1.659926 18.081981 212 212 212 0
-3.444463 -1.653342 18.010261 214 214 214 0
-3.379189 -1.655113 18.029552 214 214 214 0
-3.325210 -1.662605 18.111168 213 213 213 0
-3.285166 -1.677532 18.273765 213 213 213 0
-3.201190 -1.670186 18.193746 213 213 213 0
-3.123926 -1.666094 18.149170 213 213 213 0
-3.042021 -1.659284 18.074989 213 213 213 0
-2.964427 -1.654564 18.023574 213 213 213 0
-2.895709 -1.654691 18.024956 214 214 214 0
-2.853001 -1.670049 18.192260 213 213 213 0
-2.791613 -1.674968 18.245834 214 214 214 0
-2.718482 -1.672912 18.223442 214 214 214 0
-2.643730 -1.669724 18.188715 213 213 213 0
-2.567156 -1.665182 18.139240 213 213 213 0
-2.506819 -1.671213 18.204932 213 213 213 0
-2.442661 -1.674967 18.245832 214 214 214 0
-2.385042 -1.683559 18.339427 215 215 215 0
-2.317813 -1.685682 18.362549 214 214 214 0
-2.247034 -1.685275 18.358117 214 214 214 0
-2.174312 -1.683338 18.337016 215 215 215 0
-2.107300 -1.685840 18.364267 214 214 214 0
-2.044947 -1.692370 18.435405 215 215 215 0
-1.985076 -1.701494 18.534791 215 215 215 0
-1.918139 -1.705013 18.573121 214 214 214 0
-1.846315 -1.704291 18.565258 215 215 215 0
-1.771930 -1.701053 18.529984 214 214 214 0
-1.695968 -1.695968 18.474592 215 215 215 0
-1.624607 -1.695242 18.466690 214 214 214 0
-1.559126 -1.700865 18.527938 215 215 215 0
-1.492471 -1.705681 18.580406 214 214 214 0
-1.418548 -1.702258 18.543112 214 214 214 0
-1.343479 -1.697027 18.486128 215 215 215 0
-1.272059 -1.696079 18.475806 215 215 215 0
-1.199505 -1.693419 18.446834 215 215 215 0
-1.129184 -1.693775 18.450713 215 215 215 0
-1.061472 -1.698355 18.500599 215 215 215 0
-0.992223 -1.700953 18.528905 215 215 215 0
-0.922024 -1.702199 18.542471 215 215 215 0
-0.851063 -1.702125 18.541668 215 215 215 0
-0.779636 -1.701024 18.529675 215 215 215 0
-0.710019 -1.704045 18.562583 215 215 215 0
-0.640003 -1.706675 18.591235 215 215 215 0
-0.569005 -1.707014 18.594923 215 215 215 0
-0.497174 -1.704595 18.568573 216 216 216 0
-0.426605 -1.706422 18.588473 216 216 216 0
-0.356031 -1.708947 18.615980 215 215 215 0
-0.285247 -1.711479 18.643565 215 215 215 0
-0.214186 -1.713492 18.665490 216 216 216 0
-0.143040 -1.716484 18.698083 216 216 216 0
-0.071616 -1.718785 18.723145 216 216 216 0
0.000000 -1.722987 18.768917 216 216 216 0
0.071733 -1.721590 18.753703 216 216 216 0
0.143132 -1.717579 18.710013 216 216 216 0
0.214381 -1.715050 18.682461 216 216 216 0
0.286051 -1.716304 18.696124 216 216 216 0
0.358668 -1.721604 18.753859 216 216 216 0
0.429555 -1.718219 18.716983 216 216 216 0
0.501165 -1.718279 18.717638 216 216 216 0
0.572149 -1.716448 18.697691 216 216 216 0
0.642994 -1.714651 18.678115 216 216 216 0
0.713951 -1.713482 18.665379 216 216 216 0
0.786882 -1.716834 18.701898 216 216 216 0
0.859786 -1.719571 18.731711 216 216 216 0
0.931307 -1.719337 18.729159 217 217 217 0
1.002940 -1.719326 18.729042 217 217 217 0
1.073261 -1.717218 18.706078 217 217 217 0
1.146884 -1.720325 18.739927 216 216 216 0
1.219753 -1.722004 18.758210 216 216 216 0
1.292411 -1.723214 18.771398 216 216 216 0
1.365333 -1.724631 18.786833 216 216 216 0
1.437620 -1.725143 18.792412 217 217 217 0
1.509103 -1.724689 18.787464 217 217 217 0
1.581565 -1.725343 18.794591 217 217 217 0
1.657395 -1.729455 18.839382 217 217 217 0
1.732157 -1.732157 18.868818 217 217 217 0
1.808067 -1.735744 18.907885 217 217 217 0
1.878150 -1.733677 18.885367 216 216 216 0
1.947018 -1.730683 18.852752 216 216 216 0
2.016579 -1.728496 18.828935 216 216 216 0
2.088536 -1.728443 18.828358 217 217 217 0
2.165000 -1.732000 18.867102 218 218 218 0
2.241891 -1.735658 18.906948 217 217 217 0
2.306619 -1.729965 18.844930 217 217 217 0
2.374152 -1.726656 18.808890 218 218 218 0
2.443892 -1.725100 18.791942 217 217 217 0
2.513315 -1.723416 18.773597 218 218 218 0
2.588152 -1.725435 18.795587 218 218 218 0
2.667667 -1.730378 18.849438 217 217 217 0
2.740107 -1.730594 18.851788 218 218 218 0
2.810154 -1.729326 18.837972 217 217 217 0
2.882909 -1.729745 18.842543 218 218 218 0
2.956680 -1.730739 18.853369 217 217 217 0
3.031884 -1.732505 18.872605 218 218 218 0
3.106758 -1.734004 18.888935 217 217 217 0
3.178331 -1.733635 18.884912 217 217 217 0
3.247981 -1.732257 18.869897 218 218 218 0
3.320437 -1.732402 18.871482 218 218 218 0
3.396547 -1.734407 18.893320 218 218 218 0
3.472912 -1.736456 18.915645 218 218 218 0
3.547861 -1.737728 18.929496 218 218 218 0
3.623264 -1.739167 18.945170 218 218 218 0
3.698554 -1.740496 18.959650 218 218 218 0
3.766880 -1.738560 18.938562 218 218 218 0
3.838368 -1.738129 18.933865 217 217 217 0
3.908054 -1.736913 18.920621 217 217 217 0
3.985794 -1.739256 18.946140 218 218 218 0
4.063635 -1.741558 18.971219 218 218 218 0
4.129447 -1.738715 18.940246 218 218 218 0
4.194287 -1.735567 18.905957 218 218 218 0
4.261754 -1.733595 18.884474 218 218 218 0
4.331377 -1.732551 18.873103 218 218 218 0
4.407992 -1.734292 18.892070 218 218 218 0
4.484968 -1.736117 18.911945 218 218 218 0
4.562275 -1.738010 18.932567 218 218 218 0
4.634279 -1.737854 18.930877 218 218 218 0
4.704251 -1.736954 18.921070 218 218 218 0
4.778976 -1.737809 18.930386 218 218 218 0
4.853027 -1.738398 18.936794 218 218 218 0
4.924968 -1.738224 18.934901 219 219 219 0
4.998958 -1.738768 18.940829 218 218 218 0
5.073206 -1.739385 18.947547 218 218 218 0
5.144153 -1.738869 18.941926 218 218 218 0
5.222153 -1.740718 18.962066 218 218 218 0
5.302176 -1.743181 18.988901 219 219 219 0
5.380955 -1.745175 19.010618 219 219 219 0
6.625196 -2.120063 23.094364 218 218 218 0
6.696155 -2.114575 23.034590 219 219 219 0
6.771157 -2.110491 22.990094 219 219 219 0
6.852383 -2.108426 22.967600 219 219 219 0
6.926684 -2.104309 22.922755 219 219 219 0
-10.845665 -3.118129 35.443351 210 210 210 0
-10.578502 -3.079817 35.007865 211 211 211 0
-10.444446 -3.079773 35.007360 211 211 211 0
-10.260588 -3.064851 34.837748 212 212 212 0
-10.131470 -3.066103 34.851976 212 212 212 0
-10.002745 -3.067509 34.867958 212 212 212 0
-4.899171 -1.522715 17.308502 211 211 211 0
-4.797533 -1.511552 17.181603 212 212 212 0
-4.727168 -1.510068 17.164735 211 211 211 0
-4.659416 -1.509388 17.157013 212 212 212 0
-4.597927 -1.510747 17.172461 212 212 212 0
-4.539007 -1.513002 17.198093 211 211 211 0
-4.482926 -1.516284 17.235396 212 212 212 0
-4.453969 -1.528974 17.379646 213 213 213 0
-4.408021 -1.536129 17.460968 212 212 212 0
-4.349452 -1.539037 17.494025 212 212 212 0
-4.295046 -1.543532 17.545123 212 212 212 0
-4.233813 -1.545678 17.569512 213 213 213 0
-4.179399 -1.550422 17.623440 213 213 213 0
-4.120428 -1.553604 17.659608 212 212 212 0
-4.062554 -1.557312 17.701760 212 212 212 0
-4.019629 -1.566974 17.811584 212 212 212 0
-3.953646 -1.567825 17.821256 212 212 212 0
-3.892681 -1.570731 17.854290 213 213 213 0
-3.825052 -1.571003 17.857385 213 213 213 0
-3.772416 -1.577556 17.931863 212 212 212 0
-3.725889 -1.586953 18.038678 213 213 213 0
-3.681905 -1.597808 18.162065 212 212 212 0
-3.610439 -1.596925 18.152032 213 213 213 0
-3.526386 -1.590331 18.077077 213 213 213 0
-3.447384 -1.585797 18.025536 213 213 213 0
-3.378498 -1.585825 18.025864 213 213 213 0
-3.326286 -1.593845 18.117026 213 213 213 0
-3.284225 -1.607174 18.268528 213 213 213 0
-3.204120 -1.602060 18.210403 213 213 213 0
-3.120800 -1.595076 18.131009 213 213 213 0
-3.041509 -1.589880 18.071950 214 214 214 0
-2.967034 -1.587018 18.039422 213 213 213 0
-2.898637 -1.587349 18.043183 214 214 214 0
-2.855129 -1.601658 18.205828 214 214 214 0
-2.791053 -1.604855 18.242173 214 214 214 0
-2.720538 -1.604420 18.237228 214 214 214 0
-2.643306 -1.599896 18.185801 214 214 214 0
-2.568162 -1.596425 18.146348 214 214 214 0
-2.505958 -1.601029 18.198681 213 213 213 0
-2.444275 -1.606238 18.257889 214 214 214 0
-2.383930 -1.612659 18.330873 214 214 214 0
-2.316928 -1.614828 18.355537 214 214 214 0
-2.247323 -1.615264 18.360483 214 214 214 0
-2.175220 -1.613873 18.344675 214 214 214 0
-2.107041 -1.615398 18.362013 214 214 214 0
-2.044506 -1.621505 18.431426 214 214 214 0
-1.986600 -1.631850 18.549017 214 214 214 0
-1.917196 -1.633167 18.563989 214 214 214 0
-1.845990 -1.632991 18.561991 214 214 214 0
-1.771840 -1.630093 18.529046 214 214 214 0
-1.695805 -1.625147 18.472824 214 214 214 0
-1.625208 -1.625208 18.473518 215 215 215 0
-1.559715 -1.630611 18.534935 214 214 214 0
-1.493318 -1.635539 18.590955 215 215 215 0
-1.418008 -1.630709 18.536055 215 215 215 0
-1.344114 -1.627086 18.494865 215 215 215 0
-1.271743 -1.625005 18.471216 215 215 215 0
-1.199989 -1.623515 18.454277 215 215 215 0
-1.129383 -1.623488 18.453966 215 215 215 0
-1.061519 -1.627662 18.501420 215 215 215 0
-0.992502 -1.630540 18.534123 214 214 214 0
-0.921311 -1.630012 18.528132 215 215 215 0
-0.850321 -1.629782 18.525509 215 215 215 0
-0.779723 -1.630331 18.531748 215 215 215 0
-0.709979 -1.632951 18.561531 215 215 215 0
-0.639308 -1.633786 18.571027 215 215 215 0
-0.568954 -1.635742 18.593265 215 215 215 0
-0.497339 -1.634115 18.574763 215 215 215 0
-0.426368 -1.634409 18.578111 215 215 215 0
-0.355798 -1.636670 18.603808 215 215 215 0
-0.285324 -1.640612 18.648616 216 216 216 0
-0.214249 -1.642572 18.670900 215 215 215 0
-0.143034 -1.644889 18.697235 215 215 215 0
-0.071618 -1.647206 18.723571 216 216 216 0
0.000000 -1.651164 18.768557 216 216 216 0
0.071729 -1.649762 18.752620 216 216 216 0
0.143150 -1.646219 18.712355 216 216 216 0
0.214403 -1.643753 18.684324 215 215 215 0
0.286019 -1.644610 18.694059 216 216 216 0
0.358602 -1.649568 18.750418 216 216 216 0
0.429948 -1.648135 18.734126 216 216 216 0
0.501379 -1.647388 18.725634 215 215 215 0
0.572024 -1.644569 18.693596 216 216 216 0
0.643015 -1.643261 18.678727 216 216 216 0
0.713962 -1.642112 18.665662 216 216 216 0
0.786974 -1.645490 18.704066 216 216 216 0
0.859343 -1.647074 18.722064 216 216 216 0
0.931664 -1.648328 18.736324 216 216 216 0
1.002905 -1.647630 18.728390 216 216 216 0
1.073889 -1.646630 18.717027 216 216 216 0
1.146472 -1.648053 18.733197 216 216 216 0
1.219155 -1.649445 18.749023 216 216 216 0
1.292008 -1.650899 18.765547 216 216 216 0
1.365812 -1.653352 18.793427 217 217 217 0
1.437288 -1.652881 18.788080 217 217 217 0
1.510354 -1.654197 18.803038 216 216 216 0
1.581346 -1.653225 18.791992 217 217 217 0
1.656475 -1.656475 18.828933 217 217 217 0
1.731878 -1.659716 18.865768 217 217 217 0
1.808315 -1.663649 18.910480 217 217 217 0
1.878555 -1.661798 18.889440 217 217 217 0
1.946599 -1.658214 18.848699 217 217 217 0
2.015367 -1.655480 18.817623 216 216 216 0
2.087864 -1.655892 18.822299 217 217 217 0
2.164143 -1.659177 18.859637 217 217 217 0
2.243150 -1.664272 18.917560 217 217 217 0
2.306350 -1.657689 18.842728 217 217 217 0
2.373376 -1.654171 18.802744 217 217 217 0
2.444064 -1.653338 18.793266 217 217 217 0
2.512819 -1.651281 18.769889 217 217 217 0
2.586904 -1.652744 18.786524 217 217 217 0
2.667363 -1.658091 18.847295 217 217 217 0
2.741027 -1.659043 18.858117 217 217 217 0
2.810523 -1.657488 18.840443 217 217 217 0
2.882675 -1.657538 18.841010 217 217 217 0
2.956825 -1.658706 18.854294 218 218 218 0
3.032341 -1.660567 18.875447 217 217 217 0
3.105381 -1.661018 18.880567 218 218 218 0
3.178059 -1.661258 18.883297 218 218 218 0
3.248231 -1.660207 18.871348 218 218 218 0
3.319492 -1.659746 18.866111 218 218 218 0
3.395602 -1.661678 18.888066 218 218 218 0
3.472386 -1.663851 18.912776 217 217 217 0
3.546953 -1.664897 18.924655 217 217 217 0
3.623464 -1.666793 18.946218 217 217 217 0
3.697251 -1.667388 18.952973 218 218 218 0
3.766013 -1.665736 18.934203 218 218 218 0
3.837435 -1.665302 18.929261 218 218 218 0
3.908416 -1.664696 18.922373 218 218 218 0
3.984131 -1.666091 18.938233 218 218 218 0
4.064907 -1.669515 18.977158 217 217 217 0
4.128919 -1.666055 18.937823 218 218 218 0
4.192776 -1.662653 18.899149 218 218 218 0
4.261078 -1.661098 18.881481 218 218 218 0
4.330455 -1.660008 18.869086 219 219 219 0
4.408923 -1.662381 18.896060 218 218 218 0
4.484931 -1.663765 18.911789 218 218 218 0
4.561935 -1.665468 18.931156 218 218 218 0
4.632805 -1.664914 18.924859 219 219 219 0
4.704180 -1.664556 18.920783 219 219 219 0
4.777993 -1.665058 18.926492 218 218 218 0
4.852788 -1.665883 18.935863 218 218 218 0
4.925467 -1.665967 18.936819 218 218 218 0
5.000254 -1.666751 18.945737 218 218 218 0
5.073055 -1.666861 18.946982 219 219 219 0
5.145218 -1.666761 18.945847 218 218 218 0
5.220376 -1.667620 18.955615 218 218 218 0
5.301912 -1.670465 18.987954 218 218 218 0
5.378627 -1.671736 19.002393 219 219 219 0
5.458414 -1.673914 19.027152 218 218 218 0
6.696060 -2.026439 23.034262 218 218 218 0
6.772658 -2.023002 22.995189 219 219 219 0
6.851908 -2.020434 22.966007 218 218 218 0
6.920731 -2.014896 22.903055 218 218 218 0
-10.845683 -2.982563 35.443408 211 211 211 0
-10.578492 -2.945909 35.007834 211 211 211 0
-10.444463 -2.945874 35.007416 211 211 211 0
-10.260605 -2.931601 34.837806 211 211 211 0
-10.131189 -2.932713 34.851011 211 211 211 0
-10.002676 -2.934118 34.867716 211 211 211 0
-4.906223 -1.458607 17.333415 212 212 212 0
-4.806877 -1.448648 17.215068 212 212 212 0
-4.729767 -1.445207 17.174173 212 212 212 0
-4.657333 -1.443117 17.149344 212 212 212 0
-4.596602 -1.444646 17.167514 212 212 212 0
-4.536768 -1.446506 17.189609 211 211 211 0
-4.483557 -1.450563 17.237822 212 212 212 0
-4.456134 -1.463208 17.388096 212 212 212 0
-4.405802 -1.468601 17.452176 212 212 212 0
-4.354760 -1.473919 17.515373 212 212 212 0
-4.295065 -1.476429 17.545199 211 211 211 0
-4.236446 -1.479394 17.580438 213 213 213 0
-4.178562 -1.482716 17.619913 213 213 213 0
-4.115942 -1.484438 17.640383 212 212 212 0
-4.065209 -1.490576 17.713327 213 213 213 0
-4.017340 -1.497991 17.801441 212 212 212 0
-3.957253 -1.501027 17.837518 212 212 212 0
-3.899330 -1.505005 17.884784 213 213 213 0
-3.825531 -1.502887 17.859623 213 213 213 0
-3.776431 -1.510572 17.950948 213 213 213 0
-3.727366 -1.518557 18.045830 213 213 213 0
-3.684490 -1.529411 18.174819 212 212 212 0
-3.616754 -1.530165 18.183783 213 213 213 0
-3.526729 -1.521334 18.078836 213 213 213 0
-3.445948 -1.516217 18.018031 213 213 213 0
-3.377864 -1.516592 18.022484 213 213 213 0
-3.322452 -1.522791 18.096146 213 213 213 0
-3.283569 -1.536990 18.264880 214 214 214 0
-3.201159 -1.530989 18.193574 213 213 213 0
-3.121396 -1.526016 18.134472 213 213 213 0
-3.043872 -1.521936 18.085989 214 214 214 0
-2.965480 -1.517222 18.029976 214 214 214 0
-2.898960 -1.518503 18.045191 214 214 214 0
-2.852058 -1.530373 18.186246 213 213 213 0
-2.793515 -1.536433 18.258270 213 213 213 0
-2.720522 -1.534654 18.237121 213 213 213 0
-2.641813 -1.529471 18.175530 214 214 214 0
-2.570100 -1.528168 18.160042 213 213 213 0
-2.502943 -1.529576 18.176785 214 214 214 0
-2.442867 -1.535516 18.247370 214 214 214 0
-2.385372 -1.543476 18.341960 214 214 214 0
-2.317782 -1.545188 18.362302 214 214 214 0
-2.246374 -1.544382 18.352729 215 215 215 0
-2.171947 -1.541382 18.317076 214 214 214 0
-2.106978 -1.545117 18.361462 214 214 214 0
-2.042947 -1.549822 18.417373 214 214 214 0
-1.985737 -1.560222 18.540959 214 214 214 0
-1.916717 -1.561770 18.559354 214 214 214 0
-1.846166 -1.562140 18.563757 215 215 215 0
-1.771645 -1.559048 18.527009 214 214 214 0
-1.695421 -1.554136 18.468643 215 215 215 0
-1.625697 -1.555015 18.479083 215 215 215 0
-1.558072 -1.558072 18.515411 215 215 215 0
-1.493273 -1.564381 18.590384 214 214 214 0
-1.417170 -1.558887 18.525102 215 215 215 0
-1.343915 -1.556112 18.492118 215 215 215 0
-1.271662 -1.554254 18.470040 215 215 215 0
-1.199478 -1.552266 18.446419 214 214 214 0
-1.129461 -1.553010 18.455253 215 215 215 0
-1.061824 -1.557342 18.506738 214 214 214 0
-0.992352 -1.559411 18.531320 215 215 215 0
-0.922220 -1.560681 18.546415 216 216 216 0
-0.851194 -1.560522 18.544530 216 216 216 0
-0.779479 -1.558959 18.525949 215 215 215 0
-0.709848 -1.561667 18.558130 215 215 215 0
-0.639642 -1.563570 18.580751 215 215 215 0
-0.568813 -1.564235 18.588653 216 216 216 0
-0.497570 -1.563790 18.583365 216 216 216 0
-0.426714 -1.564618 18.593201 216 216 216 0
-0.356188 -1.567227 18.624202 215 215 215 0
-0.285489 -1.570188 18.659389 216 216 216 0
-0.214152 -1.570447 18.662470 215 215 215 0
-0.143008 -1.573089 18.693872 216 216 216 0
-0.071630 -1.575860 18.726798 216 216 216 0
0.000000 -1.581131 18.789434 216 216 216 0
0.071728 -1.578017 18.752435 216 216 216 0
0.143144 -1.574580 18.711590 216 216 216 0
0.214371 -1.572057 18.681602 216 216 216 0
0.285942 -1.572679 18.688998 217 217 217 0
0.358349 -1.576736 18.737211 216 216 216 0
0.429960 -1.576519 18.734632 216 216 216 0
0.501254 -1.575370 18.720970 216 216 216 0
0.572332 -1.573913 18.703662 215 215 215 0
0.643198 -1.572261 18.684031 217 217 217 0
0.713673 -1.570080 18.658116 216 216 216 0
0.787045 -1.574089 18.705758 216 216 216 0
0.859704 -1.576124 18.729933 216 216 216 0
0.931660 -1.576655 18.736247 216 216 216 0
1.003442 -1.576838 18.738416 216 216 216 0
1.073296 -1.574168 18.706686 217 217 217 0
1.145934 -1.575660 18.724417 217 217 217 0
1.218974 -1.577496 18.746243 217 217 217 0
1.292779 -1.580064 18.776751 217 217 217 0
1.365653 -1.581282 18.791232 216 216 216 0
1.437578 -1.581336 18.791870 217 217 217 0
1.508826 -1.580674 18.784010 217 217 217 0
1.581776 -1.581776 18.797100 217 217 217 0
1.657209 -1.585156 18.837270 216 216 216 0
1.732748 -1.588352 18.875246 216 216 216 0
1.807579 -1.590669 18.902786 217 217 217 0
1.877719 -1.588839 18.881040 217 217 217 0
1.946959 -1.586411 18.852180 217 217 217 0
2.015997 -1.583997 18.823499 217 217 217 0
2.088300 -1.584227 18.826230 217 217 217 0
2.163212 -1.586355 18.851518 217 217 217 0
2.243102 -1.591879 18.917158 217 217 217 0
2.306597 -1.585786 18.844749 218 218 218 0
2.374514 -1.583009 18.811755 217 217 217 0
2.444296 -1.581603 18.795044 217 217 217 0
2.513354 -1.579823 18.773890 217 217 217 0
2.588029 -1.581574 18.794695 217 217 217 0
2.667285 -1.585953 18.846744 217 217 217 0
2.740032 -1.586334 18.851270 218 218 218 0
2.811180 -1.585794 18.844848 217 217 217 0
2.883488 -1.585919 18.846329 218 218 218 0
2.955336 -1.585790 18.844800 218 218 218 0
3.030675 -1.587496 18.865078 218 218 218 0
3.105603 -1.588913 18.881918 217 217 217 0
3.176959 -1.588480 18.876762 217 217 217 0
3.248256 -1.588036 18.871496 218 218 218 0
3.319670 -1.587668 18.867122 218 218 218 0
3.396384 -1.589797 18.892416 217 217 217 0
3.472321 -1.591480 18.912424 218 218 218 0
3.548952 -1.593407 18.935320 217 217 217 0
3.623515 -1.594346 18.946481 218 218 218 0
3.698139 -1.595276 18.957523 218 218 218 0
3.766242 -1.593410 18.935355 219 219 219 0
3.837883 -1.593083 18.931473 218 218 218 0
3.908840 -1.592491 18.924427 218 218 218 0
3.984343 -1.593737 18.939244 218 218 218 0
4.064708 -1.596850 18.976230 219 219 219 0
4.128791 -1.593568 18.937236 218 218 218 0
4.193304 -1.590564 18.901530 219 219 219 0
4.262881 -1.589549 18.889470 218 218 218 0
4.331832 -1.588338 18.875084 218 218 218 0
4.408054 -1.589790 18.892334 218 218 218 0
4.485724 -1.591708 18.915132 219 219 219 0
4.559965 -1.592369 18.922979 218 218 218 0
4.632523 -1.592430 18.923705 218 218 218 0
4.703408 -1.591923 18.917681 219 219 219 0
4.778903 -1.592968 18.930097 218 218 218 0
4.853835 -1.593796 18.939946 218 218 218 0
4.925959 -1.593693 18.938714 219 219 219 0
5.001456 -1.594667 18.950294 219 219 219 0
5.074400 -1.594811 18.952008 219 219 219 0
5.145462 -1.594368 18.946743 218 218 218 0
5.220233 -1.595071 18.955093 218 218 218 0
5.299281 -1.597044 18.978534 219 219 219 0
5.379192 -1.599219 19.004389 218 218 218 0
5.459481 -1.601448 19.030871 218 218 218 0
6.696638 -1.938500 23.036250 218 218 218 0
6.770336 -1.934382 22.987303 218 218 218 0
6.850623 -1.932227 22.961698 219 219 219 0
6.914026 -1.925425 22.880867 219 219 219 0
-10.845683 -2.846992 35.443408 212 212 212 0
-10.578491 -2.812004 35.007830 211 211 211 0
-10.444454 -2.811968 35.007389 211 211 211 0
-10.260796 -2.798399 34.838455 211 211 211 0
-10.131619 -2.799526 34.852489 211 211 211 0
-10.002423 -2.800678 34.866833 212 212 212 0
-4.900779 -1.390762 17.314181 211 211 211 0
-4.802308 -1.381486 17.198705 212 212 212 0
-4.723175 -1.377593 17.150237 211 211 211 0
-4.660815 -1.378551 17.162165 212 212 212 0
-4.599447 -1.379834 17.178139 211 211 211 0
-4.539263 -1.381515 17.199064 212 212 212 0
-4.480060 -1.383548 17.224374 212 212 212 0
-4.456011 -1.396660 17.387613 212 212 212 0
-4.407375 -1.402347 17.458408 212 212 212 0
-4.353321 -1.406458 17.509588 212 212 212 0
-4.300535 -1.411113 17.567544 212 212 212 0
-4.230937 -1.410312 17.557575 213 213 213 0
-4.176116 -1.414491 17.609597 212 212 212 0
-4.119890 -1.418323 17.657304 213 213 213 0
-4.062627 -1.421919 17.702078 213 213 213 0
-4.024098 -1.432306 17.831384 212 212 212 0
-3.960128 -1.433839 17.850474 212 212 212 0
-3.901220 -1.437292 17.893452 213 213 213 0
-3.823515 -1.433818 17.850208 213 213 213 0
-3.777236 -1.442218 17.954778 213 213 213 0
-3.726552 -1.449215 18.041887 213 213 213 0
-3.685089 -1.460129 18.177771 213 213 213 0
-3.614728 -1.459794 18.173595 213 213 213 0
-3.527377 -1.452449 18.082156 214 214 214 0
-3.447518 -1.447958 18.026239 213 213 213 0
-3.377092 -1.447325 18.018366 213 213 213 0
-3.323991 -1.454246 18.104527 213 213 213 0
-3.284596 -1.467585 18.270592 214 214 214 0
-3.199774 -1.460767 18.185703 213 213 213 0
-3.120624 -1.456291 18.129990 214 214 214 0
-3.042112 -1.451917 18.075533 213 213 213 0
-2.963728 -1.447402 18.019324 214 214 214 0
-2.898457 -1.449228 18.042059 214 214 214 0
-2.853986 -1.461798 18.198540 214 214 214 0
-2.794626 -1.467179 18.265531 214 214 214 0
-2.720994 -1.465151 18.240284 213 213 213 0
-2.641765 -1.459923 18.175197 213 213 213 0
-2.568664 -1.457890 18.149895 214 214 214 0
-2.509493 -1.463871 18.224354 215 215 215 0
-2.444849 -1.466909 18.262176 213 213 213 0
-2.383607 -1.472228 18.328392 214 214 214 0
-2.317528 -1.474791 18.360293 214 214 214 0
-2.246282 -1.474123 18.351978 214 214 214 0
-2.175757 -1.473900 18.349209 213 213 213 0
-2.106053 -1.474237 18.353399 214 214 214 0
-2.042777 -1.479252 18.415840 214 214 214 0
-1.983687 -1.487765 18.521819 215 215 215 0
-1.916734 -1.490793 18.559517 214 214 214 0
-1.847003 -1.491810 18.572175 214 214 214 0
-1.771653 -1.488188 18.527087 215 215 215 0
-1.695138 -1.483246 18.465560 215 215 215 0
-1.624754 -1.483471 18.468366 215 215 215 0
-1.559352 -1.488473 18.530630 215 215 215 0
-1.492808 -1.492808 18.584606 214 214 214 0
-1.417015 -1.487866 18.523078 215 215 215 0
-1.343591 -1.485021 18.487658 215 215 215 0
-1.271471 -1.483383 18.467264 216 216 216 0
-1.199765 -1.482063 18.450833 215 215 215 0
-1.130403 -1.483654 18.470633 215 215 215 0
-1.061006 -1.485408 18.492475 215 215 215 0
-0.991672 -1.487508 18.518612 216 216 216 0
-0.922270 -1.489820 18.547402 215 215 215 0
-0.850842 -1.488973 18.536859 215 215 215 0
-0.779841 -1.488787 18.534537 215 215 215 0
-0.710275 -1.491577 18.569272 215 215 215 0
-0.639873 -1.493036 18.587441 216 216 216 0
-0.569242 -1.494259 18.602666 216 216 216 0
-0.497252 -1.491755 18.571493 216 216 216 0
-0.426454 -1.492591 18.581892 216 216 216 0
-0.355859 -1.494606 18.606987 215 215 215 0
-0.285400 -1.498348 18.653569 216 216 216 0
-0.214322 -1.500251 18.677263 215 215 215 0
-0.143093 -1.502478 18.704991 216 216 216 0
-0.071601 -1.503629 18.719316 216 216 216 0
0.000000 -1.507899 18.772477 216 216 216 0
0.071776 -1.507292 18.764912 216 216 216 0
0.143143 -1.503002 18.711513 216 216 216 0
0.214444 -1.501105 18.687888 216 216 216 0
0.285886 -1.500901 18.685348 215 215 215 0
0.358578 -1.506027 18.749167 216 216 216 0
0.429747 -1.504114 18.725359 216 216 216 0
0.501060 -1.503179 18.713717 216 216 216 0
0.572201 -1.502027 18.699374 216 216 216 0
0.643038 -1.500422 18.679396 216 216 216 0
0.713650 -1.498665 18.657519 216 216 216 0
0.787084 -1.502615 18.706692 217 217 217 0
0.859795 -1.504641 18.731912 216 216 216 0
0.932155 -1.505789 18.746202 216 216 216 0
1.002916 -1.504374 18.728593 216 216 216 0
1.073350 -1.502690 18.707623 216 216 216 0
1.146290 -1.504506 18.730236 216 216 216 0
1.219397 -1.506314 18.752746 217 217 217 0
1.291745 -1.507036 18.761732 217 217 217 0
1.365482 -1.509217 18.788880 217 217 217 0
1.436823 -1.508664 18.781997 216 216 216 0
1.510462 -1.510462 18.804378 217 217 217 0
1.581238 -1.509363 18.790706 217 217 217 0
1.657866 -1.513704 18.844738 217 217 217 0
1.732765 -1.516169 18.875432 217 217 217 0
1.807243 -1.518084 18.899273 217 217 217 0
1.877156 -1.516165 18.875380 216 216 216 0
1.946927 -1.514276 18.851867 217 217 217 0
2.016302 -1.512226 18.826346 218 218 218 0
2.088289 -1.512209 18.826132 217 217 217 0
2.164719 -1.515303 18.864654 218 218 218 0
2.241556 -1.518473 18.904119 217 217 217 0
2.306430 -1.513595 18.843385 217 217 217 0
2.373840 -1.510626 18.806420 217 217 217 0
2.443295 -1.509094 18.787354 217 217 217 0
2.512989 -1.507793 18.771158 217 217 217 0
2.586990 -1.509078 18.787146 218 218 218 0
2.667917 -1.514223 18.851209 217 217 217 0
2.740590 -1.514537 18.855111 217 217 217 0
2.811333 -1.513794 18.845869 218 218 218 0
2.882342 -1.513229 18.838835 218 218 218 0
2.956217 -1.514160 18.850419 218 218 218 0
3.031584 -1.515792 18.870737 217 217 217 0
3.105753 -1.516763 18.882825 217 217 217 0
3.176105 -1.515868 18.871690 218 218 218 0
3.247433 -1.515469 18.866711 218 218 218 0
3.320739 -1.515990 18.873198 218 218 218 0
3.396760 -1.517701 18.894510 218 218 218 0
3.471195 -1.518648 18.906289 218 218 218 0
3.547973 -1.520560 18.930097 217 217 217 0
3.623939 -1.522054 18.948702 218 218 218 0
3.697540 -1.522516 18.954451 218 218 218 0
3.766147 -1.520944 18.934876 218 218 218 0
3.838634 -1.520968 18.935178 218 218 218 0
3.907490 -1.519580 18.917890 218 218 218 0
3.985228 -1.521633 18.943450 218 218 218 0
4.065345 -1.524504 18.979200 218 218 218 0
4.130246 -1.521670 18.943910 218 218 218 0
4.193761 -1.518431 18.903586 218 218 218 0
4.262865 -1.517291 18.889399 218 218 218 0
4.331919 -1.516172 18.875465 218 218 218 0
4.407188 -1.517229 18.888625 218 218 218 0
4.486785 -1.519718 18.919609 219 219 219 0
4.562817 -1.520939 18.934813 219 219 219 0
4.633487 -1.520363 18.927644 219 219 219 0
4.703460 -1.519579 18.917887 219 219 219 0
4.780565 -1.521089 18.936682 219 219 219 0
4.854043 -1.521416 18.940758 218 218 218 0
4.926620 -1.521456 18.941254 218 218 218 0
5.003280 -1.522737 18.957204 218 218 218 0
5.076104 -1.522831 18.958371 219 219 219 0
5.147806 -1.522591 18.955375 219 219 219 0
5.221308 -1.522882 18.958998 218 218 218 0
5.300289 -1.524741 18.982143 219 219 219 0
5.379144 -1.526514 19.004217 218 218 218 0
5.459054 -1.528535 19.029381 219 219 219 0
6.696069 -1.850230 23.034293 219 219 219 0
6.770212 -1.846421 22.986883 219 219 219 0
6.851648 -1.844675 22.965136 218 218 218 0
6.908235 -1.836366 22.861703 218 218 218 0
-10.845681 -2.711420 35.443402 211 211 211 0
-10.578499 -2.678101 35.007857 211 211 211 0
-10.444462 -2.678067 35.007412 211 211 211 0
-10.260821 -2.665148 34.838539 211 211 211 0
-10.131088 -2.666076 34.850662 212 212 212 0
-10.002655 -2.667375 34.867641 212 212 212 0
-4.896891 -1.323484 17.300444 212 212 212 0
-4.789148 -1.312095 17.151574 212 212 212 0
-4.729136 -1.313649 17.171880 212 212 212 0
-4.661109 -1.312988 17.163246 212 212 212 0
-4.592821 -1.312234 17.153391 211 211 211 0
-4.541052 -1.316247 17.205843 211 211 211 0
-4.485096 -1.319146 17.243737 212 212 212 0
-4.452252 -1.329030 17.372947 213 213 213 0
-4.402617 -1.334127 17.439562 212 212 212 0
-4.346206 -1.337294 17.480968 212 212 212 0
-4.293890 -1.341841 17.540402 212 212 212 0
-4.232312 -1.343591 17.563281 212 212 212 0
-4.182931 -1.349333 17.638334 212 212 212 0
-4.118968 -1.350481 17.653349 212 212 212 0
-4.056554 -1.352185 17.675615 213 213 213 0
-4.018989 -1.362369 17.808749 213 213 213 0
-3.953919 -1.363420 17.822489 213 213 213 0
-3.895765 -1.366935 17.868435 212 212 212 0
-3.824613 -1.365933 17.855334 213 213 213 0
-3.777688 -1.373705 17.956926 213 213 213 0
-3.726314 -1.380116 18.040738 213 213 213 0
-3.686128 -1.390992 18.182899 213 213 213 0
-3.613926 -1.389972 18.169564 213 213 213 0
-3.527424 -1.383304 18.082399 213 213 213 0
-3.446324 -1.378529 18.019992 213 213 213 0
-3.377341 -1.378506 18.019692 214 214 214 0
-3.321622 -1.384009 18.091624 214 214 214 0
-3.285155 -1.397938 18.273702 213 213 213 0
-3.198578 -1.390686 18.178903 213 213 213 0
-3.121194 -1.387197 18.133299 213 213 213 0
-3.039394 -1.381543 18.059382 214 214 214 0
-2.964587 -1.378878 18.024543 213 213 213 0
-2.897874 -1.379940 18.038429 214 214 214 0
-2.853344 -1.391875 18.194448 213 213 213 0
-2.792414 -1.396207 18.251073 214 214 214 0
-2.718815 -1.394264 18.225673 214 214 214 0
-2.643334 -1.391229 18.185994 214 214 214 0
-2.567710 -1.387951 18.143153 214 214 214 0
-2.504679 -1.391488 18.189391 214 214 214 0
-2.442186 -1.395535 18.242288 214 214 214 0
-2.384124 -1.402426 18.332367 214 214 214 0
-2.318923 -1.405408 18.371343 214 214 214 0
-2.246522 -1.404076 18.353940 214 214 214 0
-2.176402 -1.404130 18.354645 214 214 214 0
-2.106938 -1.404626 18.361119 214 214 214 0
-2.045042 -1.410374 18.436256 215 215 215 0
-1.985641 -1.418315 18.540065 214 214 214 0
-1.916482 -1.419616 18.557075 214 214 214 0
-1.845857 -1.419890 18.560656 214 214 214 0
-1.771772 -1.417418 18.528339 214 214 214 0
-1.695382 -1.412819 18.468216 214 214 214 0
-1.624931 -1.412984 18.470374 215 215 215 0
-1.558437 -1.416761 18.519746 215 215 215 0
-1.494162 -1.423012 18.601459 215 215 215 0
-1.416594 -1.416594 18.517564 215 215 215 0
-1.343879 -1.414609 18.491627 215 215 215 0
-1.270568 -1.411743 18.454152 215 215 215 0
-1.199962 -1.411719 18.453849 214 214 214 0
-1.130214 -1.412767 18.467542 215 215 215 0
-1.061128 -1.414837 18.494600 215 215 215 0
-0.991870 -1.416957 18.522313 215 215 215 0
-0.922436 -1.419132 18.550742 215 215 215 0
-0.850975 -1.418292 18.539765 215 215 215 0
-0.780138 -1.418433 18.541602 215 215 215 0
-0.710030 -1.420060 18.562877 215 215 215 0
-0.639661 -1.421468 18.581281 215 215 215 0
-0.569150 -1.422876 18.599685 215 215 215 0
-0.497247 -1.420706 18.571320 216 216 216 0
-0.426542 -1.421808 18.585719 215 215 215 0
-0.355909 -1.423635 18.609602 215 215 215 0
-0.285529 -1.427644 18.662013 216 216 216 0
-0.214282 -1.428548 18.673827 216 216 216 0
-0.143028 -1.430275 18.696407 216 216 216 0
-0.071611 -1.432226 18.721908 215 215 215 0
0.000000 -1.435845 18.769211 216 216 216 0
0.071746 -1.434926 18.757200 216 216 216 0
0.143202 -1.432025 18.719280 216 216 216 0
0.214448 -1.429654 18.688281 216 216 216 0
0.285872 -1.429361 18.684453 217 217 217 0
0.358294 -1.433176 18.734323 216 216 216 0
0.430015 -1.433383 18.737038 216 216 216 0
0.501182 -1.431948 18.718271 216 216 216 0
0.572317 -1.430792 18.703157 216 216 216 0
0.643064 -1.429031 18.680138 216 216 216 0
0.714027 -1.428053 18.667360 216 216 216 0
0.786684 -1.430334 18.697180 216 216 216 0
0.859820 -1.433034 18.732465 216 216 216 0
0.931896 -1.433686 18.740996 216 216 216 0
1.003194 -1.433134 18.733783 216 216 216 0
1.072972 -1.430629 18.701038 217 217 217 0
1.146062 -1.432577 18.726500 217 217 217 0
1.219267 -1.434431 18.750737 216 216 216 0
1.292269 -1.435855 18.769346 216 216 216 0
1.365548 -1.437419 18.789785 216 216 216 0
1.437775 -1.437775 18.794446 217 217 217 0
1.509238 -1.437369 18.789142 217 217 217 0
1.581707 -1.437915 18.796278 217 217 217 0
1.657466 -1.441275 18.840196 216 216 216 0
1.733094 -1.444245 18.879023 217 217 217 0
1.807689 -1.446151 18.903934 217 217 217 0
1.878664 -1.445126 18.890534 217 217 217 0
1.947438 -1.442547 18.856824 217 217 217 0
2.016496 -1.440354 18.828159 217 217 217 0
2.088353 -1.440244 18.826716 218 218 218 0
2.164970 -1.443313 18.866840 217 217 217 0
2.242090 -1.446509 18.908620 217 217 217 0
2.305605 -1.441003 18.836641 217 217 217 0
2.373307 -1.438368 18.802192 217 217 217 0
2.444489 -1.437935 18.796534 217 217 217 0
2.513429 -1.436245 18.774449 218 218 218 0
2.587570 -1.437539 18.791357 217 217 217 0
2.666724 -1.441472 18.842776 217 217 217 0
2.739350 -1.441763 18.846580 217 217 217 0
2.810466 -1.441265 18.840059 217 217 217 0
2.881447 -1.440723 18.832987 217 217 217 0
2.956153 -1.442026 18.850009 218 218 218 0
3.030828 -1.443251 18.866032 218 218 218 0
3.104473 -1.443941 18.875044 218 218 218 0
3.175282 -1.443310 18.866797 218 218 218 0
3.247084 -1.443149 18.864688 218 218 218 0
3.318134 -1.442667 18.858391 217 217 217 0
3.395775 -1.445011 18.889029 217 217 217 0
3.472206 -1.446752 18.911797 218 218 218 0
3.546881 -1.447707 18.924270 218 218 218 0
3.622190 -1.448876 18.939557 218 218 218 0
3.697854 -1.450139 18.956065 218 218 218 0
3.766756 -1.448752 18.937937 217 217 217 0
3.837677 -1.448180 18.930459 218 218 218 0
3.909382 -1.447919 18.927051 218 218 218 0
3.986114 -1.449496 18.947661 218 218 218 0
4.064509 -1.451610 18.975298 218 218 218 0
4.128585 -1.448626 18.936291 219 219 219 0
4.192084 -1.445546 18.896030 218 218 218 0
4.261910 -1.444715 18.885169 218 218 218 0
4.330425 -1.443475 18.868953 219 219 219 0
4.408219 -1.445318 18.893042 219 219 219 0
4.485814 -1.447037 18.915511 219 219 219 0
4.562847 -1.448523 18.934940 218 218 218 0
4.634427 -1.448259 18.931484 218 218 218 0
4.703864 -1.447343 18.919514 218 218 218 0
4.781233 -1.448859 18.939327 218 218 218 0
4.855793 -1.449491 18.947589 218 218 218 0
4.926971 -1.449109 18.942601 219 219 219 0
5.000416 -1.449396 18.946352 219 219 219 0
5.074985 -1.449996 18.954192 219 219 219 0
5.146505 -1.449720 18.950585 219 219 219 0
5.220784 -1.450218 18.957094 219 219 219 0
5.301989 -1.452600 18.988231 219 219 219 0
5.377371 -1.453343 18.997954 219 219 219 0
5.460053 -1.456014 19.032864 219 219 219 0
6.694704 -1.761764 23.029598 219 219 219 0
6.767063 -1.757679 22.976193 219 219 219 0
5.659778 -1.451225 18.970262 219 219 219 0
6.907197 -1.748658 22.858268 219 219 219 0
-10.845668 -2.575846 35.443359 211 211 211 0
-10.578486 -2.544193 35.007814 211 211 211 0
-10.444453 -2.544162 35.007382 211 211 211 0
-10.260911 -2.531913 34.838846 212 212 212 0
-10.131469 -2.532867 34.851976 212 212 212 0
-10.002314 -2.533920 34.866455 212 212 212 0
-4.895445 -1.256939 17.295337 211 211 211 0
-4.795805 -1.248223 17.175415 211 211 211 0
-4.727178 -1.247450 17.164771 212 212 212 0
-4.655332 -1.245793 17.141975 212 212 212 0
-4.598147 -1.248068 17.173284 212 212 212 0
-4.531427 -1.247784 17.169374 212 212 212 0
-4.480475 -1.251897 17.225970 212 212 212 0
-4.450825 -1.262174 17.367380 212 212 212 0
-4.405131 -1.268144 17.449518 212 212 212 0
-4.344574 -1.269952 17.474406 212 212 212 0
-4.285963 -1.272395 17.508021 213 213 213 0
-4.234488 -1.277068 17.572313 212 212 212 0
