ply
    format ascii 1.0
    element vertex 25599
    property float x
    property float y
    property float z
    property uchar red
    property uchar green
    property uchar blue
    property uchar alpha
    end_header
-10.133987 2.933522 34.860635 213 213 213 0
-10.006721 2.935305 34.881817 212 212 212 0
-9.895410 2.941879 34.959936 212 212 212 0
-4.769098 1.437263 17.079769 212 212 212 0
-4.664281 1.425197 16.936387 212 212 212 0
-4.559082 1.412673 16.787561 212 212 212 0
-4.498546 1.413829 16.801293 212 212 212 0
-4.434562 1.413918 16.802357 213 213 213 0
-4.370368 1.413943 16.802645 212 212 212 0
-4.339266 1.424834 16.932071 213 213 213 0
-4.290125 1.430042 16.993959 212 212 212 0
-4.231674 1.432259 17.020306 212 212 212 0
-4.184727 1.438500 17.094473 212 212 212 0
-4.116567 1.437531 17.082961 213 213 213 0
-4.064655 1.442297 17.139593 213 213 213 0
-4.009790 1.446154 17.185427 213 213 213 0
-3.949411 1.448117 17.208764 213 213 213 0
-3.897204 1.453195 17.269099 213 213 213 0
-3.852751 1.461388 17.366469 213 213 213 0
-3.791002 1.463194 17.387922 213 213 213 0
-3.728694 1.464844 17.407537 213 213 213 0
-3.657372 1.462949 17.385011 213 213 213 0
-3.616667 1.473457 17.509888 213 213 213 0
-3.571249 1.482405 17.616223 213 213 213 0
-3.527980 1.492607 17.737455 213 213 213 0
-3.465606 1.494967 17.765505 213 213 213 0
-3.378330 1.486465 17.664473 214 214 214 0
-3.294097 1.478982 17.575547 213 213 213 0
-3.222291 1.476884 17.550606 213 213 213 0
-3.166592 1.482234 17.614194 214 214 214 0
-3.132072 1.497947 17.800918 213 213 213 0
-3.050827 1.491515 17.724482 214 214 214 0
-2.974588 1.487294 17.674321 214 214 214 0
-2.896760 1.482063 17.612162 214 214 214 0
-2.818752 1.476489 17.545920 214 214 214 0
-2.752476 1.476938 17.551259 214 214 214 0
-2.695877 1.482732 17.620111 215 215 215 0
-2.653800 1.497015 17.789843 215 215 215 0
-2.588377 1.498534 17.807888 214 214 214 0
-2.514513 1.495116 17.767268 214 214 214 0
-2.440612 1.491485 17.724128 214 214 214 0
-2.376188 1.493604 17.749304 214 214 214 0
-2.315922 1.498538 17.807938 215 215 215 0
-2.255771 1.503847 17.871028 215 215 215 0
-2.190780 1.506161 17.898531 214 214 214 0
-2.121800 1.505794 17.894159 214 214 214 0
-2.051002 1.504068 17.873656 215 215 215 0
-1.982633 1.504067 17.873639 215 215 215 0
-1.921069 1.509412 17.937155 215 215 215 0
-1.865022 1.519648 18.058797 215 215 215 0
-1.797498 1.520960 18.074393 215 215 215 0
-1.729912 1.522322 18.090582 215 215 215 0
-1.658992 1.520743 18.071806 215 215 215 0
-1.586368 1.517396 18.032032 215 215 215 0
-1.516933 1.516933 18.026536 216 216 216 0
-1.450506 1.519578 18.057965 215 215 215 0
-1.385832 1.524415 18.115450 215 215 215 0
-1.319738 1.528118 18.159455 215 215 215 0
-1.243180 1.519442 18.056357 215 215 215 0
-1.171154 1.515612 18.010833 215 215 215 0
-1.101132 1.514057 17.992361 216 216 216 0
-1.032907 1.514930 18.002736 215 215 215 0
-0.965060 1.516522 18.021656 215 215 215 0
-0.898821 1.521082 18.075846 216 216 216 0
-0.829778 1.521259 18.077942 215 215 215 0
-0.760352 1.520704 18.071343 215 215 215 0
-0.691330 1.520926 18.073982 216 216 216 0
-0.622316 1.521216 18.077436 216 216 216 0
-0.554698 1.525420 18.127392 216 216 216 0
-0.485435 1.525652 18.130148 216 216 216 0
-0.416374 1.526704 18.142649 216 216 216 0
-0.346835 1.526073 18.135151 216 216 216 0
-0.277911 1.528510 18.164113 216 216 216 0
-0.208754 1.530862 18.192060 216 216 216 0
-0.139389 1.533280 18.220801 216 216 216 0
-0.069731 1.534075 18.230245 216 216 216 0
0.000000 1.536209 18.255599 216 216 216 0
0.069987 1.539709 18.297197 216 216 216 0
0.140148 1.541626 18.319977 216 216 216 0
0.210076 1.540561 18.307315 216 216 216 0
0.279523 1.537376 18.269470 216 216 216 0
0.348711 1.534329 18.233261 216 216 216 0
0.418605 1.534886 18.239886 216 216 216 0
0.489939 1.539808 18.298375 216 216 216 0
0.559324 1.538140 18.278551 216 216 216 0
0.629005 1.537569 18.271764 216 216 216 0
0.698219 1.536082 18.254094 217 217 217 0
0.767201 1.534402 18.234133 216 216 216 0
0.835706 1.532127 18.207097 217 217 217 0
0.906649 1.534329 18.233266 217 217 217 0
0.978112 1.537033 18.265401 217 217 217 0
1.049053 1.538611 18.284144 217 217 217 0
1.119170 1.538858 18.287084 217 217 217 0
1.186890 1.535975 18.252826 217 217 217 0
1.257762 1.537265 18.268148 216 216 216 0
1.329710 1.539664 18.296658 217 217 217 0
1.401081 1.541190 18.314790 217 217 217 0
1.470943 1.540988 18.312394 217 217 217 0
1.542118 1.542118 18.325825 218 218 218 0
1.612012 1.541925 18.323527 217 217 217 0
1.682786 1.542553 18.330997 218 218 218 0
1.755107 1.544494 18.354057 218 218 218 0
1.829521 1.548056 18.396390 217 217 217 0
1.903427 1.550940 18.430662 217 217 217 0
1.974186 1.551146 18.433112 217 217 217 0
2.042995 1.549858 18.417802 217 217 217 0
2.108666 1.546355 18.376174 218 218 218 0
2.178762 1.546218 18.374550 218 218 218 0
2.251040 1.547590 18.390848 217 217 217 0
2.327995 1.551996 18.443214 217 217 217 0
2.394245 1.549217 18.410189 218 218 218 0
2.458944 1.545622 18.367463 218 218 218 0
2.526534 1.543993 18.348104 218 218 218 0
2.595119 1.543044 18.336826 218 218 218 0
2.664738 1.542743 18.333254 218 218 218 0
2.743478 1.547603 18.391002 218 218 218 0
2.813166 1.547241 18.386708 218 218 218 0
2.881027 1.545917 18.370966 218 218 218 0
2.953351 1.546993 18.383758 218 218 218 0
3.023818 1.547070 18.384665 218 218 218 0
3.096398 1.548199 18.398089 218 218 218 0
3.168599 1.549093 18.408711 217 217 217 0
3.240406 1.549759 18.416629 218 218 218 0
4.181453 1.957276 23.259371 218 218 218 0
4.266513 1.955485 23.238087 219 219 219 0
4.350353 1.953220 23.211166 217 217 217 0
4.429338 1.948909 23.159935 218 218 218 0
4.521308 1.950368 23.177280 218 218 218 0
4.609129 1.950016 23.173099 218 218 218 0
4.698301 1.950238 23.175736 218 218 218 0
4.777188 1.946262 23.128483 218 218 218 0
4.850237 1.940095 23.055197 219 219 219 0
4.922241 1.933737 22.979648 218 218 218 0
5.007190 1.932600 22.966128 219 219 219 0
5.105785 1.936677 23.014581 218 218 218 0
5.178641 1.931019 22.947340 218 218 218 0
5.253143 1.926153 22.889513 218 218 218 0
5.323464 1.919938 22.815662 219 219 219 0
5.395689 1.914599 22.752218 218 218 218 0
5.474487 1.911726 22.718072 219 219 219 0
5.558229 1.910641 22.705183 219 219 219 0
5.650416 1.912448 22.726659 218 218 218 0
5.733689 1.911230 22.712176 219 219 219 0
5.805199 1.906185 22.652226 218 218 218 0
5.878885 1.901992 22.602402 219 219 219 0
5.961873 1.900887 22.589270 218 218 218 0
6.048076 1.900824 22.588520 219 219 219 0
6.133964 1.900665 22.586631 219 219 219 0
6.207594 1.896765 22.540282 219 219 219 0
5.155960 1.553851 18.465250 219 219 219 0
5.226077 1.553699 18.463442 219 219 219 0
5.303900 1.555811 18.488540 219 219 219 0
6.542781 1.893963 22.506986 219 219 219 0
6.628686 1.893910 22.506360 219 219 219 0
5.544694 1.563888 18.584529 219 219 219 0
5.602603 1.560219 18.540923 219 219 219 0
-10.845503 3.118082 35.442820 212 212 212 0
-10.710029 3.118110 35.443134 211 211 211 0
-10.444350 3.079744 35.007040 212 212 212 0
-10.263420 3.065697 34.847363 212 212 212 0
-10.134097 3.066898 34.861015 213 213 213 0
-10.006916 3.068788 34.882497 212 212 212 0
-9.892947 3.074835 34.951234 212 212 212 0
-4.770873 1.503152 17.086124 212 212 212 0
-4.670216 1.491875 16.957939 212 212 212 0
-4.560684 1.477405 16.793460 212 212 212 0
-4.498520 1.478085 16.801197 212 212 212 0
-4.434623 1.478208 16.802587 212 212 212 0
-4.375910 1.480087 16.823951 212 212 212 0
-4.337005 1.488823 16.923245 213 213 213 0
-4.297173 1.497500 17.021879 212 212 212 0
-4.226772 1.495627 17.000592 212 212 212 0
-4.181261 1.502641 17.080314 212 212 212 0
-4.117068 1.503057 17.085043 213 213 213 0
-4.054321 1.504022 17.096021 212 212 212 0
-4.005106 1.510122 17.165353 213 213 213 0
-3.947948 1.513380 17.202390 213 213 213 0
-3.897640 1.519419 17.271029 214 214 214 0
-3.851813 1.527443 17.362240 213 213 213 0
-3.787004 1.528089 17.369586 213 213 213 0
-3.726577 1.530558 17.397652 213 213 213 0
-3.659508 1.530340 17.395168 213 213 213 0
-3.613017 1.538878 17.492217 214 214 214 0
-3.573682 1.550843 17.628226 214 214 214 0
-3.528319 1.560603 17.739160 213 213 213 0
-3.466035 1.563114 17.767703 213 213 213 0
-3.380581 1.555067 17.676239 213 213 213 0
-3.290518 1.544529 17.556451 214 214 214 0
-3.219891 1.542864 17.537531 214 214 214 0
-3.167735 1.550168 17.620555 214 214 214 0
-3.133170 1.566585 17.807163 213 213 213 0
-3.052067 1.559946 17.731691 213 213 213 0
-2.976529 1.555913 17.685851 214 214 214 0
-2.897935 1.550058 17.619304 214 214 214 0
-2.819911 1.544237 17.553133 214 214 214 0
-2.752209 1.543922 17.549558 214 214 214 0
-2.693979 1.549038 17.607705 214 214 214 0
-2.652399 1.564235 17.780455 215 215 215 0
-2.589248 1.567176 17.813881 214 214 214 0
-2.512550 1.561855 17.753400 214 214 214 0
-2.441351 1.559752 17.729495 214 214 214 0
-2.375283 1.560900 17.742541 214 214 214 0
-2.318148 1.568159 17.825050 214 214 214 0
-2.258959 1.574426 17.896292 215 215 215 0
-2.188546 1.573018 17.880279 214 214 214 0
-2.121368 1.573918 17.890514 214 214 214 0
-2.053559 1.574395 17.895939 214 214 214 0
-1.982832 1.572591 17.875430 215 215 215 0
-1.920479 1.577536 17.931644 214 214 214 0
-1.864976 1.588683 18.058349 214 214 214 0
-1.798638 1.591103 18.085851 214 214 214 0
-1.730873 1.592403 18.100629 215 215 215 0
-1.659766 1.590609 18.080239 215 215 215 0
-1.585919 1.585919 18.026932 215 215 215 0
-1.516432 1.585361 18.020588 215 215 215 0
-1.449200 1.587219 18.041703 215 215 215 0
-1.385063 1.592823 18.105401 216 216 216 0
-1.319763 1.597608 18.159800 215 215 215 0
-1.243582 1.589021 18.062187 215 215 215 0
-1.170988 1.584278 18.008272 215 215 215 0
-1.101446 1.583329 17.997490 215 215 215 0
-1.032866 1.583729 18.002030 215 215 215 0
-0.964921 1.585227 18.019065 215 215 215 0
-0.898927 1.590410 18.077975 216 216 216 0
-0.829848 1.590541 18.079468 216 216 216 0
-0.760084 1.589266 18.064969 215 215 215 0
-0.691609 1.590701 18.081282 215 215 215 0
-0.622399 1.590574 18.079846 216 216 216 0
-0.554937 1.595444 18.135194 216 216 216 0
-0.485636 1.595662 18.137675 216 216 216 0
-0.416664 1.597211 18.155287 215 215 215 0
-0.347097 1.596645 18.148844 217 217 217 0
-0.277839 1.597573 18.159397 216 216 216 0
-0.208571 1.599043 18.176103 216 216 216 0
-0.139323 1.602211 18.212122 216 216 216 0
-0.069721 1.603583 18.227715 216 216 216 0
0.000000 1.606862 18.264981 216 216 216 0
0.069990 1.609776 18.298111 216 216 216 0
0.140144 1.611651 18.319423 216 216 216 0
0.210113 1.610870 18.310541 216 216 216 0
0.279474 1.606975 18.266265 217 217 217 0
0.348714 1.604082 18.233389 217 217 217 0
0.418588 1.604586 18.239118 216 216 216 0
0.490038 1.610125 18.302076 217 217 217 0
0.558786 1.606510 18.260985 216 216 216 0
0.628998 1.607439 18.271547 216 216 216 0
0.697998 1.605395 18.248307 217 217 217 0
0.767217 1.604181 18.234509 217 217 217 0
0.835657 1.601676 18.206038 216 216 216 0
0.906754 1.604257 18.235369 216 216 216 0
0.977839 1.606450 18.260299 216 216 216 0
1.048688 1.607988 18.277779 217 217 217 0
1.118951 1.608492 18.283516 217 217 217 0
1.187563 1.606702 18.263170 217 217 217 0
1.257458 1.606752 18.263729 217 217 217 0
1.329070 1.608875 18.287863 217 217 217 0
1.400506 1.610582 18.307267 217 217 217 0
1.472035 1.612229 18.325985 217 217 217 0
1.542688 1.612810 18.332599 217 217 217 0
1.612594 1.612594 18.330135 217 217 217 0
1.683214 1.613080 18.335667 218 218 218 0
1.754492 1.614133 18.347632 218 218 218 0
1.829530 1.618430 18.396477 217 217 217 0
1.903015 1.621087 18.426675 217 217 217 0
1.974036 1.621530 18.431709 217 217 217 0
2.042279 1.619739 18.411352 217 217 217 0
2.108990 1.616892 18.378999 217 217 217 0
2.178870 1.616581 18.375457 218 218 218 0
2.250592 1.617613 18.387191 217 217 217 0
2.329014 1.623252 18.451287 217 217 217 0
2.394043 1.619500 18.408637 217 217 217 0
2.460898 1.617162 18.382058 217 217 217 0
2.526876 1.614393 18.350587 217 217 217 0
2.595325 1.613310 18.338279 217 217 217 0
2.664866 1.612945 18.334128 217 217 217 0
2.744249 1.618403 18.396169 218 218 218 0
2.812437 1.617151 18.381941 218 218 218 0
2.881824 1.616633 18.376051 218 218 218 0
2.953193 1.617225 18.382774 218 218 218 0
3.022843 1.616870 18.378740 218 218 218 0
3.096619 1.618687 18.399398 219 219 219 0
3.169398 1.619915 18.413351 218 218 218 0
3.239701 1.619851 18.412624 218 218 218 0
4.182472 2.046742 23.265037 218 218 218 0
4.264442 2.043378 23.226806 218 218 218 0
4.351302 2.042448 23.216229 218 218 218 0
3.525590 1.621771 18.434459 218 218 218 0
3.605461 1.625992 18.482436 219 219 219 0
4.609979 2.039029 23.177373 219 219 219 0
4.697161 2.038390 23.170110 218 218 218 0
4.777040 2.034665 23.127767 218 218 218 0
4.851682 2.028885 23.062064 219 219 219 0
4.923036 2.021961 22.983363 219 219 219 0
5.010849 2.021922 22.982910 219 219 219 0
5.103215 2.023689 23.002996 218 218 218 0
5.179839 2.019259 22.952649 219 219 219 0
5.252999 2.013650 22.888883 219 219 219 0
5.324278 2.007515 22.819148 219 219 219 0
5.394268 2.001099 22.746228 219 219 219 0
5.475373 1.998946 22.721746 219 219 219 0
5.557461 1.997213 22.702048 219 219 219 0
5.650651 1.999461 22.727607 219 219 219 0
5.733860 1.998163 22.712853 218 218 218 0
5.806769 1.993368 22.658351 219 219 219 0
5.881080 1.989189 22.610841 219 219 219 0
5.961157 1.987052 22.586556 219 219 219 0
6.049132 1.987572 22.592462 219 219 219 0
6.135573 1.987580 22.592554 219 219 219 0
5.088767 1.625578 18.477732 219 219 219 0
5.156553 1.624667 18.467376 218 218 218 0
5.226366 1.624411 18.464461 219 219 219 0
5.303157 1.626301 18.485950 219 219 219 0
5.383225 1.629134 18.518145 219 219 219 0
6.628931 1.980070 22.507192 219 219 219 0
5.542883 1.634440 18.578458 219 219 219 0
5.602175 1.631013 18.539506 219 219 219 0
-10.845516 3.253655 35.442863 212 212 212 0
-10.710028 3.253679 35.443130 212 212 212 0
-10.444357 3.213648 35.007062 212 212 212 0
-10.310345 3.213614 35.006689 212 212 212 0
-10.134406 3.200339 34.862077 212 212 212 0
-10.006694 3.202142 34.881721 212 212 212 0
-9.890850 3.207843 34.943826 212 212 212 0
-4.762102 1.565623 17.054714 212 212 212 0
-4.674571 1.558190 16.973753 212 212 212 0
-4.562325 1.542194 16.799502 212 212 212 0
-4.498089 1.542202 16.799586 212 212 212 0
-4.436696 1.543199 16.810442 212 212 212 0
-4.371196 1.542775 16.805830 212 212 212 0
-4.341243 1.555072 16.939784 212 212 212 0
-4.289703 1.559892 16.992288 213 213 213 0
-4.231894 1.562546 17.021194 213 213 213 0
-4.192724 1.572271 17.127140 213 213 213 0
-4.117063 1.568405 17.085020 213 213 213 0
-4.057529 1.570656 17.109547 212 212 212 0
-4.007234 1.576617 17.174475 213 213 213 0
-3.950011 1.580004 17.211377 213 213 213 0
-3.890314 1.582501 17.238569 213 213 213 0
-3.841056 1.589402 17.313752 212 212 212 0
-3.790329 1.595928 17.384835 213 213 213 0
-3.733381 1.600020 17.429416 213 213 213 0
-3.664012 1.598842 17.416576 214 214 214 0
-3.615409 1.606848 17.503794 213 213 213 0
-3.571055 1.617081 17.615266 213 213 213 0
-3.533098 1.630661 17.763189 213 213 213 0
-3.466832 1.631451 17.771792 214 214 214 0
-3.378375 1.621620 17.664704 214 214 214 0
-3.288591 1.610738 17.546171 214 214 214 0
-3.219804 1.609902 17.537060 213 213 213 0
-3.168545 1.617981 17.625061 214 214 214 0
-3.128202 1.632105 17.778927 214 214 214 0
-3.050355 1.626856 17.721743 214 214 214 0
-2.977463 1.624071 17.691403 214 214 214 0
-2.898298 1.617655 17.621510 214 214 214 0
-2.819309 1.611034 17.549387 214 214 214 0
-2.750282 1.609921 17.537269 214 214 214 0
-2.697083 1.618250 17.627995 214 214 214 0
-2.655465 1.634132 17.801003 214 214 214 0
-2.589693 1.635596 17.816948 214 214 214 0
-2.514866 1.631264 17.769763 214 214 214 0
-2.441579 1.627719 17.731147 214 214 214 0
-2.376811 1.629813 17.753955 214 214 214 0
-2.320440 1.637957 17.842673 214 214 214 0
-2.258708 1.642697 17.894301 214 214 214 0
-2.190103 1.642577 17.893000 214 214 214 0
-2.121567 1.642503 17.892193 215 215 215 0
-2.050395 1.640316 17.868364 214 214 214 0
-1.984655 1.642473 17.891866 214 214 214 0
-1.920867 1.646458 17.935270 215 215 215 0
-1.865176 1.657934 18.060283 215 215 215 0
-1.798076 1.659763 18.080205 215 215 215 0
-1.730233 1.661024 18.093939 215 215 215 0
-1.658276 1.658276 18.064012 215 215 215 0
-1.586630 1.655614 18.035015 215 215 215 0
-1.516446 1.654305 18.020750 215 215 215 0
-1.449087 1.656099 18.040295 215 215 215 0
-1.385632 1.662758 18.112836 215 215 215 0
-1.319477 1.666707 18.155852 216 216 216 0
-1.243246 1.657661 18.057312 215 215 215 0
-1.171570 1.653981 18.017227 215 215 215 0
-1.101560 1.652339 17.999339 215 215 215 0
-1.033099 1.652958 18.006083 216 216 216 0
-0.965060 1.654389 18.021662 215 215 215 0
-0.899674 1.660937 18.092993 216 216 216 0
-0.830232 1.660464 18.087845 215 215 215 0
-0.760630 1.659555 18.077945 215 215 215 0
-0.691313 1.659152 18.073549 216 216 216 0
-0.622151 1.659070 18.072656 215 215 215 0
-0.554617 1.663850 18.124726 216 216 216 0
-0.485641 1.665056 18.137865 216 216 216 0
-0.416366 1.665465 18.142317 216 216 216 0
-0.346735 1.664327 18.129928 216 216 216 0
-0.277655 1.665932 18.147405 216 216 216 0
-0.208496 1.667965 18.169551 215 215 215 0
-0.139283 1.671393 18.206892 216 216 216 0
-0.069754 1.674102 18.236408 216 216 216 0
0.000000 1.675931 18.256325 216 216 216 0
0.069973 1.679349 18.293561 216 216 216 0
0.140295 1.683537 18.339183 216 216 216 0
0.210238 1.681905 18.321405 217 217 217 0
0.279521 1.677127 18.269361 216 216 216 0
0.348690 1.673712 18.232152 216 216 216 0
0.418591 1.674362 18.239238 216 216 216 0
0.489864 1.679534 18.295578 216 216 216 0
0.558699 1.676096 18.258123 217 217 217 0
0.628831 1.676883 18.266705 216 216 216 0
0.698351 1.676043 18.257547 217 217 217 0
0.766789 1.672994 18.224332 217 217 217 0
0.835606 1.671213 18.204934 216 216 216 0
0.906230 1.673040 18.224834 217 217 217 0
0.978108 1.676757 18.265327 217 217 217 0
1.049267 1.678827 18.287872 217 217 217 0
1.119285 1.678927 18.288967 216 216 216 0
1.187457 1.676409 18.261540 217 217 217 0
1.257344 1.676458 18.262071 217 217 217 0
1.328608 1.678242 18.281504 217 217 217 0
1.400294 1.680353 18.304497 217 217 217 0
1.472556 1.682921 18.332477 217 217 217 0
1.542815 1.683071 18.334101 217 217 217 0
1.612667 1.682783 18.330971 217 217 217 0
1.682458 1.682458 18.327425 217 217 217 0
1.753232 1.683103 18.334451 217 217 217 0
1.829166 1.688461 18.392820 217 217 217 0
1.903373 1.691887 18.430138 217 217 217 0
1.974651 1.692558 18.437450 217 217 217 0
2.042285 1.690167 18.411406 217 217 217 0
2.108998 1.687198 18.379065 217 217 217 0
2.178258 1.686394 18.370301 217 217 217 0
2.251257 1.688442 18.392619 217 217 217 0
2.328406 1.693386 18.446475 218 218 218 0
2.393360 1.689431 18.403383 217 217 217 0
2.459490 1.686507 18.371541 217 217 217 0
2.527459 1.684972 18.354819 218 218 218 0
2.595898 1.683826 18.342327 218 218 218 0
2.664779 1.683018 18.333534 218 218 218 0
2.744061 1.688653 18.394911 218 218 218 0
2.812930 1.687758 18.385162 218 218 218 0
2.881551 1.686761 18.374308 218 218 218 0
2.952403 1.687088 18.377861 218 218 218 0
3.023811 1.687708 18.384623 218 218 218 0
3.097720 1.689665 18.405940 218 218 218 0
3.169655 1.690483 18.414842 218 218 218 0
3.240038 1.690455 18.414540 218 218 218 0
4.181020 2.134989 23.256958 218 218 218 0
4.265009 2.132504 23.229896 217 217 217 0
4.350071 2.130647 23.209665 218 218 218 0
3.524617 1.691816 18.429369 218 218 218 0
3.605357 1.696639 18.481902 218 218 218 0
3.678156 1.697610 18.492488 218 218 218 0
4.698748 2.127735 23.177938 218 218 218 0
4.777079 2.123146 23.127956 218 218 218 0
4.851474 2.117007 23.061077 218 218 218 0
4.923815 2.110206 22.986996 219 219 219 0
5.009335 2.109194 22.975966 219 219 219 0
5.105488 2.112616 23.013242 219 219 219 0
5.179690 2.106993 22.951990 219 219 219 0
5.253020 2.101208 22.888975 218 218 218 0
5.323763 2.094595 22.816940 218 218 218 0
5.397991 2.089545 22.761926 219 219 219 0
5.474240 2.085425 22.717044 218 218 218 0
5.558759 2.084535 22.707348 219 219 219 0
5.651685 2.086776 22.731763 219 219 219 0
5.733559 2.084930 22.711660 219 219 219 0
5.803866 2.078997 22.647025 219 219 219 0
5.882084 2.076030 22.614702 219 219 219 0
5.961799 2.073669 22.588989 219 219 219 0
6.048830 2.073884 22.591334 218 218 218 0
6.135168 2.073860 22.591063 219 219 219 0
5.087717 1.695906 18.473918 219 219 219 0
5.155276 1.694885 18.462801 219 219 219 0
5.225538 1.694769 18.461537 219 219 219 0
5.303843 1.697230 18.488342 219 219 219 0
5.383614 1.700089 18.519484 219 219 219 0
6.628895 2.066149 22.507072 219 219 219 0
5.545123 1.706192 18.585967 219 219 219 0
5.601622 1.701759 18.537676 219 219 219 0
-10.845511 3.389222 35.442845 211 211 211 0
-10.710025 3.389248 35.443120 212 212 212 0
-10.444348 3.347547 35.007031 212 212 212 0
-10.263469 3.332295 34.847531 212 212 212 0
-10.134029 3.333562 34.860780 212 212 212 0
-10.006866 3.335622 34.882321 212 212 212 0
-9.889551 3.341064 34.939236 212 212 212 0
-4.761333 1.630593 17.051956 212 212 212 0
-4.668101 1.620868 16.950259 212 212 212 0
-4.555757 1.604140 16.775318 212 212 212 0
-4.494036 1.605013 16.784449 212 212 212 0
-4.436914 1.607578 16.811270 212 212 212 0
-4.374117 1.608131 16.817058 213 213 213 0
-4.335658 1.617783 16.917990 213 213 213 0
-4.288571 1.624459 16.987802 213 213 213 0
-4.227642 1.626016 17.004091 213 213 213 0
-4.179040 1.632438 17.071242 213 213 213 0
-4.112583 1.631977 17.066430 212 212 212 0
-4.059105 1.636736 17.116193 213 213 213 0
-4.004575 1.641219 17.163078 213 213 213 0
-3.950165 1.645902 17.212049 213 213 213 0
-3.890345 1.648451 17.238706 213 213 213 0
-3.851732 1.660229 17.361876 213 213 213 0
-3.789979 1.662271 17.383231 213 213 213 0
-3.731182 1.665706 17.419151 213 213 213 0
-3.659948 1.663613 17.397258 213 213 213 0
-3.612313 1.672367 17.488807 213 213 213 0
-3.569873 1.683903 17.609438 213 213 213 0
-3.530016 1.697123 17.747694 214 214 214 0
-3.467903 1.699952 17.777279 214 214 214 0
-3.375243 1.687621 17.648328 214 214 214 0
-3.292214 1.679701 17.565499 213 213 213 0
-3.218179 1.676135 17.528209 214 214 214 0
-3.169903 1.686119 17.632612 213 213 213 0
-3.131924 1.702132 17.800077 214 214 214 0
-3.050722 1.694846 17.723877 214 214 214 0
-2.977558 1.691794 17.691965 214 214 214 0
-2.898300 1.685058 17.621520 214 214 214 0
-2.820244 1.678717 17.555207 214 214 214 0
-2.753790 1.679140 17.559634 214 214 214 0
-2.697739 1.686087 17.632282 215 215 215 0
-2.655140 1.702013 17.798830 214 214 214 0
-2.590583 1.704331 17.823068 214 214 214 0
-2.513265 1.698152 17.758455 214 214 214 0
-2.441575 1.695538 17.731116 214 214 214 0
-2.376925 1.697804 17.754810 215 215 215 0
-2.319394 1.705437 17.834636 214 214 214 0
-2.257402 1.710153 17.883950 215 215 215 0
-2.189867 1.710834 17.891071 215 215 215 0
-2.121951 1.711251 17.895434 214 214 214 0
-2.051014 1.709178 17.873762 215 215 215 0
-1.983399 1.709827 17.880539 214 214 214 0
-1.921184 1.715343 17.938229 215 215 215 0
-1.864296 1.726200 18.051769 215 215 215 0
-1.798665 1.729486 18.086127 215 215 215 0
-1.730105 1.730105 18.092602 215 215 215 0
-1.658684 1.727796 18.068450 215 215 215 0
-1.586827 1.724812 18.037254 215 215 215 0
-1.516631 1.723444 18.022946 215 215 215 0
-1.449721 1.725859 18.048194 215 215 215 0
-1.384426 1.730533 18.097074 215 215 215 0
-1.318313 1.734623 18.139844 215 215 215 0
-1.243410 1.726958 18.059689 215 215 215 0
-1.171596 1.722936 18.017628 216 216 216 0
-1.101913 1.721740 18.005120 215 215 215 0
-1.032880 1.721466 18.002263 215 215 215 0
-0.965132 1.723450 18.023011 215 215 215 0
-0.898927 1.728706 18.077973 215 215 215 0
-0.829894 1.728947 18.080488 215 215 215 0
-0.760566 1.728559 18.076436 216 216 216 0
-0.691559 1.728899 18.079985 215 215 215 0
-0.622542 1.729283 18.084002 216 216 216 0
-0.554236 1.731986 18.112277 216 216 216 0
-0.485253 1.733047 18.123371 216 216 216 0
-0.416190 1.734125 18.134643 216 216 216 0
-0.346772 1.733859 18.131863 216 216 216 0
-0.277758 1.735989 18.154132 216 216 216 0
-0.208774 1.739783 18.193805 216 216 216 0
-0.139293 1.741163 18.208244 216 216 216 0
-0.069727 1.743177 18.229305 216 216 216 0
0.000000 1.745495 18.253539 216 216 216 0
0.069972 1.749309 18.293426 216 216 216 0
0.140169 1.752116 18.322782 216 216 216 0
0.210167 1.751390 18.315188 216 216 216 0
0.279394 1.746214 18.261057 216 216 216 0
0.348699 1.743497 18.232647 216 216 216 0
0.418632 1.744301 18.241055 216 216 216 0
0.489916 1.749698 18.297499 216 216 216 0
0.558782 1.746192 18.260836 217 217 217 0
0.629042 1.747338 18.272811 217 217 217 0
0.698063 1.745158 18.250022 217 217 217 0
0.767453 1.744211 18.240112 217 217 217 0
0.835674 1.740988 18.206405 216 216 216 0
0.906565 1.743394 18.231573 217 217 217 0
0.978187 1.746762 18.266795 217 217 217 0
1.049268 1.748780 18.287893 216 216 216 0
1.119366 1.749010 18.290302 217 217 217 0
1.187192 1.745871 18.257474 217 217 217 0
1.257855 1.747021 18.269499 217 217 217 0
1.328732 1.748332 18.283208 217 217 217 0
1.400682 1.750853 18.309574 217 217 217 0
1.472240 1.752667 18.328546 218 218 218 0
1.543044 1.753459 18.336825 217 217 217 0
1.612153 1.752341 18.325131 217 217 217 0
1.682634 1.752744 18.329351 218 218 218 0
1.754407 1.754407 18.346736 217 217 217 0
1.829308 1.758950 18.394246 217 217 217 0
1.902577 1.761645 18.422433 217 217 217 0
1.974188 1.762668 18.433129 217 217 217 0
2.043101 1.761294 18.418758 218 218 218 0
2.108433 1.757027 18.374141 217 217 217 0
2.179260 1.757468 18.378752 218 218 218 0
2.250232 1.757994 18.384251 218 218 218 0
2.327711 1.763417 18.440967 217 217 217 0
2.394070 1.760345 18.408839 218 218 218 0
2.460326 1.757375 18.377783 217 217 217 0
2.527168 1.754978 18.352707 218 218 218 0
2.594185 1.752828 18.330227 218 218 218 0
2.664329 1.752848 18.330440 218 218 218 0
2.744728 1.759441 18.399384 218 218 218 0
2.813257 1.758286 18.387301 218 218 218 0
2.882804 1.757807 18.382299 218 218 218 0
2.952591 1.757494 18.379027 218 218 218 0
3.023882 1.758071 18.385057 218 218 218 0
3.098677 1.760612 18.411630 217 217 217 0
3.170149 1.761194 18.417711 218 218 218 0
3.239833 1.760779 18.413372 218 218 218 0
4.183057 2.225030 23.268289 218 218 218 0
4.264303 2.220991 23.226050 218 218 218 0
4.349515 2.219140 23.206697 218 218 218 0
3.525492 1.762746 18.433944 218 218 218 0
3.604971 1.767143 18.479923 218 218 218 0
3.677545 1.768051 18.489419 218 218 218 0
4.697078 2.215603 23.169704 219 219 219 0
4.777207 2.211670 23.128574 218 218 218 0
4.851452 2.205205 23.060972 218 218 218 0
4.921930 2.197290 22.978196 218 218 218 0
5.009560 2.197175 22.976996 218 218 218 0
5.105376 2.200593 23.012740 219 219 219 0
5.179589 2.194741 22.951542 218 218 218 0
5.251626 2.188178 22.882904 219 219 219 0
5.323467 2.181749 22.815675 218 218 218 0
5.395540 2.175621 22.751591 218 218 218 0
5.474287 2.172336 22.717241 219 219 219 0
5.558477 2.171280 22.706196 218 218 218 0
5.649647 2.172941 22.723568 218 218 218 0
5.733372 2.171732 22.710923 219 219 219 0
5.805198 2.166119 22.652220 218 218 218 0
5.881852 2.162446 22.613810 218 218 218 0
5.961153 2.159838 22.586542 219 219 219 0
6.050746 2.160981 22.598492 218 218 218 0
6.133541 2.159697 22.585071 219 219 219 0
5.088298 1.766770 18.476029 219 219 219 0
5.153902 1.765035 18.457883 219 219 219 0
5.225556 1.765390 18.461599 219 219 219 0
5.304803 1.768268 18.491687 219 219 219 0
5.384356 1.771170 18.522037 219 219 219 0
6.627157 2.151674 22.501171 219 219 219 0
6.713946 2.151906 22.503588 219 219 219 0
5.600637 1.772354 18.534416 219 219 219 0
-10.845496 3.524786 35.442797 211 211 211 0
-10.710024 3.524818 35.443116 212 212 212 0
-10.444355 3.481452 35.007056 212 212 212 0
-10.263241 3.465510 34.846755 211 211 211 0
-10.134545 3.467081 34.862558 212 212 212 0
-10.006671 3.468979 34.881644 212 212 212 0
-9.888783 3.474437 34.936523 212 212 212 0
-4.757359 1.694402 17.037727 213 213 213 0
-4.665478 1.684756 16.940733 212 212 212 0
-4.563099 1.670994 16.802353 213 213 213 0
-4.499705 1.671319 16.805621 212 212 212 0
-4.437080 1.671943 16.811896 212 212 212 0
-4.373239 1.672121 16.813682 212 212 212 0
-4.337350 1.683151 16.924591 213 213 213 0
-4.290113 1.690044 16.993911 212 212 212 0
-4.229441 1.691776 17.011326 212 212 212 0
-4.176622 1.696753 17.061365 213 213 213 0
-4.108243 1.695466 17.048422 213 213 213 0
-4.056552 1.701135 17.105425 213 213 213 0
-4.001752 1.705665 17.150978 213 213 213 0
-3.955075 1.713866 17.233443 212 212 212 0
-3.892032 1.715133 17.246181 213 213 213 0
-3.849452 1.725616 17.351597 213 213 213 0
-3.792513 1.729918 17.394855 213 213 213 0
-3.732313 1.732860 17.424433 213 213 213 0
-3.663470 1.731822 17.413997 213 213 213 0
-3.617644 1.741829 17.514618 213 213 213 0
-3.575286 1.753914 17.636135 213 213 213 0
-3.531145 1.765573 17.753369 213 213 213 0
-3.464101 1.766012 17.757793 214 214 214 0
-3.379209 1.757189 17.669069 213 213 213 0
-3.292067 1.746811 17.564717 213 213 213 0
-3.214429 1.741149 17.507781 214 214 214 0
-3.170796 1.754057 17.637578 213 213 213 0
-3.130985 1.769687 17.794743 214 214 214 0
-3.053927 1.764491 17.742497 214 214 214 0
-2.977069 1.759177 17.689059 214 214 214 0
-2.897043 1.751701 17.613882 214 214 214 0
-2.822078 1.747001 17.566624 214 214 214 0
-2.752283 1.745350 17.550024 213 213 213 0
-2.700404 1.755263 17.649700 213 213 213 0
-2.657778 1.771852 17.816511 214 214 214 0
-2.590364 1.772354 17.821562 214 214 214 0
-2.515047 1.767331 17.771047 214 214 214 0
-2.439295 1.761713 17.714562 214 214 214 0
-2.376369 1.765303 17.750654 214 214 214 0
-2.315799 1.770905 17.806986 215 215 215 0
-2.258455 1.779389 17.892297 215 215 215 0
-2.189742 1.779165 17.890048 215 215 215 0
-2.120017 1.778078 17.879119 214 214 214 0
-2.052032 1.778428 17.882631 214 214 214 0
-1.984727 1.779411 17.892516 215 215 215 0
-1.921947 1.784665 17.945348 215 215 215 0
-1.863836 1.794805 18.047310 215 215 215 0
-1.797692 1.797692 18.076336 214 214 214 0
-1.729933 1.799131 18.090806 215 215 215 0
-1.658249 1.796437 18.063717 214 214 214 0
-1.585207 1.791973 18.018830 215 215 215 0
-1.516218 1.791894 18.018037 215 215 215 0
-1.450405 1.795739 18.056704 216 216 216 0
-1.385303 1.800893 18.108530 215 215 215 0
-1.318215 1.803872 18.138487 215 215 215 0
-1.242636 1.794919 18.048456 215 215 215 0
-1.171224 1.791283 18.011899 215 215 215 0
-1.101362 1.789714 17.996119 216 216 216 0
-1.033678 1.791709 18.016182 216 216 216 0
-0.965154 1.792430 18.023425 216 216 216 0
-0.899419 1.798837 18.087856 216 216 216 0
-0.830198 1.798762 18.087103 215 215 215 0
-0.759852 1.796015 18.059474 216 216 216 0
-0.691378 1.797583 18.075239 216 216 216 0
-0.622263 1.797650 18.075918 216 216 216 0
-0.554515 1.802172 18.121391 215 215 215 0
-0.485287 1.802493 18.124613 215 215 215 0
-0.416371 1.804274 18.142525 215 215 215 0
-0.346882 1.803787 18.137625 216 216 216 0
-0.277673 1.804872 18.148541 216 216 216 0
-0.208826 1.809824 18.198335 216 216 216 0
-0.139330 1.811288 18.213055 216 216 216 0
-0.069730 1.812978 18.230048 216 216 216 0
0.000000 1.815498 18.255384 216 216 216 0
0.069991 1.819768 18.298320 216 216 216 0
0.140224 1.822906 18.329876 216 216 216 0
0.210128 1.821110 18.311815 216 216 216 0
0.279556 1.817115 18.271644 216 216 216 0
0.348845 1.813994 18.240266 216 216 216 0
0.418485 1.813434 18.234627 216 216 216 0
0.490126 1.820467 18.305348 216 216 216 0
0.558926 1.816509 18.265551 217 217 217 0
0.629088 1.817365 18.274156 216 216 216 0
0.698081 1.815010 18.250477 216 216 216 0
0.767115 1.813180 18.232078 217 217 217 0
0.835796 1.810890 18.209053 217 217 217 0
0.906327 1.812655 18.226795 217 217 217 0
0.978575 1.817353 18.274036 216 216 216 0
1.049156 1.818537 18.285942 216 216 216 0
1.119339 1.818925 18.289848 217 217 217 0
1.186966 1.815360 18.254000 217 217 217 0
1.257709 1.816691 18.267378 217 217 217 0
1.328786 1.818339 18.283954 217 217 217 0
1.400907 1.821179 18.312512 217 217 217 0
1.472620 1.823244 18.333269 217 217 217 0
1.541726 1.822040 18.321165 217 217 217 0
1.610852 1.820964 18.310343 216 216 216 0
1.682175 1.822357 18.324350 216 216 216 0
1.753710 1.823859 18.339456 217 217 217 0
1.828967 1.828967 18.390816 217 217 217 0
1.903027 1.832544 18.426788 217 217 217 0
1.974030 1.833027 18.431649 217 217 217 0
2.042827 1.831500 18.416293 217 217 217 0
2.108624 1.827474 18.375806 218 218 218 0
2.178715 1.827309 18.374148 218 218 218 0
2.249681 1.827866 18.379749 218 218 218 0
2.328145 1.834296 18.444406 217 217 217 0
2.394187 1.830849 18.409741 217 217 217 0
2.459273 1.826889 18.369923 218 218 218 0
2.528060 1.825821 18.359187 218 218 218 0
2.595821 1.824091 18.341787 217 217 217 0
2.665004 1.823424 18.335081 217 217 217 0
2.744280 1.829520 18.396381 218 218 218 0
2.813690 1.828899 18.390133 217 217 217 0
2.883380 1.828485 18.385971 218 218 218 0
2.952875 1.827970 18.380795 218 218 218 0
3.024279 1.828634 18.387472 219 219 219 0
3.097807 1.830522 18.406460 218 218 218 0
3.170418 1.831797 18.419278 218 218 218 0
3.241838 1.832343 18.424768 218 218 218 0
4.183206 2.314114 23.269118 218 218 218 0
4.265131 2.310279 23.230561 219 219 219 0
3.455188 1.833365 18.435044 219 219 219 0
3.525718 1.833373 18.435126 219 219 219 0
3.605646 1.838172 18.483382 219 219 219 0
3.677153 1.838576 18.487445 218 218 218 0
4.696908 2.304144 23.168865 219 219 219 0
4.776863 2.299971 23.126910 218 218 218 0
4.851957 2.293652 23.063372 219 219 219 0
4.922042 2.285234 22.978721 218 218 218 0
5.009133 2.284868 22.975041 218 218 218 0
5.104586 2.288263 23.009180 218 218 218 0
5.179373 2.282436 22.950584 218 218 218 0
5.252916 2.276264 22.888525 219 219 219 0
5.322860 2.268760 22.813071 219 219 219 0
5.394891 2.262373 22.748854 219 219 219 0
5.473102 2.258740 22.712322 218 218 218 0
5.558578 2.258172 22.706611 218 218 218 0
5.651771 2.260708 22.732109 219 219 219 0
5.733339 2.258588 22.710790 219 219 219 0
5.803796 2.252220 22.646752 219 219 219 0
5.882223 2.249085 22.615238 218 218 218 0
5.961660 2.246422 22.588461 218 218 218 0
6.049912 2.247110 22.595375 218 218 218 0
6.135884 2.246943 22.593698 219 219 219 0
5.088370 1.837467 18.476290 219 219 219 0
5.155041 1.836042 18.461959 219 219 219 0
5.225515 1.835992 18.461454 219 219 219 0
5.303563 1.838569 18.487367 219 219 219 0
5.385339 1.842353 18.525417 219 219 219 0
6.627795 2.237957 22.503337 219 219 219 0
5.544740 1.848247 18.584683 219 219 219 0
5.602264 1.843783 18.539798 219 219 219 0
-10.845497 3.660355 35.442800 212 212 212 0
-10.710035 3.660392 35.443154 212 212 212 0
-10.444347 3.615351 35.007028 211 211 211 0
-10.263253 3.598803 34.846798 212 212 212 0
-10.134373 3.600369 34.861963 212 212 212 0
-10.007321 3.602636 34.883908 212 212 212 0
-9.888618 3.608009 34.935940 211 211 211 0
-4.766209 1.762844 17.069421 212 212 212 0
-4.665436 1.749538 16.940581 213 213 213 0
-4.564788 1.735905 16.808572 212 212 212 0
-4.498900 1.735290 16.802613 212 212 212 0
-4.433175 1.734721 16.797102 213 213 213 0
-4.373472 1.736526 16.814579 213 213 213 0
-4.334843 1.746877 16.914810 212 212 212 0
-4.297356 1.758009 17.022603 212 212 212 0
-4.225903 1.755375 16.997095 213 213 213 0
-4.176813 1.762093 17.062146 213 213 213 0
-4.111097 1.761899 17.060262 213 213 213 0
-4.056727 1.766639 17.106166 213 213 213 0
-4.007150 1.773657 17.174115 213 213 213 0
-3.949024 1.777061 17.207077 213 213 213 0
-3.894942 1.782431 17.259075 213 213 213 0
-3.841637 1.788348 17.316372 213 213 213 0
-3.794737 1.797507 17.405056 213 213 213 0
-3.733347 1.800007 17.429260 213 213 213 0
-3.665406 1.799381 17.423199 213 213 213 0
-3.617114 1.808557 17.512051 214 214 214 0
-3.574145 1.820791 17.630510 214 214 214 0
-3.533667 1.834788 17.766046 213 213 213 0
-3.467224 1.835589 17.773801 213 213 213 0
-3.378822 1.824564 17.667045 213 213 213 0
-3.291694 1.813791 17.562726 213 213 213 0
-3.219241 1.810823 17.533991 213 213 213 0
-3.168243 1.820054 17.623377 214 214 214 0
-3.133982 1.839511 17.811776 213 213 213 0
-3.053380 1.832028 17.739318 214 214 214 0
-2.975401 1.825814 17.679152 214 214 214 0
-2.896860 1.818959 17.612768 213 213 213 0
-2.819889 1.812786 17.553000 214 214 214 0
-2.754781 1.814124 17.565958 214 214 214 0
-2.698308 1.821358 17.635998 214 214 214 0
-2.655873 1.838681 17.803739 214 214 214 0
-2.589430 1.839858 17.815136 214 214 214 0
-2.512661 1.833563 17.754185 214 214 214 0
-2.439030 1.829273 17.712637 214 214 214 0
-2.375400 1.832451 17.743418 214 214 214 0
-2.316201 1.839336 17.810082 215 215 215 0
-2.258460 1.847831 17.892336 215 215 215 0
-2.189578 1.847456 17.888709 214 214 214 0
-2.123426 1.849436 17.907874 215 215 215 0
-2.051057 1.845951 17.874132 215 215 215 0
-1.982944 1.846189 17.876440 215 215 215 0
-1.920618 1.852024 17.932938 215 215 215 0
-1.864013 1.864013 18.049021 215 215 215 0
-1.797971 1.867123 18.079141 215 215 215 0
-1.729272 1.867614 18.083895 215 215 215 0
-1.659308 1.866722 18.075256 215 215 215 0
-1.585915 1.861726 18.026880 215 215 215 0
-1.516886 1.861633 18.025980 215 215 215 0
-1.449748 1.863962 18.048528 215 215 215 0
-1.385145 1.869945 18.106466 215 215 215 0
-1.319137 1.874563 18.151178 215 215 215 0
-1.243357 1.865036 18.058926 215 215 215 0
-1.171141 1.860047 18.010624 216 216 216 0
-1.101001 1.857939 17.990207 215 215 215 0
-1.033287 1.859916 18.009353 215 215 215 0
-0.965082 1.861230 18.022076 215 215 215 0
-0.899403 1.867991 18.087547 216 216 216 0
-0.830024 1.867555 18.083320 216 216 216 0
-0.760114 1.865735 18.065696 216 216 216 0
-0.691515 1.867092 18.078835 216 216 216 0
-0.622480 1.867440 18.082211 216 216 216 0
-0.554168 1.870318 18.110079 216 216 216 0
-0.485548 1.872828 18.134382 216 216 216 0
-0.416450 1.874023 18.145951 215 215 215 0
-0.346638 1.871848 18.124885 215 215 215 0
-0.277846 1.875461 18.159874 216 216 216 0
-0.208728 1.878550 18.189784 216 216 216 0
-0.139382 1.881655 18.219851 216 216 216 0
-0.069735 1.882842 18.231345 216 216 216 0
0.000000 1.885684 18.258865 216 216 216 0
0.070006 1.890156 18.302161 216 216 216 0
0.140189 1.892552 18.325365 216 216 216 0
0.210107 1.890967 18.310015 216 216 216 0
0.279486 1.886528 18.267034 216 216 216 0
0.348876 1.883930 18.241883 217 217 217 0
0.418734 1.884302 18.245482 216 216 216 0
0.490216 1.890835 18.308739 217 217 217 0
0.558813 1.885995 18.261878 216 216 216 0
0.629334 1.888003 18.281318 217 217 217 0
0.698092 1.884848 18.250770 217 217 217 0
0.767017 1.882678 18.229753 217 217 217 0
0.835704 1.880334 18.207061 217 217 217 0
0.907018 1.883806 18.240680 216 216 216 0
0.978027 1.886195 18.263811 217 217 217 0
1.049815 1.889666 18.297421 216 216 216 0
1.119298 1.888815 18.289177 216 216 216 0
1.186470 1.884394 18.246369 217 217 217 0
1.257526 1.886289 18.264720 217 217 217 0
1.328505 1.887876 18.280084 217 217 217 0
1.400125 1.890169 18.302287 217 217 217 0
1.471764 1.892268 18.322616 217 217 217 0
1.542103 1.892581 18.325647 217 217 217 0
1.611621 1.891903 18.319083 217 217 217 0
1.681860 1.892093 18.320915 217 217 217 0
1.753356 1.893625 18.335753 217 217 217 0
1.828688 1.899022 18.388017 217 217 217 0
1.902614 1.902614 18.422794 217 217 217 0
1.974014 1.903513 18.431502 217 217 217 0
2.042730 1.901852 18.415414 217 217 217 0
2.107912 1.897120 18.369599 218 218 218 0
2.178365 1.897285 18.371198 218 218 218 0
2.249835 1.898298 18.381005 217 217 217 0
2.327771 1.904540 18.441442 218 218 218 0
2.393931 1.901063 18.407773 218 218 218 0
2.461334 1.898743 18.385314 218 218 218 0
2.527669 1.895751 18.356344 217 217 217 0
2.594679 1.893414 18.333713 218 218 218 0
2.665147 1.893657 18.336066 218 218 218 0
2.744424 1.899986 18.397348 218 218 218 0
2.814525 1.899804 18.395588 218 218 218 0
2.883376 1.898809 18.385947 218 218 218 0
2.952678 1.898150 18.379573 218 218 218 0
3.024861 1.899331 18.391005 218 218 218 0
3.098558 1.901388 18.410923 218 218 218 0
3.170117 1.902070 18.417527 218 218 218 0
3.240523 1.902046 18.417293 218 218 218 0
4.182224 2.402554 23.263657 218 218 218 0
4.265457 2.399320 23.232336 218 218 218 0
3.454260 1.903368 18.430095 218 218 218 0
3.525710 1.903884 18.435087 218 218 218 0
3.606800 1.909482 18.489299 218 218 218 0
3.678217 1.909843 18.492795 218 218 218 0
3.752046 1.911420 18.508060 219 219 219 0
4.777187 2.388593 23.128476 219 219 219 0
4.852786 2.382277 23.067311 218 218 218 0
4.923260 2.373715 22.984407 218 218 218 0
5.010328 2.373313 22.980521 218 218 218 0
5.103221 2.375637 23.003025 218 218 218 0
5.180297 2.370645 22.954680 218 218 218 0
5.252057 2.363426 22.884781 218 218 218 0
5.321874 2.355584 22.808847 218 218 218 0
5.394164 2.349071 22.745788 219 219 219 0
5.474320 2.346137 22.717379 219 219 219 0
5.558480 2.344984 22.706211 219 219 219 0
5.651183 2.347414 22.729745 219 219 219 0
5.733399 2.345482 22.711030 219 219 219 0
5.803579 2.338756 22.645902 219 219 219 0
5.881560 2.335325 22.612688 219 219 219 0
5.962626 2.333202 22.592124 219 219 219 0
6.051657 2.334210 22.601892 219 219 219 0
6.135537 2.333233 22.592423 219 219 219 0
5.087135 1.907676 18.471806 218 218 218 0
5.156426 1.907171 18.466922 219 219 219 0
5.228288 1.907619 18.471252 219 219 219 0
5.303630 1.909307 18.487600 219 219 219 0
5.383862 1.912688 18.520336 220 220 220 0
6.627355 2.323878 22.501842 219 219 219 0
5.546096 1.919802 18.589227 219 219 219 0
5.601566 1.914459 18.537489 219 219 219 0
-10.845505 3.795927 35.442827 211 211 211 0
-10.710020 3.795956 35.443103 211 211 211 0
-10.444354 3.749255 35.007052 212 212 212 0
-10.263193 3.732070 34.846595 212 212 212 0
-10.134622 3.733808 34.862822 212 212 212 0
-10.007076 3.735975 34.883053 212 212 212 0
-9.888172 3.741471 34.934367 213 213 213 0
-4.758924 1.825341 17.043331 212 212 212 0
-4.668967 1.815709 16.953403 212 212 212 0
-4.562780 1.799406 16.801179 212 212 212 0
-4.496337 1.798535 16.793041 212 212 212 0
-4.442561 1.802778 16.832664 212 212 212 0
-4.370621 1.799668 16.803619 212 212 212 0
-4.335118 1.811691 16.915883 212 212 212 0
-4.290955 1.820405 16.997247 213 213 213 0
-4.233286 1.823569 17.026792 213 213 213 0
-4.181367 1.829348 17.080749 212 212 212 0
-4.113252 1.828112 17.069208 213 213 213 0
-4.056780 1.832094 17.106387 213 213 213 0
-4.002330 1.837135 17.153457 213 213 213 0
-3.953178 1.844816 17.225175 214 214 214 0
-3.896293 1.849088 17.265064 213 213 213 0
-3.841574 1.854553 17.316089 213 213 213 0
-3.788580 1.861057 17.376816 212 212 212 0
-3.735660 1.867830 17.440054 213 213 213 0
-3.662851 1.864724 17.411057 213 213 213 0
-3.615727 1.874822 17.505336 213 213 213 0
-3.576994 1.889733 17.644563 213 213 213 0
-3.530208 1.900881 17.748660 214 214 214 0
-3.463728 1.901654 17.755876 214 214 214 0
-3.377518 1.891410 17.660224 213 213 213 0
-3.293957 1.882261 17.574798 213 213 213 0
-3.219990 1.878327 17.538070 213 213 213 0
-3.172410 1.889946 17.646559 213 213 213 0
-3.132825 1.906937 17.805201 214 214 214 0
-3.053265 1.899809 17.738648 213 213 213 0
-2.978374 1.895329 17.696815 214 214 214 0
-2.900243 1.888530 17.633335 214 214 214 0
-2.821756 1.881170 17.564616 214 214 214 0
-2.753450 1.880405 17.557468 215 215 215 0
-2.700679 1.890475 17.651498 214 214 214 0
-2.656129 1.906964 17.805456 214 214 214 0
-2.592888 1.910549 17.838925 214 214 214 0
-2.514070 1.902539 17.764138 214 214 214 0
-2.440481 1.898152 17.723172 214 214 214 0
-2.373963 1.899170 17.732680 215 215 215 0
-2.315385 1.906788 17.803807 215 215 215 0
-2.254935 1.913278 17.864409 214 214 214 0
-2.190485 1.916674 17.896116 215 215 215 0
-2.121598 1.916282 17.892454 215 215 215 0
-2.050168 1.913490 17.866387 215 215 215 0
-1.984668 1.916231 17.891982 214 214 214 0
-1.919468 1.919468 17.922207 214 214 214 0
-1.864146 1.933189 18.050316 215 215 215 0
-1.797210 1.935457 18.071492 214 214 214 0
-1.729425 1.936956 18.085487 215 215 215 0
-1.659141 1.935664 18.073430 215 215 215 0
-1.586038 1.930829 18.028284 215 215 215 0
-1.516195 1.929703 18.017770 215 215 215 0
-1.449822 1.933096 18.049448 214 214 214 0
-1.385575 1.939805 18.112094 215 215 215 0
-1.319233 1.944133 18.152506 216 216 216 0
-1.242883 1.933374 18.052043 215 215 215 0
-1.171432 1.929418 18.015107 216 216 216 0
-1.102026 1.928546 18.006963 216 216 216 0
-1.033900 1.929946 18.020038 215 215 215 0
-0.965355 1.930711 18.027176 215 215 215 0
-0.899132 1.936591 18.082082 215 215 215 0
-0.830201 1.937136 18.087167 215 215 215 0
-0.759844 1.934148 18.059270 216 216 216 0
-0.690850 1.934380 18.061437 215 215 215 0
-0.621864 1.934687 18.064307 215 215 215 0
-0.554282 1.939985 18.113777 216 216 216 0
-0.485371 1.941483 18.127764 216 216 216 0
-0.416214 1.942331 18.135681 216 216 216 0
-0.346706 1.941555 18.128435 215 215 215 0
-0.277643 1.943503 18.146617 216 216 216 0
-0.208604 1.946973 18.179018 216 216 216 0
-0.139282 1.949954 18.206853 215 215 215 0
-0.069731 1.952456 18.230219 215 215 215 0
0.000000 1.954506 18.249356 217 217 217 0
0.069949 1.958576 18.287355 216 216 216 0
0.140270 1.963787 18.336011 216 216 216 0
0.210154 1.961434 18.314047 216 216 216 0
0.279545 1.956813 18.270895 216 216 216 0
0.348899 1.953833 18.243069 216 216 216 0
0.418565 1.953304 18.238129 216 216 216 0
0.490459 1.961837 18.317807 217 217 217 0
0.558830 1.955905 18.262421 217 217 217 0
0.629190 1.957481 18.277131 217 217 217 0
0.698022 1.954463 18.248951 216 216 216 0
0.767595 1.953877 18.243484 217 217 217 0
0.835326 1.949093 18.198814 216 216 216 0
0.906887 1.953296 18.238059 217 217 217 0
0.978008 1.956016 18.263450 217 217 217 0
1.049025 1.958181 18.283668 217 217 217 0
1.119328 1.958823 18.289666 216 216 216 0
1.187474 1.955839 18.261802 216 216 216 0
1.256966 1.955281 18.256587 217 217 217 0
1.328068 1.957153 18.274073 216 216 216 0
1.400404 1.960565 18.305930 218 218 218 0
1.471944 1.962592 18.324855 217 217 217 0
1.541999 1.962544 18.324409 217 217 217 0
1.611130 1.961375 18.313493 218 218 218 0
1.682294 1.962676 18.325643 217 217 217 0
1.753074 1.963442 18.332795 217 217 217 0
1.829432 1.970158 18.395499 217 217 217 0
1.902466 1.972928 18.421362 217 217 217 0
1.974237 1.974237 18.433588 217 217 217 0
2.041446 1.971051 18.403839 218 218 218 0
2.107598 1.967091 18.366867 218 218 218 0
2.177425 1.966706 18.363270 217 217 217 0
2.250256 1.968974 18.384445 218 218 218 0
2.327689 1.975009 18.440793 218 218 218 0
2.394382 1.971844 18.411243 218 218 218 0
2.460430 1.968344 18.378564 217 217 217 0
2.528004 1.966225 18.358778 217 217 217 0
2.594803 1.963635 18.334594 218 218 218 0
2.664214 1.963105 18.329646 217 217 217 0
2.744454 1.970377 18.397547 217 217 217 0
2.814106 1.969874 18.392852 218 218 218 0
2.883216 1.969026 18.384926 217 217 217 0
2.953997 1.969332 18.387783 218 218 218 0
3.026248 1.970580 18.399438 217 217 217 0
3.100011 1.972734 18.419555 218 218 218 0
3.171752 1.973535 18.427028 218 218 218 0
3.240410 1.972424 18.416654 218 218 218 0
4.183631 2.492376 23.271486 218 218 218 0
4.264731 2.487760 23.228381 218 218 218 0
3.454103 1.973773 18.429257 217 217 217 0
3.524647 1.973802 18.429527 218 218 218 0
3.605659 1.979577 18.483448 218 218 218 0
3.676556 1.979684 18.484445 218 218 218 0
3.751787 1.982076 18.506779 219 219 219 0
4.775909 2.476398 23.122292 218 218 218 0
4.851264 2.469734 23.060078 218 218 218 0
4.922417 2.461209 22.980473 219 219 219 0
5.012591 2.462325 22.990901 219 219 219 0
5.102757 2.463400 23.000934 219 219 219 0
5.181321 2.458932 22.959218 218 218 218 0
5.255866 2.452737 22.901375 218 218 218 0
5.323244 2.443456 22.814718 218 218 218 0
5.395884 2.436851 22.753043 218 218 218 0
5.472217 2.432097 22.708652 218 218 218 0
5.559087 2.432101 22.708689 219 219 219 0
5.649939 2.433820 22.724743 219 219 219 0
5.733510 2.432398 22.711468 218 218 218 0
5.803578 2.425376 22.645898 219 219 219 0
5.881324 2.421722 22.611782 219 219 219 0
5.961996 2.419361 22.589734 219 219 219 0
6.050038 2.420015 22.595846 219 219 219 0
6.137386 2.420378 22.599231 219 219 219 0
5.089170 1.979122 18.479193 219 219 219 0
5.157452 1.978201 18.470597 219 219 219 0
5.227584 1.978005 18.468765 219 219 219 0
5.304271 1.980261 18.489833 220 220 220 0
5.383633 1.983444 18.519551 219 219 219 0
6.629248 2.410636 22.508268 219 219 219 0
5.545524 1.990701 18.587310 219 219 219 0
5.600622 1.985031 18.534367 219 219 219 0
-10.845494 3.931492 35.442792 212 212 212 0
-10.710033 3.931531 35.443148 212 212 212 0
-10.444354 3.883157 35.007051 212 212 212 0
-10.263247 3.865379 34.846777 211 211 211 0
-10.134521 3.867120 34.862472 212 212 212 0
-10.007043 3.869390 34.882939 212 212 212 0
-9.888265 3.875131 34.934695 212 212 212 0
