ply
    format ascii 1.0
    element vertex 25600
    property float x
    property float y
    property float z
    property uchar red
    property uchar green
    property uchar blue
    property uchar alpha
    end_header
4.957747 0.275430 18.001988 219 219 219 0
5.024738 0.275328 17.995302 219 219 219 0
5.094280 0.275366 17.997810 220 220 220 0
5.163829 0.275404 18.000277 219 219 219 0
5.233695 0.275458 18.003766 219 219 219 0
5.306045 0.275639 18.015601 220 220 220 0
5.385058 0.276157 18.049467 219 219 219 0
5.457999 0.276354 18.062378 220 220 220 0
-10.845334 0.677833 35.442267 212 212 212 0
-10.709884 0.677841 35.442653 212 212 212 0
-10.444247 0.669503 35.006694 212 212 212 0
-10.266175 0.666635 34.856718 213 213 213 0
-10.137828 0.666962 34.873848 212 212 212 0
-10.010189 0.667346 34.893904 213 213 213 0
-9.878760 0.667484 34.901114 212 212 212 0
-4.577114 0.313501 16.392207 212 212 212 0
-4.512274 0.313352 16.384436 213 213 213 0
-4.449168 0.313322 16.382835 212 212 212 0
-4.393063 0.313790 16.407332 213 213 213 0
-4.327924 0.313618 16.398310 213 213 213 0
-4.263794 0.313514 16.392902 213 213 213 0
-4.207255 0.313974 16.416955 212 212 212 0
-4.180258 0.316686 16.558755 213 213 213 0
-4.121902 0.317069 16.578790 213 213 213 0
-4.063927 0.317494 16.601008 213 213 213 0
-4.011724 0.318391 16.647885 213 213 213 0
-3.964983 0.319757 16.719303 214 214 214 0
-3.905058 0.320087 16.736558 213 213 213 0
-3.853134 0.321094 16.789253 214 214 214 0
-3.799318 0.321976 16.835353 213 213 213 0
-3.747474 0.323058 16.891928 214 214 214 0
-3.695072 0.324129 16.947928 214 214 214 0
-3.640279 0.325025 16.994766 214 214 214 0
-3.574136 0.324921 16.989355 214 214 214 0
-3.512578 0.325239 17.005947 214 214 214 0
-3.464635 0.326852 17.090319 214 214 214 0
-3.420233 0.328869 17.195741 214 214 214 0
-3.375601 0.330941 17.304118 214 214 214 0
-3.310410 0.331041 17.309334 214 214 214 0
-3.233214 0.329920 17.250710 214 214 214 0
-3.150153 0.328141 17.157696 214 214 214 0
-3.084680 0.328157 17.158558 214 214 214 0
-3.030305 0.329381 17.222534 215 215 215 0
-2.987366 0.331930 17.355792 214 214 214 0
-2.914413 0.331183 17.316775 214 214 214 0
-2.844522 0.330758 17.294558 214 214 214 0
-2.766338 0.329326 17.219657 215 215 215 0
-2.692830 0.328394 17.170925 215 215 215 0
-2.618858 0.327357 17.116722 214 214 214 0
-2.563059 0.328597 17.181558 214 214 214 0
-2.523133 0.331991 17.359014 214 214 214 0
-2.460420 0.332489 17.385058 215 215 215 0
-2.383556 0.331050 17.309778 215 215 215 0
-2.313880 0.330554 17.283886 214 214 214 0
-2.247680 0.330541 17.283195 215 215 215 0
-2.192319 0.332170 17.368345 215 215 215 0
-2.135988 0.333748 17.450882 215 215 215 0
-2.072258 0.334235 17.476350 215 215 215 0
-2.003969 0.333995 17.463784 215 215 215 0
-1.933288 0.333326 17.428785 215 215 215 0
-1.864111 0.332877 17.405333 215 215 215 0
-1.806004 0.334445 17.487334 215 215 215 0
-1.745851 0.335741 17.555067 215 215 215 0
-1.685637 0.337127 17.627572 216 216 216 0
-1.620602 0.337625 17.653620 216 216 216 0
-1.551677 0.337321 17.637702 216 216 216 0
-1.482961 0.337037 17.622831 216 216 216 0
-1.412306 0.336263 17.582392 215 215 215 0
-1.344212 0.336053 17.571395 215 215 215 0
-1.281077 0.337125 17.627473 215 215 215 0
-1.221380 0.339272 17.739720 216 216 216 0
-1.149228 0.338008 17.673638 215 215 215 0
-1.078781 0.337119 17.627144 216 216 216 0
-1.007866 0.335955 17.566292 216 216 216 0
-0.939913 0.335683 17.552060 216 216 216 0
-0.872594 0.335613 17.548397 216 216 216 0
-0.806333 0.335972 17.567160 216 216 216 0
-0.742723 0.337601 17.652360 217 217 217 0
-0.674876 0.337438 17.643824 216 216 216 0
-0.606629 0.337016 17.621761 216 216 216 0
-0.539463 0.337165 17.629525 216 216 216 0
-0.472580 0.337557 17.650054 217 217 217 0
-0.406287 0.338573 17.703149 216 216 216 0
-0.338697 0.338697 17.709630 216 216 216 0
-0.270852 0.338565 17.702760 217 217 217 0
-0.203244 0.338740 17.711899 216 216 216 0
-0.135591 0.338978 17.724353 217 217 217 0
-0.067859 0.339293 17.740830 217 217 217 0
0.000000 0.339490 17.751129 217 217 217 0
0.067982 0.339908 17.772960 217 217 217 0
0.136005 0.340014 17.778490 217 217 217 0
0.204618 0.341030 17.831649 217 217 217 0
0.273233 0.341541 17.858343 217 217 217 0
0.341489 0.341489 17.855618 217 217 217 0
0.408496 0.340413 17.799391 217 217 217 0
0.476167 0.340119 17.784013 218 218 218 0
0.544536 0.340335 17.795306 218 218 218 0
0.614206 0.341226 17.841872 217 217 217 0
0.681606 0.340803 17.819774 217 217 217 0
0.749945 0.340884 17.823997 217 217 217 0
0.816956 0.340398 17.798605 217 217 217 0
0.883896 0.339960 17.775684 217 217 217 0
0.950512 0.339469 17.749995 217 217 217 0
1.018729 0.339576 17.755629 217 217 217 0
1.089804 0.340564 17.807259 217 217 217 0
1.159604 0.341060 17.833208 217 217 217 0
1.227852 0.341070 17.833725 218 218 218 0
1.294334 0.340614 17.809897 218 218 218 0
1.360782 0.340196 17.788002 217 217 217 0
1.431414 0.340813 17.820280 218 218 218 0
1.501048 0.341147 17.837770 218 218 218 0
1.571167 0.341558 17.859240 218 218 218 0
1.639239 0.341508 17.856638 217 217 217 0
1.707633 0.341527 17.857600 217 217 217 0
1.776604 0.341655 17.864293 218 218 218 0
1.845943 0.341841 17.874053 218 218 218 0
1.921123 0.343058 17.937661 218 218 218 0
1.993366 0.343684 17.970390 217 217 217 0
2.065210 0.344202 17.997474 218 218 218 0
2.131749 0.343830 17.978061 218 218 218 0
2.195701 0.343078 17.938733 218 218 218 0
2.259869 0.342404 17.903499 218 218 218 0
2.328656 0.342449 17.905855 218 218 218 0
2.455720 0.350817 18.343379 218 218 218 0
2.474644 0.343701 17.971269 218 218 218 0
2.540128 0.343261 17.948266 218 218 218 0
2.603155 0.342520 17.909560 218 218 218 0
2.667365 0.341970 17.880781 218 218 218 0
2.732088 0.341511 17.856786 219 219 219 0
2.802898 0.341817 17.872773 219 219 219 0
2.881870 0.343080 17.938812 218 218 218 0
2.951819 0.343235 17.946913 218 218 218 0
3.016580 0.342793 17.923828 218 218 218 0
3.083310 0.342590 17.913200 218 218 218 0
3.152829 0.342699 17.918890 218 218 218 0
3.224159 0.342996 17.934412 218 218 218 0
3.297272 0.343466 17.959000 219 219 219 0
3.364208 0.343287 17.949621 219 219 219 0
3.430754 0.343075 17.938581 219 219 219 0
3.498219 0.342963 17.932686 219 219 219 0
3.572406 0.343501 17.960815 219 219 219 0
3.643654 0.343741 17.973383 219 219 219 0
3.720614 0.344501 18.013141 219 219 219 0
3.793452 0.344859 18.031858 219 219 219 0
3.868622 0.345413 18.060795 218 218 218 0
3.935927 0.345257 18.052642 219 219 219 0
3.997055 0.344574 18.016925 219 219 219 0
4.059376 0.344015 17.987709 218 218 218 0
4.132030 0.344336 18.004489 219 219 219 0
4.211687 0.345220 18.050733 219 219 219 0
4.272033 0.344519 18.014055 219 219 219 0
4.338897 0.344357 18.005590 219 219 219 0
4.401347 0.343855 17.979357 219 219 219 0
4.467395 0.343646 17.968407 219 219 219 0
5.581432 0.422836 22.109057 219 219 219 0
6.887915 0.514024 26.877048 219 219 219 0
6.973022 0.512722 26.809004 219 219 219 0
5.830624 0.422509 22.091974 219 219 219 0
7.139324 0.509952 26.664140 219 219 219 0
5.974740 0.420756 22.000332 220 220 220 0
4.955809 0.344153 17.994949 220 220 220 0
5.025236 0.344194 17.997083 219 219 219 0
5.095177 0.344269 18.000978 219 219 219 0
5.165671 0.344378 18.006697 220 220 220 0
5.234367 0.344366 18.006080 220 220 220 0
5.302754 0.344335 18.004429 219 219 219 0
5.385956 0.345254 18.052476 219 219 219 0
5.459014 0.345507 18.065737 219 219 219 0
-10.845327 0.813399 35.442244 212 212 212 0
-10.709898 0.813410 35.442699 212 212 212 0
-10.444256 0.803404 35.006724 212 212 212 0
-10.265866 0.799938 34.855670 213 213 213 0
-10.137457 0.800326 34.872574 213 213 213 0
-10.010227 0.800818 34.894036 212 212 212 0
-9.879026 0.801002 34.902054 213 213 213 0
-4.580395 0.376471 16.403956 213 213 213 0
-4.512801 0.376067 16.386350 213 213 213 0
-4.441788 0.375362 16.355660 213 213 213 0
-4.394215 0.376647 16.411633 212 212 212 0
-4.329022 0.376437 16.402471 213 213 213 0
-4.261650 0.376028 16.384661 213 213 213 0
-4.206173 0.376672 16.412731 213 213 213 0
-4.180921 0.380084 16.561382 213 213 213 0
-4.128837 0.381123 16.606686 213 213 213 0
-4.067746 0.381351 16.616609 213 213 213 0
-4.005435 0.381470 16.621787 213 213 213 0
-3.964624 0.383673 16.717790 214 214 214 0
-3.905969 0.384194 16.740465 213 213 213 0
-3.849039 0.384904 16.771410 214 214 214 0
-3.798041 0.386241 16.829693 213 213 213 0
-3.747942 0.387718 16.894037 214 214 214 0
-3.691296 0.388557 16.930607 214 214 214 0
-3.637140 0.389694 16.980110 214 214 214 0
-3.575332 0.390036 16.995044 213 213 213 0
-3.512287 0.390254 17.004537 214 214 214 0
-3.467495 0.392547 17.104429 214 214 214 0
-3.416274 0.394185 17.175835 214 214 214 0
-3.366019 0.396002 17.254998 214 214 214 0
-3.310556 0.397267 17.310094 214 214 214 0
-3.228383 0.395312 17.224932 214 214 214 0
-3.151545 0.393943 17.165279 214 214 214 0
-3.083035 0.393579 17.149411 214 214 214 0
-3.032741 0.395575 17.236381 214 214 214 0
-2.987451 0.398327 17.356287 214 214 214 0
-2.910973 0.396951 17.296335 215 215 215 0
-2.842829 0.396674 17.284263 214 214 214 0
-2.763539 0.394791 17.202234 215 215 215 0
-2.691035 0.393810 17.159475 215 215 215 0
-2.620180 0.393027 17.125359 214 214 214 0
-2.561057 0.394009 17.168140 215 215 215 0
-2.523074 0.398380 17.358612 214 214 214 0
-2.459315 0.398808 17.377245 215 215 215 0
-2.386291 0.397715 17.329636 215 215 215 0
-2.313424 0.396587 17.280481 215 215 215 0
-2.247767 0.396665 17.283870 216 216 216 0
-2.191925 0.398532 17.365218 215 215 215 0
-2.136824 0.400654 17.457710 215 215 215 0
-2.072269 0.401084 17.476442 215 215 215 0
-2.003539 0.400708 17.460039 215 215 215 0
-1.935057 0.400357 17.444729 215 215 215 0
-1.866312 0.399924 17.425885 215 215 215 0
-1.805340 0.401187 17.480902 215 215 215 0
-1.746159 0.402960 17.558155 215 215 215 0
-1.685460 0.404510 17.625728 215 215 215 0
-1.619808 0.404952 17.644964 215 215 215 0
-1.552303 0.404949 17.644822 216 216 216 0
-1.482239 0.404247 17.614251 216 216 216 0
-1.413443 0.403841 17.596553 215 215 215 0
-1.344122 0.403237 17.570220 215 215 215 0
-1.281763 0.404767 17.636919 216 216 216 0
-1.221058 0.407019 17.735052 216 216 216 0
-1.148122 0.405219 17.656623 216 216 216 0
-1.078862 0.404573 17.628467 216 216 216 0
-1.008029 0.403212 17.569131 216 216 216 0
-0.939912 0.402819 17.552042 215 215 215 0
-0.872899 0.402876 17.554527 216 216 216 0
-0.805990 0.402995 17.559704 216 216 216 0
-0.742348 0.404917 17.643448 216 216 216 0
-0.674949 0.404969 17.645715 216 216 216 0
-0.606699 0.404466 17.623801 216 216 216 0
-0.539580 0.404685 17.633332 216 216 216 0
-0.472470 0.404974 17.645940 217 217 217 0
-0.406352 0.406352 17.705965 216 216 216 0
-0.338582 0.406299 17.703643 216 216 216 0
-0.270816 0.406225 17.700419 216 216 216 0
-0.203192 0.406383 17.707327 217 217 217 0
-0.135570 0.406711 17.721616 217 217 217 0
-0.067816 0.406897 17.729710 217 217 217 0
0.000000 0.407268 17.745878 216 216 216 0
0.067986 0.407914 17.774039 217 217 217 0
0.136003 0.408009 17.778183 216 216 216 0
0.204471 0.408941 17.818791 216 216 216 0
0.273328 0.409992 17.864587 217 217 217 0
0.341248 0.409497 17.843028 217 217 217 0
0.408628 0.408628 17.805153 217 217 217 0
0.476184 0.408158 17.784660 217 217 217 0
0.544168 0.408126 17.783270 217 217 217 0
0.613784 0.409189 17.829607 217 217 217 0
0.681278 0.408767 17.811181 217 217 217 0
0.749907 0.409040 17.823111 217 217 217 0
0.817474 0.408737 17.809894 217 217 217 0
0.883846 0.407929 17.774686 217 217 217 0
0.950376 0.407304 17.747449 217 217 217 0
1.018276 0.407310 17.747731 218 218 218 0
1.089487 0.408558 17.802079 217 217 217 0
1.159523 0.409243 17.831951 217 217 217 0
1.228339 0.409446 17.840794 218 218 218 0
1.294312 0.408730 17.809588 218 218 218 0
1.361827 0.408548 17.801655 218 218 218 0
1.431659 0.409046 17.823336 217 217 217 0
1.501458 0.409488 17.842633 218 218 218 0
1.570872 0.409793 17.855893 218 218 218 0
1.640358 0.410089 17.868821 217 217 217 0
1.707319 0.409757 17.854318 218 218 218 0
1.777374 0.410163 17.872034 217 217 217 0
1.845706 0.410157 17.871757 218 218 218 0
1.921098 0.411664 17.937421 218 218 218 0
1.993106 0.412367 17.968046 218 218 218 0
2.065224 0.413045 17.997591 219 219 219 0
2.131832 0.412613 17.978766 218 218 218 0
2.195092 0.411580 17.933761 218 218 218 0
2.260043 0.410917 17.904878 218 218 218 0
2.327717 0.410774 17.898630 218 218 218 0
2.437873 0.417921 18.210066 218 218 218 0
2.475077 0.412513 17.974413 218 218 218 0
2.540491 0.411972 17.950830 218 218 218 0
2.603176 0.411028 17.909705 218 218 218 0
2.666754 0.410270 17.876680 218 218 218 0
2.732164 0.409825 17.857284 218 218 218 0
2.804383 0.410397 17.882242 218 218 218 0
2.881336 0.411619 17.935489 218 218 218 0
2.952571 0.411987 17.951489 218 218 218 0
3.017358 0.411458 17.928447 218 218 218 0
3.084491 0.411266 17.920066 219 219 219 0
3.152957 0.411255 17.919620 219 219 219 0
3.225165 0.411723 17.940010 218 218 218 0
3.298306 0.412288 17.964630 219 219 219 0
3.363666 0.411878 17.946732 219 219 219 0
3.429535 0.411544 17.932207 218 218 218 0
3.498111 0.411543 17.932136 219 219 219 0
3.572222 0.412179 17.959891 219 219 219 0
3.643414 0.412462 17.972198 219 219 219 0
3.720533 0.413393 18.012747 219 219 219 0
3.794109 0.413903 18.034979 219 219 219 0
3.867474 0.414372 18.055436 219 219 219 0
3.934455 0.414153 18.045891 219 219 219 0
3.996648 0.413446 18.015091 219 219 219 0
4.061403 0.413024 17.996688 219 219 219 0
4.133367 0.413337 18.010314 218 218 218 0
4.209031 0.414003 18.039347 220 220 220 0
4.273876 0.413601 18.021825 220 220 220 0
4.339484 0.413284 18.008024 219 219 219 0
4.402969 0.412778 17.985984 218 218 218 0
4.467933 0.412425 17.970570 219 219 219 0
5.580550 0.507323 22.105566 219 219 219 0
6.887752 0.616814 26.876410 219 219 219 0
6.976625 0.615585 26.822858 219 219 219 0
5.830832 0.507029 22.092762 219 219 219 0
7.144696 0.612403 26.684206 219 219 219 0
5.977486 0.505140 22.010442 220 220 220 0
4.956122 0.413010 17.996086 219 219 219 0
5.024599 0.412981 17.994804 220 220 220 0
5.092829 0.412932 17.992684 219 219 219 0
5.166230 0.413298 18.008646 219 219 219 0
5.233834 0.413197 18.004247 219 219 219 0
5.303270 0.413242 18.006179 219 219 219 0
5.384294 0.414176 18.046906 219 219 219 0
5.457289 0.414478 18.060028 220 220 220 0
-10.845325 0.948966 35.442238 213 213 213 0
-10.709887 0.948977 35.442663 212 212 212 0
-10.444242 0.937304 35.006676 213 213 213 0
-10.266104 0.933282 34.856479 212 212 212 0
-10.137822 0.933747 34.873830 213 213 213 0
-10.009886 0.934256 34.892848 212 212 212 0
-9.878692 0.934471 34.900871 212 212 212 0
-4.579509 0.439131 16.400784 213 213 213 0
-4.510291 0.438501 16.377238 213 213 213 0
-4.450520 0.438784 16.387812 213 213 213 0
-4.392342 0.439234 16.404639 213 213 213 0
-4.334427 0.439724 16.422948 213 213 213 0
-4.260192 0.438549 16.379056 213 213 213 0
-4.211352 0.439992 16.432941 213 213 213 0
-4.176773 0.442991 16.544952 213 213 213 0
-4.130103 0.444780 16.611777 213 213 213 0
-4.063001 0.444391 16.597226 213 213 213 0
-4.014582 0.446065 16.659744 214 214 214 0
-3.963654 0.447509 16.713701 213 213 213 0
-3.906514 0.448288 16.742800 213 213 213 0
-3.852589 0.449469 16.786880 213 213 213 0
-3.797742 0.450580 16.828368 214 214 214 0
-3.747094 0.452236 16.890215 214 214 214 0
-3.693918 0.453639 16.942637 213 213 213 0
-3.644135 0.455517 17.012767 213 213 213 0
-3.582202 0.455917 17.027699 213 213 213 0
-3.510490 0.455063 16.995835 214 214 214 0
-3.463617 0.457459 17.085296 214 214 214 0
-3.414158 0.459598 17.165200 214 214 214 0
-3.370617 0.462634 17.278568 214 214 214 0
-3.309754 0.463366 17.305902 214 214 214 0
-3.231720 0.461674 17.242735 214 214 214 0
-3.150778 0.459488 17.161101 214 214 214 0
-3.083380 0.459227 17.151331 215 215 215 0
-3.030569 0.461174 17.224037 215 215 215 0
-2.986851 0.464621 17.352804 214 214 214 0
-2.911341 0.463168 17.298519 214 214 214 0
-2.842704 0.462766 17.283505 215 215 215 0
-2.767547 0.461258 17.227180 215 215 215 0
-2.690060 0.459279 17.153263 214 214 214 0
-2.619689 0.458446 17.122153 215 215 215 0
-2.561912 0.459830 17.173873 215 215 215 0
-2.522486 0.464668 17.354563 214 214 214 0
-2.459516 0.465314 17.378669 214 214 214 0
-2.383353 0.463430 17.308304 215 215 215 0
-2.312878 0.462576 17.276398 214 214 214 0
-2.247782 0.462779 17.283985 215 215 215 0
-2.191668 0.464899 17.363184 216 216 216 0
-2.136954 0.467459 17.458774 215 215 215 0
-2.073599 0.468232 17.487654 215 215 215 0
-2.007468 0.468409 17.494271 215 215 215 0
-1.935559 0.467204 17.449255 215 215 215 0
-1.867537 0.466884 17.437320 214 214 214 0
-1.806157 0.468263 17.488812 216 216 216 0
-1.746381 0.470179 17.560392 216 216 216 0
-1.683691 0.471434 17.607231 215 215 215 0
-1.619036 0.472219 17.636556 215 215 215 0
-1.553341 0.472756 17.656619 215 215 215 0
-1.482977 0.471856 17.623014 215 215 215 0
-1.413219 0.471073 17.593763 216 216 216 0
-1.343227 0.470129 17.558517 216 216 216 0
-1.281025 0.471957 17.626768 215 215 215 0
-1.221521 0.475036 17.741766 216 216 216 0
-1.148905 0.473079 17.668672 216 216 216 0
-1.078622 0.471897 17.624551 216 216 216 0
-1.007812 0.470312 17.565357 216 216 216 0
-0.939324 0.469662 17.541056 216 216 216 0
-0.872373 0.469739 17.543948 217 217 217 0
-0.806230 0.470301 17.564924 216 216 216 0
-0.742130 0.472264 17.638260 216 216 216 0
-0.674718 0.472303 17.639699 216 216 216 0
-0.606821 0.471972 17.627339 216 216 216 0
-0.539564 0.472118 17.632795 216 216 216 0
-0.472994 0.472994 17.665507 216 216 216 0
-0.406173 0.473868 17.698162 216 216 216 0
-0.338525 0.473936 17.700680 216 216 216 0
-0.270790 0.473882 17.698688 217 217 217 0
-0.203108 0.473918 17.700017 217 217 217 0
-0.135531 0.474357 17.716426 216 216 216 0
-0.067766 0.474359 17.716501 216 216 216 0
0.000000 0.475341 17.753154 216 216 216 0
0.067985 0.475893 17.773780 216 216 216 0
0.136078 0.476272 17.787936 217 217 217 0
0.204652 0.477520 17.834560 216 216 216 0
0.273080 0.477890 17.848382 217 217 217 0
0.341195 0.477673 17.840274 217 217 217 0
0.408566 0.476660 17.802428 217 217 217 0
0.475972 0.475972 17.776737 217 217 217 0
0.544186 0.476163 17.783865 217 217 217 0
0.613817 0.477414 17.830571 217 217 217 0
0.681389 0.476973 17.814100 217 217 217 0
0.749965 0.477251 17.824489 217 217 217 0
0.817102 0.476643 17.801791 216 216 216 0
0.883487 0.475724 17.767458 217 217 217 0
0.950357 0.475179 17.747098 217 217 217 0
1.018472 0.475287 17.751145 217 217 217 0
1.089491 0.476652 17.802145 217 217 217 0
1.159668 0.477510 17.834191 218 218 218 0
1.228468 0.477738 17.842677 218 218 218 0
1.293706 0.476629 17.801255 217 217 217 0
1.362017 0.476706 17.804146 217 217 217 0
1.431780 0.477260 17.824836 218 218 218 0
1.501530 0.477759 17.843489 218 218 218 0
1.571321 0.478228 17.860998 218 218 218 0
1.639679 0.478240 17.861423 218 218 218 0
1.707257 0.478032 17.853664 218 218 218 0
1.777344 0.478516 17.871739 217 217 217 0
1.845541 0.478473 17.870159 217 217 217 0
1.920703 0.480176 17.933736 218 218 218 0
1.993600 0.481214 17.972507 217 217 217 0
2.065219 0.481885 17.997554 218 218 218 0
2.132361 0.481501 17.983223 218 218 218 0
2.195319 0.480226 17.935616 218 218 218 0
2.259566 0.479302 17.901094 218 218 218 0
2.327266 0.479143 17.895161 218 218 218 0
2.431424 0.486285 18.161896 218 218 218 0
2.475608 0.481368 17.978274 217 217 217 0
2.540821 0.480696 17.953158 219 219 219 0
2.603458 0.479584 17.911648 218 218 218 0
2.667614 0.478802 17.882444 218 218 218 0
2.731965 0.478094 17.855981 218 218 218 0
2.804747 0.478859 17.884563 218 218 218 0
2.881524 0.480254 17.936659 218 218 218 0
2.951931 0.480547 17.947597 218 218 218 0
3.017390 0.480039 17.928642 219 219 219 0
3.084325 0.479784 17.919100 218 218 218 0
3.152433 0.479718 17.916642 219 219 219 0
3.225853 0.480446 17.943835 218 218 218 0
3.298058 0.480967 17.963277 218 218 218 0
3.364119 0.480588 17.949148 218 218 218 0
3.431628 0.480428 17.943153 219 219 219 0
3.498390 0.480171 17.933566 219 219 219 0
3.571664 0.480801 17.957086 219 219 219 0
3.642497 0.481084 17.967674 219 219 219 0
3.720934 0.482343 18.014690 218 218 218 0
3.794622 0.482952 18.037419 219 219 219 0
3.869827 0.483728 18.066419 219 219 219 0
3.934671 0.483205 18.046879 218 218 218 0
3.996518 0.482338 18.014506 219 219 219 0
4.064451 0.482223 18.010197 219 219 219 0
4.134215 0.482325 18.014010 219 219 219 0
4.210959 0.483225 18.047614 219 219 219 0
4.273545 0.482497 18.020429 219 219 219 0
4.338722 0.482080 18.004865 219 219 219 0
4.402809 0.481557 17.985332 219 219 219 0
4.466593 0.481018 17.965179 219 219 219 0
5.581121 0.591937 22.107826 219 219 219 0
6.888809 0.719726 26.880536 219 219 219 0
6.974576 0.717971 26.814979 220 220 220 0
5.831186 0.591570 22.094103 220 220 220 0
7.142871 0.714287 26.677389 219 219 219 0
5.977867 0.589367 22.011846 219 219 219 0
4.957064 0.481937 17.999507 219 219 219 0
5.024890 0.481839 17.995847 219 219 219 0
5.093175 0.481787 17.993904 219 219 219 0
5.163791 0.481954 18.000144 219 219 219 0
5.233694 0.482051 18.003762 219 219 219 0
5.304165 0.482197 18.009218 219 219 219 0
5.384690 0.483241 18.048233 220 220 220 0
5.458926 0.483702 18.065447 219 219 219 0
-10.845326 1.084533 35.442243 213 213 213 0
-10.709886 1.084545 35.442662 213 213 213 0
-10.444249 1.071205 35.006700 213 213 213 0
-10.266077 1.066605 34.856385 212 212 212 0
-10.137772 1.067134 34.873655 213 213 213 0
-10.010293 1.067765 34.894268 212 212 212 0
-9.878869 1.067986 34.901497 213 213 213 0
-4.571669 0.501005 16.372708 212 212 212 0
-4.513445 0.501494 16.388690 213 213 213 0
-4.450889 0.501509 16.389172 213 213 213 0
-4.395338 0.502324 16.415830 213 213 213 0
-4.330541 0.502092 16.408224 213 213 213 0
-4.261437 0.501345 16.383840 213 213 213 0
-4.206209 0.502234 16.412872 213 213 213 0
-4.182989 0.507029 16.569573 213 213 213 0
-4.127263 0.507971 16.600352 213 213 213 0
-4.060722 0.507590 16.587918 213 213 213 0
-4.012803 0.509562 16.652360 213 213 213 0
-3.966938 0.511863 16.727548 213 213 213 0
-3.908529 0.512594 16.751435 213 213 213 0
-3.853578 0.513810 16.791190 213 213 213 0
-3.798218 0.515013 16.830478 214 214 214 0
-3.743843 0.516392 16.875559 213 213 213 0
-3.700456 0.519362 16.972621 214 214 214 0
-3.641398 0.520200 16.999993 214 214 214 0
-3.581918 0.521006 17.026348 214 214 214 0
-3.516255 0.520927 17.023746 214 214 214 0
-3.467784 0.523439 17.105853 214 214 214 0
-3.417011 0.525694 17.179545 214 214 214 0
-3.372309 0.528990 17.287246 214 214 214 0
-3.308877 0.529420 17.301316 214 214 214 0
-3.228709 0.527136 17.226671 214 214 214 0
-3.151731 0.525288 17.166289 215 215 215 0
-3.084154 0.524962 17.155633 215 215 215 0
-3.030551 0.527052 17.223932 214 214 214 0
-2.984899 0.530649 17.341461 215 215 215 0
-2.913135 0.529661 17.309178 214 214 214 0
-2.845370 0.529371 17.299712 215 215 215 0
-2.766951 0.527038 17.223473 215 215 215 0
-2.690035 0.524885 17.153101 215 215 215 0
-2.620130 0.524026 17.125030 214 214 214 0
-2.561008 0.525335 17.167808 215 215 215 0
-2.522768 0.531109 17.356502 214 214 214 0
-2.460436 0.531986 17.385169 215 215 215 0
-2.385149 0.530033 17.321342 215 215 215 0
-2.313570 0.528816 17.281568 215 215 215 0
-2.249052 0.529189 17.293747 215 215 215 0
-2.190890 0.531125 17.357023 215 215 215 0
-2.135291 0.533823 17.445189 215 215 215 0
-2.074964 0.535474 17.499165 215 215 215 0
-2.006087 0.534956 17.482237 215 215 215 0
-1.935719 0.533991 17.450700 215 215 215 0
-1.869060 0.534017 17.451544 215 215 215 0
-1.805534 0.534973 17.482778 216 216 216 0
-1.746445 0.537368 17.561035 215 215 215 0
-1.684837 0.539148 17.619209 215 215 215 0
-1.620164 0.540055 17.648841 215 215 215 0
-1.552537 0.540013 17.647480 216 216 216 0
-1.482907 0.539239 17.622188 216 216 216 0
-1.413292 0.538397 17.594668 215 215 215 0
-1.343857 0.537543 17.566760 216 216 216 0
-1.280684 0.539235 17.622073 215 215 215 0
-1.221284 0.542793 17.738327 216 216 216 0
-1.148552 0.540495 17.663233 216 216 216 0
-1.078241 0.539120 17.618313 216 216 216 0
-1.008218 0.537716 17.572433 216 216 216 0
-0.938991 0.536566 17.534837 216 216 216 0
-0.872114 0.536686 17.538753 215 215 215 0
-0.806142 0.537428 17.563014 216 216 216 0
-0.742240 0.539811 17.640885 216 216 216 0
-0.675103 0.540083 17.649756 216 216 216 0
-0.606848 0.539421 17.628125 216 216 216 0
-0.539456 0.539456 17.629277 216 216 216 0
-0.472891 0.540447 17.661680 216 216 216 0
-0.406225 0.541633 17.700429 217 217 217 0
-0.338716 0.541945 17.710636 217 217 217 0
-0.270604 0.541209 17.686562 217 217 217 0
-0.202981 0.541284 17.689004 216 216 216 0
-0.135588 0.542354 17.723982 216 216 216 0
-0.067819 0.542553 17.730485 217 217 217 0
0.000000 0.543619 17.765339 216 216 216 0
0.067959 0.543673 17.767081 217 217 217 0
0.136060 0.544242 17.785674 216 216 216 0
0.204541 0.545443 17.824942 217 217 217 0
0.273295 0.546590 17.862420 217 217 217 0
0.341396 0.546234 17.850787 217 217 217 0
0.408552 0.544736 17.801817 216 216 216 0
0.475924 0.543913 17.774930 217 217 217 0
0.544428 0.544428 17.791759 217 217 217 0
0.614051 0.545823 17.837351 217 217 217 0
0.681401 0.545121 17.814396 217 217 217 0
0.750263 0.545646 17.831567 217 217 217 0
0.816366 0.544244 17.785746 217 217 217 0
0.883935 0.543960 17.776465 217 217 217 0
0.950230 0.542989 17.744727 217 217 217 0
1.018136 0.543006 17.745282 217 217 217 0
1.089375 0.544687 17.800238 218 218 218 0
1.159396 0.545598 17.830008 218 218 218 0
1.228302 0.545912 17.840257 217 217 217 0
1.294388 0.545006 17.810643 218 218 218 0
1.362178 0.544871 17.806251 217 217 217 0
1.431606 0.545374 17.822668 218 218 218 0
1.501651 0.546055 17.844933 218 218 218 0
1.570831 0.546376 17.855422 218 218 218 0
1.640834 0.546945 17.874008 218 218 218 0
1.707233 0.546315 17.853421 218 218 218 0
1.777065 0.546789 17.868934 217 217 217 0
1.846617 0.547146 17.880580 218 218 218 0
1.921839 0.549097 17.944341 218 218 218 0
1.993563 0.549948 17.972171 218 218 218 0
2.065815 0.550884 18.002747 218 218 218 0
2.131138 0.549971 17.972914 218 218 218 0
2.195396 0.548849 17.936244 218 218 218 0
2.259247 0.547696 17.898567 218 218 218 0
2.327101 0.547553 17.893894 218 218 218 0
2.429997 0.555428 18.151242 218 218 218 0
2.475576 0.550128 17.978040 218 218 218 0
2.541137 0.549435 17.955391 219 219 219 0
2.603456 0.548096 17.911633 218 218 218 0
2.667629 0.547206 17.882549 218 218 218 0
2.732473 0.546495 17.859303 218 218 218 0
2.804245 0.547170 17.881362 219 219 219 0
2.881418 0.548842 17.935998 218 218 218 0
2.951702 0.549154 17.946207 218 218 218 0
3.018210 0.548765 17.933512 219 219 219 0
3.083849 0.548240 17.916331 218 218 218 0
3.154514 0.548611 17.928467 219 219 219 0
3.225855 0.549082 17.943848 219 219 219 0
3.298746 0.549791 17.967027 219 219 219 0
3.363223 0.549098 17.944369 219 219 219 0
3.431981 0.549117 17.944999 219 219 219 0
3.499130 0.548883 17.937358 218 218 218 0
3.574730 0.549959 17.972501 219 219 219 0
3.643503 0.549963 17.972638 218 218 218 0
3.721525 0.551337 18.017548 219 219 219 0
3.795112 0.552016 18.039746 218 218 218 0
3.868975 0.552711 18.062443 219 219 219 0
3.934776 0.552249 18.047363 218 218 218 0
3.997356 0.551359 18.018282 219 219 219 0
4.062224 0.550810 18.000329 219 219 219 0
4.134895 0.551319 18.016973 219 219 219 0
4.208593 0.551947 18.037471 219 219 219 0
4.273727 0.551449 18.021198 219 219 219 0
4.338415 0.550910 18.003590 219 219 219 0
4.401707 0.550213 17.980831 219 219 219 0
4.466699 0.549748 17.965605 219 219 219 0
5.580644 0.676442 22.105938 219 219 219 0
6.886875 0.822313 26.872989 219 219 219 0
6.972581 0.820304 26.807308 219 219 219 0
5.830702 0.676023 22.092270 220 220 220 0
7.141378 0.816157 26.671814 219 219 219 0
5.975929 0.673344 22.004711 219 219 219 0
4.958073 0.550897 18.003169 219 219 219 0
5.024560 0.550637 17.994665 219 219 219 0
5.092319 0.550521 17.990881 219 219 219 0
5.164948 0.550928 18.004175 220 220 220 0
5.235409 0.551096 18.009663 219 219 219 0
5.303231 0.550985 18.006047 220 220 220 0
5.387951 0.552610 18.059162 219 219 219 0
5.459218 0.552832 18.066412 220 220 220 0
-10.845332 1.220100 35.442262 212 212 212 0
-10.709893 1.220114 35.442684 212 212 212 0
-10.444247 1.205105 35.006694 212 212 212 0
-10.265893 1.199910 34.855761 213 213 213 0
-10.137566 1.200501 34.872949 213 213 213 0
-10.010161 1.201219 34.893809 213 213 213 0
-9.878889 1.201486 34.901567 212 212 212 0
-4.583179 0.565049 16.413928 212 212 212 0
-4.508939 0.563617 16.372326 213 213 213 0
-4.454095 0.564604 16.400975 213 213 213 0
-4.396262 0.565234 16.419281 213 213 213 0
-4.323543 0.563940 16.381711 212 212 212 0
-4.267082 0.564761 16.405545 213 213 213 0
-4.204292 0.564756 16.405393 213 213 213 0
-4.178624 0.569812 16.552283 213 213 213 0
-4.127299 0.571472 16.600499 214 214 214 0
-4.070943 0.572476 16.629670 213 213 213 0
-4.011118 0.573017 16.645370 213 213 213 0
-3.967009 0.575856 16.727849 213 213 213 0
-3.907296 0.576486 16.746152 213 213 213 0
-3.853806 0.578071 16.792182 214 214 214 0
-3.795719 0.579008 16.819406 213 213 213 0
-3.749209 0.581774 16.899747 214 214 214 0
-3.696580 0.583671 16.954846 214 214 214 0
-3.643291 0.585529 17.008828 213 213 213 0
-3.584915 0.586622 17.040592 214 214 214 0
-3.516871 0.586145 17.026730 214 214 214 0
-3.468333 0.588962 17.108560 214 214 214 0
-3.421537 0.592189 17.202297 214 214 214 0
-3.373224 0.595275 17.291935 213 213 213 0
-3.310995 0.595979 17.312393 214 214 214 0
-3.231898 0.593614 17.243685 214 214 214 0
-3.150700 0.590756 17.160674 214 214 214 0
-3.084328 0.590616 17.156604 214 214 214 0
-3.029533 0.592735 17.218149 214 214 214 0
-2.984446 0.596889 17.338828 214 214 214 0
-2.914761 0.596201 17.318839 215 215 215 0
-2.844364 0.595332 17.293595 214 214 214 0
-2.767475 0.593030 17.226737 215 215 215 0
-2.692685 0.591077 17.169997 215 215 215 0
-2.621594 0.589859 17.134605 215 215 215 0
-2.562824 0.591421 17.179986 215 215 215 0
-2.520107 0.596867 17.338196 215 215 215 0
-2.458172 0.597934 17.369172 215 215 215 0
-2.384512 0.596128 17.316718 215 215 215 0
-2.315294 0.595361 17.294444 214 214 214 0
-2.249852 0.595549 17.299901 215 215 215 0
-2.191706 0.597738 17.363490 215 215 215 0
-2.137786 0.601252 17.465574 215 215 215 0
-2.072293 0.601633 17.476643 216 216 216 0
-2.005713 0.601714 17.478976 215 215 215 0
-1.936736 0.601056 17.459874 216 216 216 0
-1.869072 0.600773 17.451649 215 215 215 0
-1.804984 0.601661 17.477451 215 215 215 0
-1.746704 0.604628 17.563636 216 216 216 0
-1.685433 0.606756 17.625441 215 215 215 0
-1.620117 0.607544 17.648334 215 215 215 0
-1.552631 0.607551 17.648547 215 215 215 0
-1.482428 0.606448 17.616499 215 215 215 0
-1.413312 0.605705 17.594920 216 216 216 0
-1.344000 0.604800 17.568631 216 216 216 0
-1.280296 0.606456 17.616732 215 215 215 0
-1.222542 0.611271 17.756607 216 216 216 0
-1.148395 0.607974 17.660815 216 216 216 0
-1.078500 0.606656 17.622543 216 216 216 0
-1.008061 0.604837 17.569695 216 216 216 0
-0.939775 0.604141 17.549490 216 216 216 0
-0.872324 0.603917 17.542971 215 215 215 0
-0.806352 0.604764 17.567579 216 216 216 0
-0.742056 0.607137 17.636511 216 216 216 0
-0.674441 0.606997 17.632457 216 216 216 0
-0.606335 0.606335 17.613216 216 216 216 0
-0.539227 0.606630 17.621792 216 216 216 0
-0.472628 0.607664 17.651832 217 217 217 0
-0.405899 0.608848 17.686223 216 216 216 0
-0.338632 0.609538 17.706251 216 216 216 0
-0.270529 0.608691 17.681655 216 216 216 0
-0.202966 0.608899 17.687696 216 216 216 0
-0.135520 0.609838 17.714977 216 216 216 0
-0.067799 0.610187 17.725120 217 217 217 0
0.000000 0.610704 17.740130 217 217 217 0
0.067953 0.611581 17.765600 216 216 216 0
0.136093 0.612417 17.789900 217 217 217 0
0.204651 0.613953 17.834505 217 217 217 0
0.273286 0.614894 17.861852 217 217 217 0
0.341483 0.614670 17.855337 217 217 217 0
0.408521 0.612782 17.800499 216 216 216 0
0.476161 0.612206 17.783774 217 217 217 0
0.544183 0.612206 17.783769 217 217 217 0
0.613701 0.613701 17.827182 217 217 217 0
0.681145 0.613030 17.807699 217 217 217 0
0.750390 0.613956 17.834586 216 216 216 0
0.817172 0.612879 17.803317 217 217 217 0
0.883938 0.611957 17.776539 217 217 217 0
0.950372 0.610953 17.747370 217 217 217 0
1.018494 0.611096 17.751525 217 217 217 0
1.089335 0.612751 17.799592 217 217 217 0
1.159459 0.613831 17.830969 218 218 218 0
1.227778 0.613889 17.832653 218 218 218 0
1.294190 0.613037 17.807910 217 217 217 0
1.361367 0.612615 17.795648 218 218 218 0
1.432278 0.613833 17.831033 218 218 218 0
1.501799 0.614372 17.846695 218 218 218 0
1.571515 0.614941 17.863199 218 218 218 0
1.639831 0.614937 17.863085 218 218 218 0
1.707538 0.614714 17.856607 218 218 218 0
1.777309 0.615222 17.871381 218 218 218 0
1.846197 0.615399 17.876511 218 218 218 0
1.921667 0.617679 17.942735 218 218 218 0
1.993448 0.618656 17.971138 217 217 217 0
2.065569 0.619671 18.000597 218 218 218 0
2.132462 0.619102 17.984079 218 218 218 0
2.195381 0.617451 17.936121 218 218 218 0
2.260204 0.616419 17.906151 218 218 218 0
2.326720 0.615897 17.890968 218 218 218 0
2.433607 0.625785 18.178200 219 219 219 0
2.475176 0.618794 17.975132 218 218 218 0
2.541256 0.618143 17.956234 218 218 218 0
2.602425 0.616364 17.904539 218 218 218 0
2.666595 0.615368 17.875615 218 218 218 0
2.732182 0.614741 17.857397 218 218 218 0
2.803977 0.615507 17.879657 218 218 218 0
2.880311 0.617210 17.929107 218 218 218 0
2.950092 0.617461 17.936416 219 219 219 0
3.019407 0.617606 17.940622 219 219 219 0
3.084469 0.616894 17.919936 218 218 218 0
3.154166 0.617119 17.926490 219 219 219 0
3.225773 0.617701 17.943393 219 219 219 0
3.297477 0.618277 17.960113 218 218 218 0
3.363889 0.617857 17.947920 219 219 219 0
3.431441 0.617659 17.942176 219 219 219 0
3.498866 0.617447 17.936003 218 218 218 0
3.574115 0.618597 17.969406 219 219 219 0
3.644405 0.618861 17.977088 218 218 218 0
3.721015 0.620169 18.015082 219 219 219 0
3.793970 0.620831 18.034318 219 219 219 0
3.869511 0.621886 18.064942 219 219 219 0
3.935149 0.621339 18.049072 219 219 219 0
3.998693 0.620487 18.024308 219 219 219 0
4.061809 0.619598 17.998490 218 218 218 0
4.134534 0.620180 18.015397 219 219 219 0
4.209749 0.621110 18.042424 219 219 219 0
4.272293 0.620172 18.015150 219 219 219 0
4.336926 0.619561 17.997412 219 219 219 0
4.400491 0.618819 17.975863 219 219 219 0
4.465916 0.618358 17.962458 219 219 219 0
5.579310 0.760815 22.100653 219 219 219 0
6.882737 0.924547 26.856841 220 220 220 0
6.973896 0.923016 26.812364 219 219 219 0
5.830860 0.760547 22.092867 219 219 219 0
7.143081 0.918396 26.678173 219 219 219 0
5.979444 0.757958 22.017652 219 219 219 0
4.957326 0.619666 18.000459 219 219 219 0
5.026926 0.619758 18.003138 219 219 219 0
5.095010 0.619663 18.000388 219 219 219 0
5.165868 0.619904 18.007383 219 219 219 0
5.236684 0.620134 18.014050 219 219 219 0
5.305365 0.620108 18.013294 220 220 220 0
5.386472 0.621516 18.054206 219 219 219 0
5.458320 0.621834 18.063439 219 219 219 0
-10.845323 1.355665 35.442231 213 213 213 0
-10.709880 1.355681 35.442641 212 212 212 0
-10.444236 1.339005 35.006658 213 213 213 0
-10.265958 1.333241 34.855982 213 213 213 0
-10.137900 1.333934 34.874097 213 213 213 0
-10.009871 1.334649 34.892795 213 213 213 0
-9.878851 1.334980 34.901433 212 212 212 0
-4.580611 0.627481 16.404732 213 213 213 0
-4.507348 0.626021 16.366552 213 213 213 0
-4.452819 0.627158 16.396278 213 213 213 0
-4.398020 0.628289 16.425843 213 213 213 0
-4.324464 0.626734 16.385200 213 213 213 0
-4.262720 0.626871 16.388772 213 213 213 0
-4.206982 0.627908 16.415889 213 213 213 0
-4.184242 0.633976 16.574536 213 213 213 0
-4.133096 0.635861 16.623813 213 213 213 0
-4.063810 0.634970 16.600529 213 213 213 0
-4.010768 0.636630 16.643918 213 213 213 0
-3.961222 0.638907 16.703446 213 213 213 0
-3.909921 0.640971 16.757402 213 213 213 0
-3.855371 0.642562 16.799004 213 213 213 0
-3.796862 0.643536 16.824469 213 213 213 0
-3.743491 0.645430 16.873975 213 213 213 0
-3.693786 0.648033 16.942032 213 213 213 0
-3.637890 0.649623 16.983613 214 214 214 0
-3.580077 0.650923 17.017599 214 214 214 0
-3.515867 0.651086 17.021868 214 214 214 0
-3.467291 0.654206 17.103423 214 214 214 0
-3.416729 0.657063 17.178123 214 214 214 0
-3.374111 0.661590 17.296479 214 214 214 0
-3.314645 0.662929 17.331476 214 214 214 0
-3.232379 0.659669 17.246252 215 215 215 0
-3.151551 0.656573 17.165311 214 214 214 0
-3.084306 0.656235 17.156476 215 215 215 0
-3.025691 0.657759 17.196310 214 214 214 0
-2.983821 0.663071 17.335196 214 214 214 0
-2.911724 0.661755 17.300796 214 214 214 0
-2.845880 0.661833 17.302812 215 215 215 0
-2.768445 0.659154 17.232773 214 214 214 0
-2.693520 0.656956 17.175322 215 215 215 0
-2.619574 0.654894 17.121399 215 215 215 0
-2.561745 0.656858 17.172752 215 215 215 0
-2.522413 0.663793 17.354064 214 214 214 0
-2.459480 0.664724 17.378411 215 215 215 0
-2.384919 0.662478 17.319673 215 215 215 0
-2.313538 0.661011 17.281329 215 215 215 0
-2.247998 0.661176 17.285644 215 215 215 0
-2.193598 0.664727 17.378479 215 215 215 0
-2.134354 0.666986 17.437532 215 215 215 0
-2.071577 0.668251 17.470604 215 215 215 0
-2.005040 0.668347 17.473116 216 216 216 0
-1.935652 0.667466 17.450100 216 216 216 0
-1.868607 0.667360 17.447311 215 215 215 0
-1.804978 0.668510 17.477396 215 215 215 0
-1.747044 0.671940 17.567059 216 216 216 0
-1.685094 0.674037 17.621895 215 215 215 0
-1.619572 0.674822 17.642394 215 215 215 0
-1.552779 0.675121 17.650229 215 215 215 0
-1.482054 0.673661 17.612049 215 215 215 0
-1.413541 0.673115 17.597778 215 215 215 0
-1.343357 0.671679 17.560223 215 215 215 0
-1.281028 0.674226 17.626811 215 215 215 0
-1.222611 0.679228 17.757603 216 216 216 0
-1.149077 0.675927 17.671306 216 216 216 0
-1.078982 0.674364 17.630426 216 216 216 0
-1.008236 0.672157 17.572741 216 216 216 0
-0.939390 0.670993 17.542292 216 216 216 0
-0.872214 0.670934 17.540755 216 216 216 0
-0.806183 0.671820 17.563909 216 216 216 0
-0.741593 0.674176 17.625506 216 216 216 0
-0.674377 0.674377 17.630764 217 217 217 0
-0.606381 0.673757 17.614551 216 216 216 0
-0.538989 0.673736 17.614015 216 216 216 0
-0.472723 0.675319 17.655399 216 216 216 0
-0.406029 0.676715 17.691902 216 216 216 0
-0.338451 0.676903 17.696798 216 216 216 0
-0.270679 0.676697 17.691435 217 217 217 0
-0.202927 0.676424 17.684292 216 216 216 0
-0.135384 0.676921 17.697269 216 216 216 0
-0.067788 0.677880 17.722341 216 216 216 0
0.000000 0.679146 17.755448 216 216 216 0
0.067956 0.679563 17.766345 217 217 217 0
0.136091 0.680457 17.789713 216 216 216 0
0.204642 0.682138 17.833683 217 217 217 0
0.273248 0.683119 17.859316 217 217 217 0
0.341311 0.682622 17.846329 217 217 217 0
0.408662 0.681103 17.806626 217 217 217 0
0.476110 0.680158 17.781898 218 218 218 0
0.544195 0.680244 17.784161 217 217 217 0
0.614112 0.682347 17.839141 217 217 217 0
0.681185 0.681185 17.808764 217 217 217 0
0.749898 0.681725 17.822882 217 217 217 0
0.816775 0.680646 17.794669 217 217 217 0
0.883528 0.679637 17.768282 217 217 217 0
0.949996 0.678568 17.740347 218 218 218 0
1.018218 0.678812 17.746724 218 218 218 0
1.090142 0.681339 17.812782 217 217 217 0
1.159929 0.682311 17.838199 218 218 218 0
1.228388 0.682438 17.841504 217 217 217 0
1.294146 0.681130 17.807313 217 217 217 0
1.361307 0.680653 17.794861 218 218 218 0
1.431256 0.681550 17.818314 218 218 218 0
1.501495 0.682498 17.843076 217 217 217 0
1.571642 0.683322 17.864638 218 218 218 0
1.639760 0.683233 17.862305 218 218 218 0
1.707597 0.683039 17.857221 218 218 218 0
1.777254 0.683559 17.870829 217 217 217 0
1.846983 0.684068 17.884123 218 218 218 0
1.921816 0.686363 17.944131 218 218 218 0
1.993656 0.687467 17.973005 218 218 218 0
2.065520 0.688507 18.000172 218 218 218 0
2.131432 0.687559 17.975388 218 218 218 0
2.195847 0.686202 17.939929 218 218 218 0
2.259555 0.684714 17.901010 218 218 218 0
2.325727 0.684037 17.883328 219 219 219 0
2.434886 0.695682 18.187761 218 218 218 0
2.475153 0.687543 17.974967 218 218 218 0
2.540704 0.686677 17.952335 218 218 218 0
2.602976 0.684994 17.908333 218 218 218 0
2.664753 0.683270 17.863265 218 218 218 0
2.730032 0.682508 17.843348 218 218 218 0
2.801971 0.683407 17.866862 218 218 218 0
2.879277 0.685542 17.922671 218 218 218 0
2.950517 0.686167 17.938998 218 218 218 0
3.018435 0.686008 17.934847 218 218 218 0
3.083663 0.685259 17.915255 218 218 218 0
3.153432 0.685529 17.922321 219 219 219 0
3.224022 0.685962 17.933650 219 219 219 0
3.298257 0.687137 17.964364 218 218 218 0
3.364086 0.686548 17.948973 218 218 218 0
3.431465 0.686293 17.942299 219 219 219 0
3.500784 0.686428 17.945835 219 219 219 0
3.572590 0.687037 17.961739 219 219 219 0
3.644841 0.687706 17.979239 219 219 219 0
3.720715 0.689021 18.013628 219 219 219 0
3.794310 0.689874 18.035934 218 218 218 0
3.868541 0.690811 18.060413 219 219 219 0
3.934175 0.690206 18.044604 219 219 219 0
3.997197 0.689172 18.017568 219 219 219 0
4.061509 0.688391 17.997159 219 219 219 0
4.133492 0.688915 18.010859 219 219 219 0
4.207953 0.689828 18.034727 219 219 219 0
4.272503 0.689113 18.016038 218 218 218 0
4.335464 0.688169 17.991344 219 219 219 0
4.400184 0.687529 17.974610 219 219 219 0
4.465484 0.686998 17.960721 219 219 219 0
6.789932 1.028778 26.896145 218 218 218 0
6.883558 1.027397 26.860046 220 220 220 0
6.972971 1.025437 26.808806 219 219 219 0
5.833114 0.845379 22.101409 219 219 219 0
7.144676 1.020668 26.684131 219 219 219 0
5.977843 0.841950 22.011756 220 220 220 0
4.956817 0.688447 17.998610 219 219 219 0
5.026612 0.688577 18.002012 220 220 220 0
5.094020 0.688381 17.996890 219 219 219 0
5.165240 0.688699 18.005193 220 220 220 0
5.235117 0.688831 18.008660 220 220 220 0
5.303720 0.688795 18.007706 219 219 219 0
5.386448 0.690570 18.054126 220 220 220 0
5.458570 0.690958 18.064267 220 220 220 0
-10.845330 1.491233 35.442256 212 212 212 0
-10.709892 1.491251 35.442680 212 212 212 0
-10.444234 1.472905 35.006649 212 212 212 0
-10.266435 1.466634 34.857603 213 213 213 0
-10.137909 1.467329 34.874128 212 212 212 0
-10.009631 1.468079 34.891958 213 213 213 0
-9.878952 1.468493 34.901792 213 213 213 0
-4.584534 0.690820 16.418781 212 212 212 0
-4.509007 0.688876 16.372575 213 213 213 0
-4.453312 0.689950 16.398094 213 213 213 0
-4.391924 0.690159 16.403077 213 213 213 0
-4.336892 0.691389 16.432289 213 213 213 0
-4.263212 0.689637 16.390667 214 214 214 0
-4.207565 0.690794 16.418164 213 213 213 0
-4.182216 0.697036 16.566513 213 213 213 0
-4.132027 0.699266 16.619515 213 213 213 0
-4.059358 0.697702 16.582343 213 213 213 0
-4.013133 0.700706 16.653731 213 213 213 0
-3.968474 0.704084 16.734026 213 213 213 0
-3.903317 0.703877 16.729098 214 214 214 0
-3.853735 0.706518 16.791872 213 213 213 0
-3.798920 0.708273 16.833589 213 213 213 0
-3.742466 0.709778 16.869355 213 213 213 0
-3.692118 0.712514 16.934379 213 213 213 0
-3.636105 0.714235 16.975280 214 214 214 0
-3.576735 0.715347 17.001712 213 213 213 0
-3.513979 0.715810 17.012727 213 213 213 0
-3.467192 0.719606 17.102930 213 213 213 0
-3.415795 0.722572 17.173430 214 214 214 0
-3.374368 0.727805 17.297799 215 215 215 0
-3.309454 0.728080 17.304336 214 214 214 0
-3.234574 0.726129 17.257965 213 213 213 0
-3.151856 0.722300 17.166969 214 214 214 0
-3.082397 0.721412 17.145860 214 214 214 0
-3.026184 0.723653 17.199116 214 214 214 0
-2.986360 0.729999 17.349949 214 214 214 0
-2.913371 0.728343 17.310584 214 214 214 0
-2.845491 0.727916 17.300448 214 214 214 0
-2.769656 0.725386 17.240313 214 214 214 0
-2.693570 0.722665 17.175639 215 215 215 0
-2.622698 0.721242 17.141819 214 214 214 0
-2.563362 0.723000 17.183590 214 214 214 0
-2.523029 0.730350 17.358298 214 214 214 0
-2.459243 0.731126 17.376740 215 215 215 0
-2.384175 0.728498 17.314272 215 215 215 0
-2.313056 0.726960 17.277727 215 215 215 0
-2.249650 0.727828 17.298350 215 215 215 0
-2.193578 0.731193 17.378317 215 215 215 0
-2.137356 0.734716 17.462062 214 214 214 0
-2.074124 0.735979 17.492081 215 215 215 0
-2.006747 0.735807 17.487995 215 215 215 0
-1.934296 0.733699 17.437876 215 215 215 0
-1.867116 0.733510 17.433387 215 215 215 0
-1.805978 0.735769 17.487075 215 215 215 0
-1.746831 0.739044 17.564916 216 216 216 0
-1.684083 0.740996 17.611325 215 215 215 0
-1.619788 0.742403 17.644748 215 215 215 0
-1.552003 0.742263 17.641415 216 216 216 0
-1.482324 0.741162 17.615258 215 215 215 0
-1.413890 0.740609 17.602121 216 216 216 0
-1.343968 0.739183 17.568214 216 216 216 0
-1.281039 0.741654 17.626962 215 215 215 0
-1.222173 0.746883 17.751237 216 216 216 0
-1.149092 0.743530 17.671537 215 215 215 0
-1.079264 0.741994 17.635036 215 215 215 0
-1.007846 0.739087 17.565949 216 216 216 0
-0.939511 0.738187 17.544561 215 215 215 0
-0.872034 0.737875 17.537141 215 215 215 0
-0.806108 0.738932 17.562256 216 216 216 0
-0.741781 0.741781 17.629969 216 216 216 0
-0.674701 0.742171 17.639234 216 216 216 0
-0.606151 0.740851 17.607869 217 217 217 0
-0.539489 0.741797 17.630354 216 216 216 0
-0.472886 0.743107 17.661489 216 216 216 0
-0.405881 0.744115 17.685443 216 216 216 0
-0.338321 0.744305 17.689962 216 216 216 0
-0.270692 0.744403 17.692280 216 216 216 0
-0.203038 0.744471 17.693908 216 216 216 0
-0.135512 0.745315 17.713963 217 217 217 0
-0.067755 0.745304 17.713703 216 216 216 0
0.000000 0.747263 17.760261 216 216 216 0
0.067959 0.747553 17.767159 217 217 217 0
0.136106 0.748580 17.791572 216 216 216 0
0.204772 0.750830 17.845029 216 216 216 0
0.273214 0.751340 17.857152 217 217 217 0
0.341266 0.750785 17.843959 216 216 216 0
0.408481 0.748882 17.798740 217 217 217 0
0.475878 0.747808 17.773217 217 217 217 0
0.544491 0.748675 17.793810 218 218 218 0
0.614073 0.750534 17.838004 217 217 217 0
0.681410 0.749551 17.814649 218 218 218 0
0.750058 0.750058 17.826696 218 218 218 0
0.816608 0.748557 17.791024 217 217 217 0
0.883888 0.747905 17.775527 217 217 217 0
0.950380 0.746727 17.747526 217 217 217 0
1.018559 0.746943 17.752666 217 217 217 0
1.089197 0.748823 17.797340 217 217 217 0
1.159787 0.750450 17.836014 217 217 217 0
1.228779 0.750921 17.847196 217 217 217 0
1.294195 0.749271 17.807977 217 217 217 0
1.361357 0.748746 17.795515 217 217 217 0
1.431570 0.749870 17.822222 217 217 217 0
1.501773 0.750886 17.846376 217 217 217 0
1.571028 0.751361 17.857664 218 218 218 0
1.639918 0.751629 17.864027 217 217 217 0
1.707233 0.751182 17.853414 217 217 217 0
1.776415 0.751560 17.862396 217 217 217 0
1.846419 0.752245 17.878659 218 218 218 0
1.921295 0.754795 17.939263 218 218 218 0
1.993982 0.756338 17.975943 218 218 218 0
2.065325 0.757286 17.998476 218 218 218 0
2.132398 0.756658 17.983542 218 218 218 0
2.195305 0.754636 17.935501 217 217 217 0
2.260260 0.753420 17.906594 218 218 218 0
2.325940 0.752510 17.884968 218 218 218 0
2.441010 0.767174 18.233500 218 218 218 0
2.475062 0.756269 17.974308 218 218 218 0
2.539790 0.755073 17.945877 218 218 218 0
2.603193 0.753556 17.909824 219 219 219 0
2.667158 0.752275 17.879393 218 218 218 0
2.730239 0.750816 17.844698 218 218 218 0
2.800758 0.751423 17.859129 219 219 219 0
2.879903 0.754260 17.926568 218 218 218 0
2.950600 0.754805 17.939503 219 219 219 0
3.018399 0.754600 17.934634 219 219 219 0
3.084205 0.753917 17.918402 218 218 218 0
3.153020 0.753983 17.919980 218 218 218 0
3.224788 0.754738 17.937909 218 218 218 0
3.298741 0.755961 17.966997 218 218 218 0
3.364425 0.755279 17.950779 219 219 219 0
3.430458 0.754701 17.937037 218 218 218 0
3.498310 0.754537 17.933153 218 218 218 0
3.573000 0.755827 17.963803 219 219 219 0
3.645485 0.756610 17.982414 219 219 219 0
3.722110 0.758208 18.020384 219 219 219 0
3.794733 0.758947 18.037946 219 219 219 0
3.867674 0.759722 18.056366 219 219 219 0
3.934903 0.759367 18.047946 219 219 219 0
3.997804 0.758204 18.020300 219 219 219 0
4.061850 0.757294 17.998671 219 219 219 0
4.134020 0.757904 18.013158 219 219 219 0
4.207883 0.758799 18.034430 219 219 219 0
4.272943 0.758103 18.017891 219 219 219 0
4.337506 0.757342 17.999818 219 219 219 0
4.401153 0.756448 17.978565 219 219 219 0
4.467058 0.755964 17.967050 219 219 219 0
6.788328 1.131388 26.889793 219 219 219 0
6.886239 1.130577 26.870507 219 219 219 0
6.973660 1.128092 26.811456 219 219 219 0
5.829365 0.929319 22.087204 219 219 219 0
7.146793 1.123067 26.692038 220 220 220 0
5.978963 0.926318 22.015883 219 219 219 0
4.957763 0.757436 18.002043 220 220 220 0
5.025085 0.757205 17.996545 219 219 219 0
5.095112 0.757382 18.000750 220 220 220 0
