ply
    format ascii 1.0
    element vertex 25600
    property float x
    property float y
    property float z
    property uchar red
    property uchar green
    property uchar blue
    property uchar alpha
    end_header
-3.356288 3.736245 16.555864 214 214 214 0
-3.306247 3.751319 16.622660 214 214 214 0
-3.259857 3.771208 16.710791 214 214 214 0
-3.212673 3.790954 16.798288 214 214 214 0
-3.156515 3.800702 16.841485 214 214 214 0
-3.086424 3.793730 16.810589 214 214 214 0
-3.008066 3.776083 16.732396 214 214 214 0
-2.932265 3.760948 16.665329 215 215 215 0
-2.887439 3.785754 16.775246 214 214 214 0
-2.843621 3.813037 16.896142 215 215 215 0
-2.776842 3.810086 16.883065 214 214 214 0
-2.703600 3.797914 16.829131 214 214 214 0
-2.633548 3.789739 16.792907 214 214 214 0
-2.559267 3.774919 16.727238 215 215 215 0
-2.491615 3.769366 16.702628 215 215 215 0
-2.430814 3.774158 16.723865 215 215 215 0
-2.391527 3.813516 16.898264 215 215 215 0
-2.332701 3.823037 16.940455 215 215 215 0
-2.262250 3.813507 16.898224 215 215 215 0
-2.195045 3.809048 16.878466 215 215 215 0
-2.126592 3.802089 16.847631 215 215 215 0
-2.067137 3.811283 16.888372 214 214 214 0
-2.009468 3.824472 16.946813 215 215 215 0
-1.952335 3.839591 17.013808 215 215 215 0
-1.886762 3.838585 17.009349 216 216 216 0
-1.821769 3.838728 17.009983 215 215 215 0
-1.755464 3.836013 16.997953 215 215 215 0
-1.693127 3.842097 17.024910 215 215 215 0
-1.632977 3.853827 17.076889 215 215 215 0
-1.575877 3.874032 17.166420 216 216 216 0
-1.512402 3.879639 17.191266 215 215 215 0
-1.448924 3.885751 17.218352 216 216 216 0
-1.381792 3.882177 17.202514 216 216 216 0
-1.312525 3.871948 17.157188 215 215 215 0
-1.242727 3.858994 17.099784 216 216 216 0
-1.178089 3.861515 17.110955 216 216 216 0
-1.116710 3.875641 17.173550 216 216 216 0
-1.054116 3.887052 17.224113 216 216 216 0
-0.985632 3.876818 17.178767 215 215 215 0
-0.917210 3.865385 17.128106 215 215 215 0
-0.850024 3.857801 17.094501 216 216 216 0
-0.783156 3.850519 17.062232 216 216 216 0
-0.718354 3.852991 17.073186 216 216 216 0
-0.654103 3.859207 17.100730 216 216 216 0
-0.591572 3.878085 17.184380 216 216 216 0
-0.525777 3.877606 17.182256 216 216 216 0
-0.459869 3.876035 17.175296 217 217 217 0
-0.394052 3.874846 17.170028 216 216 216 0
-0.329097 3.883349 17.207707 216 216 216 0
-0.263913 3.892720 17.249231 217 217 217 0
-0.198060 3.895180 17.260129 216 216 216 0
-0.131968 3.893048 17.250685 216 216 216 0
-0.065977 3.892621 17.248793 217 217 217 0
0.000000 3.897752 17.271525 216 216 216 0
0.066148 3.902725 17.293566 217 217 217 0
0.132456 3.907460 17.314547 217 217 217 0
0.198895 3.911596 17.332870 217 217 217 0
0.265450 3.915391 17.349689 217 217 217 0
0.332802 3.927062 17.401403 217 217 217 0
0.399818 3.931543 17.421259 217 217 217 0
0.466282 3.930093 17.414833 217 217 217 0
0.531242 3.917909 17.360848 217 217 217 0
0.596815 3.912453 17.336670 217 217 217 0
0.662767 3.910322 17.327229 217 217 217 0
0.731739 3.924780 17.391294 217 217 217 0
0.797329 3.920201 17.371002 218 218 218 0
0.863978 3.921130 17.375120 217 217 217 0
0.929065 3.915345 17.349484 217 217 217 0
0.993510 3.907805 17.316073 217 217 217 0
1.058541 3.903369 17.296415 217 217 217 0
1.125016 3.904466 17.301279 217 217 217 0
1.606242 5.264904 23.329583 218 218 218 0
1.690612 5.249795 23.262636 217 217 217 0
1.771951 5.227256 23.162759 218 218 218 0
1.855744 5.213758 23.102948 217 217 217 0
1.941272 5.206138 23.069182 217 217 217 0
2.030845 5.209560 23.084348 217 217 217 0
2.117609 5.205788 23.067634 218 218 218 0
2.200094 5.192222 23.007521 218 218 218 0
2.279452 5.172603 22.920583 218 218 218 0
2.361411 5.160120 22.865272 218 218 218 0
2.446878 5.155921 22.846664 218 218 218 0
2.532525 5.152379 22.830968 217 217 217 0
2.619640 5.151958 22.829103 218 218 218 0
2.702446 5.143365 22.791026 218 218 218 0
2.787056 5.138635 22.770068 217 217 217 0
2.869096 5.129596 22.730013 218 218 218 0
2.947772 5.115251 22.666451 218 218 218 0
3.027620 5.103703 22.615279 219 219 219 0
3.105471 5.089522 22.552440 218 218 218 0
3.189153 5.085406 22.534202 218 218 218 0
3.270439 5.077787 22.500439 218 218 218 0
3.346606 5.062814 22.434093 218 218 218 0
3.422850 5.048703 22.371567 219 219 219 0
3.500158 5.036812 22.318875 218 218 218 0
3.577097 5.024969 22.266397 218 218 218 0
3.656741 5.017388 22.232805 219 219 219 0
3.740325 5.015435 22.224151 218 218 218 0
3.822342 5.011515 22.206778 218 218 218 0
3.903461 5.006613 22.185060 218 218 218 0
3.983146 5.000119 22.156283 219 219 219 0
4.063728 4.995000 22.133597 219 219 219 0
4.142145 4.987481 22.100279 218 218 218 0
4.222371 4.982398 22.077759 218 218 218 0
4.300638 4.975248 22.046077 219 219 219 0
4.378050 4.967403 22.011313 218 218 218 0
4.455449 4.959840 21.977799 219 219 219 0
4.535529 4.955486 21.958506 219 219 219 0
4.616936 4.952713 21.946218 219 219 219 0
4.693617 4.945060 21.912309 219 219 219 0
4.777021 4.944636 21.910428 219 219 219 0
4.859188 4.942967 21.903035 219 219 219 0
4.941959 4.941959 21.898564 218 218 218 0
5.019525 4.935866 21.871567 220 220 220 0
5.085711 4.918967 21.796684 219 219 219 0
5.152985 4.903647 21.728799 219 219 219 0
5.235724 4.903297 21.727250 219 219 219 0
5.329288 4.912937 21.769968 219 219 219 0
5.397370 4.899152 21.708880 219 219 219 0
5.465226 4.885581 21.648747 219 219 219 0
5.531419 4.870951 21.583918 219 219 219 0
5.600409 4.859178 21.531753 220 220 220 0
5.673136 4.850942 21.495258 219 219 219 0
5.750630 4.846960 21.477611 220 220 220 0
5.840891 4.853698 21.507468 219 219 219 0
5.920345 4.851394 21.497259 220 220 220 0
5.993014 4.843668 21.463026 219 219 219 0
6.064083 4.834877 21.424070 219 219 219 0
6.139082 4.829411 21.399850 219 219 219 0
6.221215 4.829628 21.400809 220 220 220 0
6.300307 4.827508 21.391416 220 220 220 0
6.377376 4.823912 21.375484 220 220 220 0
6.444379 4.812891 21.326646 219 219 219 0
-10.845214 8.133911 35.441876 212 212 212 0
-10.709721 8.133966 35.442116 212 212 212 0
-10.574196 8.133997 35.442253 212 212 212 0
-10.268471 8.001406 34.864514 213 213 213 0
-10.140659 8.005784 34.883589 213 213 213 0
-10.013042 8.010433 34.903849 213 213 213 0
-9.883253 8.013449 34.916988 212 212 212 0
-9.750020 8.013715 34.918148 212 212 212 0
-4.403271 3.669392 15.988637 212 212 212 0
-4.311540 3.643555 15.876058 213 213 213 0
-4.260135 3.651544 15.910867 213 213 213 0
-4.198800 3.651130 15.909065 213 213 213 0
-4.142027 3.654729 15.924747 212 212 212 0
-4.086289 3.659363 15.944938 213 213 213 0
-4.027381 3.661255 15.953181 213 213 213 0
-4.012834 3.704155 16.140107 213 213 213 0
-3.959737 3.712253 16.175395 214 214 214 0
-3.892335 3.706986 16.152442 213 213 213 0
-3.856615 3.732208 16.262345 214 214 214 0
-3.794109 3.731910 16.261048 213 213 213 0
-3.739452 3.739452 16.293909 213 213 213 0
-3.685805 3.748276 16.332358 214 214 214 0
-3.633499 3.758792 16.378180 214 214 214 0
-3.584068 3.772704 16.438796 214 214 214 0
-3.537285 3.789948 16.513934 213 213 213 0
-3.477099 3.793199 16.528102 213 213 213 0
-3.422877 3.803197 16.571664 214 214 214 0
-3.356466 3.799773 16.556744 214 214 214 0
-3.309875 3.819086 16.640899 214 214 214 0
-3.261268 3.836786 16.718022 214 214 214 0
-3.217496 3.860995 16.823507 214 214 214 0
-3.155548 3.863936 16.836323 215 215 215 0
-3.084538 3.855672 16.800314 214 214 214 0
-3.004174 3.835115 16.710742 214 214 214 0
-2.932811 3.825406 16.668434 215 215 215 0
-2.883975 3.845299 16.755118 214 214 214 0
-2.845821 3.880664 16.909213 214 214 214 0
-2.777062 3.874970 16.884401 214 214 214 0
-2.705178 3.864539 16.838952 214 214 214 0
-2.633207 3.853473 16.790732 215 215 215 0
-2.560699 3.841049 16.736596 214 214 214 0
-2.490659 3.831783 16.696222 215 215 215 0
-2.432879 3.841389 16.738077 214 214 214 0
-2.389063 3.874156 16.880854 215 215 215 0
-2.331141 3.885236 16.929132 215 215 215 0
-2.262707 3.878926 16.901638 215 215 215 0
-2.197348 3.877672 16.896176 215 215 215 0
-2.126914 3.867117 16.850182 215 215 215 0
-2.066432 3.874561 16.882618 215 215 215 0
-2.009464 3.889286 16.946780 215 215 215 0
-1.951069 3.902138 17.002781 214 214 214 0
-1.890212 3.910784 17.040455 215 215 215 0
-1.825912 3.912669 17.048666 216 216 216 0
-1.756474 3.903276 17.007739 215 215 215 0
-1.694576 3.910560 17.039479 215 215 215 0
-1.633856 3.921255 17.086079 215 215 215 0
-1.574752 3.936880 17.154163 215 215 215 0
-1.512550 3.945782 17.192950 215 215 215 0
-1.448585 3.950687 17.214321 215 215 215 0
-1.381570 3.947342 17.199746 215 215 215 0
-1.312338 3.937014 17.154747 215 215 215 0
-1.242863 3.924830 17.101655 216 216 216 0
-1.176921 3.923070 17.093985 216 216 216 0
-1.116287 3.939836 17.167043 216 216 216 0
-1.054901 3.955879 17.236947 216 216 216 0
-0.985707 3.942827 17.180073 216 216 216 0
-0.917266 3.931139 17.129148 216 216 216 0
-0.850156 3.923797 17.097155 216 216 216 0
-0.783383 3.916917 17.067178 216 216 216 0
-0.718224 3.917586 17.070094 216 216 216 0
-0.654080 3.924481 17.100136 216 216 216 0
-0.591615 3.944099 17.185616 216 216 216 0
-0.526270 3.947025 17.198367 216 216 216 0
-0.459942 3.942359 17.178033 216 216 216 0
-0.393867 3.938667 17.161948 216 216 216 0
-0.328885 3.946622 17.196610 217 217 217 0
-0.263845 3.957672 17.244759 216 216 216 0
-0.198108 3.962155 17.264293 216 216 216 0
-0.131941 3.958223 17.247157 216 216 216 0
-0.065948 3.956881 17.241311 216 216 216 0
0.000000 3.961593 17.261845 216 216 216 0
0.066111 3.966685 17.284033 216 216 216 0
0.132385 3.971546 17.305212 217 217 217 0
0.198866 3.977319 17.330368 216 216 216 0
0.265357 3.980359 17.343612 217 217 217 0
0.332421 3.989050 17.381481 217 217 217 0
0.399612 3.996123 17.412300 217 217 217 0
0.466344 3.997238 17.417161 217 217 217 0
0.531169 3.983768 17.358467 217 217 217 0
0.596629 3.977527 17.331270 217 217 217 0
0.663105 3.978632 17.336087 217 217 217 0
0.732226 3.993959 17.402871 217 217 217 0
0.797315 3.986573 17.370686 218 218 218 0
0.863925 3.987344 17.374049 217 217 217 0
0.928526 3.979396 17.339417 217 217 217 0
0.993348 3.973390 17.313248 218 218 218 0
1.057934 3.967252 17.286502 217 217 217 0
1.124973 3.970493 17.300623 217 217 217 0
1.606226 5.354085 23.329347 218 218 218 0
1.690419 5.338165 23.259977 217 217 217 0
1.772418 5.317254 23.168863 218 218 218 0
1.855338 5.300965 23.097889 217 217 217 0
1.941481 5.294949 23.071673 217 217 217 0
2.031235 5.298873 23.088772 218 218 218 0
2.117682 5.294205 23.068433 217 217 217 0
2.198904 5.277369 22.995073 218 218 218 0
2.278835 5.258850 22.914377 217 217 217 0
2.361397 5.247548 22.865134 218 218 218 0
2.445929 5.241275 22.837801 218 218 218 0
2.532196 5.239026 22.828002 218 218 218 0
2.620586 5.241172 22.837350 218 218 218 0
2.703352 5.232293 22.798664 218 218 218 0
2.787828 5.227177 22.776369 218 218 218 0
2.868313 5.215115 22.723814 218 218 218 0
2.948268 5.202827 22.670269 217 217 217 0
3.026561 5.188391 22.607366 218 218 218 0
3.105952 5.176587 22.555934 218 218 218 0
3.188595 5.170694 22.530256 218 218 218 0
3.270479 5.163914 22.500717 218 218 218 0
3.347940 5.150677 22.443037 218 218 218 0
3.424973 5.137459 22.385442 218 218 218 0
3.499961 5.121894 22.317619 218 218 218 0
3.578680 5.112400 22.276251 218 218 218 0
3.656973 5.102752 22.234215 218 218 218 0
3.738348 5.097747 22.212405 218 218 218 0
3.821955 5.095941 22.204534 219 219 219 0
3.902640 5.090400 22.180394 219 219 219 0
3.985493 5.087864 22.169342 218 218 218 0
4.065507 5.081884 22.143284 218 218 218 0
4.140972 5.070578 22.094022 219 219 219 0
4.222166 5.066600 22.076687 219 219 219 0
4.300289 5.059163 22.044284 218 218 218 0
4.379422 5.053180 22.018212 218 218 218 0
4.455450 5.043905 21.977800 219 219 219 0
4.535787 5.039764 21.959754 219 219 219 0
4.617069 5.036803 21.946852 219 219 219 0
4.696668 5.032144 21.926555 219 219 219 0
4.775834 5.027194 21.904984 219 219 219 0
4.862248 5.029912 21.916827 218 218 218 0
4.942826 5.026602 21.902407 220 220 220 0
5.018851 5.018851 21.868631 219 219 219 0
5.087157 5.003761 21.802881 219 219 219 0
5.154595 4.988318 21.735591 218 218 218 0
5.236243 4.986898 21.729403 219 219 219 0
5.327575 4.994602 21.762971 219 219 219 0
5.399206 4.983882 21.716263 219 219 219 0
5.467480 4.970437 21.657676 219 219 219 0
5.531405 4.953497 21.583865 219 219 219 0
5.600066 4.941235 21.530434 220 220 220 0
5.672718 4.932799 21.493676 219 219 219 0
5.751515 4.929870 21.480916 219 219 219 0
5.839980 4.935194 21.504114 220 220 220 0
5.922301 4.935251 21.504361 219 219 219 0
5.991734 4.924713 21.458444 219 219 219 0
6.066205 4.918545 21.431567 219 219 219 0
6.139856 4.911885 21.402547 219 219 219 0
6.219838 4.910398 21.396071 220 220 220 0
6.297004 4.906756 21.380202 219 219 219 0
6.376751 4.905193 21.373392 219 219 219 0
6.445915 4.895632 21.331728 220 220 220 0
-10.845213 8.269475 35.441874 213 213 213 0
-10.709723 8.269533 35.442121 212 212 212 0
-10.574195 8.269563 35.442249 212 212 212 0
-10.268498 8.134784 34.864605 212 212 212 0
-10.140524 8.139105 34.883124 212 212 212 0
-10.013226 8.144090 34.904490 212 212 212 0
-9.883323 8.147063 34.917233 212 212 212 0
-9.749832 8.147120 34.917475 213 213 213 0
-4.395546 3.724004 15.960588 213 213 213 0
-4.315337 3.707543 15.890037 213 213 213 0
-4.255034 3.707958 15.891816 213 213 213 0
-4.200845 3.713790 15.916813 213 213 213 0
-4.143078 3.716585 15.928789 213 213 213 0
-4.088974 3.722797 15.955415 213 213 213 0
-4.032707 3.727199 15.974280 213 213 213 0
-4.017829 3.770578 16.160197 214 214 214 0
-3.957270 3.771773 16.165317 214 214 214 0
-3.896733 3.773028 16.170695 213 213 213 0
-3.855504 3.793319 16.257660 213 213 213 0
-3.796988 3.796988 16.273387 213 213 213 0
-3.740545 3.802887 16.298670 213 213 213 0
-3.684508 3.809407 16.326613 213 213 213 0
-3.638637 3.826842 16.401337 213 213 213 0
-3.583924 3.835427 16.438131 214 214 214 0
-3.535294 3.850946 16.504642 214 214 214 0
-3.477398 3.856750 16.529520 213 213 213 0
-3.423225 3.866976 16.573348 213 213 213 0
-3.355840 3.862382 16.553658 214 214 214 0
-3.305327 3.877403 16.618033 214 214 214 0
-3.261869 3.901451 16.721102 214 214 214 0
-3.213600 3.920592 16.803137 214 214 214 0
-3.155687 3.928509 16.837067 215 215 215 0
-3.086201 3.922047 16.809372 214 214 214 0
-3.006672 3.902276 16.724637 215 215 215 0
-2.933212 3.889694 16.670714 214 214 214 0
-2.882738 3.907712 16.747935 214 214 214 0
-2.844355 3.943310 16.900503 214 214 214 0
-2.774109 3.935364 16.866446 214 214 214 0
-2.704261 3.927616 16.833243 215 215 215 0
-2.632785 3.917070 16.788041 214 214 214 0
-2.560643 3.904980 16.736228 214 214 214 0
-2.491596 3.897111 16.702501 214 214 214 0
-2.431655 3.903447 16.729654 215 215 215 0
-2.392310 3.944079 16.903801 215 215 215 0
-2.329859 3.947817 16.919820 214 214 214 0
-2.262075 3.942474 16.896922 215 215 215 0
-2.193759 3.935861 16.868580 215 215 215 0
-2.126098 3.930060 16.843714 215 215 215 0
-2.066417 3.939108 16.882493 215 215 215 0
-2.009870 3.954905 16.950197 216 216 216 0
-1.953802 3.972730 17.026594 214 214 214 0
-1.890969 3.977554 17.047271 216 216 216 0
-1.823704 3.973070 17.028051 215 215 215 0
-1.755106 3.965239 16.994487 215 215 215 0
-1.692837 3.971655 17.021986 216 216 216 0
-1.633455 3.985631 17.081884 215 215 215 0
-1.575300 4.003888 17.160134 215 215 215 0
-1.513035 4.012832 17.198467 216 216 216 0
-1.449095 4.017946 17.220385 215 215 215 0
-1.382438 4.015652 17.210551 216 216 216 0
-1.312279 4.002450 17.153970 215 215 215 0
-1.243579 3.992544 17.111515 215 215 215 0
-1.177251 3.989573 17.098779 216 216 216 0
-1.117087 4.008369 17.179340 216 216 216 0
-1.054748 4.021226 17.234439 216 216 216 0
-0.986099 4.010137 17.186914 217 217 217 0
-0.917840 3.999160 17.139871 216 216 216 0
-0.849782 3.987436 17.089624 216 216 216 0
-0.783577 3.983185 17.071403 216 216 216 0
-0.718529 3.984572 17.077346 216 216 216 0
-0.654220 3.990743 17.103794 216 216 216 0
-0.591812 4.011174 17.191358 216 216 216 0
-0.526156 4.011942 17.194651 216 216 216 0
-0.459830 4.007094 17.173874 216 216 216 0
-0.394282 4.008531 17.180031 216 216 216 0
-0.329028 4.014144 17.204088 216 216 216 0
-0.263801 4.022969 17.241911 216 216 216 0
-0.198082 4.027669 17.262055 216 216 216 0
-0.131950 4.024486 17.248415 216 216 216 0
-0.065963 4.023746 17.245240 216 216 216 0
0.000000 4.028185 17.264267 216 216 216 0
0.066153 4.035338 17.294921 217 217 217 0
0.132451 4.039756 17.313856 217 217 217 0
0.198800 4.042273 17.324644 216 216 216 0
0.265508 4.048998 17.353467 216 216 216 0
0.332483 4.056289 17.384718 216 216 216 0
0.399821 4.064846 17.421392 217 217 217 0
0.466163 4.062278 17.410383 217 217 217 0
0.531134 4.049896 17.357319 216 216 216 0
0.596590 4.043553 17.330134 217 217 217 0
0.663174 4.045358 17.337870 217 217 217 0
0.731637 4.057257 17.388865 217 217 217 0
0.797334 4.053117 17.371121 217 217 217 0
0.863742 4.052945 17.370384 217 217 217 0
0.928333 4.044879 17.335815 218 218 218 0
0.993593 4.040611 17.317523 218 218 218 0
1.057800 4.032864 17.284319 217 217 217 0
1.124767 4.035930 17.297459 218 218 218 0
1.606030 5.442656 23.326502 217 217 217 0
1.690491 5.427367 23.260976 217 217 217 0
1.772340 5.405636 23.167839 218 218 218 0
1.855236 5.389018 23.096615 217 217 217 0
1.941029 5.381943 23.066294 218 218 218 0
2.030863 5.386201 23.084541 217 217 217 0
2.117415 5.381764 23.065526 217 217 217 0
2.199825 5.367572 23.004701 217 217 217 0
2.282596 5.355321 22.952196 218 218 218 0
2.361248 5.334671 22.863693 218 218 218 0
2.446672 5.330250 22.844746 217 217 217 0
2.532774 5.327559 22.833213 218 218 218 0
2.619684 5.326690 22.829487 218 218 218 0
2.703795 5.320371 22.802404 218 218 218 0
2.786674 5.312098 22.766946 218 218 218 0
2.868078 5.301599 22.721951 218 218 218 0
2.948894 5.290663 22.675078 217 217 217 0
3.026398 5.274579 22.606146 219 219 219 0
3.104238 5.259959 22.543486 218 218 218 0
3.188511 5.256734 22.529665 218 218 218 0
3.270994 5.250806 22.504259 219 219 219 0
3.347029 5.235097 22.436930 218 218 218 0
3.424461 5.222303 22.382099 218 218 218 0
3.500667 5.208309 22.322122 218 218 218 0
3.577988 5.196602 22.271945 218 218 218 0
3.657861 5.189059 22.239618 219 219 219 0
3.737988 5.182210 22.210266 218 218 218 0
3.821249 5.179915 22.200430 218 218 218 0
3.903274 5.176080 22.183993 218 218 218 0
3.985070 5.172112 22.166985 219 219 219 0
4.065935 5.167126 22.145618 219 219 219 0
4.141600 5.155869 22.097373 219 219 219 0
4.220344 5.148820 22.067160 219 219 219 0
4.300948 5.144271 22.047663 218 218 218 0
4.379068 5.136983 22.016428 218 218 218 0
4.457026 5.129785 21.985576 218 218 218 0
4.535109 5.122993 21.956470 219 219 219 0
4.617892 5.121662 21.950764 219 219 219 0
4.694548 5.113704 21.916656 219 219 219 0
4.776449 5.111639 21.907806 219 219 219 0
4.861330 5.112778 21.912688 219 219 219 0
4.942337 5.109874 21.900242 218 218 218 0
5.019201 5.102855 21.870159 219 219 219 0
5.087088 5.087088 21.802584 218 218 218 0
5.153065 5.069951 21.729137 219 219 219 0
5.234702 5.068521 21.723008 219 219 219 0
5.328090 5.078335 21.765072 219 219 219 0
5.396696 5.064592 21.706169 219 219 219 0
5.467367 5.053172 21.657225 219 219 219 0
5.532086 5.036676 21.586524 219 219 219 0
5.602400 5.025682 21.539408 219 219 219 0
5.671996 5.014373 21.490939 219 219 219 0
5.749452 5.010237 21.473212 219 219 219 0
5.839072 5.016668 21.500772 220 220 220 0
5.920535 5.016009 21.497949 219 219 219 0
5.994717 5.009284 21.469128 219 219 219 0
6.064347 4.998989 21.425002 219 219 219 0
6.137877 4.992140 21.395650 219 219 219 0
6.221929 4.993916 21.403263 219 219 219 0
6.300176 4.991048 21.390971 219 219 219 0
6.376987 4.987131 21.374181 220 220 220 0
6.443486 4.975350 21.323691 220 220 220 0
-10.845208 8.405037 35.441858 212 212 212 0
-10.709721 8.405097 35.442114 213 213 213 0
-10.574195 8.405130 35.442250 213 213 213 0
-10.268242 8.267935 34.863737 212 212 212 0
-10.140459 8.272480 34.882901 212 212 212 0
-10.013319 8.277677 34.904816 212 212 212 0
-9.883309 8.280610 34.917184 213 213 213 0
-9.750023 8.280841 34.918159 213 213 213 0
-4.402129 3.790723 15.984493 212 212 212 0
-4.314349 3.767460 15.886400 213 213 213 0
-4.248368 3.762840 15.866920 213 213 213 0
-4.198623 3.772676 15.908394 213 213 213 0
-4.137830 3.772727 15.908612 213 213 213 0
-4.088714 3.783586 15.954399 213 213 213 0
-4.032520 3.788125 15.973540 213 213 213 0
-4.013137 3.827915 16.141324 213 213 213 0
-3.953937 3.830376 16.151703 213 213 213 0
-3.898882 3.836995 16.179612 213 213 213 0
-3.855027 3.855027 16.255650 213 213 213 0
-3.802061 3.864390 16.295129 213 213 213 0
-3.739494 3.864144 16.294092 213 213 213 0
-3.685367 3.872758 16.330417 213 213 213 0
-3.634053 3.884678 16.380677 213 213 213 0
-3.589678 3.904562 16.464523 214 214 214 0
-3.535756 3.914587 16.506799 214 214 214 0
-3.481999 3.925162 16.551391 213 213 213 0
-3.427037 3.934747 16.591805 213 213 213 0
-3.356423 3.926381 16.556531 214 214 214 0
-3.306995 3.942955 16.626418 214 214 214 0
-3.263606 3.967521 16.730006 213 213 213 0
-3.216886 3.988939 16.820321 215 215 215 0
-3.159696 3.997983 16.858457 214 214 214 0
-3.088769 3.989660 16.823360 215 215 215 0
-3.005827 3.965133 16.719937 214 214 214 0
-2.935205 3.956145 16.682038 214 214 214 0
-2.879996 3.967994 16.732003 215 215 215 0
-2.847179 4.011934 16.917284 214 214 214 0
-2.776359 4.003122 16.880128 215 215 215 0
-2.703034 3.990194 16.825611 215 215 215 0
-2.632732 3.981204 16.787705 214 214 214 0
-2.558825 3.966178 16.724345 214 214 214 0
-2.489810 3.958160 16.690533 215 215 215 0
-2.432723 3.969180 16.737001 215 215 215 0
-2.390787 4.006184 16.893039 214 214 214 0
-2.331701 4.015706 16.933192 215 215 215 0
-2.261998 4.006968 16.896345 215 215 215 0
-2.193657 4.000199 16.867800 215 215 215 0
-2.125989 3.994283 16.842854 215 215 215 0
-2.064674 4.000305 16.868250 215 215 215 0
-2.008652 4.017305 16.939932 215 215 215 0
-1.951305 4.032697 17.004835 215 215 215 0
-1.889449 4.039511 17.033571 215 215 215 0
-1.823846 4.038517 17.029377 216 216 216 0
-1.755491 4.031127 16.998218 215 215 215 0
-1.691546 4.033686 17.009005 215 215 215 0
-1.631693 4.046598 17.063452 215 215 215 0
-1.575468 4.069960 17.161965 216 216 216 0
-1.512117 4.076143 17.188036 216 216 216 0
-1.449159 4.083994 17.221142 216 216 216 0
-1.382630 4.082051 17.212950 216 216 216 0
-1.313114 4.070653 17.164888 215 215 215 0
-1.243807 4.058739 17.114649 216 216 216 0
-1.177061 4.054322 17.096024 216 216 216 0
-1.116883 4.073339 17.176212 216 216 216 0
-1.054955 4.087952 17.237833 215 215 215 0
-0.985458 4.073225 17.175733 216 216 216 0
-0.917487 4.063158 17.133283 215 215 215 0
-0.850354 4.055533 17.101130 216 216 216 0
-0.783031 4.045658 17.059491 216 216 216 0
-0.718780 4.051305 17.083300 216 216 216 0
-0.654377 4.057137 17.107896 216 216 216 0
-0.591789 4.076771 17.190684 215 215 215 0
-0.526301 4.078833 17.199382 216 216 216 0
-0.460125 4.075389 17.184856 216 216 216 0
-0.394195 4.073344 17.176236 217 217 217 0
-0.329021 4.079856 17.203694 216 216 216 0
-0.263935 4.090987 17.250631 216 216 216 0
-0.197956 4.091086 17.251048 216 216 216 0
-0.131921 4.089538 17.244522 217 217 217 0
-0.065970 4.090111 17.246936 216 216 216 0
0.000000 4.095330 17.268942 216 216 216 0
0.066179 4.103081 17.301626 217 217 217 0
0.132370 4.103469 17.303262 217 217 217 0
0.198823 4.109014 17.326646 216 216 216 0
0.265571 4.116350 17.357579 216 216 216 0
0.332589 4.124109 17.390296 216 216 216 0
0.399652 4.129741 17.414046 217 217 217 0
0.466099 4.128302 17.407979 217 217 217 0
0.531489 4.119038 17.368914 217 217 217 0
0.596506 4.109262 17.327692 217 217 217 0
0.662954 4.110312 17.332121 217 217 217 0
0.731791 4.124638 17.392530 216 216 216 0
0.797422 4.120016 17.373037 217 217 217 0
0.864039 4.120803 17.376357 218 218 218 0
0.928170 4.110468 17.332776 217 217 217 0
0.993230 4.105353 17.311206 218 218 218 0
1.058202 4.100533 17.290885 218 218 218 0
1.124617 4.101545 17.295149 217 217 217 0
1.606020 5.531846 23.326360 217 217 217 0
1.690962 5.517875 23.267448 218 218 218 0
1.773127 5.496695 23.178136 217 217 217 0
1.855682 5.478679 23.102168 218 218 218 0
1.941058 5.470254 23.066641 218 218 218 0
2.031525 5.476286 23.092076 217 217 217 0
2.118240 5.472119 23.074507 217 217 217 0
2.200856 5.458123 23.015489 218 218 218 0
2.279925 5.436745 22.925341 218 218 218 0
2.361113 5.421814 22.862382 217 217 217 0
2.446255 5.416708 22.840852 218 218 218 0
2.532632 5.414593 22.831932 218 218 218 0
2.620001 5.414669 22.832253 218 218 218 0
2.702981 5.405962 22.795537 218 218 218 0
2.787412 5.400611 22.772976 218 218 218 0
2.868646 5.389578 22.726452 218 218 218 0
2.949075 5.377725 22.676473 218 218 218 0
3.026913 5.361961 22.609998 218 218 218 0
3.105706 5.348716 22.554146 219 219 219 0
3.189592 5.344721 22.537303 218 218 218 0
3.271048 5.336973 22.504631 218 218 218 0
3.346233 5.319652 22.431593 218 218 218 0
3.423233 5.306011 22.374071 219 219 219 0
3.498655 5.290649 22.309296 218 218 218 0
3.577143 5.280545 22.266686 219 219 219 0
3.656618 5.272334 22.232062 219 219 219 0
3.739282 5.268988 22.217957 218 218 218 0
3.821940 5.265784 22.204444 218 218 218 0
3.902979 5.260537 22.182321 219 219 219 0
3.983302 5.254569 22.157154 219 219 219 0
4.063644 5.248873 22.133137 218 218 218 0
4.141085 5.239740 22.094624 219 219 219 0
4.222208 5.235538 22.076906 218 218 218 0
4.299929 5.227365 22.042441 219 219 219 0
4.377218 5.218991 22.007130 219 219 219 0
4.456620 5.213404 21.983573 219 219 219 0
4.534396 5.206158 21.953018 219 219 219 0
4.614737 5.202067 21.935766 218 218 218 0
4.693535 5.196414 21.911929 218 218 218 0
4.777430 5.196503 21.912304 219 219 219 0
4.861385 5.196653 21.912936 219 219 219 0
4.942913 5.194248 21.902795 219 219 219 0
5.017964 5.185230 21.864768 218 218 218 0
5.087273 5.170671 21.803378 219 219 219 0
5.152351 5.152351 21.726125 219 219 219 0
5.236329 5.153213 21.729762 219 219 219 0
5.328261 5.161752 21.765770 219 219 219 0
5.399064 5.149877 21.715693 220 220 220 0
5.465886 5.134620 21.651362 219 219 219 0
5.533633 5.120675 21.592559 219 219 219 0
5.601400 5.107159 21.535564 219 219 219 0
5.673929 5.098313 21.498262 219 219 219 0
5.750625 5.093411 21.477590 219 219 219 0
5.841279 5.100835 21.508897 219 219 219 0
5.919968 5.097750 21.495889 219 219 219 0
5.994041 5.090829 21.466704 219 219 219 0
6.063354 5.080108 21.421495 220 220 220 0
6.137313 5.073512 21.393683 219 219 219 0
6.221773 5.075657 21.402728 219 219 219 0
6.303026 5.075164 21.400649 220 220 220 0
6.376610 5.068587 21.372917 220 220 220 0
6.445129 5.058202 21.329126 220 220 220 0
-10.845222 8.540612 35.441902 212 212 212 0
-10.709719 8.540662 35.442108 212 212 212 0
-10.574195 8.540696 35.442249 212 212 212 0
-10.268274 8.401315 34.863844 212 212 212 0
-10.140445 8.405895 34.882851 212 212 212 0
-10.013540 8.411374 34.905588 213 213 213 0
-9.883031 8.413932 34.916203 212 212 212 0
-9.749940 8.414332 34.917861 213 213 213 0
-4.405171 3.854524 15.995536 213 213 213 0
-4.312892 3.826932 15.881035 213 213 213 0
-4.250958 3.825863 15.876595 213 213 213 0
-4.201026 3.835720 15.917501 213 213 213 0
-4.133981 3.830012 15.893815 213 213 213 0
-4.082837 3.839085 15.931466 214 214 214 0
-4.037390 3.853873 15.992832 213 213 213 0
-4.010045 3.886659 16.128890 213 213 213 0
-3.959380 3.897515 16.173938 213 213 213 0
-3.894229 3.894229 16.160303 213 213 213 0
-3.853688 3.915844 16.250000 213 213 213 0
-3.796388 3.920860 16.270816 214 214 214 0
-3.739407 3.926377 16.293711 213 213 213 0
-3.685416 3.935275 16.330634 213 213 213 0
-3.633317 3.946534 16.377358 213 213 213 0
-3.585407 3.962818 16.444935 214 214 214 0
-3.534224 3.976002 16.499646 213 213 213 0
-3.480377 3.986613 16.543680 214 214 214 0
-3.424421 3.995158 16.579141 214 214 214 0
-3.361154 3.995334 16.579871 213 213 213 0
-3.307863 4.007604 16.630786 214 214 214 0
-3.260870 4.028133 16.715980 214 214 214 0
-3.215902 4.052037 16.815174 214 214 214 0
-3.160686 4.063739 16.863737 214 214 214 0
-3.086871 4.051518 16.813023 214 214 214 0
-3.004862 4.027794 16.714572 214 214 214 0
-2.934210 4.018592 16.676386 214 214 214 0
-2.879794 4.031712 16.730830 214 214 214 0
-2.847643 4.077307 16.920043 214 214 214 0
-2.772590 4.062167 16.857213 214 214 214 0
-2.705704 4.058555 16.842226 215 215 215 0
-2.633100 4.045982 16.790050 215 215 215 0
-2.558508 4.029650 16.722276 214 214 214 0
-2.490177 4.022593 16.692989 215 215 215 0
-2.432491 4.032814 16.735406 215 215 215 0
-2.392416 4.073574 16.904549 215 215 215 0
-2.333240 4.083170 16.944370 214 214 214 0
-2.260480 4.068864 16.885006 215 215 215 0
-2.193609 4.064629 16.867429 216 216 216 0
-2.126985 4.060607 16.850741 215 215 215 0
-2.065761 4.066966 16.877129 215 215 215 0
-2.007575 4.079911 16.930846 215 215 215 0
-1.951638 4.098440 17.007738 215 215 215 0
-1.886630 4.098541 17.008160 215 215 215 0
-1.822690 4.101053 17.018584 215 215 215 0
-1.754977 4.094945 16.993237 216 216 216 0
-1.690712 4.096724 17.000619 216 216 216 0
-1.632286 4.113361 17.069658 215 215 215 0
-1.575188 4.134869 17.158912 215 215 215 0
-1.512469 4.142849 17.192030 215 215 215 0
-1.448631 4.148351 17.214861 216 216 216 0
-1.381375 4.144126 17.197326 216 216 216 0
-1.312733 4.135110 17.159915 216 216 216 0
-1.243806 4.124198 17.114632 215 215 215 0
-1.177483 4.121189 17.102144 215 215 215 0
-1.117024 4.139561 17.178384 216 216 216 0
-1.054256 4.151133 17.226405 216 216 216 0
-0.985754 4.140168 17.180901 215 215 215 0
-0.917042 4.126689 17.124969 216 216 216 0
-0.849864 4.118570 17.091273 216 216 216 0
-0.783601 4.113907 17.071925 216 216 216 0
-0.718794 4.116728 17.083630 216 216 216 0
-0.654180 4.121332 17.102738 216 216 216 0
-0.591850 4.142953 17.192459 217 217 217 0
-0.526058 4.142704 17.191425 216 216 216 0
-0.460179 4.141615 17.186909 216 216 216 0
-0.394229 4.139405 17.177737 216 216 216 0
-0.328983 4.145182 17.201710 216 216 216 0
-0.263813 4.155059 17.242695 217 217 217 0
-0.198095 4.159991 17.263163 216 216 216 0
-0.131958 4.156682 17.249431 216 216 216 0
-0.065994 4.157597 17.253231 216 216 216 0
0.000000 4.162911 17.275281 217 217 217 0
0.066125 4.165885 17.287622 216 216 216 0
0.132399 4.170571 17.307071 216 216 216 0
0.198821 4.175242 17.326452 217 217 217 0
0.265436 4.180615 17.348750 217 217 217 0
0.332659 4.191506 17.393944 217 217 217 0
0.399773 4.197617 17.419305 217 217 217 0
0.466076 4.194682 17.407124 216 216 216 0
0.531057 4.182073 17.354799 217 217 217 0
0.596597 4.176181 17.330349 217 217 217 0
0.663447 4.179719 17.345031 216 216 216 0
0.731402 4.188941 17.383301 217 217 217 0
0.797501 4.186879 17.374744 217 217 217 0
0.863718 4.185711 17.369898 217 217 217 0
0.928350 4.177577 17.336143 217 217 217 0
0.993250 4.171650 17.311548 217 217 217 0
1.057878 4.165395 17.285590 217 217 217 0
1.514448 5.612367 23.290246 217 217 217 0
1.606082 5.621287 23.327262 217 217 217 0
1.690599 5.605670 23.262455 217 217 217 0
1.772263 5.582629 23.166838 217 217 217 0
1.855295 5.565886 23.097360 217 217 217 0
1.941031 5.558406 23.066318 218 218 218 0
2.031992 5.565891 23.097378 218 218 218 0
2.118482 5.561015 23.077145 217 217 217 0
2.201372 5.547456 23.020879 218 218 218 0
2.279639 5.523740 22.922459 218 218 218 0
2.360760 5.508440 22.858967 218 218 218 0
2.445587 5.502571 22.834615 217 217 217 0
2.532930 5.502571 22.834614 218 218 218 0
2.620615 5.503291 22.837602 219 219 219 0
2.703798 5.494816 22.802432 218 218 218 0
2.786814 5.486540 22.768087 218 218 218 0
2.869309 5.477771 22.731700 218 218 218 0
2.949456 5.465168 22.679399 218 218 218 0
3.026255 5.447259 22.605081 218 218 218 0
3.105886 5.435300 22.555451 217 217 217 0
3.187383 5.427166 22.521697 218 218 218 0
3.271192 5.423291 22.505619 219 219 219 0
3.345215 5.403809 22.424769 218 218 218 0
3.423324 5.391736 22.374668 218 218 218 0
3.499519 5.377310 22.314805 218 218 218 0
3.577170 5.365755 22.266854 218 218 218 0
3.656941 5.357845 22.234026 219 219 219 0
3.738362 5.352655 22.212489 219 219 219 0
3.820457 5.348639 22.195827 218 218 218 0
3.902962 5.345361 22.182220 218 218 218 0
3.984581 5.341035 22.164268 218 218 218 0
4.064580 5.334761 22.138235 218 218 218 0
4.142366 5.325900 22.101462 218 218 218 0
4.223170 5.321194 22.081933 218 218 218 0
4.300480 5.312357 22.045264 218 218 218 0
4.376582 5.302398 22.003934 219 219 219 0
4.453721 5.294046 21.969276 218 218 218 0
4.534480 5.290226 21.953423 219 219 219 0
4.615179 5.286478 21.937868 219 219 219 0
4.692323 5.278864 21.906271 218 218 218 0
4.777184 5.280046 21.911178 219 219 219 0
4.859193 5.278089 21.903055 218 218 218 0
4.943606 5.278766 21.905864 219 219 219 0
5.018562 5.269490 21.867374 219 219 219 0
5.084492 5.251197 21.791458 218 218 218 0
5.153895 5.237022 21.732637 218 218 218 0
5.235828 5.235828 21.727680 219 219 219 0
5.329631 5.246355 21.771367 219 219 219 0
5.398953 5.232831 21.715246 219 219 219 0
5.468167 5.219613 21.660394 219 219 219 0
5.533396 5.203044 21.591635 220 220 220 0
5.601394 5.189527 21.535542 219 219 219 0
5.670835 5.177719 21.486541 219 219 219 0
5.751160 5.176044 21.479590 219 219 219 0
5.841096 5.182944 21.508223 219 219 219 0
5.920393 5.180344 21.497432 219 219 219 0
5.990981 5.170299 21.455747 219 219 219 0
6.063332 5.162026 21.421417 219 219 219 0
6.140051 5.157643 21.403229 220 220 220 0
6.220022 5.156071 21.396705 219 219 219 0
6.299964 5.154516 21.390251 219 219 219 0
6.378756 5.152072 21.380112 220 220 220 0
6.446051 5.140521 21.332177 219 219 219 0
-10.845213 8.676170 35.441872 212 212 212 0
-10.709710 8.676221 35.442078 212 212 212 0
-10.574183 8.676252 35.442208 212 212 212 0
-10.268351 8.534733 34.864106 212 212 212 0
-10.140342 8.539235 34.882497 213 213 213 0
-10.013232 8.544625 34.904512 213 213 213 0
-9.883015 8.547473 34.916146 212 212 212 0
-9.749585 8.547582 34.916592 213 213 213 0
-4.406088 3.916523 15.998867 212 212 212 0
-4.311977 3.886852 15.877664 213 213 213 0
-4.255202 3.890471 15.892445 213 213 213 0
-4.199677 3.895352 15.912388 213 213 213 0
-4.137998 3.894587 15.909259 213 213 213 0
-4.087381 3.904364 15.949198 213 213 213 0
-4.030265 3.908136 15.964607 213 213 213 0
-4.014257 3.952500 16.145831 214 214 214 0
-3.955488 3.955488 16.158039 213 213 213 0
-3.893775 3.955581 16.158419 213 213 213 0
-3.856473 3.980875 16.261745 213 213 213 0
-3.793022 3.979564 16.256390 213 213 213 0
-3.740099 3.989439 16.296726 213 213 213 0
-3.687980 4.000520 16.341995 214 214 214 0
-3.635758 4.011871 16.388364 213 213 213 0
-3.586729 4.027204 16.450996 213 213 213 0
-3.540163 4.045901 16.527372 214 214 214 0
-3.479585 4.048972 16.539917 214 214 214 0
-3.428205 4.063057 16.597456 213 213 213 0
-3.361460 4.059122 16.581379 213 213 213 0
-3.306580 4.069637 16.624334 214 214 214 0
-3.262274 4.093834 16.723179 214 214 214 0
-3.214716 4.114836 16.808972 214 214 214 0
-3.157851 4.124540 16.848613 215 215 215 0
-3.084259 4.112345 16.798794 214 214 214 0
-3.004689 4.091491 16.713608 214 214 214 0
-2.934546 4.082847 16.678296 214 214 214 0
-2.879962 4.095947 16.731808 214 214 214 0
-2.848061 4.142635 16.922528 214 214 214 0
-2.775116 4.130405 16.872570 214 214 214 0
-2.702662 4.118342 16.823291 215 215 215 0
-2.630248 4.105753 16.771868 215 215 215 0
-2.558208 4.093133 16.720315 215 215 215 0
-2.489656 4.085589 16.689496 215 215 215 0
-2.431813 4.095685 16.730741 215 215 215 0
-2.392436 4.138268 16.904691 215 215 215 0
-2.331927 4.145648 16.934835 215 215 215 0
-2.262191 4.136577 16.897783 215 215 215 0
-2.195395 4.132508 16.881159 215 215 215 0
-2.127734 4.126514 16.856676 215 215 215 0
-2.065737 4.131475 16.876939 215 215 215 0
-2.008160 4.145879 16.935781 214 214 214 0
-1.950948 4.162022 17.001725 216 216 216 0
-1.885804 4.161773 17.000708 215 215 215 0
-1.822692 4.166154 17.018602 215 215 215 0
-1.754201 4.158106 16.985725 215 215 215 0
-1.691691 4.164163 17.010470 215 215 215 0
-1.631868 4.177583 17.065291 215 215 215 0
-1.576158 4.203088 17.169478 215 215 215 0
-1.513362 4.211095 17.202186 216 216 216 0
-1.449041 4.215393 17.219741 215 215 215 0
-1.381613 4.210629 17.200284 216 216 216 0
-1.313019 4.201662 17.163654 215 215 215 0
-1.244067 4.190541 17.118222 215 215 215 0
-1.177050 4.185068 17.095865 216 216 216 0
-1.116714 4.204100 17.173610 216 216 216 0
-1.053612 4.214447 17.215877 215 215 215 0
-0.985097 4.203082 17.169453 216 216 216 0
-0.917540 4.194467 17.134262 216 216 216 0
-0.849335 4.181343 17.080651 216 216 216 0
-0.783440 4.178346 17.068408 216 216 216 0
-0.718490 4.180307 17.076417 215 215 215 0
-0.654263 4.187280 17.104902 216 216 216 0
-0.591550 4.206576 17.183725 216 216 216 0
-0.526227 4.209814 17.196955 216 216 216 0
-0.459940 4.205162 17.177950 215 215 215 0
-0.394301 4.205877 17.180870 216 216 216 0
-0.328945 4.210490 17.199715 217 217 217 0
-0.263967 4.223470 17.252738 216 216 216 0
-0.198069 4.225465 17.260887 216 216 216 0
-0.131964 4.222842 17.250171 216 216 216 0
-0.065986 4.223102 17.251233 216 216 216 0
0.000000 4.227243 17.268148 217 217 217 0
0.066114 4.231297 17.284709 217 217 217 0
0.132393 4.236570 17.306248 216 216 216 0
0.198836 4.241840 17.327776 217 217 217 0
0.265474 4.247587 17.351256 216 216 216 0
0.332420 4.254981 17.381458 216 216 216 0
0.399642 4.262852 17.413613 217 217 217 0
0.466024 4.260792 17.405194 217 217 217 0
0.531071 4.248567 17.355257 217 217 217 0
0.596680 4.243060 17.332763 217 217 217 0
0.662824 4.242071 17.328723 216 216 216 0
0.731602 4.256593 17.388042 217 217 217 0
0.797361 4.252590 17.371691 217 217 217 0
0.864432 4.255666 17.384256 217 217 217 0
0.928746 4.245697 17.343532 217 217 217 0
0.993399 4.238502 17.314141 218 218 218 0
1.057842 4.231370 17.285008 217 217 217 0
1.515191 5.704249 23.301672 217 217 217 0
1.606368 5.711532 23.331422 217 217 217 0
1.690824 5.695405 23.265545 217 217 217 0
1.772876 5.673203 23.174850 217 217 217 0
1.855258 5.654120 23.096896 217 217 217 0
1.940830 5.646051 23.063935 218 218 218 0
2.030887 5.651165 23.084823 218 218 218 0
2.118170 5.648453 23.073746 218 218 218 0
2.200283 5.632724 23.009495 218 218 218 0
2.281023 5.614825 22.936375 218 218 218 0
2.361856 5.598472 22.869577 218 218 218 0
2.447139 5.593461 22.849105 217 217 217 0
2.531667 5.587128 22.823233 218 218 218 0
2.621591 5.592727 22.846105 218 218 218 0
2.704530 5.583545 22.808598 218 218 218 0
2.787379 5.574757 22.772701 218 218 218 0
2.868928 5.563981 22.728682 217 217 217 0
2.950201 5.553320 22.685129 218 218 218 0
3.026736 5.534602 22.608669 218 218 218 0
3.105646 5.521148 22.553709 218 218 218 0
3.189017 5.516137 22.533241 218 218 218 0
3.270430 5.508093 22.500378 218 218 218 0
3.345184 5.489532 22.424559 218 218 218 0
3.424508 5.479212 22.382403 218 218 218 0
3.499997 5.463410 22.317850 219 219 219 0
3.577339 5.451184 22.267907 218 218 218 0
3.656852 5.442756 22.233479 219 219 219 0
3.739931 5.439900 22.221813 218 218 218 0
3.821799 5.435448 22.203626 218 218 218 0
3.902264 5.429236 22.178253 218 218 218 0
3.987971 5.430428 22.183121 219 219 219 0
4.067661 5.423547 22.155014 218 218 218 0
4.141103 5.408788 22.094723 219 219 219 0
4.222456 5.404743 22.078200 218 218 218 0
4.299718 5.395724 22.041358 219 219 219 0
4.377121 5.387226 22.006644 218 218 218 0
4.453512 5.377826 21.968243 218 218 218 0
4.535543 5.375459 21.958572 218 218 218 0
4.615929 5.371262 21.941432 219 219 219 0
4.693277 5.363746 21.910726 219 219 219 0
4.776190 5.362740 21.906617 218 218 218 0
4.862275 5.365269 21.916949 219 219 219 0
4.945084 5.364159 21.912416 219 219 219 0
5.021082 5.355821 21.878353 219 219 219 0
5.086686 5.336851 21.800863 218 218 218 0
5.154429 5.320701 21.734891 219 219 219 0
5.236720 5.319842 21.731381 219 219 219 0
5.327003 5.327003 21.760635 219 219 219 0
5.397801 5.314758 21.710612 219 219 219 0
5.465807 5.300177 21.651048 219 219 219 0
5.532918 5.285175 21.589768 219 219 219 0
5.601038 5.271566 21.534173 219 219 219 0
5.673729 5.262589 21.497506 219 219 219 0
5.749638 5.256812 21.473906 219 219 219 0
5.842409 5.266397 21.513058 219 219 219 0
5.918764 5.261123 21.491517 220 220 220 0
5.993153 5.254271 21.463525 220 220 220 0
6.063361 5.243988 21.421521 219 219 219 0
6.139725 5.239232 21.402090 219 219 219 0
6.220903 5.238656 21.399737 219 219 219 0
6.300840 5.237062 21.393227 220 220 220 0
6.378688 5.233795 21.379881 219 219 219 0
6.444560 5.220909 21.327243 220 220 220 0
-10.845209 8.811733 35.441861 212 212 212 0
-10.709723 8.811797 35.442121 213 213 213 0
-10.574195 8.811829 35.442249 213 213 213 0
-10.268737 8.668414 34.865418 213 213 213 0
-10.140005 8.672373 34.881338 213 213 213 0
-10.013163 8.678074 34.904270 213 213 213 0
-9.883179 8.681171 34.916724 213 213 213 0
-9.750102 8.681598 34.918443 213 213 213 0
-4.396544 3.969102 15.964211 212 212 212 0
-4.308721 3.944603 15.865674 213 213 213 0
-4.252237 3.948506 15.881370 213 213 213 0
-4.201327 3.957772 15.918640 213 213 213 0
-4.138141 3.955576 15.909807 214 214 214 0
-4.081505 3.959669 15.926270 213 213 213 0
-4.033076 3.971969 15.975743 213 213 213 0
-4.015920 4.015920 16.152518 213 213 213 0
-3.957971 4.019814 16.168181 213 213 213 0
-3.892054 4.015611 16.151277 213 213 213 0
-3.855589 4.042150 16.258020 213 213 213 0
-3.790285 4.038828 16.244659 213 213 213 0
-3.738621 4.050173 16.290289 214 214 214 0
-3.684637 4.059345 16.327181 213 213 213 0
-3.629837 4.067921 16.361673 213 213 213 0
-3.593064 4.097354 16.480056 214 214 214 0
-3.546680 4.116682 16.557795 213 213 213 0
-3.479043 4.111596 16.537339 214 214 214 0
-3.426079 4.123984 16.587166 214 214 214 0
-3.355454 4.115179 16.551751 213 213 213 0
-3.310378 4.137972 16.643427 214 214 214 0
-3.264165 4.160210 16.732871 214 214 214 0
-3.213701 4.177811 16.803663 214 214 214 0
-3.158664 4.190064 16.852948 214 214 214 0
-3.087536 4.181038 16.816644 214 214 214 0
-3.007506 4.159317 16.729281 214 214 214 0
-2.933993 4.145860 16.675153 214 214 214 0
-2.880357 4.160516 16.734102 215 215 215 0
-2.847841 4.207038 16.921219 214 214 214 0
-2.774844 4.194532 16.870917 215 215 215 0
-2.702992 4.183202 16.825348 214 214 214 0
-2.632095 4.172834 16.783645 215 215 215 0
-2.558089 4.156895 16.719538 214 214 214 0
-2.490139 4.150232 16.692740 215 215 215 0
-2.429131 4.155093 16.712290 215 215 215 0
-2.391756 4.201734 16.899883 215 215 215 0
-2.332816 4.212029 16.941292 215 215 215 0
-2.262146 4.201128 16.897447 215 215 215 0
-2.195485 4.197250 16.881852 215 215 215 0
-2.127826 4.191172 16.857403 215 215 215 0
-2.067271 4.199144 16.889467 215 215 215 0
-2.008100 4.210533 16.935274 214 214 214 0
-1.951427 4.228091 17.005898 216 216 216 0
-1.886125 4.227522 17.003606 215 215 215 0
-1.823232 4.232503 17.023644 215 215 215 0
-1.755025 4.225059 16.993702 215 215 215 0
-1.693185 4.232961 17.025486 215 215 215 0
-1.631671 4.242344 17.063225 216 216 216 0
-1.576960 4.270932 17.178210 216 216 216 0
-1.512641 4.274854 17.193982 216 216 216 0
-1.448840 4.280662 17.217345 215 215 215 0
-1.382077 4.277858 17.206067 216 216 216 0
-1.313444 4.268694 17.169206 215 215 215 0
-1.243876 4.255365 17.115595 216 216 216 0
-1.177883 4.253465 17.107952 216 216 216 0
-1.116688 4.269691 17.173215 216 216 216 0
-1.053357 4.279263 17.211716 215 215 215 0
-0.985601 4.270939 17.178237 216 216 216 0
-0.917196 4.258412 17.127852 216 216 216 0
-0.850000 4.250000 17.094017 216 216 216 0
-0.783317 4.242965 17.065721 217 217 217 0
-0.718417 4.245189 17.074668 216 216 216 0
-0.654198 4.252289 17.103224 216 216 216 0
-0.591832 4.274342 17.191923 216 216 216 0
-0.526292 4.276119 17.199071 216 216 216 0
-0.459922 4.270702 17.177281 217 217 217 0
-0.394232 4.270842 17.177846 216 216 216 0
-0.329025 4.277330 17.203940 216 216 216 0
-0.263930 4.288865 17.250335 216 216 216 0
-0.197995 4.289896 17.254485 216 216 216 0
-0.131919 4.287376 17.244349 216 216 216 0
-0.065950 4.286768 17.241903 217 217 217 0
0.000000 4.292200 17.263750 216 216 216 0
0.066110 4.297163 17.283711 216 216 216 0
0.132428 4.303915 17.310868 217 217 217 0
0.198973 4.311081 17.339692 217 217 217 0
0.265482 4.314081 17.351760 216 216 216 0
0.332479 4.322227 17.384525 217 217 217 0
0.399783 4.330979 17.419726 217 217 217 0
0.466036 4.327480 17.405652 216 216 216 0
0.531310 4.316897 17.363084 217 217 217 0
0.596548 4.308400 17.328908 217 217 217 0
0.663090 4.310087 17.335694 217 217 217 0
0.731921 4.324987 17.395622 217 217 217 0
0.797402 4.319261 17.372594 217 217 217 0
0.863880 4.319400 17.373152 218 218 218 0
0.929243 4.314342 17.352809 217 217 217 0
0.993325 4.304407 17.312848 217 217 217 0
1.058166 4.298800 17.290298 218 218 218 0
1.124725 4.300418 17.296806 217 217 217 0
1.605935 5.799210 23.325128 218 218 218 0
1.690731 5.784080 23.264272 218 218 218 0
1.772833 5.761707 23.174286 217 217 217 0
1.855982 5.744705 23.105902 218 218 218 0
1.940854 5.734342 23.064223 217 217 217 0
2.031040 5.739895 23.086557 218 218 218 0
2.119047 5.739086 23.083303 217 217 217 0
2.201244 5.723235 23.019549 218 218 218 0
2.280130 5.700326 22.927405 218 218 218 0
2.361334 5.684693 22.864527 218 218 218 0
2.446948 5.680416 22.847324 218 218 218 0
2.530884 5.672671 22.816171 218 218 218 0
2.620730 5.678248 22.838602 218 218 218 0
2.704093 5.669873 22.804920 218 218 218 0
2.787481 5.662071 22.773540 218 218 218 0
2.868456 5.649989 22.724943 217 217 217 0
2.949410 5.638578 22.679045 218 218 218 0
3.027594 5.622675 22.615081 218 218 218 0
3.104684 5.605679 22.546721 218 218 218 0
3.188052 5.600632 22.526422 218 218 218 0
3.269956 5.593346 22.497118 218 218 218 0
3.345214 5.575357 22.424764 218 218 218 0
3.424069 5.564112 22.379537 218 218 218 0
3.500176 5.549060 22.318996 219 219 219 0
3.578639 5.538370 22.275997 218 218 218 0
3.656889 5.527855 22.233705 219 219 219 0
3.739950 5.524926 22.221924 218 218 218 0
3.819719 5.517372 22.191543 219 219 219 0
3.902691 5.514673 22.180684 219 219 219 0
3.984488 5.510462 22.163749 218 218 218 0
4.065672 5.505597 22.144181 218 218 218 0
4.141346 5.493622 22.096016 218 218 218 0
4.222388 5.489105 22.077848 219 219 219 0
4.298523 5.478509 22.035230 219 219 219 0
4.375686 5.469607 21.999426 219 219 219 0
4.454540 5.463115 21.973313 218 218 218 0
4.535974 5.459969 21.960659 219 219 219 0
4.616961 5.456409 21.946339 219 219 219 0
4.693454 5.447759 21.911551 218 218 218 0
4.777570 5.448106 21.912946 219 219 219 0
4.863287 5.450236 21.921512 219 219 219 0
4.943384 5.446101 21.904881 219 219 219 0
5.020179 5.438528 21.874420 219 219 219 0
5.088846 5.422541 21.810121 219 219 219 0
5.153417 5.402776 21.730623 219 219 219 0
5.236413 5.402649 21.730111 219 219 219 0
5.328981 5.412246 21.768712 219 219 219 0
5.398991 5.398991 21.715398 219 219 219 0
5.467162 5.384326 21.656414 219 219 219 0
5.532495 5.367346 21.588120 219 219 219 0
5.601155 5.354045 21.534620 219 219 219 0
5.673245 5.344361 21.495670 219 219 219 0
5.750892 5.340114 21.478587 219 219 219 0
5.840678 5.347099 21.506684 219 219 219 0
5.920328 5.344740 21.497196 219 219 219 0
5.993433 5.336618 21.464528 219 219 219 0
6.063128 5.325720 21.420696 219 219 219 0
6.138009 5.319608 21.396110 219 219 219 0
6.220184 5.319894 21.397260 219 219 219 0
6.299192 5.317500 21.387631 220 220 220 0
6.377804 5.314837 21.376920 219 219 219 0
6.445063 5.302900 21.328909 220 220 220 0
-10.845211 8.947299 35.441865 212 212 212 0
-10.709722 8.947362 35.442117 212 212 212 0
-10.574198 8.947398 35.442259 212 212 212 0
-10.268717 8.801758 34.865350 212 212 212 0
-10.140472 8.806199 34.882945 213 213 213 0
-10.013273 8.811680 34.904655 213 213 213 0
-9.883169 8.814718 34.916690 212 212 212 0
-9.750156 8.815209 34.918635 212 212 212 0
-4.399807 4.033157 15.976062 213 213 213 0
-4.312183 4.008509 15.878426 213 213 213 0
-4.253564 4.010503 15.886328 213 213 213 0
-4.199950 4.017344 15.913424 213 213 213 0
-4.135409 4.013779 15.899304 213 213 213 0
-4.087430 4.026424 15.949391 212 212 212 0
-4.034332 4.034332 15.980716 213 213 213 0
-4.012092 4.073817 16.137123 213 213 213 0
-3.955872 4.079493 16.159607 213 213 213 0
-3.897301 4.082887 16.173052 213 213 213 0
-3.858317 4.107240 16.269521 213 213 213 0
-3.790220 4.100894 16.244382 213 213 213 0
-3.742709 4.116980 16.308101 214 214 214 0
-3.690328 4.128163 16.352399 213 213 213 0
-3.640623 4.142778 16.410292 213 213 213 0
-3.586840 4.153183 16.451509 214 214 214 0
-3.538787 4.170713 16.520948 214 214 214 0
-3.484562 4.181474 16.563573 214 214 214 0
-3.427359 4.188994 16.593361 213 213 213 0
-3.361674 4.186236 16.582435 213 213 213 0
-3.308010 4.198628 16.631524 214 214 214 0
-3.262792 4.222437 16.725834 214 214 214 0
