ply
    format ascii 1.0
    element vertex 25600
    property float x
    property float y
    property float z
    property uchar red
    property uchar green
    property uchar blue
    property uchar alpha
    end_header
-3.540570 -0.183133 15.959296 214 214 214 0
-3.482800 -0.183305 15.974315 214 214 214 0
-3.432632 -0.183891 16.025361 215 215 215 0
-3.384594 -0.184614 16.088386 214 214 214 0
-3.325556 -0.184753 16.100488 215 215 215 0
-3.273310 -0.185282 16.146552 214 214 214 0
-3.212841 -0.185356 16.153048 214 214 214 0
-3.166198 -0.186247 16.230669 215 215 215 0
-3.121246 -0.187275 16.320241 215 215 215 0
-3.078691 -0.188491 16.426258 215 215 215 0
-3.025472 -0.189092 16.478608 215 215 215 0
-2.952134 -0.188434 16.421269 215 215 215 0
-2.874424 -0.187462 16.336595 215 215 215 0
-2.803775 -0.186918 16.289177 215 215 215 0
-2.732999 -0.186341 16.238851 215 215 215 0
-2.619402 -0.182749 15.925835 215 215 215 0
-2.672444 -0.190889 16.635192 215 215 215 0
-2.587335 -0.189317 16.498230 215 215 215 0
-2.507212 -0.188041 16.387007 215 215 215 0
-2.436502 -0.187423 16.333181 216 216 216 0
-2.366832 -0.186855 16.283674 216 216 216 0
-2.304454 -0.186848 16.283016 216 216 216 0
-2.250826 -0.187569 16.345870 216 216 216 0
-2.204507 -0.188958 16.466907 216 216 216 0
-2.142539 -0.189048 16.474729 216 216 216 0
-2.075851 -0.188714 16.445641 216 216 216 0
-2.008872 -0.188332 16.412356 216 216 216 0
-1.947625 -0.188480 16.425262 216 216 216 0
-1.891388 -0.189139 16.482688 216 216 216 0
-1.833240 -0.189646 16.526842 216 216 216 0
-1.771736 -0.189829 16.542818 217 217 217 0
-1.710255 -0.190028 16.560206 216 216 216 0
-1.645878 -0.189909 16.549805 216 216 216 0
-1.582007 -0.189841 16.543865 216 216 216 0
-1.521647 -0.190206 16.575679 216 216 216 0
-1.465228 -0.191117 16.655052 216 216 216 0
-1.407917 -0.191989 16.731044 216 216 216 0
-1.346553 -0.192365 16.763808 217 217 217 0
-1.954721 -0.293208 25.551914 217 217 217 0
-1.851641 -0.292364 25.478380 217 217 217 0
-1.741090 -0.290182 25.288167 216 216 216 0
-1.634671 -0.288471 25.139123 217 217 217 0
-1.529064 -0.286700 24.984713 217 217 217 0
-1.430602 -0.286120 24.934233 217 217 217 0
-1.336743 -0.286445 24.962513 217 217 217 0
-1.232366 -0.284392 24.783639 217 217 217 0
-1.130429 -0.282607 24.628078 217 217 217 0
-1.031645 -0.281358 24.519194 216 216 216 0
-0.932272 -0.279682 24.373134 217 217 217 0
-0.834715 -0.278238 24.247350 217 217 217 0
-0.739329 -0.277248 24.161077 217 217 217 0
-0.648162 -0.277784 24.207721 217 217 217 0
-0.554615 -0.277307 24.166221 217 217 217 0
-0.460752 -0.276451 24.091602 217 217 217 0
-0.366626 -0.274970 23.962515 218 218 218 0
-0.274105 -0.274105 23.887181 217 217 217 0
-0.182327 -0.273490 23.833566 217 217 217 0
-0.090929 -0.272786 23.772176 217 217 217 0
0.000000 -0.272595 23.755563 218 218 218 0
0.090668 -0.272003 23.703983 217 217 217 0
0.180878 -0.271317 23.644190 218 218 218 0
0.270082 -0.270082 23.536572 217 217 217 0
0.359169 -0.269376 23.475072 218 218 218 0
0.448351 -0.269011 23.443186 218 218 218 0
0.538115 -0.269057 23.447266 218 218 218 0
0.627460 -0.268911 23.434547 217 217 217 0
0.716234 -0.268588 23.406353 218 218 218 0
0.802376 -0.267459 23.307946 217 217 217 0
0.886284 -0.265885 23.170823 218 218 218 0
0.971258 -0.264888 23.083960 218 218 218 0
1.057156 -0.264289 23.031717 219 219 219 0
1.140434 -0.263177 22.934813 218 218 218 0
1.236384 -0.264939 23.088403 218 218 218 0
1.316993 -0.263399 22.954127 219 219 219 0
1.396038 -0.261757 22.811074 218 218 218 0
1.477175 -0.260678 22.717033 219 219 219 0
1.557721 -0.259620 22.624846 218 218 218 0
1.643861 -0.259557 22.619347 218 218 218 0
1.731175 -0.259676 22.629744 218 218 218 0
1.815748 -0.259393 22.605023 218 218 218 0
1.896145 -0.258565 22.532919 218 218 218 0
1.975637 -0.257692 22.456796 218 218 218 0
2.058130 -0.257266 22.419711 218 218 218 0
2.143292 -0.257195 22.413511 219 219 219 0
2.227280 -0.256994 22.395980 219 219 219 0
2.310493 -0.256721 22.372235 219 219 219 0
2.388024 -0.255860 22.297141 218 218 218 0
2.465813 -0.255084 22.229549 218 218 218 0
2.545609 -0.254561 22.183957 219 219 219 0
2.631086 -0.254621 22.189214 218 218 218 0
2.714697 -0.254503 22.178897 219 219 219 0
2.800375 -0.254580 22.185582 219 219 219 0
2.878544 -0.253989 22.134132 219 219 219 0
2.960530 -0.253760 22.114140 219 219 219 0
3.040445 -0.253370 22.080212 219 219 219 0
3.117279 -0.252752 22.026350 219 219 219 0
3.193421 -0.252112 21.970558 219 219 219 0
3.271404 -0.251646 21.929972 219 219 219 0
3.350877 -0.251316 21.901158 219 219 219 0
3.433740 -0.251249 21.895360 219 219 219 0
3.501783 -0.250127 21.797588 219 219 219 0
3.577475 -0.249591 21.750876 219 219 219 0
3.653870 -0.249127 21.710455 219 219 219 0
3.726872 -0.248458 21.652123 220 220 220 0
3.802512 -0.247990 21.611321 219 219 219 0
3.883377 -0.247875 21.601318 220 220 220 0
3.961743 -0.247609 21.578122 220 220 220 0
4.037063 -0.247167 21.539621 219 219 219 0
4.115625 -0.246938 21.519608 219 219 219 0
4.191110 -0.246536 21.484606 219 219 219 0
4.269735 -0.246331 21.466744 219 219 219 0
4.341350 -0.245737 21.414973 219 219 219 0
4.421052 -0.245614 21.404271 220 220 220 0
4.495118 -0.245188 21.367168 220 220 220 0
4.573853 -0.245028 21.353188 219 219 219 0
4.647817 -0.244622 21.317816 220 220 220 0
4.729145 -0.244611 21.316857 220 220 220 0
4.804192 -0.244281 21.288100 220 220 220 0
4.886669 -0.244333 21.292673 220 220 220 0
4.970277 -0.244440 21.301946 219 219 219 0
5.054067 -0.244552 21.311689 220 220 220 0
5.121540 -0.243883 21.253410 220 220 220 0
5.187280 -0.243154 21.189869 220 220 220 0
5.259137 -0.242729 21.152889 220 220 220 0
5.325496 -0.242068 21.095252 220 220 220 0
6.048071 -0.270809 23.599926 220 220 220 0
5.491693 -0.242281 21.113777 220 220 220 0
5.560703 -0.241770 21.069253 220 220 220 0
5.619708 -0.240845 20.988638 220 220 220 0
5.686210 -0.240262 20.937899 219 219 219 0
5.751637 -0.239652 20.884664 220 220 220 0
5.828602 -0.239532 20.874214 220 220 220 0
5.914106 -0.239761 20.894210 220 220 220 0
5.992194 -0.239688 20.887824 221 221 221 0
6.056963 -0.239091 20.835785 221 221 221 0
6.130771 -0.238861 20.815793 220 220 220 0
6.193597 -0.238215 20.759500 221 221 221 0
5.151844 -0.195640 17.049205 221 221 221 0
-10.845046 -0.271126 35.441327 213 213 213 0
-10.709559 -0.271128 35.441579 213 213 213 0
-10.574026 -0.271129 35.441684 213 213 213 0
-7.339557 -0.190638 24.919978 214 214 214 0
-10.143032 -0.266922 34.891750 213 213 213 0
-10.016215 -0.267099 34.914912 214 214 214 0
-9.885803 -0.267184 34.925994 213 213 213 0
-9.753292 -0.267213 34.929866 213 213 213 0
-9.621526 -0.267265 34.936550 214 214 214 0
-9.487721 -0.267260 34.935915 214 214 214 0
-9.356725 -0.267335 34.945751 213 213 213 0
-9.226731 -0.267441 34.959670 214 214 214 0
-9.095092 -0.267503 34.967673 213 213 213 0
-8.961341 -0.267503 34.967673 214 214 214 0
-8.827589 -0.267503 34.967673 214 214 214 0
-8.693838 -0.267503 34.967673 215 215 215 0
-8.560086 -0.267503 34.967673 214 214 214 0
-8.319729 -0.264118 34.525279 214 214 214 0
-8.160848 -0.263253 34.412177 215 215 215 0
-3.689588 -0.120970 15.813084 214 214 214 0
-3.638315 -0.121277 15.853226 215 215 215 0
-3.591192 -0.121735 15.913112 214 214 214 0
-3.540989 -0.122103 15.961186 214 214 214 0
-3.484249 -0.122254 15.980959 215 215 215 0
-3.429201 -0.122471 16.009340 214 214 214 0
-3.384576 -0.123076 16.088301 215 215 215 0
-3.326930 -0.123220 16.107140 214 214 214 0
-3.271430 -0.123450 16.137279 214 214 214 0
-3.210851 -0.123494 16.143044 215 215 215 0
-3.161966 -0.123999 16.208976 215 215 215 0
-3.120237 -0.124809 16.314965 215 215 215 0
-3.077276 -0.125603 16.418705 214 214 214 0
-3.024988 -0.126041 16.475970 215 215 215 0
-2.952642 -0.125644 16.424096 215 215 215 0
-2.874458 -0.124976 16.336790 215 215 215 0
-2.802858 -0.124571 16.283849 215 215 215 0
-2.730074 -0.124094 16.221474 215 215 215 0
-2.619402 -0.121833 15.925835 215 215 215 0
-2.664094 -0.126862 16.583215 215 215 215 0
-2.589460 -0.126315 16.511778 216 216 216 0
-2.506310 -0.125315 16.381111 216 216 216 0
-2.433896 -0.124815 16.315709 215 215 215 0
-2.365625 -0.124507 16.275373 215 215 215 0
-2.304274 -0.124555 16.281748 216 216 216 0
-2.253267 -0.125181 16.363593 216 216 216 0
-2.208014 -0.126172 16.493100 215 215 215 0
-2.141605 -0.125977 16.467547 215 215 215 0
-2.078498 -0.125970 16.466608 216 216 216 0
-2.009077 -0.125567 16.414025 215 215 215 0
-1.947921 -0.125672 16.427751 216 216 216 0
-1.889902 -0.125993 16.469732 215 215 215 0
-1.832668 -0.126391 16.521686 216 216 216 0
-1.772658 -0.126618 16.551429 216 216 216 0
-1.708996 -0.126592 16.548011 216 216 216 0
-1.645532 -0.126579 16.546323 216 216 216 0
-1.581514 -0.126521 16.538706 217 217 217 0
-1.522443 -0.126870 16.584341 216 216 216 0
-1.465061 -0.127397 16.653148 216 216 216 0
-1.407104 -0.127919 16.721377 217 217 217 0
-1.346560 -0.128244 16.763897 216 216 216 0
-1.955564 -0.195556 25.562926 217 217 217 0
-1.850321 -0.194771 25.460215 216 216 216 0
-1.741481 -0.193498 25.293835 217 217 217 0
-1.634938 -0.192346 25.143227 217 217 217 0
-1.529117 -0.191140 24.985577 217 217 217 0
-1.431259 -0.190835 24.945696 216 216 216 0
-1.336149 -0.190878 24.951434 217 217 217 0
-1.232056 -0.189547 24.777392 216 216 216 0
-1.130996 -0.188499 24.640425 217 217 217 0
-1.031395 -0.187526 24.513251 218 218 218 0
-0.932654 -0.186531 24.383124 217 217 217 0
-0.835085 -0.185574 24.258094 217 217 217 0
-0.739330 -0.184833 24.161126 218 218 218 0
-0.647419 -0.184977 24.179999 218 218 218 0
-0.554410 -0.184803 24.157316 217 217 217 0
-0.460613 -0.184245 24.084347 217 217 217 0
-0.366637 -0.183318 23.963174 217 217 217 0
-0.273991 -0.182661 23.877210 217 217 217 0
-0.182369 -0.182369 23.839068 217 217 217 0
-0.090947 -0.181894 23.776972 218 218 218 0
0.000000 -0.181810 23.766061 218 218 218 0
0.090607 -0.181215 23.688205 217 217 217 0
0.180848 -0.180848 23.640285 217 217 217 0
0.270464 -0.180310 23.569885 218 218 218 0
0.359265 -0.179632 23.481366 218 218 218 0
0.448148 -0.179259 23.432578 217 217 217 0
0.538240 -0.179413 23.452739 218 218 218 0
0.628040 -0.179440 23.456223 217 217 217 0
0.716624 -0.179156 23.419092 217 217 217 0
0.801812 -0.178180 23.291554 218 218 218 0
0.886121 -0.177224 23.166559 218 218 218 0
0.971187 -0.176580 23.082291 218 218 218 0
1.057329 -0.176222 23.035500 218 218 218 0
1.135955 -0.174762 22.844748 219 219 219 0
1.237167 -0.176738 23.103028 218 218 218 0
1.316771 -0.175570 22.950266 217 217 217 0
1.396062 -0.174508 22.811474 218 218 218 0
1.476688 -0.173728 22.709542 218 218 218 0
1.557932 -0.173104 22.627922 218 218 218 0
1.643743 -0.173026 22.617724 218 218 218 0
1.732055 -0.173206 22.641243 218 218 218 0
1.815778 -0.172931 22.605396 218 218 218 0
1.895282 -0.172298 22.522667 218 218 218 0
1.976519 -0.171871 22.466828 219 219 219 0
2.058369 -0.171531 22.422322 219 219 219 0
2.142066 -0.171365 22.400691 218 218 218 0
2.226850 -0.171296 22.391655 218 218 218 0
2.308802 -0.171022 22.355866 219 219 219 0
2.388038 -0.170574 22.297271 219 219 219 0
2.466577 -0.170109 22.236435 218 218 218 0
2.546322 -0.169755 22.190169 218 218 218 0
2.629620 -0.169653 22.176852 219 219 219 0
2.714356 -0.169647 22.176114 218 218 218 0
2.799714 -0.169680 22.180344 219 219 219 0
2.879335 -0.169373 22.140215 218 218 218 0
2.961852 -0.169249 22.124015 219 219 219 0
3.040038 -0.168891 22.077253 219 219 219 0
3.117918 -0.168536 22.030862 218 218 218 0
3.192496 -0.168026 21.964197 219 219 219 0
3.272026 -0.167796 21.934142 219 219 219 0
3.351158 -0.167558 21.902991 219 219 219 0
3.433710 -0.167498 21.895169 219 219 219 0
3.501367 -0.166732 21.795001 219 219 219 0
3.576714 -0.166359 21.746250 219 219 219 0
3.652903 -0.166041 21.704714 220 220 220 0
3.728307 -0.165703 21.660463 219 219 219 0
3.802421 -0.165323 21.610806 220 220 220 0
3.883857 -0.165271 21.603988 220 220 220 0
3.960886 -0.165037 21.573456 219 219 219 0
4.038050 -0.164818 21.544885 219 219 219 0
4.117736 -0.164709 21.530648 219 219 219 0
4.192318 -0.164405 21.490801 219 219 219 0
4.270021 -0.164232 21.468181 220 220 220 0
4.342818 -0.163880 21.422213 220 220 220 0
4.422787 -0.163807 21.412669 220 220 220 0
4.496622 -0.163514 21.374316 220 220 220 0
4.576272 -0.163438 21.364482 220 220 220 0
4.649844 -0.163152 21.327112 220 220 220 0
4.729253 -0.163078 21.317345 219 219 219 0
4.804231 -0.162855 21.288271 220 220 220 0
4.887895 -0.162930 21.298019 219 219 219 0
4.969483 -0.162934 21.298544 220 220 220 0
5.053059 -0.163002 21.307439 219 219 219 0
5.123767 -0.162659 21.262651 220 220 220 0
5.186446 -0.162076 21.186463 220 220 220 0
5.258938 -0.161813 21.152089 220 220 220 0
5.325196 -0.161370 21.094064 220 220 220 0
6.084824 -0.181637 23.743336 220 220 220 0
5.492226 -0.161536 21.115823 220 220 220 0
5.561389 -0.161200 21.071852 220 220 220 0
5.620964 -0.160599 20.993328 220 220 220 0
5.686170 -0.160174 20.937752 220 220 220 0
5.752629 -0.159795 20.888269 219 219 219 0
5.828852 -0.159695 20.875109 220 220 220 0
5.915889 -0.159889 20.900510 220 220 220 0
5.991322 -0.159769 20.884782 220 220 220 0
6.058052 -0.159422 20.839533 221 221 221 0
6.129185 -0.159200 20.810406 221 221 221 0
6.193253 -0.158801 20.758348 220 220 220 0
5.150102 -0.130382 17.043442 220 220 220 0
-10.845055 -0.135563 35.441356 213 213 213 0
-10.709558 -0.135564 35.441577 214 214 214 0
-10.574028 -0.135564 35.441688 213 213 213 0
-7.339513 -0.095318 24.919829 213 213 213 0
-10.143256 -0.133464 34.892520 214 214 214 0
-10.015651 -0.133542 34.912944 213 213 213 0
-9.885441 -0.133587 34.924718 213 213 213 0
-9.753361 -0.133608 34.930115 214 214 214 0
-9.621392 -0.133630 34.936062 213 213 213 0
-9.487721 -0.133630 34.935915 214 214 214 0
-9.356725 -0.133667 34.945751 213 213 213 0
-9.226731 -0.133721 34.959670 213 213 213 0
-9.095092 -0.133751 34.967673 213 213 213 0
-8.961341 -0.133751 34.967673 213 213 213 0
-8.827589 -0.133751 34.967673 214 214 214 0
-8.693838 -0.133751 34.967673 214 214 214 0
-8.560086 -0.133751 34.967673 214 214 214 0
-8.319729 -0.132059 34.525279 215 215 215 0
-8.160848 -0.131627 34.412177 214 214 214 0
-3.689588 -0.060485 15.813084 214 214 214 0
-3.641016 -0.060684 15.864995 215 215 215 0
-3.591301 -0.060870 15.913599 214 214 214 0
-3.539255 -0.061022 15.953368 215 215 215 0
-3.485289 -0.061145 15.985732 214 214 214 0
-3.430979 -0.061267 16.017644 215 215 215 0
-3.384699 -0.061540 16.088882 215 215 215 0
-3.329608 -0.061659 16.120104 215 215 215 0
-3.272426 -0.061744 16.142192 214 214 214 0
-3.212964 -0.061788 16.153663 215 215 215 0
-3.163953 -0.062038 16.219160 215 215 215 0
-3.118741 -0.062375 16.307145 215 215 215 0
-3.078711 -0.062831 16.426362 215 215 215 0
-3.021708 -0.062952 16.458102 216 216 216 0
-2.951582 -0.062800 16.418198 215 215 215 0
-2.873320 -0.062463 16.330322 215 215 215 0
-2.802367 -0.062275 16.280999 215 215 215 0
-2.735531 -0.062171 16.253898 215 215 215 0
-2.619402 -0.060916 15.925835 215 215 215 0
-2.666433 -0.063486 16.597778 215 215 215 0
-2.587670 -0.063114 16.500369 215 215 215 0
-2.506011 -0.062650 16.379154 215 215 215 0
-2.435017 -0.062436 16.323222 216 216 216 0
-2.366883 -0.062286 16.284026 215 215 215 0
-2.303524 -0.062257 16.276443 215 215 215 0
-2.251765 -0.062549 16.352686 216 216 216 0
-2.206362 -0.063039 16.480759 215 215 215 0
-2.140886 -0.062967 16.462019 215 215 215 0
-2.074970 -0.062878 16.438664 216 216 216 0
-2.009931 -0.062810 16.421004 216 216 216 0
-1.948500 -0.062855 16.432636 216 216 216 0
-1.890921 -0.063031 16.478612 215 215 215 0
-1.834008 -0.063242 16.533766 217 217 217 0
-1.773356 -0.063334 16.557950 216 216 216 0
-1.710957 -0.063369 16.567000 216 216 216 0
-1.645950 -0.063306 16.550526 216 216 216 0
-1.580365 -0.063215 16.526696 216 216 216 0
-1.522986 -0.063458 16.590261 216 216 216 0
-1.464926 -0.063692 16.651612 216 216 216 0
-1.406422 -0.063928 16.713275 216 216 216 0
-1.346255 -0.064107 16.760100 216 216 216 0
-1.954993 -0.097750 25.555469 216 216 216 0
-1.851103 -0.097426 25.470972 216 216 216 0
-1.742000 -0.096778 25.301381 216 216 216 0
-1.634009 -0.096118 25.128935 216 216 216 0
-1.529148 -0.095572 24.986086 217 217 217 0
-1.430395 -0.095360 24.930629 216 216 216 0
-1.335673 -0.095405 24.942539 217 217 217 0
-1.231417 -0.094724 24.764553 217 217 217 0
-1.131376 -0.094281 24.648708 217 217 217 0
-1.031032 -0.093730 24.504634 217 217 217 0
-0.932043 -0.093204 24.367135 217 217 217 0
-0.834661 -0.092740 24.245769 216 216 216 0
-0.739117 -0.092390 24.154136 216 216 216 0
-0.647373 -0.092482 24.178279 218 218 218 0
-0.554423 -0.092404 24.157859 217 217 217 0
-0.460727 -0.092145 24.090315 216 216 216 0
-0.366668 -0.091667 23.965203 217 217 217 0
-0.274150 -0.091383 23.891042 217 217 217 0
-0.182264 -0.091132 23.825306 218 218 218 0
-0.090952 -0.090952 23.778365 217 217 217 0
0.000000 -0.090857 23.753352 218 218 218 0
0.090665 -0.090665 23.703374 217 217 217 0
0.180923 -0.090462 23.650128 217 217 217 0
0.270213 -0.090071 23.547942 218 218 218 0
0.359309 -0.089827 23.484245 218 218 218 0
0.448342 -0.089668 23.442709 218 218 218 0
0.538250 -0.089708 23.453142 218 218 218 0
0.627960 -0.089709 23.453207 217 217 217 0
0.716283 -0.089535 23.407928 218 218 218 0
0.802169 -0.089130 23.301946 218 218 218 0
0.886619 -0.088662 23.179592 218 218 218 0
0.972037 -0.088367 23.102489 218 218 218 0
1.058048 -0.088171 23.051149 218 218 218 0
1.123053 -0.086389 22.585271 218 218 218 0
1.237634 -0.088402 23.111745 218 218 218 0
1.317182 -0.087812 22.957422 218 218 218 0
1.395794 -0.087237 22.807085 219 219 219 0
1.476410 -0.086848 22.705274 218 218 218 0
1.557419 -0.086523 22.620460 218 218 218 0
1.642539 -0.086449 22.601163 218 218 218 0
1.731299 -0.086565 22.631358 218 218 218 0
1.816530 -0.086501 22.614752 218 218 218 0
1.895848 -0.086175 22.529387 218 218 218 0
1.975823 -0.085905 22.458913 218 218 218 0
2.057382 -0.085724 22.411564 218 218 218 0
2.141161 -0.085646 22.391227 219 219 219 0
2.226687 -0.085642 22.390013 218 218 218 0
2.309517 -0.085538 22.362785 218 218 218 0
2.387208 -0.085257 22.289525 219 219 219 0
2.466167 -0.085040 22.232746 218 218 218 0
2.546216 -0.084874 22.189246 218 218 218 0
2.630524 -0.084856 22.184472 219 219 219 0
2.715442 -0.084858 22.184988 219 219 219 0
2.800948 -0.084877 22.190120 218 218 218 0
2.878458 -0.084661 22.133469 218 218 218 0
2.961959 -0.084627 22.124809 219 219 219 0
3.040693 -0.084464 22.082011 219 219 219 0
3.116807 -0.084238 22.023015 219 219 219 0
3.192326 -0.084009 21.963028 219 219 219 0
3.272028 -0.083898 21.934157 219 219 219 0
3.350252 -0.083756 21.897075 219 219 219 0
3.433557 -0.083745 21.894196 219 219 219 0
3.501164 -0.083361 21.793740 219 219 219 0
3.578301 -0.083216 21.755895 219 219 219 0
3.651819 -0.082996 21.698273 219 219 219 0
3.727977 -0.082844 21.658543 219 219 219 0
3.802731 -0.082668 21.612567 219 219 219 0
3.883638 -0.082631 21.602769 219 219 219 0
3.961765 -0.082537 21.578239 220 220 220 0
4.039362 -0.082436 21.551886 219 219 219 0
4.116100 -0.082322 21.522089 219 219 219 0
4.191155 -0.082180 21.484838 220 220 220 0
4.269573 -0.082107 21.465927 219 219 219 0
4.343661 -0.081956 21.426372 219 219 219 0
4.422722 -0.081902 21.412355 219 219 219 0
4.497331 -0.081770 21.377686 219 219 219 0
4.574814 -0.081693 21.357674 219 219 219 0
4.648253 -0.081548 21.319816 220 220 220 0
4.731234 -0.081573 21.326272 220 220 220 0
4.804889 -0.081439 21.291187 219 219 219 0
4.887622 -0.081460 21.296827 220 220 220 0
4.971483 -0.081500 21.307118 220 220 220 0
5.053597 -0.081510 21.309708 220 220 220 0
5.122879 -0.081316 21.258966 220 220 220 0
5.188796 -0.081075 21.196064 220 220 220 0
5.258106 -0.080894 21.148741 220 220 220 0
5.324883 -0.080680 21.092823 220 220 220 0
5.030233 -0.075078 19.628264 220 220 220 0
5.493451 -0.080786 21.120533 220 220 220 0
5.561701 -0.080604 21.073036 220 220 220 0
5.620582 -0.080294 20.991902 220 220 220 0
5.683912 -0.080055 20.929439 220 220 220 0
5.752761 -0.079899 20.888747 220 220 220 0
5.827180 -0.079824 20.869121 220 220 220 0
5.915411 -0.079938 20.898820 220 220 220 0
5.992733 -0.079903 20.889700 220 220 220 0
6.059088 -0.079725 20.843096 220 220 220 0
6.128026 -0.079585 20.806472 221 221 221 0
6.193301 -0.079401 20.758507 220 220 220 0
5.149688 -0.065186 17.042072 220 220 220 0
-10.845046 0.000000 35.441327 213 213 213 0
-10.709559 0.000000 35.441578 213 213 213 0
-10.574029 0.000000 35.441691 214 214 214 0
-7.333884 0.000000 24.900719 213 213 213 0
-10.143204 0.000000 34.892342 213 213 213 0
-10.016235 0.000000 34.914981 213 213 213 0
-9.885628 0.000000 34.925375 213 213 213 0
-9.753557 0.000000 34.930814 213 213 213 0
-9.621753 0.000000 34.937376 213 213 213 0
-9.487721 0.000000 34.935915 214 214 214 0
-9.356725 0.000000 34.945751 214 214 214 0
-9.226731 0.000000 34.959670 214 214 214 0
-9.095092 0.000000 34.967673 214 214 214 0
-8.961341 0.000000 34.967673 214 214 214 0
-8.827589 0.000000 34.967673 214 214 214 0
-8.693838 0.000000 34.967673 214 214 214 0
-8.560086 0.000000 34.967673 214 214 214 0
-8.319729 0.000000 34.525279 214 214 214 0
-8.160848 0.000000 34.412177 214 214 214 0
-3.690006 0.000000 15.814875 214 214 214 0
-3.641817 0.000000 15.868486 214 214 214 0
-3.593165 0.000000 15.921855 214 214 214 0
-3.544230 0.000000 15.975796 215 215 215 0
-3.488865 0.000000 16.002132 214 214 214 0
-3.437074 0.000000 16.046095 215 215 215 0
-3.379833 0.000000 16.065754 215 215 215 0
-3.330482 0.000000 16.124340 215 215 215 0
-3.275645 0.000000 16.158073 215 215 215 0
-3.213817 0.000000 16.157955 215 215 215 0
-3.164673 0.000000 16.222853 215 215 215 0
-3.119461 0.000000 16.310906 215 215 215 0
-3.077075 0.000000 16.417635 215 215 215 0
-3.024106 0.000000 16.471164 215 215 215 0
-2.952776 0.000000 16.424841 215 215 215 0
-2.871140 0.000000 16.317929 215 215 215 0
-2.802458 0.000000 16.281525 215 215 215 0
-2.729124 0.000000 16.215829 216 216 216 0
-2.619402 0.000000 15.925835 216 216 216 0
-2.666399 0.000000 16.597569 215 215 215 0
-2.584991 0.000000 16.483282 215 215 215 0
-2.505204 0.000000 16.373884 216 216 216 0
-2.434069 0.000000 16.316868 215 215 215 0
-2.365101 0.000000 16.271764 216 216 216 0
-2.304433 0.000000 16.282870 215 215 215 0
-2.252024 0.000000 16.354564 216 216 216 0
-2.205886 0.000000 16.477204 216 216 216 0
-2.143874 0.000000 16.484997 215 215 215 0
-2.076738 0.000000 16.452666 216 216 216 0
-2.008956 0.000000 16.413040 215 215 215 0
-1.948691 0.000000 16.434248 215 215 215 0
-1.891037 0.000000 16.479623 216 216 216 0
-1.832754 0.000000 16.522464 216 216 216 0
-1.772562 0.000000 16.550532 216 216 216 0
-1.711662 0.000000 16.573827 216 216 216 0
-1.646203 0.000000 16.553076 216 216 216 0
-1.583449 0.000000 16.558944 216 216 216 0
-1.523415 0.000000 16.594932 216 216 216 0
-1.465051 0.000000 16.653036 217 217 217 0
-1.406959 0.000000 16.719651 217 217 217 0
-1.347657 0.000000 16.777549 216 216 216 0
-1.955477 0.000000 25.561786 216 216 216 0
-1.852677 0.000000 25.492634 217 217 217 0
-1.741202 0.000000 25.289785 216 216 216 0
-1.633770 0.000000 25.125261 216 216 216 0
-1.529258 0.000000 24.987874 217 217 217 0
-1.430750 0.000000 24.936815 217 217 217 0
-1.335598 0.000000 24.941137 216 216 216 0
-1.231851 0.000000 24.773274 217 217 217 0
-1.131223 0.000000 24.645382 217 217 217 0
-1.031938 0.000000 24.526159 217 217 217 0
-0.932254 0.000000 24.372642 218 218 218 0
-0.835023 0.000000 24.256284 217 217 217 0
-0.738880 0.000000 24.146416 217 217 217 0
-0.647581 0.000000 24.186023 217 217 217 0
-0.554374 0.000000 24.155711 217 217 217 0
-0.460699 0.000000 24.088834 217 217 217 0
-0.366618 0.000000 23.961943 218 218 218 0
-0.274172 0.000000 23.892967 218 218 218 0
-0.182346 0.000000 23.836069 217 217 217 0
-0.090939 0.000000 23.774837 217 217 217 0
0.000000 0.000000 23.753021 217 217 217 0
0.090684 0.000000 23.708195 218 218 218 0
0.180802 0.000000 23.634235 217 217 217 0
0.270414 0.000000 23.565527 218 218 218 0
0.359144 0.000000 23.473433 218 218 218 0
0.448288 0.000000 23.439900 218 218 218 0
0.538074 0.000000 23.445487 218 218 218 0
0.627700 0.000000 23.443494 218 218 218 0
0.716394 0.000000 23.411556 217 217 217 0
0.802428 0.000000 23.309454 218 218 218 0
0.886627 0.000000 23.179788 219 219 219 0
0.972061 0.000000 23.103056 218 218 218 0
1.057154 0.000000 23.031673 218 218 218 0
1.122009 0.000000 22.564274 218 218 218 0
1.237590 0.000000 23.110933 218 218 218 0
1.316929 0.000000 22.953006 218 218 218 0
1.395633 0.000000 22.804462 218 218 218 0
1.476558 0.000000 22.707546 218 218 218 0
1.557752 0.000000 22.625298 218 218 218 0
1.642805 0.000000 22.604819 218 218 218 0
1.730861 0.000000 22.625640 219 219 219 0
1.815482 0.000000 22.601709 219 219 219 0
1.895249 0.000000 22.522274 218 218 218 0
1.975920 0.000000 22.460015 218 218 218 0
2.057221 0.000000 22.409820 219 219 219 0
2.141660 0.000000 22.396441 218 218 218 0
2.226102 0.000000 22.384133 219 219 219 0
2.309140 0.000000 22.359137 218 218 218 0
2.386417 0.000000 22.282143 218 218 218 0
2.466594 0.000000 22.236594 219 219 219 0
2.545084 0.000000 22.179384 218 218 218 0
2.629522 0.000000 22.176022 219 219 219 0
2.714839 0.000000 22.180059 218 218 218 0
2.800821 0.000000 22.189113 218 218 218 0
2.878514 0.000000 22.133901 219 219 219 0
2.961930 0.000000 22.124594 219 219 219 0
3.039540 0.000000 22.073639 219 219 219 0
3.118501 0.000000 22.034980 219 219 219 0
3.192724 0.000000 21.965765 219 219 219 0
3.271709 0.000000 21.932020 219 219 219 0
3.352207 0.000000 21.909852 218 218 218 0
3.432628 0.000000 21.888271 219 219 219 0
3.501891 0.000000 21.798261 219 219 219 0
3.576583 0.000000 21.745452 219 219 219 0
3.653272 0.000000 21.706905 219 219 219 0
3.727780 0.000000 21.657400 220 220 220 0
3.802521 0.000000 21.611374 219 219 219 0
3.884926 0.000000 21.609934 219 219 219 0
3.961965 0.000000 21.579331 220 220 220 0
4.038174 0.000000 21.545547 219 219 219 0
4.116585 0.000000 21.524627 219 219 219 0
4.191112 0.000000 21.484621 219 219 219 0
4.270371 0.000000 21.469940 220 220 220 0
4.343055 0.000000 21.423383 219 219 219 0
4.423273 0.000000 21.415024 220 220 220 0
4.498371 0.000000 21.382630 220 220 220 0
4.575865 0.000000 21.362583 220 220 220 0
4.648005 0.000000 21.318679 219 219 219 0
4.730506 0.000000 21.322991 219 219 219 0
4.804615 0.000000 21.289975 219 219 219 0
4.888770 0.000000 21.301832 220 220 220 0
4.972761 0.000000 21.312592 220 220 220 0
5.053970 0.000000 21.311278 220 220 220 0
5.123570 0.000000 21.261832 220 220 220 0
5.188257 0.000000 21.193861 220 220 220 0
5.254165 0.000000 21.132892 220 220 220 0
5.320767 0.000000 21.076518 219 219 219 0
5.122824 0.000000 19.989557 220 220 220 0
5.505252 0.000000 21.165906 220 220 220 0
5.563211 0.000000 21.078756 221 221 221 0
5.619823 0.000000 20.989068 220 220 220 0
5.683198 0.000000 20.926810 220 220 220 0
5.752952 0.000000 20.889440 220 220 220 0
5.826763 0.000000 20.867626 220 220 220 0
5.913805 0.000000 20.893148 221 221 221 0
5.990385 0.000000 20.881515 221 221 221 0
6.055674 0.000000 20.831352 221 221 221 0
6.127189 0.000000 20.803629 220 220 220 0
6.190957 0.000000 20.750652 221 221 221 0
5.149845 0.000000 17.042591 220 220 220 0
-10.845048 0.135563 35.441335 213 213 213 0
-10.709559 0.135564 35.441577 213 213 213 0
-10.574035 0.135565 35.441711 213 213 213 0
-7.333581 0.095241 24.899689 213 213 213 0
-10.143229 0.133464 34.892429 214 214 214 0
-10.016092 0.133548 34.914481 214 214 214 0
-9.885637 0.133590 34.925410 214 214 214 0
-9.753371 0.133608 34.930151 214 214 214 0
-9.621492 0.133632 34.936428 214 214 214 0
-9.487721 0.133630 34.935915 214 214 214 0
-9.356725 0.133667 34.945751 214 214 214 0
-9.226731 0.133721 34.959670 214 214 214 0
-9.095092 0.133751 34.967673 214 214 214 0
-8.961341 0.133751 34.967673 214 214 214 0
-8.827589 0.133751 34.967673 214 214 214 0
-8.693838 0.133751 34.967673 214 214 214 0
-8.560086 0.133751 34.967673 215 215 215 0
-8.319729 0.132059 34.525279 214 214 214 0
-8.160848 0.131627 34.412177 214 214 214 0
-3.689334 0.060481 15.811995 214 214 214 0
-3.643520 0.060725 15.875903 215 215 215 0
-3.592229 0.060885 15.917708 214 214 214 0
-3.540946 0.061051 15.960991 215 215 215 0
-3.487842 0.061190 15.997440 214 214 214 0
-3.432238 0.061290 16.023522 214 214 214 0
-3.378681 0.061431 16.060279 214 214 214 0
-3.325975 0.061592 16.102516 214 214 214 0
-3.271414 0.061725 16.137201 215 215 215 0
-3.211810 0.061766 16.147862 215 215 215 0
-3.159276 0.061947 16.195189 215 215 215 0
-3.120031 0.062401 16.313886 215 215 215 0
-3.077645 0.062809 16.420673 215 215 215 0
-3.023415 0.062988 16.467401 215 215 215 0
-2.954516 0.062862 16.434520 215 215 215 0
-2.873920 0.062477 16.333730 215 215 215 0
-2.802654 0.062281 16.282666 215 215 215 0
-2.728755 0.062017 16.213637 215 215 215 0
-2.619402 0.060916 15.925835 215 215 215 0
-2.665851 0.063473 16.594153 215 215 215 0
-2.587319 0.063105 16.498127 215 215 215 0
-2.507113 0.062678 16.386357 215 215 215 0
-2.434625 0.062426 16.320598 216 216 216 0
-2.365562 0.062252 16.274940 216 216 216 0
-2.303366 0.062253 16.275330 216 216 216 0
-2.249689 0.062491 16.337610 216 216 216 0
-2.205514 0.063015 16.474425 216 216 216 0
-2.142494 0.063015 16.474386 215 215 215 0
-2.076941 0.062938 16.454280 216 216 216 0
-2.007306 0.062728 16.399559 216 216 216 0
-1.947119 0.062810 16.420993 216 216 216 0
-1.890187 0.063006 16.472222 216 216 216 0
-1.831237 0.063146 16.508785 216 216 216 0
-1.773486 0.063339 16.559157 216 216 216 0
-1.711162 0.063376 16.568983 216 216 216 0
-1.646669 0.063333 16.557760 216 216 216 0
-1.584167 0.063367 16.566453 216 216 216 0
-1.522959 0.063457 16.589967 217 217 217 0
-1.465187 0.063704 16.654583 216 216 216 0
-1.406407 0.063928 16.713096 216 216 216 0
-1.347086 0.064147 16.770441 217 217 217 0
-1.956053 0.097803 25.569325 217 217 217 0
-1.852206 0.097485 25.486148 216 216 216 0
-1.742216 0.096790 25.304514 216 216 216 0
-1.635035 0.096179 25.144713 217 217 217 0
-1.022672 0.063917 16.710324 217 217 217 0
-1.431671 0.095445 24.952876 217 217 217 0
-1.337279 0.095520 24.972530 217 217 217 0
-1.232628 0.094818 24.788901 217 217 217 0
-1.130839 0.094237 24.637020 216 216 216 0
-1.031157 0.093742 24.507592 217 217 217 0
-0.932185 0.093218 24.370848 217 217 217 0
-0.834920 0.092769 24.253301 217 217 217 0
-0.739274 0.092409 24.159265 217 217 217 0
-0.647218 0.092460 24.172457 218 218 218 0
-0.554363 0.092394 24.155267 218 218 218 0
-0.460769 0.092154 24.092472 217 217 217 0
-0.366595 0.091649 23.960457 217 217 217 0
-0.273983 0.091328 23.876510 218 218 218 0
-0.182190 0.091095 23.815715 218 218 218 0
-0.090924 0.090924 23.770915 217 217 217 0
0.000000 0.090890 23.762197 217 217 217 0
0.090601 0.090601 23.686407 217 217 217 0
0.180769 0.090385 23.629959 217 217 217 0
0.270125 0.090042 23.540282 217 217 217 0
0.359293 0.089823 23.483231 218 218 218 0
0.448262 0.089652 23.438523 217 217 217 0
0.538311 0.089719 23.455826 218 218 218 0
0.628157 0.089737 23.460589 218 218 218 0
0.716361 0.089545 23.410484 218 218 218 0
0.802211 0.089135 23.303152 218 218 218 0
0.886649 0.088665 23.180354 218 218 218 0
0.971170 0.088288 23.081888 218 218 218 0
1.056815 0.088068 23.024294 218 218 218 0
1.120088 0.086161 22.525644 218 218 218 0
1.238254 0.088447 23.123331 218 218 218 0
1.317256 0.087817 22.958706 218 218 218 0
1.396125 0.087258 22.812494 218 218 218 0
1.476121 0.086831 22.700819 218 218 218 0
1.558200 0.086567 22.631807 218 218 218 0
1.643624 0.086507 22.616086 218 218 218 0
1.730417 0.086521 22.619836 218 218 218 0
1.814735 0.086416 22.592410 218 218 218 0
1.895512 0.086160 22.525391 218 218 218 0
1.975936 0.085910 22.460204 218 218 218 0
2.057506 0.085729 22.412918 218 218 218 0
2.142556 0.085702 22.405810 219 219 219 0
2.226785 0.085646 22.391004 219 219 219 0
2.309650 0.085543 22.364078 219 219 219 0
2.387333 0.085262 22.290693 219 219 219 0
2.466591 0.085055 22.236568 219 219 219 0
2.545519 0.084851 22.183173 218 218 218 0
2.630388 0.084851 22.183328 219 219 219 0
2.714382 0.084824 22.176320 219 219 219 0
2.802152 0.084914 22.199663 219 219 219 0
2.879454 0.084690 22.141134 219 219 219 0
2.961376 0.084611 22.120459 219 219 219 0
3.039594 0.084433 22.074032 219 219 219 0
3.117999 0.084270 22.031435 219 219 219 0
3.191435 0.083985 21.956898 219 219 219 0
3.271717 0.083890 21.932073 219 219 219 0
3.352159 0.083804 21.909534 219 219 219 0
3.431414 0.083693 21.880526 219 219 219 0
3.502374 0.083390 21.801268 219 219 219 0
3.578250 0.083215 21.755587 219 219 219 0
3.652833 0.083019 21.704299 219 219 219 0
3.727686 0.082837 21.656855 219 219 219 0
3.801540 0.082642 21.605797 219 219 219 0
3.884618 0.082651 21.608219 219 219 219 0
3.962014 0.082542 21.579596 220 220 220 0
4.037951 0.082407 21.544355 220 220 220 0
4.118150 0.082363 21.532810 219 219 219 0
4.191495 0.082186 21.486580 219 219 219 0
4.269439 0.082105 21.465256 219 219 219 0
4.344082 0.081964 21.428445 219 219 219 0
4.422132 0.081891 21.409498 219 219 219 0
4.497894 0.081780 21.380364 219 219 219 0
4.574060 0.081680 21.354157 219 219 219 0
4.649793 0.081575 21.326881 220 220 220 0
4.731539 0.081578 21.327650 220 220 220 0
4.805272 0.081445 21.292888 220 220 220 0
4.887315 0.081455 21.295490 219 219 219 0
4.971723 0.081504 21.308145 220 220 220 0
5.055171 0.081535 21.316345 220 220 220 0
5.123603 0.081327 21.261968 220 220 220 0
5.188543 0.081071 21.195027 220 220 220 0
5.253261 0.080819 21.129256 220 220 220 0
5.319915 0.080605 21.073143 220 220 220 0
5.186149 0.077405 20.236656 219 219 219 0
5.503287 0.080931 21.158349 221 221 221 0
5.565052 0.080653 21.085731 220 220 220 0
5.617828 0.080255 20.981616 221 221 221 0
5.686243 0.080088 20.938019 220 220 220 0
5.753121 0.079904 20.890053 221 221 221 0
5.827924 0.079835 20.871786 221 221 221 0
5.912135 0.079894 20.887246 221 221 221 0
5.990576 0.079874 20.882181 221 221 221 0
6.058600 0.079718 20.841417 220 220 220 0
6.127331 0.079576 20.804110 220 220 220 0
6.192634 0.079393 20.756272 220 220 220 0
5.150686 0.065199 17.045375 220 220 220 0
-10.845053 0.271126 35.441348 213 213 213 0
-10.709552 0.271128 35.441555 213 213 213 0
-10.574031 0.271129 35.441698 213 213 213 0
-7.336026 0.190546 24.907992 213 213 213 0
-10.143258 0.266928 34.892528 213 213 213 0
-10.015903 0.267091 34.913823 213 213 213 0
-9.885657 0.267180 34.925479 214 214 214 0
-9.753384 0.267216 34.930195 213 213 213 0
-9.621441 0.267262 34.936243 213 213 213 0
-9.487721 0.267260 34.935915 214 214 214 0
-9.356725 0.267335 34.945751 213 213 213 0
-9.226731 0.267441 34.959670 214 214 214 0
-9.095092 0.267503 34.967673 213 213 213 0
-8.961341 0.267503 34.967673 215 215 215 0
-8.827589 0.267503 34.967673 214 214 214 0
-8.693838 0.267503 34.967673 214 214 214 0
-8.560086 0.267503 34.967673 215 215 215 0
-8.319729 0.264118 34.525279 214 214 214 0
-8.160848 0.263253 34.412177 214 214 214 0
-3.687177 0.120891 15.802750 215 215 215 0
-3.645836 0.121528 15.885996 214 214 214 0
-3.594685 0.121854 15.928590 214 214 214 0
-3.542356 0.122150 15.967345 214 214 214 0
-3.484411 0.122260 15.981702 215 215 215 0
-3.438853 0.122816 16.054403 215 215 215 0
-3.380908 0.122942 16.070866 215 215 215 0
-3.326497 0.123204 16.105047 215 215 215 0
-3.272937 0.123507 16.144712 215 215 215 0
-3.209503 0.123442 16.136267 215 215 215 0
-3.159443 0.123900 16.196045 215 215 215 0
-3.120336 0.124813 16.315481 215 215 215 0
-3.076783 0.125583 16.416078 214 214 214 0
-3.023030 0.125960 16.465302 215 215 215 0
-2.950276 0.125544 16.410936 215 215 215 0
-2.874193 0.124965 16.335281 215 215 215 0
-2.801423 0.124508 16.275515 215 215 215 0
-2.729852 0.124084 16.220152 215 215 215 0
-2.619402 0.121833 15.925835 215 215 215 0
-2.663805 0.126848 16.581416 215 215 215 0
-2.588186 0.126253 16.503657 215 215 215 0
-2.505350 0.125268 16.374839 216 216 216 0
-2.436427 0.124945 16.332676 215 215 215 0
-2.366242 0.124539 16.279617 216 216 216 0
-2.305697 0.124632 16.291802 215 215 215 0
-2.251861 0.125103 16.353382 216 216 216 0
-2.206917 0.126110 16.484904 216 216 216 0
-2.143512 0.126089 16.482212 216 216 216 0
-2.077262 0.125895 16.456819 216 216 216 0
-2.006984 0.125436 16.396926 216 216 216 0
-1.946948 0.125610 16.419550 216 216 216 0
-1.890457 0.126030 16.474567 216 216 216 0
-1.832123 0.126353 16.516771 216 216 216 0
-1.774035 0.126717 16.564283 216 216 216 0
-1.711325 0.126765 16.570566 216 216 216 0
-1.647047 0.126696 16.561562 216 216 216 0
-1.581936 0.126555 16.543126 216 216 216 0
-1.523098 0.126925 16.591486 217 217 217 0
-1.465425 0.127428 16.657288 216 216 216 0
-1.406408 0.127855 16.713105 216 216 216 0
-1.347278 0.128312 16.772831 217 217 217 0
-1.954768 0.195477 25.552519 217 217 217 0
-1.851951 0.194942 25.482646 216 216 216 0
-1.741511 0.193501 25.294280 217 217 217 0
-1.635590 0.192422 25.153256 217 217 217 0
-1.529506 0.191188 24.991924 217 217 217 0
-1.430989 0.190798 24.940979 217 217 217 0
-1.335414 0.190773 24.937697 217 217 217 0
-1.232882 0.189674 24.794004 217 217 217 0
-1.131325 0.188554 24.647594 217 217 217 0
-1.031441 0.187535 24.514334 217 217 217 0
-0.931983 0.186397 24.365567 217 217 217 0
-0.834626 0.185473 24.244775 218 218 218 0
-0.738863 0.184716 24.145835 217 217 217 0
-0.647708 0.185059 24.190777 217 217 217 0
-0.554282 0.184761 24.151735 217 217 217 0
-0.460556 0.184222 24.081342 217 217 217 0
-0.366589 0.183295 23.960078 217 217 217 0
-0.274011 0.182674 23.878943 217 217 217 0
-0.182263 0.182263 23.825249 217 217 217 0
-0.090944 0.181888 23.776176 218 218 218 0
0.000000 0.181677 23.748656 217 217 217 0
0.090633 0.181266 23.694890 218 218 218 0
0.180732 0.180732 23.625035 218 218 218 0
0.270120 0.180080 23.539884 217 217 217 0
0.359168 0.179584 23.475038 217 217 217 0
0.447931 0.179172 23.421222 218 218 218 0
0.538308 0.179436 23.455696 218 218 218 0
0.627743 0.179355 23.445118 218 218 218 0
0.716404 0.179101 23.411910 218 218 218 0
0.801973 0.178216 23.296251 218 218 218 0
0.886327 0.177265 23.171943 218 218 218 0
0.971555 0.176646 23.091037 218 218 218 0
1.056918 0.176153 23.026544 218 218 218 0
1.130118 0.173864 22.727363 218 218 218 0
1.237151 0.176736 23.102733 218 218 218 0
1.316592 0.175546 22.947145 218 218 218 0
1.395923 0.174490 22.809195 218 218 218 0
1.475977 0.173644 22.698613 218 218 218 0
1.557225 0.173025 22.617651 218 218 218 0
1.643548 0.173005 22.615043 218 218 218 0
1.729508 0.172951 22.607952 218 218 218 0
1.814809 0.172839 22.593328 218 218 218 0
1.895529 0.172321 22.525593 218 218 218 0
1.975822 0.171811 22.458899 218 218 218 0
2.057443 0.171454 22.412230 219 219 219 0
2.142733 0.171419 22.407668 218 218 218 0
2.227253 0.171327 22.395706 219 219 219 0
2.308488 0.170999 22.352826 218 218 218 0
2.387188 0.170513 22.289336 218 218 218 0
2.466241 0.170086 22.233407 219 219 219 0
2.546250 0.169750 22.189540 219 219 219 0
2.629686 0.169657 22.177407 218 218 218 0
2.714286 0.169643 22.175538 218 218 218 0
2.799624 0.169674 22.179635 219 219 219 0
2.879051 0.169356 22.138033 219 219 219 0
2.961162 0.169209 22.118855 219 219 219 0
3.039345 0.168853 22.072226 219 219 219 0
3.118146 0.168548 22.032472 218 218 218 0
3.192318 0.168017 21.962973 219 219 219 0
3.270630 0.167725 21.924783 219 219 219 0
3.349787 0.167489 21.894033 220 220 220 0
3.432342 0.167431 21.886449 218 218 218 0
3.500953 0.166712 21.792424 219 219 219 0
3.577433 0.166392 21.750621 220 220 220 0
3.652316 0.166014 21.701223 220 220 220 0
3.726448 0.165620 21.649664 219 219 219 0
3.802344 0.165319 21.610367 219 219 219 0
3.884528 0.165299 21.607722 220 220 220 0
3.960717 0.165030 21.572533 220 220 220 0
4.036825 0.164768 21.538348 220 220 220 0
4.119730 0.164789 21.541074 220 220 220 0
4.191812 0.164385 21.488207 219 219 219 0
4.269353 0.164206 21.464819 219 219 219 0
4.344152 0.163930 21.428792 219 219 219 0
4.424660 0.163876 21.421736 220 220 220 0
4.498365 0.163577 21.382604 220 220 220 0
4.576795 0.163457 21.366922 220 220 220 0
4.650069 0.163160 21.328146 219 219 219 0
4.730162 0.163109 21.321441 220 220 220 0
4.804868 0.162877 21.291095 219 219 219 0
4.887893 0.162930 21.298008 219 219 219 0
4.970704 0.162974 21.303778 220 220 220 0
5.053592 0.163019 21.309687 220 220 220 0
5.123354 0.162646 21.260934 220 220 220 0
5.188854 0.162152 21.196300 220 220 220 0
5.255931 0.161721 21.139996 221 221 221 0
5.321036 0.161244 21.077584 220 220 220 0
5.227281 0.156038 20.397154 220 220 220 0
5.504126 0.161886 21.161575 220 220 220 0
5.565503 0.161319 21.087441 220 220 220 0
5.619328 0.160552 20.987219 220 220 220 0
5.684575 0.160129 20.931878 220 220 220 0
5.752140 0.159782 20.886493 220 220 220 0
5.829145 0.159703 20.876159 221 221 221 0
5.914364 0.159848 20.895121 220 220 220 0
5.991029 0.159761 20.883763 220 220 220 0
6.057636 0.159411 20.838100 220 220 220 0
6.127405 0.159153 20.804362 220 220 220 0
6.193327 0.158803 20.758595 220 220 220 0
5.151846 0.130426 17.049213 220 220 220 0
-10.845055 0.406690 35.441357 214 214 214 0
-10.709554 0.406692 35.441562 214 214 214 0
-10.574033 0.406694 35.441706 214 214 214 0
-10.272150 0.400214 34.877005 213 213 213 0
-10.143162 0.400388 34.892197 213 213 213 0
-10.015895 0.400636 34.913797 213 213 213 0
-9.885628 0.400769 34.925379 214 214 214 0
-9.753301 0.400821 34.929899 214 214 214 0
-9.621226 0.400884 34.935460 214 214 214 0
-9.487721 0.400890 34.935915 213 213 213 0
-9.356725 0.401002 34.945751 214 214 214 0
-9.226731 0.401162 34.959670 214 214 214 0
-9.095092 0.401254 34.967673 214 214 214 0
-8.961341 0.401254 34.967673 214 214 214 0
-8.827589 0.401254 34.967673 214 214 214 0
-8.693838 0.401254 34.967673 214 214 214 0
-8.560086 0.401254 34.967673 214 214 214 0
-8.319729 0.396178 34.525279 214 214 214 0
-8.160848 0.394880 34.412177 215 215 215 0
-3.691766 0.181562 15.822420 214 214 214 0
-3.648002 0.182400 15.895436 214 214 214 0
-3.595688 0.182832 15.933035 215 215 215 0
-3.540432 0.183126 15.958676 215 215 215 0
-3.486198 0.183484 15.989899 215 215 215 0
-3.431367 0.183823 16.019456 215 215 215 0
-3.382733 0.184513 16.079539 214 214 214 0
-3.326245 0.184791 16.103824 215 215 215 0
-3.271827 0.185198 16.139237 215 215 215 0
-3.209713 0.185176 16.137320 215 215 215 0
-3.158244 0.185779 16.189898 215 215 215 0
-3.120572 0.187234 16.316718 216 216 216 0
-3.080869 0.188625 16.437875 215 215 215 0
-3.022458 0.188904 16.462189 215 215 215 0
-2.950463 0.188327 16.411973 216 216 216 0
-2.873796 0.187421 16.333027 216 216 216 0
-2.803876 0.186925 16.289767 216 216 216 0
-2.731437 0.186234 16.229575 215 215 215 0
-2.619402 0.182749 15.925835 216 216 216 0
-2.661013 0.190072 16.564040 215 215 215 0
-2.586284 0.189240 16.491530 215 215 215 0
-2.509298 0.188197 16.400640 215 215 215 0
-2.436033 0.187387 16.330032 215 215 215 0
-2.368494 0.186986 16.295106 216 216 216 0
-2.304393 0.186843 16.282586 215 215 215 0
-2.253222 0.187768 16.363268 216 216 216 0
-2.206437 0.189123 16.481322 216 216 216 0
-2.142765 0.189067 16.476469 216 216 216 0
-2.075603 0.188691 16.443678 216 216 216 0
-2.008388 0.188286 16.408398 216 216 216 0
-1.948206 0.188536 16.430157 216 216 216 0
-1.891690 0.189169 16.485316 216 216 216 0
-1.832888 0.189609 16.523668 216 216 216 0
-1.772183 0.189877 16.546989 216 216 216 0
-1.711821 0.190202 16.575370 216 216 216 0
-1.645303 0.189843 16.544017 216 216 216 0
-1.581916 0.189830 16.542909 216 216 216 0
-1.522644 0.190331 16.586537 216 216 216 0
-1.464272 0.190992 16.644184 216 216 216 0
-1.407407 0.191919 16.724982 217 217 217 0
-1.347817 0.192545 16.779544 216 216 216 0
-1.954789 0.293218 25.552794 216 216 216 0
-1.851922 0.292409 25.482240 216 216 216 0
-1.741676 0.290279 25.296668 216 216 216 0
-1.634414 0.288426 25.135167 217 217 217 0
-1.529417 0.286766 24.990472 216 216 216 0
-1.431760 0.286352 24.954423 217 217 217 0
-1.335844 0.286252 24.945730 217 217 217 0
-1.232983 0.284535 24.796040 217 217 217 0
-1.130611 0.282653 24.632040 216 216 216 0
-1.031180 0.281231 24.508129 218 218 218 0
-0.931992 0.279598 24.365809 218 218 218 0
-0.835030 0.278343 24.256503 217 217 217 0
-0.739368 0.277263 24.162347 218 218 218 0
-0.647725 0.277596 24.191407 217 217 217 0
-0.554488 0.277244 24.160703 217 217 217 0
-0.460818 0.276491 24.095046 217 217 217 0
-0.366689 0.275017 23.966618 217 217 217 0
-0.274098 0.274098 23.886564 217 217 217 0
-0.182297 0.273445 23.829648 218 218 218 0
-0.090913 0.272740 23.768175 218 218 218 0
0.000000 0.272462 23.743972 218 218 218 0
0.090561 0.271682 23.676001 218 218 218 0
0.180764 0.271146 23.629290 217 217 217 0
0.270214 0.270214 23.548021 217 217 217 0
0.359058 0.269294 23.467858 218 218 218 0
0.448225 0.268935 23.436588 218 218 218 0
0.538380 0.269190 23.458819 218 218 218 0
0.627987 0.269137 23.454238 218 218 218 0
0.716396 0.268649 23.411650 218 218 218 0
0.802205 0.267402 23.302974 218 218 218 0
0.886209 0.265863 23.168873 218 218 218 0
0.970816 0.264768 23.073470 218 218 218 0
1.056765 0.264191 23.023210 218 218 218 0
1.132746 0.261403 22.780207 219 219 219 0
1.236733 0.265014 23.094922 218 218 218 0
1.316825 0.263365 22.951206 218 218 218 0
1.395712 0.261696 22.805748 218 218 218 0
1.475914 0.260455 22.697634 219 219 219 0
1.557420 0.259570 22.620486 219 219 219 0
1.642724 0.259377 22.603698 219 219 219 0
1.730216 0.259532 22.617207 218 218 218 0
1.815427 0.259347 22.601022 219 219 219 0
1.895697 0.258504 22.527588 218 218 218 0
1.975578 0.257684 22.456132 218 218 218 0
2.057792 0.257224 22.416032 218 218 218 0
2.140994 0.256919 22.389483 218 218 218 0
2.226906 0.256951 22.392215 219 219 219 0
2.308878 0.256542 22.356606 218 218 218 0
2.386970 0.255747 22.287300 219 219 219 0
2.466877 0.255194 22.239144 219 219 219 0
2.546094 0.254609 22.188182 219 219 219 0
2.629629 0.254480 22.176928 219 219 219 0
2.714910 0.254523 22.180639 219 219 219 0
2.801116 0.254647 22.191452 219 219 219 0
2.878246 0.253963 22.131844 219 219 219 0
2.961479 0.253841 22.121222 219 219 219 0
3.039350 0.253279 22.072261 218 218 218 0
3.118271 0.252833 22.033356 219 219 219 0
3.191282 0.251943 21.955841 219 219 219 0
3.271350 0.251642 21.929612 219 219 219 0
3.351650 0.251374 21.906208 219 219 219 0
3.432639 0.251169 21.888338 219 219 219 0
3.500952 0.250068 21.792418 219 219 219 0
3.578702 0.249677 21.758337 219 219 219 0
3.651722 0.248981 21.697693 219 219 219 0
3.728032 0.248535 21.658865 219 219 219 0
3.800950 0.247888 21.602443 219 219 219 0
3.884362 0.247938 21.606796 220 220 220 0
3.961217 0.247576 21.575254 219 219 219 0
4.036756 0.247148 21.537981 220 220 220 0
4.118817 0.247129 21.536298 220 220 220 0
4.191785 0.246576 21.488070 220 220 220 0
4.269384 0.246311 21.464976 219 219 219 0
4.345195 0.245954 21.433936 220 220 220 0
4.421424 0.245635 21.406073 220 220 220 0
4.496170 0.245246 21.372170 219 219 219 0
4.576917 0.245192 21.367494 220 220 220 0
4.647878 0.244625 21.318096 219 219 219 0
4.728987 0.244603 21.316148 220 220 220 0
4.804704 0.244307 21.290370 220 220 220 0
4.886726 0.244336 21.292924 220 220 220 0
4.969681 0.244411 21.299394 220 220 220 0
5.053075 0.244504 21.307504 220 220 220 0
5.123876 0.243994 21.263100 220 220 220 0
5.188554 0.243213 21.195074 220 220 220 0
5.254682 0.242524 21.134969 220 220 220 0
5.322404 0.241927 21.083004 219 219 219 0
5.256611 0.235371 20.511603 219 219 219 0
5.505768 0.242902 21.167890 220 220 220 0
5.565932 0.241997 21.089066 220 220 220 0
5.618989 0.240814 20.985952 220 220 220 0
5.684396 0.240186 20.931220 220 220 220 0
5.752579 0.239691 20.888086 220 220 220 0
5.829663 0.239575 20.878012 220 220 220 0
5.914329 0.239770 20.894999 220 220 220 0
5.992427 0.239697 20.888634 220 220 220 0
6.057893 0.239127 20.838985 220 220 220 0
6.129024 0.238793 20.809860 221 221 221 0
6.194311 0.238243 20.761894 221 221 221 0
5.152094 0.195649 17.050034 220 220 220 0
-10.845057 0.542253 35.441364 214 214 214 0
-10.709562 0.542256 35.441590 214 214 214 0
-10.574022 0.542258 35.441669 213 213 213 0
-10.272045 0.533613 34.876648 214 214 214 0
-10.143192 0.533852 34.892302 213 213 213 0
-10.015531 0.534162 34.912528 214 214 214 0
-9.885590 0.534356 34.925244 214 214 214 0
-9.753289 0.534427 34.929857 214 214 214 0
-9.621448 0.534525 34.936267 214 214 214 0
-9.487721 0.534519 34.935915 213 213 213 0
-9.356725 0.534670 34.945751 214 214 214 0
-9.226731 0.534883 34.959670 214 214 214 0
-9.095092 0.535005 34.967673 214 214 214 0
-8.961341 0.535005 34.967673 214 214 214 0
