ply
    format ascii 1.0
    element vertex 25595
    property float x
    property float y
    property float z
    property uchar red
    property uchar green
    property uchar blue
    property uchar alpha
    end_header
8.823041 -3.342061 34.949656 202 202 202 0
8.957179 -3.342231 34.951436 202 202 202 0
9.090415 -3.342064 34.949694 202 202 202 0
9.223714 -3.341925 34.948238 203 203 203 0
9.357773 -3.342062 34.949666 202 202 202 0
9.491838 -3.342196 34.951073 202 202 202 0
9.625233 -3.342095 34.950011 202 202 202 0
9.758641 -3.342000 34.949023 202 202 202 0
9.892733 -3.342140 34.950480 203 203 203 0
10.026698 -3.342233 34.951452 202 202 202 0
10.159939 -3.342085 34.949911 202 202 202 0
10.293451 -3.342030 34.949330 202 202 202 0
10.427252 -3.342068 34.949730 203 203 203 0
10.561346 -3.342198 34.951092 202 202 202 0
-10.539266 -3.161780 34.442045 192 192 192 0
-10.329192 -3.137982 34.182813 192 192 192 0
-10.314195 -3.173598 34.570788 193 193 193 0
-10.307551 -3.212743 34.997201 193 193 193 0
-10.174090 -3.212871 34.998591 193 193 193 0
-9.963642 -3.188365 34.731649 193 193 193 0
-9.904956 -3.212418 34.993662 193 193 193 0
-9.769232 -3.211802 34.986953 193 193 193 0
-9.635971 -3.211990 34.989002 194 194 194 0
-9.503949 -3.212602 34.995669 194 194 194 0
-9.369674 -3.212460 34.994113 194 194 194 0
-9.232416 -3.211275 34.981210 193 193 193 0
-9.098808 -3.211344 34.981959 194 194 194 0
-8.966359 -3.211830 34.987258 194 194 194 0
-8.833781 -3.212284 34.992199 194 194 194 0
-8.697561 -3.211407 34.982647 194 194 194 0
-8.562644 -3.210992 34.978122 194 194 194 0
-8.429557 -3.211260 34.981044 194 194 194 0
-8.296867 -3.211690 34.985735 194 194 194 0
-8.162381 -3.211428 34.982881 194 194 194 0
-8.027046 -3.210818 34.976235 195 195 195 0
-7.892868 -3.210658 34.974488 194 194 194 0
-7.760282 -3.211151 34.979862 195 195 195 0
-7.627089 -3.211406 34.982634 195 195 195 0
-7.490903 -3.210387 34.971537 195 195 195 0
-7.356356 -3.210046 34.967824 195 195 195 0
-7.223804 -3.210580 34.973634 195 195 195 0
-7.091012 -3.211025 34.978481 195 195 195 0
-6.804524 -3.140549 34.210778 196 196 196 0
-6.820721 -3.209751 34.964610 195 195 195 0
-6.688053 -3.210266 34.970213 196 196 196 0
-6.555462 -3.210838 34.976454 196 196 196 0
-6.421555 -3.210778 34.975790 195 195 195 0
-6.286236 -3.209993 34.967243 195 195 195 0
-6.152294 -3.209892 34.966148 196 196 196 0
-6.019316 -3.210302 34.970610 196 196 196 0
-5.885734 -3.210401 34.971684 196 196 196 0
-5.751262 -3.210007 34.967392 196 196 196 0
-5.617031 -3.209732 34.964402 197 197 197 0
-5.483594 -3.209909 34.966327 196 196 196 0
-5.350390 -3.210234 34.969869 196 196 196 0
-5.216061 -3.209884 34.966052 197 197 197 0
-5.081436 -3.209328 34.960002 196 196 196 0
-4.948205 -3.209647 34.963471 196 196 196 0
-4.815104 -3.210069 34.968075 196 196 196 0
-4.681050 -3.209863 34.965828 197 197 197 0
-4.546427 -3.209242 34.959066 198 198 198 0
-4.413032 -3.209478 34.961632 197 197 197 0
-4.279852 -3.209889 34.966114 197 197 197 0
-4.146202 -3.209963 34.966913 198 198 198 0
-4.011789 -3.209431 34.961126 198 198 198 0
-3.877866 -3.209268 34.959347 198 198 198 0
-3.744598 -3.209655 34.963566 198 198 198 0
-3.610999 -3.209777 34.964890 197 197 197 0
-3.476981 -3.209521 34.962099 198 198 198 0
-3.342973 -3.209254 34.959195 197 197 197 0
-3.209467 -3.209467 34.961515 198 198 198 0
-3.075985 -3.209723 34.964307 198 198 198 0
-2.942040 -3.209498 34.961852 198 198 198 0
-2.807976 -3.209116 34.957688 198 198 198 0
-2.674302 -3.209162 34.958196 198 198 198 0
-2.540841 -3.209483 34.961691 198 198 198 0
-2.406980 -3.209307 34.959771 198 198 198 0
-2.272922 -3.208831 34.954586 198 198 198 0
-2.139414 -3.209121 34.957746 198 198 198 0
-2.005879 -3.209406 34.960854 198 198 198 0
-1.872154 -3.209407 34.960858 199 199 199 0
-1.738252 -3.209080 34.957298 198 198 198 0
-1.604497 -3.208995 34.956370 199 199 199 0
-1.470954 -3.209353 34.960274 198 198 198 0
-1.337212 -3.209308 34.959784 198 198 198 0
-1.203391 -3.209042 34.956882 199 199 199 0
-1.069660 -3.208979 34.956195 199 199 199 0
-0.935989 -3.209105 34.957570 199 199 199 0
-0.802286 -3.209145 34.958011 199 199 199 0
-0.668540 -3.208993 34.956353 199 199 199 0
-0.534785 -3.208713 34.953297 199 199 199 0
-0.401113 -3.208904 34.955377 199 199 199 0
-0.267421 -3.209047 34.956934 199 199 199 0
-0.133701 -3.208829 34.954569 200 200 200 0
0.000000 -3.208635 34.952454 199 199 199 0
0.133705 -3.208928 34.955645 199 199 199 0
0.267420 -3.209043 34.956892 200 200 200 0
0.401119 -3.208955 34.955940 199 199 199 0
0.534804 -3.208826 34.954536 200 200 200 0
0.668508 -3.208836 34.954642 199 199 199 0
0.802236 -3.208943 34.955806 200 200 200 0
0.935920 -3.208869 34.955002 200 200 200 0
1.069597 -3.208791 34.954145 200 200 200 0
1.203321 -3.208857 34.954867 200 200 200 0
1.337021 -3.208850 34.954795 200 200 200 0
1.470724 -3.208852 34.954820 200 200 200 0
1.604423 -3.208846 34.954753 200 200 200 0
1.738058 -3.208722 34.953397 201 201 201 0
1.871783 -3.208770 34.953922 201 201 201 0
2.005470 -3.208752 34.953730 201 201 201 0
2.139129 -3.208693 34.953082 200 200 200 0
2.272765 -3.208609 34.952166 200 200 200 0
2.406612 -3.208816 34.954422 200 200 200 0
2.540347 -3.208859 34.954892 200 200 200 0
2.674036 -3.208844 34.954725 201 201 201 0
2.807660 -3.208754 34.953749 201 201 201 0
2.941307 -3.208699 34.953144 201 201 201 0
3.074988 -3.208683 34.952978 201 201 201 0
3.208704 -3.208704 34.953203 201 201 201 0
3.342458 -3.208760 34.953809 201 201 201 0
3.476079 -3.208688 34.953033 200 200 200 0
3.609798 -3.208709 34.953260 200 200 200 0
3.743458 -3.208678 34.952923 200 200 200 0
3.877030 -3.208576 34.951813 201 201 201 0
4.010602 -3.208481 34.950778 202 202 202 0
4.144359 -3.208536 34.951376 201 201 201 0
4.278094 -3.208571 34.951751 201 201 201 0
4.411613 -3.208446 34.950387 202 202 202 0
4.545425 -3.208535 34.951364 201 201 201 0
4.679241 -3.208622 34.952312 201 201 201 0
4.813015 -3.208677 34.952906 202 202 202 0
4.946562 -3.208581 34.951861 201 201 201 0
5.080101 -3.208485 34.950812 202 202 202 0
5.213780 -3.208480 34.950759 201 201 201 0
5.347693 -3.208616 34.952245 202 202 202 0
5.481354 -3.208598 34.952044 201 201 201 0
5.614853 -3.208488 34.950846 202 202 202 0
5.748719 -3.208587 34.951930 201 201 201 0
5.882531 -3.208653 34.952649 201 201 201 0
6.015898 -3.208479 34.950751 202 202 202 0
6.149371 -3.208367 34.949534 201 201 201 0
6.283193 -3.208439 34.950317 202 202 202 0
6.416992 -3.208496 34.950938 202 202 202 0
6.550359 -3.208339 34.949230 201 201 201 0
6.684149 -3.208392 34.949799 202 202 202 0
6.818147 -3.208540 34.951414 202 202 202 0
6.952045 -3.208636 34.952463 202 202 202 0
7.085330 -3.208451 34.950451 201 201 201 0
7.218797 -3.208354 34.949391 201 201 201 0
7.352661 -3.208434 34.950260 202 202 202 0
7.486569 -3.208530 34.951302 201 201 201 0
7.619953 -3.208401 34.949905 202 202 202 0
7.753454 -3.208326 34.949082 202 202 202 0
7.887611 -3.208520 34.951194 201 201 201 0
8.021396 -3.208558 34.951616 202 202 202 0
8.154520 -3.208336 34.949190 202 202 202 0
8.288227 -3.208346 34.949301 202 202 202 0
8.422265 -3.208482 34.950784 202 202 202 0
8.555995 -3.208498 34.950958 202 202 202 0
8.689158 -3.208305 34.948852 202 202 202 0
8.823010 -3.208367 34.949536 202 202 202 0
8.957079 -3.208506 34.951045 202 202 202 0
9.090408 -3.208379 34.949667 202 202 202 0
9.223731 -3.208254 34.948304 202 202 202 0
9.357723 -3.208362 34.949478 202 202 202 0
9.491757 -3.208481 34.950778 202 202 202 0
9.625282 -3.208427 34.950189 202 202 202 0
9.758621 -3.208314 34.948952 202 202 202 0
9.892696 -3.208442 34.950347 202 202 202 0
10.026713 -3.208548 34.951505 202 202 202 0
10.160039 -3.208433 34.950255 202 202 202 0
10.293507 -3.208366 34.949518 203 203 203 0
10.427327 -3.208408 34.949981 202 202 202 0
10.561336 -3.208507 34.951058 203 203 203 0
-10.513248 -3.022559 34.357018 192 192 192 0
-10.343658 -3.011445 34.230687 193 193 193 0
-10.315917 -3.041873 34.576561 192 192 192 0
-10.307723 -3.078930 34.997787 193 193 193 0
-10.174379 -3.079088 34.999585 193 193 193 0
-9.952762 -3.052180 34.693722 193 193 193 0
-9.904973 -3.078573 34.993722 193 193 193 0
-9.769193 -3.077965 34.986814 193 193 193 0
-9.635779 -3.078096 34.988304 193 193 193 0
-9.503746 -3.078678 34.994921 194 194 194 0
-9.369982 -3.078709 34.995266 194 194 194 0
-9.232543 -3.077514 34.981691 193 193 193 0
-9.098817 -3.077541 34.981996 194 194 194 0
-8.966543 -3.078067 34.987973 195 195 195 0
-8.833763 -3.078433 34.992129 194 194 194 0
-8.697553 -3.077596 34.982615 194 194 194 0
-8.562531 -3.077159 34.977658 194 194 194 0
-8.429502 -3.077437 34.980816 195 195 195 0
-8.296769 -3.077834 34.985322 195 195 195 0
-8.162335 -3.077602 34.982686 194 194 194 0
-8.027144 -3.077072 34.976664 194 194 194 0
-7.892980 -3.076924 34.974986 194 194 194 0
-7.760428 -3.077411 34.980520 194 194 194 0
-7.627018 -3.077569 34.982310 195 195 195 0
-7.490879 -3.076611 34.971425 195 195 195 0
-7.356321 -3.076280 34.967660 195 195 195 0
-7.223602 -3.076719 34.972654 195 195 195 0
-7.090765 -3.077124 34.977260 195 195 195 0
-6.639722 -2.936800 33.382214 195 195 195 0
-6.820966 -3.076122 34.965863 195 195 195 0
-6.687872 -3.076421 34.969265 196 196 196 0
-6.555449 -3.077047 34.976384 195 195 195 0
-6.421456 -3.076948 34.975249 195 195 195 0
-6.286181 -3.076216 34.966935 195 195 195 0
-6.152319 -3.076160 34.966294 196 196 196 0
-6.019504 -3.076636 34.971703 196 196 196 0
-5.885759 -3.076647 34.971831 196 196 196 0
-5.751252 -3.076251 34.967332 196 196 196 0
-5.617066 -3.076012 34.964617 196 196 196 0
-5.483668 -3.076204 34.966796 197 197 197 0
-5.350403 -3.076482 34.969955 197 197 197 0
-5.216060 -3.076138 34.966046 197 197 197 0
-5.081425 -3.075599 34.959924 197 197 197 0
-4.948134 -3.075867 34.962967 197 197 197 0
-4.815094 -3.076310 34.968003 196 196 196 0
-4.681008 -3.076091 34.965513 197 197 197 0
-4.546412 -3.075514 34.958958 197 197 197 0
-4.413028 -3.075747 34.961600 197 197 197 0
-4.279779 -3.076091 34.965516 197 197 197 0
-4.146181 -3.076199 34.966742 197 197 197 0
-4.011749 -3.075674 34.960775 198 198 198 0
-3.877880 -3.075560 34.959478 198 198 198 0
-3.744591 -3.075914 34.963497 197 197 197 0
-3.611048 -3.076078 34.965363 197 197 197 0
-3.476948 -3.075762 34.961769 197 197 197 0
-3.342999 -3.075559 34.959464 197 197 197 0
-3.209466 -3.075738 34.961498 198 198 198 0
-3.075949 -3.075949 34.963898 198 198 198 0
-2.942059 -3.075789 34.962085 198 198 198 0
-2.807936 -3.075359 34.957187 199 199 199 0
-2.674323 -3.075471 34.958471 198 198 198 0
-2.540847 -3.075762 34.961768 198 198 198 0
-2.406959 -3.075559 34.959469 199 199 199 0
-2.272934 -3.075146 34.954768 198 198 198 0
-2.139412 -3.075405 34.957710 198 198 198 0
-2.005888 -3.075695 34.961009 198 198 198 0
-1.872158 -3.075688 34.960935 198 198 198 0
-1.738256 -3.075375 34.957376 199 199 199 0
-1.604530 -3.075350 34.957088 199 199 199 0
-1.470944 -3.075610 34.960041 199 199 199 0
-1.337210 -3.075584 34.959746 199 199 199 0
-1.203411 -3.075385 34.957484 199 199 199 0
-1.069666 -3.075291 34.956416 198 198 198 0
-0.935983 -3.075371 34.957333 199 199 199 0
-0.802289 -3.075441 34.958125 199 199 199 0
-0.668534 -3.075258 34.956050 199 199 199 0
-0.534786 -3.075019 34.953326 200 200 200 0
-0.401113 -3.075198 34.955366 199 199 199 0
-0.267420 -3.075335 34.956923 199 199 199 0
-0.133702 -3.075157 34.954898 199 199 199 0
0.000000 -3.074954 34.952584 200 200 200 0
0.133706 -3.075237 34.955805 200 200 200 0
0.267419 -3.075316 34.956698 199 199 199 0
0.401120 -3.075250 34.955949 199 199 199 0
0.534804 -3.075123 34.954509 200 200 200 0
0.668509 -3.075141 34.954717 200 200 200 0
0.802229 -3.075213 34.955531 200 200 200 0
0.935914 -3.075147 34.954782 199 199 199 0
1.069608 -3.075123 34.954514 200 200 200 0
1.203323 -3.075159 34.954920 200 200 200 0
1.337030 -3.075168 34.955025 200 200 200 0
1.470718 -3.075137 34.954667 200 200 200 0
1.604423 -3.075143 34.954739 200 200 200 0
1.738061 -3.075030 34.953455 200 200 200 0
1.871781 -3.075068 34.953885 200 200 200 0
2.005452 -3.075026 34.953411 200 200 200 0
2.139150 -3.075028 34.953431 200 200 200 0
2.272783 -3.074942 34.952450 200 200 200 0
2.406613 -3.075116 34.954433 200 200 200 0
2.540319 -3.075123 34.954509 201 201 201 0
2.674044 -3.075151 34.954830 201 201 201 0
2.807651 -3.075046 34.953640 200 200 200 0
2.941310 -3.075006 34.953182 201 201 201 0
3.074990 -3.074990 34.952996 201 201 201 0
3.208726 -3.075029 34.953441 201 201 201 0
3.342427 -3.075033 34.953490 201 201 201 0
3.476069 -3.074984 34.952932 201 201 201 0
3.609801 -3.075015 34.953288 201 201 201 0
3.743453 -3.074979 34.952874 200 200 200 0
3.877036 -3.074890 34.951867 201 201 201 0
4.010649 -3.074831 34.951189 201 201 201 0
4.144309 -3.074810 34.950952 201 201 201 0
4.278089 -3.074876 34.951703 201 201 201 0
4.411673 -3.074803 34.950869 201 201 201 0
4.545440 -3.074856 34.951478 201 201 201 0
4.679222 -3.074917 34.952174 201 201 201 0
4.813011 -3.074979 34.952879 201 201 201 0
4.946564 -3.074891 34.951874 201 201 201 0
5.080076 -3.074783 34.950640 201 201 201 0
5.213780 -3.074794 34.950765 201 201 201 0
5.347690 -3.074922 34.952225 201 201 201 0
5.481374 -3.074917 34.952170 202 202 202 0
5.614888 -3.074820 34.951063 201 201 201 0
5.748689 -3.074880 34.951751 202 202 202 0
5.882482 -3.074934 34.952360 202 202 202 0
6.015871 -3.074778 34.950593 202 202 202 0
6.149366 -3.074683 34.949509 202 202 202 0
6.283187 -3.074751 34.950284 202 202 202 0
6.417004 -3.074814 34.951000 201 201 201 0
6.550360 -3.074659 34.949234 201 201 201 0
6.684132 -3.074701 34.949711 201 201 201 0
6.818151 -3.074852 34.951435 202 202 202 0
6.952043 -3.074942 34.952452 202 202 202 0
7.085317 -3.074760 34.950387 202 202 202 0
7.218849 -3.074695 34.949644 202 202 202 0
7.352735 -3.074780 34.950612 202 202 202 0
7.486567 -3.074840 34.951294 201 201 201 0
7.619961 -3.074721 34.949943 201 201 201 0
7.753549 -3.074683 34.949513 202 202 202 0
7.887611 -3.074831 34.951195 201 201 201 0
8.021431 -3.074882 34.951769 202 202 202 0
8.154492 -3.074644 34.949069 201 201 201 0
8.288181 -3.074648 34.949108 201 201 201 0
8.422294 -3.074806 34.950903 202 202 202 0
8.555994 -3.074810 34.950955 202 202 202 0
8.689111 -3.074609 34.948663 202 202 202 0
8.823061 -3.074703 34.949738 202 202 202 0
8.957121 -3.074832 34.951208 202 202 202 0
9.090394 -3.074692 34.949612 202 202 202 0
9.223753 -3.074584 34.948387 202 202 202 0
9.357768 -3.074695 34.949646 202 202 202 0
9.491801 -3.074809 34.950939 202 202 202 0
9.625256 -3.074735 34.950094 202 202 202 0
9.758708 -3.074662 34.949264 202 202 202 0
9.892665 -3.074747 34.950239 202 202 202 0
10.026757 -3.074872 34.951659 202 202 202 0
10.160062 -3.074756 34.950335 202 202 202 0
10.293447 -3.074666 34.949314 202 202 202 0
10.427366 -3.074736 34.950113 202 202 202 0
10.561412 -3.074841 34.951308 202 202 202 0
-10.498862 -2.887187 34.310007 193 193 193 0
-10.326316 -2.875683 34.173297 193 193 193 0
-10.323939 -2.911880 34.603450 193 193 193 0
-10.307905 -2.945116 34.998405 192 192 192 0
-10.174348 -2.945206 34.999478 193 193 193 0
-9.942141 -2.916361 34.656702 193 193 193 0
-9.904691 -2.944638 34.992726 193 193 193 0
-9.768897 -2.944051 34.985753 193 193 193 0
-9.636002 -2.944334 34.989114 193 193 193 0
-9.503759 -2.944827 34.994971 193 193 193 0
-9.369840 -2.944807 34.994732 194 194 194 0
-9.232450 -2.943680 34.981341 193 193 193 0
-9.098859 -2.943748 34.982156 194 194 194 0
-8.966545 -2.944239 34.987982 194 194 194 0
-8.833744 -2.944581 34.992056 194 194 194 0
-8.697538 -2.943782 34.982557 194 194 194 0
-8.562578 -2.943386 34.977851 193 193 193 0
-8.429701 -2.943705 34.981640 195 195 195 0
-8.297043 -2.944112 34.986478 195 195 195 0
-8.162378 -2.943809 34.982871 195 195 195 0
-8.027016 -2.943239 34.976104 195 195 195 0
-7.892876 -2.943106 34.974527 195 195 195 0
-7.760389 -2.943596 34.980342 194 194 194 0
-7.626972 -2.943743 34.982096 195 195 195 0
-7.490858 -2.942837 34.971328 196 196 196 0
-7.356148 -2.942459 34.966833 195 195 195 0
-7.223420 -2.942875 34.971775 196 196 196 0
-7.090765 -2.943337 34.977262 195 195 195 0
-6.569135 -2.779249 33.027325 196 196 196 0
-6.820960 -2.942375 34.965831 195 195 195 0
-6.687907 -2.942679 34.969446 195 195 195 0
-6.555332 -2.943210 34.975760 196 196 196 0
-6.421539 -2.943205 34.975702 196 196 196 0
-6.286219 -2.942485 34.967147 196 196 196 0
-6.152385 -2.942445 34.966669 196 196 196 0
-6.019341 -2.942789 34.970753 196 196 196 0
-5.885684 -2.942842 34.971387 196 196 196 0
-5.751265 -2.942508 34.967412 196 196 196 0
-5.617001 -2.942239 34.964215 197 197 197 0
-5.483671 -2.942457 34.966814 196 196 196 0
-5.350370 -2.942704 34.969740 196 196 196 0
-5.216124 -2.942429 34.966479 196 196 196 0
-5.081441 -2.941887 34.960033 197 197 197 0
-4.948127 -2.942129 34.962917 196 196 196 0
-4.815144 -2.942588 34.968363 197 197 197 0
-4.681088 -2.942398 34.966109 197 197 197 0
-4.546412 -2.941796 34.958953 197 197 197 0
-4.413014 -2.942009 34.961489 197 197 197 0
-4.279846 -2.942394 34.966061 198 198 198 0
-4.146209 -2.942471 34.966973 197 197 197 0
-4.011772 -2.941966 34.960973 197 197 197 0
-3.877950 -2.941893 34.960105 197 197 197 0
-3.744577 -2.942167 34.963367 197 197 197 0
-3.610966 -2.942268 34.964569 198 198 198 0
-3.476942 -2.942028 34.961706 198 198 198 0
-3.343005 -2.941844 34.959527 197 197 197 0
-3.209415 -2.941964 34.960949 198 198 198 0
-3.075966 -2.942228 34.964093 198 198 198 0
-2.942075 -2.942075 34.962268 199 199 199 0
-2.807945 -2.941657 34.957299 198 198 198 0
-2.674321 -2.941753 34.958447 198 198 198 0
-2.540847 -2.942034 34.961781 198 198 198 0
-2.406972 -2.941854 34.959645 199 199 199 0
-2.272946 -2.941460 34.954958 198 198 198 0
-2.139413 -2.941693 34.957734 198 198 198 0
-2.005866 -2.941937 34.960633 198 198 198 0
-1.872139 -2.941932 34.960575 199 199 199 0
-1.738263 -2.941675 34.957519 199 199 199 0
-1.604515 -2.941610 34.956744 199 199 199 0
-1.470969 -2.941938 34.960644 199 199 199 0
-1.337218 -2.941881 34.959958 199 199 199 0
-1.203412 -2.941673 34.957495 199 199 199 0
-1.069658 -2.941559 34.956142 200 200 200 0
-0.935991 -2.941685 34.957632 199 199 199 0
-0.802278 -2.941685 34.957633 200 200 200 0
-0.668534 -2.941549 34.956021 199 199 199 0
-0.534784 -2.941315 34.953234 199 199 199 0
-0.401115 -2.941508 34.955536 199 199 199 0
-0.267421 -2.941634 34.957030 200 200 200 0
-0.133702 -2.941438 34.954695 199 199 199 0
0.000000 -2.941212 34.952008 199 199 199 0
0.133705 -2.941510 34.955561 200 200 200 0
0.267419 -2.941609 34.956729 200 200 200 0
0.401120 -2.941544 34.955957 200 200 200 0
0.534803 -2.941416 34.954443 200 200 200 0
0.668509 -2.941441 34.954735 200 200 200 0
0.802235 -2.941527 34.955763 200 200 200 0
0.935920 -2.941462 34.954987 199 199 199 0
1.069582 -2.941350 34.953658 199 199 199 0
1.203322 -2.941453 34.954882 200 200 200 0
1.337016 -2.941434 34.954657 200 200 200 0
1.470733 -2.941466 34.955038 200 200 200 0
1.604405 -2.941409 34.954353 200 200 200 0
1.738055 -2.941324 34.953351 200 200 200 0
1.871763 -2.941342 34.953559 200 200 200 0
2.005483 -2.941376 34.953960 201 201 201 0
2.139162 -2.941347 34.953624 200 200 200 0
2.272787 -2.941254 34.952518 201 201 201 0
2.406624 -2.941429 34.954594 201 201 201 0
2.540347 -2.941454 34.954894 200 200 200 0
2.674053 -2.941459 34.954946 201 201 201 0
2.807649 -2.941347 34.953619 201 201 201 0
2.941313 -2.941313 34.953216 201 201 201 0
3.074976 -2.941282 34.952844 200 200 200 0
3.208718 -2.941325 34.953354 200 200 200 0
3.342432 -2.941340 34.953536 201 201 201 0
3.476047 -2.941270 34.952709 201 201 201 0
3.609772 -2.941296 34.953009 201 201 201 0
3.743445 -2.941278 34.952803 201 201 201 0
3.877021 -2.941188 34.951729 201 201 201 0
4.010647 -2.941141 34.951176 201 201 201 0
4.144341 -2.941145 34.951220 201 201 201 0
4.278061 -2.941167 34.951478 202 202 202 0
4.411628 -2.941085 34.950511 201 201 201 0
4.545440 -2.941167 34.951480 201 201 201 0
4.679215 -2.941221 34.952123 201 201 201 0
4.813009 -2.941283 34.952860 201 201 201 0
4.946547 -2.941190 34.951752 201 201 201 0
5.080089 -2.941104 34.950734 202 202 202 0
5.213821 -2.941130 34.951041 201 201 201 0
5.347661 -2.941214 34.952035 202 202 202 0
5.481323 -2.941198 34.951848 202 202 202 0
5.614862 -2.941118 34.950898 202 202 202 0
5.748673 -2.941181 34.951651 201 201 201 0
5.882424 -2.941212 34.952016 201 201 201 0
6.015869 -2.941091 34.950581 202 202 202 0
6.149352 -2.940995 34.949431 202 202 202 0
6.283142 -2.941045 34.950032 201 201 201 0
6.416997 -2.941123 34.950962 201 201 201 0
6.550349 -2.940973 34.949176 201 201 201 0
6.684108 -2.941008 34.949585 202 202 202 0
6.818158 -2.941166 34.951472 202 202 202 0
6.952060 -2.941256 34.952541 202 202 202 0
7.085312 -2.941073 34.950359 202 202 202 0
7.218848 -2.941012 34.949637 202 202 202 0
7.352730 -2.941092 34.950586 202 202 202 0
7.486555 -2.941146 34.951235 203 203 203 0
7.619916 -2.941020 34.949737 202 202 202 0
7.753477 -2.940974 34.949186 203 203 203 0
7.887564 -2.941126 34.950988 202 202 202 0
8.021382 -2.941173 34.951556 202 202 202 0
8.154433 -2.940943 34.948820 202 202 202 0
8.288136 -2.940951 34.948917 203 203 203 0
8.422286 -2.941116 34.950872 202 202 202 0
8.556042 -2.941139 34.951152 202 202 202 0
8.689153 -2.940944 34.948830 203 203 203 0
8.823099 -2.941033 34.949888 202 202 202 0
8.957092 -2.941135 34.951097 202 202 202 0
9.090459 -2.941031 34.949863 203 203 203 0
9.223760 -2.940909 34.948414 202 202 202 0
9.357724 -2.940999 34.949483 202 202 202 0
9.491778 -2.941114 34.950853 202 202 202 0
9.625288 -2.941060 34.950211 202 202 202 0
9.758645 -2.940962 34.949039 203 203 203 0
9.892756 -2.941090 34.950560 202 202 202 0
10.026698 -2.941165 34.951454 202 202 202 0
10.160033 -2.941062 34.950235 202 202 202 0
10.293508 -2.941002 34.949524 202 202 202 0
10.427371 -2.941053 34.950129 202 202 202 0
10.561405 -2.941151 34.951288 202 202 202 0
-10.488810 -2.753313 34.277156 193 193 193 0
-10.295506 -2.736780 34.071336 193 193 193 0
-10.298638 -2.772710 34.518646 193 193 193 0
-10.308168 -2.811318 34.999296 193 193 193 0
-10.156661 -2.806446 34.938633 193 193 193 0
-9.958453 -2.788367 34.713560 193 193 193 0
-9.904684 -2.810789 34.992701 193 193 193 0
-9.769056 -2.810276 34.986324 193 193 193 0
-9.635862 -2.810460 34.988604 193 193 193 0
-9.503808 -2.810986 34.995151 194 194 194 0
-9.369944 -2.810983 34.995123 193 193 193 0
-9.232447 -2.809875 34.981327 194 194 194 0
-9.099112 -2.810020 34.983131 194 194 194 0
-8.966575 -2.810419 34.988097 193 193 193 0
-8.833801 -2.810755 34.992278 194 194 194 0
-8.697532 -2.809972 34.982533 194 194 194 0
-8.562389 -2.809534 34.977078 194 194 194 0
-8.429536 -2.809845 34.980957 195 195 195 0
-8.297161 -2.810329 34.986973 194 194 194 0
-8.162257 -2.809957 34.982352 195 195 195 0
-8.026858 -2.809400 34.975417 195 195 195 0
-7.892930 -2.809348 34.974764 195 195 195 0
-7.760341 -2.809779 34.980125 194 194 194 0
-7.626836 -2.809887 34.981476 195 195 195 0
-7.490933 -2.809100 34.971676 195 195 195 0
-7.356256 -2.808752 34.967348 195 195 195 0
-7.223552 -2.809159 34.972416 195 195 195 0
-7.090826 -2.809573 34.977562 195 195 195 0
-6.537392 -2.640101 32.867731 196 196 196 0
-6.821087 -2.808683 34.966484 196 196 196 0
-6.687918 -2.808926 34.969508 196 196 196 0
-6.555433 -2.809471 34.976300 195 195 195 0
-6.421487 -2.809400 34.975418 195 195 195 0
-6.286258 -2.808754 34.967367 196 196 196 0
-6.152358 -2.808685 34.966511 196 196 196 0
-6.019395 -2.809051 34.971068 196 196 196 0
-5.885744 -2.809105 34.971742 195 195 195 0
-5.751223 -2.808737 34.967155 196 196 196 0
-5.617057 -2.808529 34.964563 197 197 197 0
-5.483596 -2.808671 34.966339 196 196 196 0
-5.350388 -2.808954 34.969857 197 197 197 0
-5.216054 -2.808644 34.966004 196 196 196 0
-5.081496 -2.808195 34.960416 196 196 196 0
-4.948129 -2.808398 34.962932 197 197 197 0
-4.815030 -2.808768 34.967540 198 198 198 0
-4.681048 -2.808629 34.965815 196 196 196 0
-4.546375 -2.808055 34.958667 198 198 198 0
-4.412914 -2.808218 34.960698 197 197 197 0
-4.279841 -2.808646 34.966021 198 198 198 0
-4.146162 -2.808691 34.966580 197 197 197 0
-4.011780 -2.808246 34.961048 197 197 197 0
-3.877869 -2.808112 34.959380 197 197 197 0
-3.744625 -2.808469 34.963822 198 198 198 0
-3.610936 -2.808506 34.964277 197 197 197 0
-3.476967 -2.808320 34.961963 197 197 197 0
-3.342997 -2.808118 34.959448 198 198 198 0
-3.209464 -2.808281 34.961486 198 198 198 0
-3.075958 -2.808483 34.964001 198 198 198 0
-2.942021 -2.808292 34.961623 198 198 198 0
-2.807932 -2.807932 34.957140 198 198 198 0
-2.674313 -2.808028 34.958338 198 198 198 0
-2.540834 -2.808290 34.961593 199 199 199 0
-2.406986 -2.808150 34.959851 199 199 199 0
-2.272936 -2.807745 34.954804 199 199 199 0
-2.139398 -2.807960 34.957486 199 199 199 0
-2.005889 -2.808244 34.961023 198 198 198 0
-1.872174 -2.808261 34.961237 199 199 199 0
-1.738262 -2.807961 34.957498 199 199 199 0
-1.604528 -2.807924 34.957033 199 199 199 0
-1.470961 -2.808199 34.960462 199 199 199 0
-1.337206 -2.808133 34.959642 198 198 198 0
-1.203418 -2.807975 34.957677 199 199 199 0
-1.069664 -2.807869 34.956349 199 199 199 0
-0.935990 -2.807971 34.957628 199 199 199 0
-0.802284 -2.807994 34.957912 199 199 199 0
-0.668536 -2.807851 34.956131 199 199 199 0
-0.534784 -2.807617 34.953210 200 200 200 0
-0.401109 -2.807765 34.955055 199 199 199 0
-0.267419 -2.807900 34.956733 200 200 200 0
-0.133703 -2.807760 34.955001 200 200 200 0
0.000000 -2.807563 34.952539 200 200 200 0
0.133705 -2.807804 34.955548 200 200 200 0
0.267419 -2.807904 34.956792 200 200 200 0
0.401121 -2.807848 34.956096 200 200 200 0
0.534804 -2.807723 34.954540 199 199 199 0
0.668509 -2.807739 34.954732 200 200 200 0
0.802231 -2.807810 34.955616 200 200 200 0
0.935922 -2.807766 34.955072 200 200 200 0
1.069600 -2.807700 34.954250 200 200 200 0
1.203328 -2.807765 34.955054 200 200 200 0
1.337027 -2.807756 34.954942 200 200 200 0
1.470695 -2.807691 34.954137 201 201 201 0
1.604420 -2.807735 34.954688 200 200 200 0
1.738055 -2.807628 34.953353 200 200 200 0
1.871789 -2.807683 34.954035 200 200 200 0
2.005465 -2.807651 34.953635 200 200 200 0
2.139161 -2.807649 34.953610 200 200 200 0
2.272772 -2.807541 34.952272 201 201 201 0
2.406604 -2.807704 34.954302 201 201 201 0
2.540326 -2.807729 34.954612 201 201 201 0
2.674053 -2.807755 34.954938 200 200 200 0
2.807650 -2.807650 34.953623 201 201 201 0
2.941322 -2.807626 34.953321 201 201 201 0
3.074956 -2.807568 34.952610 201 201 201 0
3.208689 -2.807603 34.953041 201 201 201 0
3.342410 -2.807625 34.953311 201 201 201 0
3.476079 -2.807602 34.953034 200 200 200 0
3.609775 -2.807603 34.953035 201 201 201 0
3.743430 -2.807573 34.952666 202 202 202 0
3.876996 -2.807480 34.951508 201 201 201 0
4.010608 -2.807426 34.950831 202 202 202 0
4.144359 -2.807469 34.951371 201 201 201 0
4.278089 -2.807496 34.951704 201 201 201 0
4.411640 -2.807407 34.950602 201 201 201 0
4.545444 -2.807480 34.951510 201 201 201 0
4.679222 -2.807533 34.952170 201 201 201 0
4.813047 -2.807611 34.953137 202 202 202 0
4.946546 -2.807499 34.951747 201 201 201 0
5.080095 -2.807421 34.950771 201 201 201 0
5.213757 -2.807407 34.950607 202 202 202 0
5.347668 -2.807526 34.952079 202 202 202 0
5.481361 -2.807526 34.952085 202 202 202 0
5.614920 -2.807460 34.951258 201 201 201 0
5.748617 -2.807464 34.951311 201 201 201 0
5.882480 -2.807547 34.952349 202 202 202 0
6.015872 -2.807407 34.950599 202 202 202 0
6.149276 -2.807278 34.948995 202 202 202 0
6.283159 -2.807369 34.950129 202 202 202 0
6.417019 -2.807446 34.951084 202 202 202 0
6.550382 -2.807306 34.949349 201 201 201 0
6.684126 -2.807333 34.949678 202 202 202 0
6.818160 -2.807477 34.951478 202 202 202 0
6.952037 -2.807554 34.952426 202 202 202 0
7.085308 -2.807386 34.950340 202 202 202 0
7.218839 -2.807326 34.949594 201 201 201 0
7.352722 -2.807403 34.950553 202 202 202 0
7.486571 -2.807464 34.951314 202 202 202 0
7.619883 -2.807325 34.949582 202 202 202 0
7.753500 -2.807302 34.949291 202 202 202 0
7.887564 -2.807438 34.950986 202 202 202 0
8.021356 -2.807475 34.951442 202 202 202 0
8.154472 -2.807277 34.948986 202 202 202 0
8.288135 -2.807271 34.948914 203 203 203 0
8.422328 -2.807443 34.951045 202 202 202 0
8.555978 -2.807430 34.950889 202 202 202 0
8.689148 -2.807263 34.948810 202 202 202 0
8.823024 -2.807326 34.949591 203 203 203 0
8.957144 -2.807463 34.951297 202 202 202 0
9.090452 -2.807345 34.949834 202 202 202 0
9.223691 -2.807210 34.948152 202 202 202 0
9.357759 -2.807328 34.949615 202 202 202 0
9.491808 -2.807436 34.950964 202 202 202 0
9.625241 -2.807362 34.950041 202 202 202 0
9.758655 -2.807284 34.949074 202 202 202 0
9.892701 -2.807388 34.950367 202 202 202 0
10.026702 -2.807477 34.951467 203 203 203 0
10.160048 -2.807382 34.950286 202 202 202 0
10.293496 -2.807317 34.949481 202 202 202 0
10.427407 -2.807379 34.950249 202 202 202 0
10.561393 -2.807459 34.951246 202 202 202 0
-10.487173 -2.621793 34.271806 192 192 192 0
-10.309181 -2.609919 34.116593 193 193 193 0
-10.318558 -2.645784 34.585412 193 193 193 0
-10.308240 -2.677465 34.999541 193 193 193 0
-10.174413 -2.677477 34.999700 193 193 193 0
-9.937744 -2.650065 34.641374 193 193 193 0
-9.905107 -2.677056 34.994196 194 194 194 0
-9.769186 -2.676489 34.986787 193 193 193 0
-9.635775 -2.676604 34.988290 194 194 194 0
-9.503763 -2.677116 34.994985 194 194 194 0
-9.369905 -2.677116 34.994978 193 193 193 0
-9.232671 -2.676136 34.982176 193 193 193 0
-9.098841 -2.676130 34.982086 194 194 194 0
-8.966393 -2.676535 34.987390 194 194 194 0
-8.833629 -2.676857 34.991597 194 194 194 0
-8.697670 -2.676206 34.983086 194 194 194 0
-8.562409 -2.675753 34.977160 195 195 195 0
-8.429525 -2.676040 34.980911 194 194 194 0
-8.296611 -2.676326 34.984654 194 194 194 0
-8.162566 -2.676251 34.983673 194 194 194 0
-8.027081 -2.675694 34.976386 195 195 195 0
-7.892872 -2.675550 34.974509 195 195 195 0
-7.760333 -2.675977 34.980091 195 195 195 0
-7.626786 -2.676065 34.981243 195 195 195 0
-7.490941 -2.675336 34.971712 195 195 195 0
-7.356197 -2.674981 34.967069 195 195 195 0
-7.223701 -2.675445 34.973134 195 195 195 0
-7.090819 -2.675781 34.977527 196 196 196 0
-6.518612 -2.507158 32.773311 195 195 195 0
-6.820977 -2.674893 34.965920 195 195 195 0
-6.688004 -2.675202 34.969955 196 196 196 0
-6.555406 -2.675676 34.976154 196 196 196 0
-6.421502 -2.675626 34.975504 196 196 196 0
-6.286193 -2.674976 34.967002 195 195 195 0
-6.152362 -2.674940 34.966536 196 196 196 0
-6.019293 -2.675241 34.970475 196 196 196 0
-5.885752 -2.675342 34.971790 196 196 196 0
-5.751297 -2.675022 34.967607 196 196 196 0
-5.617083 -2.674801 34.964725 197 197 197 0
-5.483693 -2.674972 34.966960 196 196 196 0
-5.350355 -2.675177 34.969638 197 197 197 0
-5.216147 -2.674947 34.966628 197 197 197 0
-5.081473 -2.674460 34.960257 197 197 197 0
-4.948055 -2.674624 34.962411 197 197 197 0
-4.815117 -2.675065 34.968171 197 197 197 0
-4.681013 -2.674865 34.965552 197 197 197 0
-4.546403 -2.674355 34.958886 197 197 197 0
-4.413030 -2.674564 34.961615 197 197 197 0
-4.279864 -2.674915 34.966208 197 197 197 0
-4.146220 -2.674981 34.967067 198 198 198 0
-4.011834 -2.674556 34.961512 198 198 198 0
-3.877897 -2.674412 34.959634 198 198 198 0
-3.744552 -2.674680 34.963137 198 198 198 0
-3.610973 -2.674794 34.964633 197 197 197 0
-3.476964 -2.674587 34.961928 198 198 198 0
-3.343031 -2.674425 34.959802 197 197 197 0
-3.209466 -2.674555 34.961505 197 197 197 0
-3.075974 -2.674760 34.964179 198 198 198 0
-2.942034 -2.674576 34.961782 199 199 199 0
-2.807897 -2.674188 34.956704 199 199 199 0
-2.674333 -2.674333 34.958600 198 198 198 0
-2.540828 -2.674556 34.961514 198 198 198 0
-2.406994 -2.674438 34.959976 198 198 198 0
-2.272931 -2.674037 34.954728 198 198 198 0
-2.139424 -2.674280 34.957912 198 198 198 0
-2.005890 -2.674520 34.961049 199 199 199 0
-1.872164 -2.674520 34.961044 199 199 199 0
-1.738276 -2.674271 34.957795 198 198 198 0
-1.604525 -2.674208 34.956972 198 198 198 0
-1.470950 -2.674455 34.960201 199 199 199 0
-1.337221 -2.674441 34.960019 199 199 199 0
-1.203410 -2.674244 34.957434 199 199 199 0
-1.069661 -2.674153 34.956245 199 199 199 0
-0.935992 -2.674264 34.957695 200 200 200 0
-0.802293 -2.674312 34.958321 199 199 199 0
-0.668539 -2.674157 34.956303 199 199 199 0
-0.534785 -2.673923 34.953242 200 200 200 0
-0.401110 -2.674064 34.955086 200 200 200 0
-0.267419 -2.674191 34.956745 200 200 200 0
-0.133701 -2.674024 34.954560 199 199 199 0
0.000000 -2.673861 34.952429 200 200 200 0
0.133706 -2.674112 34.955706 199 199 199 0
0.267418 -2.674178 34.956571 200 200 200 0
0.401119 -2.674127 34.955912 200 200 200 0
0.534808 -2.674041 34.954782 200 200 200 0
0.668513 -2.674051 34.954910 200 200 200 0
0.802219 -2.674064 34.955089 200 200 200 0
0.935921 -2.674059 34.955017 200 200 200 0
1.069593 -2.673981 34.954004 200 200 200 0
1.203327 -2.674059 34.955024 200 200 200 0
1.337008 -2.674017 34.954465 200 200 200 0
1.470707 -2.674012 34.954410 200 200 200 0
1.604395 -2.673992 34.954140 200 200 200 0
1.738056 -2.673932 34.953362 200 200 200 0
1.871763 -2.673947 34.953551 200 200 200 0
2.005477 -2.673970 34.953852 201 201 201 0
2.139142 -2.673928 34.953305 201 201 201 0
2.272788 -2.673868 34.952526 200 200 200 0
2.406601 -2.674001 34.954261 200 200 200 0
2.540326 -2.674028 34.954609 200 200 200 0
2.674048 -2.674048 34.954870 201 201 201 0
2.807664 -2.673966 34.953797 201 201 201 0
2.941308 -2.673916 34.953154 201 201 201 0
3.074985 -2.673900 34.952939 200 200 200 0
3.208708 -2.673923 34.953242 201 201 201 0
3.342406 -2.673925 34.953270 201 201 201 0
3.476048 -2.673883 34.952716 201 201 201 0
3.609741 -2.673883 34.952713 201 201 201 0
3.743482 -2.673916 34.953151 201 201 201 0
3.877031 -2.673815 34.951827 202 202 202 0
4.010609 -2.673739 34.950842 201 201 201 0
4.144300 -2.673742 34.950876 201 201 201 0
4.278118 -2.673824 34.951948 201 201 201 0
4.411651 -2.673728 34.950693 201 201 201 0
4.545433 -2.673784 34.951427 201 201 201 0
4.679238 -2.673850 34.952288 202 202 202 0
4.813025 -2.673903 34.952979 201 201 201 0
4.946565 -2.673819 34.951880 201 201 201 0
5.080077 -2.673725 34.950651 201 201 201 0
5.213780 -2.673733 34.950763 201 201 201 0
5.347670 -2.673835 34.952094 201 201 201 0
5.481326 -2.673818 34.951865 202 202 202 0
5.614828 -2.673727 34.950685 202 202 202 0
5.748683 -2.673806 34.951716 202 202 202 0
5.882450 -2.673841 34.952168 202 202 202 0
6.015869 -2.673719 34.950580 202 202 202 0
6.149344 -2.673628 34.949385 201 201 201 0
6.283164 -2.673687 34.950153 201 201 201 0
6.417009 -2.673754 34.951028 202 202 202 0
6.550400 -2.673633 34.949445 202 202 202 0
6.684121 -2.673648 34.949652 202 202 202 0
6.818153 -2.673785 34.951442 202 202 202 0
6.952046 -2.673864 34.952471 201 201 201 0
7.085352 -2.673718 34.950557 202 202 202 0
7.218843 -2.673645 34.949613 202 202 202 0
7.352677 -2.673701 34.950336 202 202 202 0
7.486591 -2.673782 34.951404 202 202 202 0
7.619936 -2.673662 34.949829 202 202 202 0
7.753511 -2.673625 34.949340 202 202 202 0
7.887555 -2.673747 34.950947 202 202 202 0
8.021381 -2.673794 34.951549 202 202 202 0
8.154434 -2.673585 34.948822 203 203 203 0
8.288199 -2.673613 34.949185 202 202 202 0
8.422308 -2.673748 34.950961 202 202 202 0
8.555978 -2.673743 34.950890 202 202 202 0
8.689132 -2.673579 34.948746 202 202 202 0
8.822967 -2.673626 34.949364 202 202 202 0
8.957096 -2.673760 34.951110 202 202 202 0
9.090431 -2.673656 34.949755 203 203 203 0
9.223720 -2.673542 34.948261 202 202 202 0
9.357752 -2.673643 34.949587 202 202 202 0
9.491786 -2.673743 34.950883 203 203 203 0
9.625265 -2.673685 34.950128 203 203 203 0
9.758655 -2.673604 34.949072 202 202 202 0
9.892729 -2.673711 34.950465 202 202 202 0
10.026720 -2.673792 34.951529 202 202 202 0
10.160005 -2.673685 34.950137 202 202 202 0
10.293500 -2.673636 34.949495 202 202 202 0
10.427390 -2.673690 34.950192 202 202 202 0
10.561399 -2.673772 34.951266 203 203 203 0
-10.467826 -2.486109 34.208583 192 192 192 0
-10.313914 -2.480562 34.132254 193 193 193 0
-10.288571 -2.506190 34.484902 193 193 193 0
-10.307984 -2.543529 34.998673 193 193 193 0
-10.165520 -2.541380 34.969108 193 193 193 0
-9.945181 -2.519446 34.667299 193 193 193 0
-9.904866 -2.543141 34.993344 193 193 193 0
-9.768902 -2.542591 34.985772 193 193 193 0
-9.636050 -2.542846 34.989287 193 193 193 0
-9.503988 -2.543321 34.995813 194 194 194 0
-9.369680 -2.543199 34.994137 194 194 194 0
-9.232627 -2.542318 34.982012 193 193 193 0
-9.099226 -2.542431 34.983569 194 194 194 0
-8.966386 -2.542706 34.987361 194 194 194 0
-8.833592 -2.543004 34.991453 194 194 194 0
-8.697453 -2.542332 34.982212 194 194 194 0
-8.562699 -2.542051 34.978345 195 195 195 0
-8.429497 -2.542229 34.980794 194 194 194 0
-8.296925 -2.542606 34.985978 194 194 194 0
-8.162450 -2.542402 34.983178 194 194 194 0
-8.026898 -2.541851 34.975588 195 195 195 0
-7.893034 -2.541825 34.975227 195 195 195 0
-7.760418 -2.542206 34.980473 194 194 194 0
-7.626991 -2.542330 34.982185 195 195 195 0
-7.490952 -2.541573 34.971767 195 195 195 0
-7.356373 -2.541292 34.967904 195 195 195 0
-7.223520 -2.541609 34.972259 195 195 195 0
-7.090910 -2.542024 34.977973 195 195 195 0
-6.562907 -2.397985 32.996011 195 195 195 0
-6.820992 -2.541154 34.965997 196 196 196 0
-6.687925 -2.541412 34.969543 195 195 195 0
-6.555434 -2.541903 34.976307 195 195 195 0
-6.421479 -2.541835 34.975373 196 196 196 0
-6.286229 -2.541242 34.967205 195 195 195 0
-6.152370 -2.541196 34.966582 196 196 196 0
-6.019383 -2.541517 34.970996 196 196 196 0
-5.885670 -2.541539 34.971300 196 196 196 0
-5.751181 -2.541219 34.966898 196 196 196 0
-5.616970 -2.541010 34.964022 196 196 196 0
-5.483709 -2.541231 34.967061 197 197 197 0
-5.350369 -2.541425 34.969734 196 196 196 0
-5.216045 -2.541150 34.965946 197 197 197 0
-5.081472 -2.540736 34.960249 197 197 197 0
-4.948116 -2.540925 34.962842 197 197 197 0
-4.815147 -2.541327 34.968386 197 197 197 0
-4.681086 -2.541161 34.966095 196 196 196 0
-4.546383 -2.540626 34.958734 197 197 197 0
-4.412944 -2.540786 34.960938 197 197 197 0
-4.279816 -2.541141 34.965814 197 197 197 0
-4.146184 -2.541210 34.966765 197 197 197 0
-4.011781 -2.540795 34.961058 198 198 198 0
-3.877910 -2.540699 34.959745 198 198 198 0
-3.744593 -2.540974 34.963524 198 198 198 0
-3.610995 -2.541071 34.964854 197 197 197 0
-3.476973 -2.540865 34.962021 198 198 198 0
-3.343029 -2.540702 34.959783 197 197 197 0
-3.209462 -2.540824 34.961461 198 198 198 0
-3.075978 -2.541026 34.964232 198 198 198 0
-2.942048 -2.540859 34.961944 198 198 198 0
-2.807919 -2.540498 34.956978 198 198 198 0
-2.674275 -2.540562 34.957847 198 198 198 0
-2.540821 -2.540821 34.961420 198 198 198 0
-2.406994 -2.540716 34.959969 198 198 198 0
-2.272941 -2.540346 34.954886 198 198 198 0
-2.139422 -2.540564 34.957881 199 199 199 0
-2.005904 -2.540812 34.961292 199 199 199 0
-1.872152 -2.540778 34.960827 199 199 199 0
-1.738247 -2.540515 34.957213 199 199 199 0
-1.604522 -2.540493 34.956904 199 199 199 0
-1.470950 -2.540732 34.960194 198 198 198 0
-1.337199 -2.540678 34.959448 198 198 198 0
-1.203411 -2.540533 34.957459 198 198 198 0
-1.069656 -2.540432 34.956064 199 199 199 0
-0.935992 -2.540550 34.957692 199 199 199 0
-0.802279 -2.540551 34.957703 199 199 199 0
-0.668538 -2.540443 34.956213 199 199 199 0
-0.534790 -2.540252 34.953589 199 199 199 0
-0.401113 -2.540383 34.955396 199 199 199 0
-0.267421 -2.540497 34.956959 199 199 199 0
-0.133702 -2.540333 34.954699 199 199 199 0
0.000000 -2.540144 34.952106 199 199 199 0
0.133706 -2.540405 34.955687 199 199 199 0
0.267419 -2.540478 34.956694 199 199 199 0
0.401121 -2.540432 34.956067 200 200 200 0
0.534802 -2.540310 34.954389 199 199 199 0
0.668515 -2.540357 34.955035 200 200 200 0
0.802236 -2.540412 34.955796 199 199 199 0
0.935910 -2.540327 34.954619 199 199 199 0
1.069590 -2.540277 34.953929 200 200 200 0
1.203327 -2.540358 34.955047 200 200 200 0
1.337020 -2.540339 34.954783 200 200 200 0
1.470721 -2.540336 34.954746 200 200 200 0
1.604407 -2.540310 34.954391 200 200 200 0
1.738059 -2.540240 34.953422 200 200 200 0
1.871781 -2.540274 34.953888 200 200 200 0
2.005464 -2.540254 34.953622 200 200 200 0
2.139163 -2.540256 34.953645 200 200 200 0
2.272778 -2.540164 34.952378 200 200 200 0
2.406600 -2.540300 34.954244 200 200 200 0
2.540324 -2.540324 34.954585 200 200 200 0
2.674042 -2.540340 34.954802 200 200 200 0
2.807625 -2.540232 34.953309 200 200 200 0
2.941318 -2.540230 34.953278 201 201 201 0
3.074979 -2.540200 34.952869 201 201 201 0
3.208678 -2.540203 34.952919 200 200 200 0
3.342379 -2.540208 34.952986 201 201 201 0
3.475999 -2.540153 34.952224 201 201 201 0
3.609761 -2.540203 34.952907 201 201 201 0
3.743437 -2.540190 34.952729 201 201 201 0
3.876980 -2.540090 34.951364 201 201 201 0
4.010614 -2.540056 34.950886 201 201 201 0
4.144328 -2.540072 34.951115 201 201 201 0
4.278091 -2.540117 34.951728 201 201 201 0
4.411668 -2.540051 34.950827 201 201 201 0
4.545438 -2.540098 34.951464 202 202 202 0
4.679248 -2.540163 34.952366 202 202 202 0
4.813032 -2.540212 34.953031 201 201 201 0
4.946572 -2.540132 34.951934 201 201 201 0
5.080101 -2.540050 34.950814 202 202 202 0
5.213774 -2.540044 34.950725 201 201 201 0
5.347632 -2.540125 34.951846 202 202 202 0
5.481326 -2.540127 34.951864 201 201 201 0
5.614898 -2.540073 34.951121 201 201 201 0
5.748667 -2.540109 34.951615 202 202 202 0
5.882458 -2.540152 34.952216 202 202 202 0
6.015851 -2.540026 34.950480 201 201 201 0
6.149317 -2.539935 34.949233 201 201 201 0
6.283165 -2.540003 34.950159 201 201 201 0
6.417010 -2.540066 34.951035 202 202 202 0
6.550363 -2.539937 34.949251 202 202 202 0
6.684149 -2.539977 34.949798 202 202 202 0
6.818161 -2.540099 34.951484 202 202 202 0
6.952040 -2.540168 34.952439 202 202 202 0
7.085308 -2.540016 34.950341 202 202 202 0
7.218829 -2.539958 34.949545 201 201 201 0
7.352699 -2.540023 34.950439 201 201 201 0
7.486527 -2.540072 34.951108 202 202 202 0
7.619946 -2.539982 34.949873 202 202 202 0
7.753460 -2.539927 34.949111 202 202 202 0
7.887530 -2.540052 34.950836 202 202 202 0
8.021360 -2.540097 34.951458 202 202 202 0
8.154465 -2.539915 34.948957 202 202 202 0
8.288124 -2.539909 34.948869 202 202 202 0
8.422271 -2.540050 34.950807 202 202 202 0
8.555969 -2.540053 34.950854 202 202 202 0
8.689106 -2.539893 34.948641 202 202 202 0
8.823005 -2.539956 34.949515 202 202 202 0
8.957124 -2.540080 34.951221 202 202 202 0
9.090380 -2.539959 34.949559 202 202 202 0
9.223751 -2.539873 34.948378 202 202 202 0
9.357709 -2.539950 34.949429 202 202 202 0
9.491789 -2.540056 34.950894 202 202 202 0
9.625256 -2.539998 34.950094 203 203 203 0
9.758667 -2.539927 34.949118 202 202 202 0
9.892698 -2.540017 34.950354 202 202 202 0
10.026674 -2.540091 34.951369 202 202 202 0
10.160002 -2.540001 34.950128 202 202 202 0
10.293539 -2.539964 34.949628 202 202 202 0
10.427340 -2.539993 34.950026 202 202 202 0
10.561428 -2.540090 34.951363 202 202 202 0
-10.478988 -2.357772 34.245060 192 192 192 0
-10.295620 -2.345838 34.071714 193 193 193 0
-10.277794 -2.371799 34.448782 193 193 193 0
-10.308018 -2.409667 34.998788 193 193 193 0
-10.156817 -2.405562 34.939170 193 193 193 0
-9.961849 -2.390844 34.725398 193 193 193 0
-9.904902 -2.409300 34.993469 193 193 193 0
-9.769397 -2.408892 34.987543 193 193 193 0
-9.635978 -2.408994 34.989025 193 193 193 0
-9.503735 -2.409398 34.994883 194 194 194 0
-9.369885 -2.409399 34.994902 194 194 194 0
-9.232311 -2.408429 34.980814 194 194 194 0
-9.098758 -2.408495 34.981769 194 194 194 0
-8.966564 -2.408928 34.988056 194 194 194 0
-8.833812 -2.409221 34.992322 194 194 194 0
-8.697608 -2.408568 34.982839 194 194 194 0
-8.562677 -2.408253 34.978257 194 194 194 0
-8.429608 -2.408459 34.981255 194 194 194 0
-8.296812 -2.408752 34.985504 195 195 195 0
-8.162318 -2.408553 34.982614 195 195 195 0
-8.027111 -2.408133 34.976519 194 194 194 0
-7.892890 -2.408000 34.974588 196 196 196 0
-7.760405 -2.408402 34.980414 194 194 194 0
-7.626908 -2.408497 34.981803 195 195 195 0
-7.490958 -2.407808 34.971793 195 195 195 0
-7.356316 -2.407522 34.967633 195 195 195 0
-7.223880 -2.407960 34.974002 196 196 196 0
-7.091101 -2.408299 34.978920 195 195 195 0
-6.706221 -2.321384 33.716547 196 196 196 0
-6.820949 -2.407394 34.965778 195 195 195 0
-6.687826 -2.407617 34.969024 195 195 195 0
-6.555437 -2.408120 34.976320 196 196 196 0
-6.421439 -2.408040 34.975160 196 196 196 0
-6.286200 -2.407481 34.967040 196 196 196 0
-6.152361 -2.407445 34.966528 196 196 196 0
-6.019372 -2.407749 34.970935 196 196 196 0
-5.885719 -2.407794 34.971594 196 196 196 0
-5.751376 -2.407553 34.968085 196 196 196 0
-5.617091 -2.407325 34.964772 196 196 196 0
-5.483767 -2.407507 34.967427 197 197 197 0
-5.350499 -2.407724 34.970580 197 197 197 0
-5.216137 -2.407448 34.966561 196 196 196 0
-5.081437 -2.406996 34.960006 197 197 197 0
-4.948185 -2.407225 34.963330 197 197 197 0
-4.815070 -2.407535 34.967825 197 197 197 0
-4.681021 -2.407382 34.965608 197 197 197 0
-4.546389 -2.406912 34.958778 197 197 197 0
-4.413026 -2.407105 34.961584 196 196 196 0
-4.279855 -2.407419 34.966137 196 196 196 0
-4.146162 -2.407449 34.966575 197 197 197 0
-4.011810 -2.407086 34.961311 197 197 197 0
-3.877955 -2.407007 34.960154 198 198 198 0
-3.744596 -2.407241 34.963552 198 198 198 0
-3.611011 -2.407341 34.965010 198 198 198 0
-3.476954 -2.407122 34.961827 198 198 198 0
-3.343025 -2.406978 34.959739 198 198 198 0
-3.209458 -2.407093 34.961412 198 198 198 0
-3.075957 -2.407271 34.963990 198 198 198 0
-2.942039 -2.407123 34.961846 198 198 198 0
-2.807917 -2.406786 34.956955 198 198 198 0
-2.674304 -2.406874 34.958226 198 198 198 0
-2.540831 -2.407103 34.961549 198 198 198 0
-2.406955 -2.406955 34.959399 199 199 199 0
-2.272947 -2.406650 34.954975 198 198 198 0
-2.139417 -2.406844 34.957790 198 198 198 0
-2.005910 -2.407092 34.961391 198 198 198 0
-1.872163 -2.407067 34.961033 198 198 198 0
-1.738261 -2.406822 34.957478 199 199 199 0
-1.604524 -2.406787 34.956959 199 199 199 0
-1.470948 -2.407005 34.960133 199 199 199 0
-1.337209 -2.406976 34.959716 200 200 200 0
-1.203402 -2.406803 34.957197 199 199 199 0
-1.069654 -2.406722 34.956018 199 199 199 0
-0.935992 -2.406837 34.957685 199 199 199 0
-0.802279 -2.406837 34.957685 199 199 199 0
-0.668529 -2.406706 34.955789 200 200 200 0
-0.534783 -2.406524 34.953140 199 199 199 0
-0.401110 -2.406660 34.955126 199 199 199 0
-0.267419 -2.406773 34.956758 199 199 199 0
-0.133701 -2.406611 34.954410 200 200 200 0
0.000000 -2.406472 34.952394 199 199 199 0
0.133704 -2.406677 34.955373 199 199 199 0
0.267418 -2.406766 34.956655 200 200 200 0
0.401120 -2.406721 34.956009 199 199 199 0
0.534801 -2.406606 34.954328 199 199 199 0
0.668509 -2.406632 34.954708 200 200 200 0
0.802241 -2.406722 34.956021 200 200 200 0
0.935925 -2.406663 34.955168 200 200 200 0
1.069607 -2.406616 34.954480 200 200 200 0
1.203329 -2.406659 34.955101 200 200 200 0
1.337017 -2.406630 34.954688 200 200 200 0
1.470704 -2.406607 34.954355 200 200 200 0
1.604392 -2.406588 34.954079 201 201 201 0
1.738056 -2.406539 34.953360 200 200 200 0
1.871780 -2.406574 34.953871 200 200 200 0
2.005469 -2.406563 34.953707 201 201 201 0
2.139159 -2.406554 34.953574 200 200 200 0
2.272784 -2.406477 34.952460 200 200 200 0
2.406614 -2.406614 34.954459 200 200 200 0
2.540319 -2.406618 34.954509 200 200 200 0
2.674050 -2.406645 34.954902 201 201 201 0
2.807676 -2.406579 34.953947 200 200 200 0
2.941330 -2.406543 34.953418 201 201 201 0
3.074940 -2.406475 34.952435 201 201 201 0
3.208674 -2.406506 34.952878 201 201 201 0
3.342376 -2.406511 34.952949 201 201 201 0
3.476064 -2.406506 34.952884 201 201 201 0
3.609748 -2.406498 34.952772 201 201 201 0
3.743462 -2.406511 34.952955 201 201 201 0
3.877015 -2.406423 34.951678 201 201 201 0
4.010635 -2.406381 34.951067 201 201 201 0
4.144305 -2.406371 34.950920 200 200 200 0
4.278093 -2.406427 34.951742 200 200 200 0
4.411618 -2.406337 34.950432 201 201 201 0
4.545480 -2.406431 34.951787 201 201 201 0
4.679267 -2.406480 34.952508 202 202 202 0
4.813066 -2.406533 34.953277 202 202 202 0
4.946566 -2.406438 34.951889 201 201 201 0
5.080072 -2.406350 34.950618 201 201 201 0
5.213786 -2.406363 34.950800 201 201 201 0
5.347699 -2.406464 34.952279 202 202 202 0
5.481321 -2.406434 34.951830 202 202 202 0
