ply
    format ascii 1.0
    element vertex 25597
    property float x
    property float y
    property float z
    property uchar red
    property uchar green
    property uchar blue
    property uchar alpha
    end_header
7.220254 -9.092172 34.956449 201 201 201 0
7.354155 -9.092410 34.957363 201 201 201 0
7.488194 -9.092807 34.958888 201 201 201 0
7.621759 -9.092625 34.958188 201 201 201 0
7.755146 -9.092241 34.956711 201 201 201 0
7.888955 -9.092355 34.957151 201 201 201 0
8.023042 -9.092781 34.958788 201 201 201 0
8.156531 -9.092527 34.957812 201 201 201 0
8.289621 -9.091842 34.955179 202 202 202 0
8.423694 -9.092241 34.956713 201 201 201 0
8.557709 -9.092566 34.957961 201 201 201 0
8.691092 -9.092219 34.956630 201 201 201 0
8.824498 -9.091907 34.955430 201 201 201 0
8.958737 -9.092450 34.957516 200 200 200 0
9.092635 -9.092635 34.958226 201 201 201 0
9.226038 -9.092327 34.957043 201 201 201 0
9.359528 -9.092113 34.956220 202 202 202 0
9.493777 -9.092632 34.958215 202 202 202 0
9.627384 -9.092529 34.957820 202 202 202 0
9.760592 -9.092058 34.956009 201 201 201 0
9.894340 -9.092096 34.956155 202 202 202 0
10.028343 -9.092364 34.957185 201 201 201 0
10.161992 -9.092308 34.956972 201 201 201 0
10.295389 -9.092032 34.955908 201 201 201 0
10.429186 -9.092111 34.956211 201 201 201 0
10.563161 -9.092341 34.957096 201 201 201 0
-10.390153 -8.701753 33.954750 191 191 191 0
-10.240636 -8.685096 33.889752 191 191 191 0
-10.206981 -8.767535 34.211431 192 192 192 0
-10.264786 -8.931697 34.852002 192 192 192 0
-10.105290 -8.908610 34.761918 192 192 192 0
-9.867375 -8.814855 34.396080 192 192 192 0
-9.906597 -8.969487 34.999461 192 192 192 0
-9.770296 -8.967258 34.990764 192 192 192 0
-9.637707 -8.968422 34.995305 193 193 193 0
-9.494115 -8.959235 34.959458 193 193 193 0
-9.348974 -8.948304 34.916805 193 193 193 0
-9.234493 -8.966827 34.989080 193 193 193 0
-9.100561 -8.966729 34.988702 194 194 194 0
-8.968226 -8.968226 34.994541 193 193 193 0
-8.835557 -8.969429 34.999236 194 194 194 0
-8.699722 -8.967406 34.991340 194 194 194 0
-8.564058 -8.965499 34.983899 193 193 193 0
-8.431094 -8.966402 34.987423 194 194 194 0
-8.298743 -8.967996 34.993644 193 193 193 0
-8.164204 -8.967240 34.990695 194 194 194 0
-8.029079 -8.965805 34.985095 194 194 194 0
-7.894539 -8.964984 34.981892 194 194 194 0
-7.761593 -8.965979 34.985772 194 194 194 0
-7.628518 -8.966855 34.989191 194 194 194 0
-7.492850 -8.964660 34.980625 194 194 194 0
-7.358006 -8.963389 34.975667 194 194 194 0
-7.225006 -8.964359 34.979454 194 194 194 0
-7.092238 -8.965659 34.984525 195 195 195 0
-6.957777 -8.964829 34.981284 194 194 194 0
-6.822168 -8.962456 34.972026 194 194 194 0
-6.689133 -8.963438 34.975860 195 195 195 0
-6.556359 -8.964817 34.981238 195 195 195 0
-6.422862 -8.965245 34.982909 195 195 195 0
-6.287670 -8.963274 34.975218 195 195 195 0
-6.153489 -8.962691 34.972944 195 195 195 0
-6.020760 -8.964242 34.978995 195 195 195 0
-5.887224 -8.964637 34.980536 196 196 196 0
-5.752732 -8.963559 34.976332 195 195 195 0
-5.618541 -8.962910 34.973798 195 195 195 0
-5.484857 -8.963059 34.974379 196 196 196 0
-5.351679 -8.964063 34.978296 196 196 196 0
-5.217583 -8.963540 34.976256 196 196 196 0
-5.082788 -8.961758 34.969303 196 196 196 0
-4.948991 -8.961686 34.969021 196 196 196 0
-4.815944 -8.963008 34.974179 196 196 196 0
-4.682228 -8.963122 34.974624 196 196 196 0
-4.548090 -8.962413 34.971858 196 196 196 0
-4.413721 -8.961191 34.967090 196 196 196 0
-4.280570 -8.962444 34.971980 197 197 197 0
-4.147009 -8.962890 34.973721 197 197 197 0
-4.012942 -8.962236 34.971169 197 197 197 0
-3.878733 -8.961211 34.967167 196 196 196 0
-3.745212 -8.961756 34.969295 196 196 196 0
-3.611548 -8.961989 34.970205 196 196 196 0
-3.477606 -8.961522 34.968383 197 197 197 0
-3.343702 -8.961121 34.966818 197 197 197 0
-3.210026 -8.961323 34.967605 197 197 197 0
-3.076422 -8.961750 34.969270 197 197 197 0
-2.942557 -8.961423 34.967994 197 197 197 0
-2.808563 -8.960654 34.964996 197 197 197 0
-2.674770 -8.960481 34.964320 197 197 197 0
-2.541207 -8.961099 34.966730 198 198 198 0
-2.407485 -8.961194 34.967103 198 198 198 0
-2.273589 -8.960617 34.964849 198 198 198 0
-2.139720 -8.960077 34.962743 198 198 198 0
-2.006200 -8.961027 34.966450 198 198 198 0
-1.872497 -8.961238 34.967273 197 197 197 0
-1.738687 -8.960926 34.966057 198 198 198 0
-1.604845 -8.960382 34.963934 198 198 198 0
-1.471178 -8.960812 34.965611 198 198 198 0
-1.337447 -8.960892 34.965922 198 198 198 0
-1.203677 -8.960707 34.965203 198 198 198 0
-1.069901 -8.960424 34.964096 198 198 198 0
-0.936183 -8.960606 34.964807 198 198 198 0
-0.802432 -8.960489 34.964352 198 198 198 0
-0.668692 -8.960474 34.964293 199 199 199 0
-0.534946 -8.960340 34.963771 198 198 198 0
-0.401198 -8.960080 34.962755 199 199 199 0
-0.267467 -8.960149 34.963025 198 198 198 0
-0.133734 -8.960161 34.963069 198 198 198 0
0.000000 -8.959902 34.962062 199 199 199 0
0.133726 -8.959674 34.961172 198 198 198 0
0.267463 -8.960014 34.962497 199 199 199 0
0.401199 -8.960112 34.962880 199 199 199 0
0.534944 -8.960318 34.963684 199 199 199 0
0.668657 -8.960010 34.962482 198 198 198 0
0.802384 -8.959958 34.962279 199 199 199 0
0.936099 -8.959801 34.961665 199 199 199 0
1.069831 -8.959837 34.961808 199 199 199 0
1.203590 -8.960056 34.962662 199 199 199 0
1.337274 -8.959734 34.961405 200 200 200 0
1.470989 -8.959658 34.961107 199 199 199 0
1.604744 -8.959823 34.961751 200 200 200 0
1.738472 -8.959818 34.961731 199 199 199 0
1.872142 -8.959538 34.960639 200 200 200 0
2.005834 -8.959392 34.960069 199 199 199 0
2.139659 -8.959822 34.961749 199 199 199 0
2.273430 -8.959989 34.962400 199 199 199 0
2.406973 -8.959289 34.959667 200 200 200 0
2.540706 -8.959333 34.959839 199 199 199 0
2.674564 -8.959789 34.961619 200 200 200 0
2.808331 -8.959914 34.962105 199 199 199 0
2.941865 -8.959316 34.959774 200 200 200 0
3.075529 -8.959150 34.959125 200 200 200 0
3.209349 -8.959433 34.960230 200 200 200 0
3.343205 -8.959788 34.961616 200 200 200 0
3.476786 -8.959411 34.960143 200 200 200 0
3.610381 -8.959092 34.958901 200 200 200 0
3.744248 -8.959449 34.960294 200 200 200 0
3.878084 -8.959710 34.961312 200 200 200 0
4.011425 -8.958850 34.957956 200 200 200 0
4.145026 -8.958605 34.956998 200 200 200 0
4.279117 -8.959401 34.960106 201 201 201 0
4.412814 -8.959350 34.959907 201 201 201 0
4.546160 -8.958610 34.957018 201 201 201 0
4.679966 -8.958793 34.957731 200 200 200 0
4.813984 -8.959359 34.959940 200 200 200 0
4.947784 -8.959501 34.960496 200 200 200 0
5.081139 -8.958850 34.957954 200 200 200 0
5.214795 -8.958750 34.957565 201 201 201 0
5.348833 -8.959295 34.959693 201 201 201 0
5.482598 -8.959367 34.959973 201 201 201 0
5.615986 -8.958835 34.957896 201 201 201 0
5.749596 -8.958673 34.957265 201 201 201 0
5.883663 -8.959214 34.959374 201 201 201 0
6.017436 -8.959294 34.959689 201 201 201 0
6.150585 -8.958461 34.956436 201 201 201 0
6.284267 -8.958423 34.956291 201 201 201 0
6.418443 -8.959076 34.958838 201 201 201 0
6.552008 -8.958868 34.958026 201 201 201 0
6.685214 -8.958187 34.955370 200 200 200 0
6.819243 -8.958614 34.957033 201 201 201 0
6.953449 -8.959252 34.959524 202 202 202 0
7.087085 -8.959145 34.959106 201 201 201 0
7.220312 -8.958535 34.956727 201 201 201 0
7.354149 -8.958691 34.957334 201 201 201 0
7.488113 -8.958993 34.958513 201 201 201 0
7.621756 -8.958906 34.958175 201 201 201 0
7.755107 -8.958485 34.956532 201 201 201 0
7.888976 -8.958668 34.957243 201 201 201 0
8.023022 -8.959041 34.958702 201 201 201 0
8.156493 -8.958771 34.957649 201 201 201 0
8.289678 -8.958201 34.955421 201 201 201 0
8.423734 -8.958575 34.956881 201 201 201 0
8.557758 -8.958903 34.958160 201 201 201 0
8.691133 -8.958552 34.956793 201 201 201 0
8.824501 -8.958206 34.955442 201 201 201 0
8.958700 -8.958700 34.957370 201 201 201 0
9.092628 -8.958913 34.958203 201 201 201 0
9.225975 -8.958556 34.956807 201 201 201 0
9.359562 -8.958438 34.956349 202 202 202 0
9.493750 -8.958891 34.958114 202 202 202 0
9.627382 -8.958814 34.957815 201 201 201 0
9.760606 -8.958364 34.956059 201 201 201 0
9.894393 -8.958437 34.956344 202 202 202 0
10.028383 -8.958689 34.957327 201 201 201 0
10.161965 -8.958574 34.956879 202 202 202 0
10.295434 -8.958365 34.956063 201 201 201 0
10.429324 -8.958522 34.956674 202 202 202 0
10.563294 -8.958743 34.957537 201 201 201 0
-10.371853 -8.556779 33.894944 192 192 192 0
-10.240757 -8.555569 33.890153 192 192 192 0
-10.222565 -8.649863 34.263668 193 193 193 0
-10.240485 -8.777558 34.769492 192 192 192 0
-10.093238 -8.765180 34.720459 193 193 193 0
-9.866552 -8.682566 34.393209 192 192 192 0
-9.906551 -8.835572 34.999297 193 193 193 0
-9.770473 -8.833578 34.991396 193 193 193 0
-9.637386 -8.834270 34.994139 193 193 193 0
-9.503940 -8.834649 34.995638 193 193 193 0
-9.357016 -8.822329 34.946838 193 193 193 0
-9.234344 -8.832850 34.988514 193 193 193 0
-9.100510 -8.832848 34.988506 194 194 194 0
-8.968226 -8.834372 34.994541 194 194 194 0
-8.835484 -8.835484 34.998945 193 193 193 0
-8.699775 -8.833618 34.991554 193 193 193 0
-8.564388 -8.832025 34.985246 193 193 193 0
-8.431081 -8.832561 34.987367 194 194 194 0
-8.298527 -8.833916 34.992736 194 194 194 0
-8.164186 -8.833382 34.990620 194 194 194 0
-8.029078 -8.831986 34.985090 194 194 194 0
-7.894500 -8.831136 34.981723 194 194 194 0
-7.761809 -8.832403 34.986743 194 194 194 0
-7.628552 -8.833060 34.989345 194 194 194 0
-7.492887 -8.830902 34.980798 195 195 195 0
-7.357906 -8.829487 34.975191 194 194 194 0
-7.225010 -8.830568 34.979472 194 194 194 0
-7.092298 -8.831918 34.984822 195 195 195 0
-6.957699 -8.830926 34.980891 194 194 194 0
-6.822128 -8.828637 34.971823 195 195 195 0
-6.689198 -8.829742 34.976200 195 195 195 0
-6.556408 -8.831080 34.981501 194 194 194 0
-6.422839 -8.831403 34.982781 195 195 195 0
-6.287725 -8.829571 34.975523 195 195 195 0
-6.153508 -8.828946 34.973049 195 195 195 0
-6.020788 -8.830488 34.979158 195 195 195 0
-5.887239 -8.830859 34.980627 196 196 196 0
-5.752766 -8.829827 34.976538 196 196 196 0
-5.618504 -8.829078 34.973573 196 196 196 0
-5.484847 -8.829266 34.974316 195 195 195 0
-5.351723 -8.830343 34.978582 195 195 195 0
-5.217610 -8.829802 34.976439 196 196 196 0
-5.082752 -8.827937 34.969051 196 196 196 0
-4.949017 -8.827977 34.969208 196 196 196 0
-4.815928 -8.829202 34.974062 196 196 196 0
-4.682261 -8.829406 34.974872 196 196 196 0
-4.548112 -8.828688 34.972028 196 196 196 0
-4.413708 -8.827415 34.966985 196 196 196 0
-4.280571 -8.828677 34.971981 197 197 197 0
-4.147050 -8.829203 34.974068 196 196 196 0
-4.012907 -8.828396 34.970870 197 197 197 0
-3.878755 -8.827511 34.967366 196 196 196 0
-3.745233 -8.828050 34.969500 197 197 197 0
-3.611569 -8.828279 34.970404 197 197 197 0
-3.477585 -8.827716 34.968177 197 197 197 0
-3.343632 -8.827188 34.966083 197 197 197 0
-3.210031 -8.827585 34.967657 196 196 196 0
-3.076373 -8.827853 34.968718 198 198 198 0
-2.942532 -8.827596 34.967701 198 198 198 0
-2.808576 -8.826952 34.965148 198 198 198 0
-2.674740 -8.826642 34.963923 198 198 198 0
-2.541212 -8.827367 34.966793 197 197 197 0
-2.407501 -8.827505 34.967340 198 198 198 0
-2.273576 -8.826825 34.964646 197 197 197 0
-2.139760 -8.826510 34.963397 198 198 198 0
-2.006198 -8.827273 34.966419 198 198 198 0
-1.872496 -8.827481 34.967244 198 198 198 0
-1.738699 -8.827239 34.966286 198 198 198 0
-1.604862 -8.826739 34.964308 198 198 198 0
-1.471160 -8.826961 34.965183 198 198 198 0
-1.337445 -8.827135 34.965874 198 198 198 0
-1.203685 -8.827022 34.965427 198 198 198 0
-1.069904 -8.826710 34.964192 198 198 198 0
-0.936178 -8.826819 34.964621 198 198 198 0
-0.802429 -8.826723 34.964241 198 198 198 0
-0.668687 -8.826668 34.964024 198 198 198 0
-0.534940 -8.826518 34.963429 198 198 198 0
-0.401190 -8.826186 34.962115 198 198 198 0
-0.267464 -8.826322 34.962653 199 199 199 0
-0.133734 -8.826432 34.963091 199 199 199 0
0.000000 -8.826212 34.962218 199 199 199 0
0.133726 -8.825892 34.960949 199 199 199 0
0.267464 -8.826328 34.962679 199 199 199 0
0.401198 -8.826366 34.962828 199 199 199 0
0.534944 -8.826571 34.963641 198 198 198 0
0.668651 -8.826199 34.962166 199 199 199 0
0.802376 -8.826139 34.961930 199 199 199 0
0.936101 -8.826097 34.961761 199 199 199 0
1.069830 -8.826094 34.961752 199 199 199 0
1.203594 -8.826353 34.962779 198 198 198 0
1.337294 -8.826137 34.961922 199 199 199 0
1.470995 -8.825967 34.961248 199 199 199 0
1.604731 -8.826020 34.961458 199 199 199 0
1.738498 -8.826221 34.962255 199 199 199 0
1.872137 -8.825790 34.960549 199 199 199 0
2.005804 -8.825536 34.959540 199 199 199 0
2.139658 -8.826087 34.961724 200 200 200 0
2.273408 -8.826174 34.962066 200 200 200 0
2.406969 -8.825554 34.959611 199 199 199 0
2.540716 -8.825644 34.959970 200 200 200 0
2.674553 -8.826024 34.961475 200 200 200 0
2.808306 -8.826104 34.961791 200 200 200 0
2.941871 -8.825612 34.959842 200 200 200 0
3.075568 -8.825543 34.959570 200 200 200 0
3.209350 -8.825711 34.960234 199 199 199 0
3.343173 -8.825976 34.961284 201 201 201 0
3.476785 -8.825684 34.960127 201 201 201 0
3.610348 -8.825295 34.958587 200 200 200 0
3.744237 -8.825702 34.960200 200 200 200 0
3.878064 -8.825939 34.961138 200 200 200 0
4.011422 -8.825129 34.957928 200 200 200 0
4.145064 -8.824974 34.957316 200 200 200 0
4.279063 -8.825568 34.959669 201 201 201 0
4.412808 -8.825616 34.959857 200 200 200 0
4.546177 -8.824932 34.957147 200 200 200 0
4.679966 -8.825078 34.957727 200 200 200 0
4.813980 -8.825631 34.959915 201 201 201 0
4.947791 -8.825790 34.960546 201 201 201 0
5.081146 -8.825149 34.958006 201 201 201 0
5.214779 -8.825011 34.957461 200 200 200 0
5.348765 -8.825462 34.959249 200 200 200 0
5.482603 -8.825654 34.960008 201 201 201 0
5.615986 -8.825121 34.957895 201 201 201 0
5.749563 -8.824911 34.957065 201 201 201 0
5.883657 -8.825485 34.959338 201 201 201 0
6.017357 -8.825457 34.959227 201 201 201 0
6.150578 -8.824743 34.956398 201 201 201 0
6.284259 -8.824705 34.956247 200 200 200 0
6.418363 -8.825249 34.958402 201 201 201 0
6.552042 -8.825200 34.958209 201 201 201 0
6.685289 -8.824582 34.955761 201 201 201 0
6.819209 -8.824858 34.956856 201 201 201 0
6.953444 -8.825525 34.959496 201 201 201 0
7.087063 -8.825400 34.959000 201 201 201 0
7.220260 -8.824763 34.956478 201 201 201 0
7.354183 -8.825020 34.957495 201 201 201 0
7.488126 -8.825292 34.958573 201 201 201 0
7.621787 -8.825227 34.958318 201 201 201 0
7.755099 -8.824767 34.956496 201 201 201 0
7.888964 -8.824943 34.957192 201 201 201 0
8.023018 -8.825320 34.958684 201 201 201 0
8.156483 -8.825047 34.957605 201 201 201 0
8.289717 -8.824537 34.955583 201 201 201 0
8.423736 -8.824866 34.956887 201 201 201 0
8.557763 -8.825193 34.958182 201 201 201 0
8.691169 -8.824879 34.956937 202 202 202 0
8.824506 -8.824506 34.955461 201 201 201 0
8.958715 -8.825003 34.957430 201 201 201 0
9.092601 -8.825172 34.958097 200 200 200 0
9.225969 -8.824840 34.956784 201 201 201 0
9.359514 -8.824685 34.956169 201 201 201 0
9.493735 -8.825162 34.958060 202 202 202 0
9.627344 -8.825066 34.957677 201 201 201 0
9.760528 -8.824587 34.955782 201 201 201 0
9.894427 -8.824759 34.956463 201 201 201 0
10.028443 -8.825030 34.957535 201 201 201 0
10.162012 -8.824905 34.957041 201 201 201 0
10.295383 -8.824614 34.955888 201 201 201 0
10.429287 -8.824782 34.956552 201 201 201 0
10.563449 -8.825160 34.958049 201 201 201 0
-10.377190 -8.431467 33.912385 192 192 192 0
-10.243663 -8.428330 33.899770 192 192 192 0
-10.168739 -8.473949 34.083254 192 192 192 0
-10.257431 -8.658870 34.827030 192 192 192 0
-10.094130 -8.633138 34.723530 193 193 193 0
-9.853215 -8.539453 34.346717 192 192 192 0
-9.906590 -8.701734 34.999434 193 193 193 0
-9.770654 -8.699897 34.992046 193 193 193 0
-9.637212 -8.700261 34.993507 193 193 193 0
-9.500983 -8.698083 34.984748 192 192 192 0
-9.352277 -8.684257 34.929138 193 193 193 0
-9.234329 -8.699006 34.988460 193 193 193 0
-9.100656 -8.699157 34.989067 193 193 193 0
-8.968201 -8.700494 34.994445 193 193 193 0
-8.835411 -8.701541 34.998657 193 193 193 0
-8.699874 -8.699874 34.991953 194 194 194 0
-8.563898 -8.697709 34.983244 193 193 193 0
-8.430731 -8.698373 34.985916 194 194 194 0
-8.298360 -8.699894 34.992032 194 194 194 0
-8.164250 -8.699611 34.990892 194 194 194 0
-8.029262 -8.698367 34.985892 194 194 194 0
-7.894355 -8.697171 34.981081 194 194 194 0
-7.761602 -8.698347 34.985810 194 194 194 0
-7.628505 -8.699172 34.989128 194 194 194 0
-7.492966 -8.697193 34.981167 194 194 194 0
-7.358023 -8.695846 34.975750 194 194 194 0
-7.225114 -8.696896 34.979974 195 195 195 0
-7.092101 -8.697860 34.983852 195 195 195 0
-6.957809 -8.697261 34.981441 195 195 195 0
-6.822287 -8.695072 34.972638 195 195 195 0
-6.689213 -8.695976 34.976275 196 196 196 0
-6.556414 -8.697284 34.981533 194 194 194 0
-6.422733 -8.697451 34.982206 195 195 195 0
-6.287662 -8.695702 34.975172 195 195 195 0
-6.153485 -8.695142 34.972917 195 195 195 0
-6.020700 -8.696567 34.978649 196 196 196 0
-5.887213 -8.697019 34.980467 195 195 195 0
-5.752805 -8.696101 34.976775 195 195 195 0
-5.618578 -8.695418 34.974029 196 196 196 0
-5.484842 -8.695482 34.974286 196 196 196 0
-5.351753 -8.696599 34.978778 196 196 196 0
-5.217540 -8.695900 34.975969 196 196 196 0
-5.082764 -8.694202 34.969140 195 195 195 0
-4.948995 -8.694180 34.969048 196 196 196 0
-4.815964 -8.695491 34.974321 196 196 196 0
-4.682215 -8.695542 34.974528 196 196 196 0
-4.548070 -8.694840 34.971706 196 196 196 0
-4.413706 -8.693663 34.966971 197 197 197 0
-4.280512 -8.694790 34.971502 196 196 196 0
-4.147085 -8.695501 34.974362 196 196 196 0
-4.012937 -8.694696 34.971125 196 196 196 0
-3.878699 -8.693637 34.966864 196 196 196 0
-3.745225 -8.694271 34.969418 197 197 197 0
-3.611588 -8.694563 34.970590 197 197 197 0
-3.477597 -8.693992 34.968292 197 197 197 0
-3.343626 -8.693429 34.966028 197 197 197 0
-3.210002 -8.693757 34.967347 197 197 197 0
-3.076396 -8.694162 34.968977 197 197 197 0
-2.942528 -8.693832 34.967651 198 198 198 0
-2.808552 -8.693137 34.964854 197 197 197 0
-2.674775 -8.693020 34.964385 198 198 198 0
-2.541216 -8.693635 34.966857 197 197 197 0
-2.407536 -8.693880 34.967843 198 198 198 0
-2.273600 -8.693175 34.965006 198 198 198 0
-2.139740 -8.692692 34.963066 198 198 198 0
-2.006199 -8.693528 34.966427 197 197 197 0
-1.872486 -8.693686 34.967062 197 197 197 0
-1.738685 -8.693426 34.966019 198 198 198 0
-1.604863 -8.693010 34.964345 198 198 198 0
-1.471170 -8.693280 34.965430 198 198 198 0
-1.337436 -8.693332 34.965639 198 198 198 0
-1.203664 -8.693130 34.964826 198 198 198 0
-1.069901 -8.692946 34.964087 198 198 198 0
-0.936187 -8.693163 34.964961 199 199 199 0
-0.802434 -8.693034 34.964440 198 198 198 0
-0.668690 -8.692965 34.964162 199 199 199 0
-0.534945 -8.692859 34.963737 198 198 198 0
-0.401197 -8.692601 34.962700 199 199 199 0
-0.267467 -8.692691 34.963063 198 198 198 0
-0.133734 -8.692709 34.963135 198 198 198 0
0.000000 -8.692475 34.962193 199 199 199 0
0.133726 -8.692218 34.961159 198 198 198 0
0.267461 -8.692495 34.962271 198 198 198 0
0.401201 -8.692678 34.963009 199 199 199 0
0.534944 -8.692846 34.963685 198 198 198 0
0.668656 -8.692532 34.962421 199 199 199 0
0.802379 -8.692434 34.962026 199 199 199 0
0.936102 -8.692378 34.961802 199 199 199 0
1.069815 -8.692251 34.961289 200 200 200 0
1.203589 -8.692588 34.962648 199 199 199 0
1.337285 -8.692352 34.961698 199 199 199 0
1.470984 -8.692180 34.961004 199 199 199 0
1.604741 -8.692350 34.961687 200 200 200 0
1.738467 -8.692334 34.961623 200 200 200 0
1.872144 -8.692097 34.960671 199 199 199 0
2.005823 -8.691899 34.959875 199 199 199 0
2.139643 -8.692300 34.961488 200 200 200 0
2.273424 -8.692503 34.962305 199 199 199 0
2.406953 -8.691775 34.959375 199 199 199 0
2.540713 -8.691912 34.959928 200 200 200 0
2.674571 -8.692355 34.961710 199 199 199 0
2.808315 -8.692405 34.961910 200 200 200 0
2.941866 -8.691876 34.959784 200 200 200 0
3.075575 -8.691842 34.959647 200 200 200 0
3.209392 -8.692104 34.960699 200 200 200 0
3.343143 -8.692172 34.960972 200 200 200 0
3.476773 -8.691933 34.960011 200 200 200 0
3.610341 -8.691561 34.958516 200 200 200 0
3.744200 -8.691894 34.959855 200 200 200 0
3.878081 -8.692250 34.961286 200 200 200 0
4.011436 -8.691444 34.958045 200 200 200 0
4.145027 -8.691185 34.957004 201 201 201 0
4.279041 -8.691802 34.959485 200 200 200 0
4.412825 -8.691928 34.959993 200 200 200 0
4.546129 -8.691128 34.956774 200 200 200 0
4.679978 -8.691388 34.957821 200 200 200 0
4.813989 -8.691924 34.959976 201 201 201 0
4.947779 -8.692044 34.960458 201 201 201 0
5.081149 -8.691438 34.958022 201 201 201 0
5.214820 -8.691366 34.957733 200 200 200 0
5.348770 -8.691751 34.959281 200 200 200 0
5.482616 -8.691952 34.960089 201 201 201 0
5.616014 -8.691450 34.958068 201 201 201 0
5.749635 -8.691309 34.957503 200 200 200 0
5.883667 -8.691781 34.959401 201 201 201 0
6.017409 -8.691814 34.959532 200 200 200 0
6.150611 -8.691080 34.956582 201 201 201 0
6.284239 -8.690969 34.956136 201 201 201 0
6.418435 -8.691631 34.958799 201 201 201 0
6.552044 -8.691486 34.958216 201 201 201 0
6.685216 -8.690781 34.955380 200 200 200 0
6.819254 -8.691207 34.957090 201 201 201 0
6.953401 -8.691751 34.959280 201 201 201 0
7.087046 -8.691660 34.958915 201 201 201 0
7.220279 -8.691076 34.956565 201 201 201 0
7.354129 -8.691244 34.957240 201 201 201 0
7.488104 -8.691549 34.958467 201 201 201 0
7.621784 -8.691509 34.958305 201 201 201 0
7.755140 -8.691105 34.956681 201 201 201 0
7.888921 -8.691184 34.956998 201 201 201 0
8.023057 -8.691646 34.958856 201 201 201 0
8.156510 -8.691363 34.957721 202 202 202 0
8.289707 -8.690822 34.955543 201 201 201 0
8.423650 -8.691067 34.956530 201 201 201 0
8.557774 -8.691489 34.958226 201 201 201 0
8.691114 -8.691114 34.956716 201 201 201 0
8.824504 -8.690799 34.955452 201 201 201 0
8.958710 -8.691286 34.957409 201 201 201 0
9.092684 -8.691536 34.958414 201 201 201 0
9.225993 -8.691153 34.956875 202 202 202 0
9.359515 -8.690978 34.956173 201 201 201 0
9.493727 -8.691440 34.958028 201 201 201 0
9.627376 -8.691381 34.957792 202 202 202 0
9.760571 -8.690919 34.955935 202 202 202 0
9.894411 -8.691037 34.956408 201 201 201 0
10.028435 -8.691310 34.957508 202 202 202 0
10.161972 -8.691160 34.956904 202 202 202 0
10.295544 -8.691044 34.956436 202 202 202 0
10.429351 -8.691126 34.956767 201 201 201 0
10.563472 -8.691464 34.958126 201 201 201 0
-10.376878 -8.301502 33.911365 192 192 192 0
-10.251189 -8.304761 33.924676 192 192 192 0
-10.165999 -8.341333 34.074072 192 192 192 0
-10.267120 -8.533710 34.859927 192 192 192 0
-10.093998 -8.500209 34.723075 192 192 192 0
-9.862341 -8.415865 34.378532 192 192 192 0
-9.906692 -8.567950 34.999794 192 192 192 0
-9.770441 -8.565866 34.991283 192 192 192 0
-9.637529 -8.566693 34.994659 193 193 193 0
-9.474058 -8.539996 34.885605 193 193 193 0
-9.347625 -8.546400 34.911764 192 192 192 0
-9.234436 -8.565274 34.988864 193 193 193 0
-9.100661 -8.565328 34.989083 194 194 194 0
-8.968379 -8.566810 34.995140 193 193 193 0
-8.835480 -8.567738 34.998929 194 194 194 0
-8.699684 -8.565843 34.991188 194 194 194 0
-8.564068 -8.564068 34.983939 193 193 193 0
-8.430881 -8.564704 34.986538 194 194 194 0
-8.298451 -8.566143 34.992414 194 194 194 0
-8.164326 -8.565850 34.991217 194 194 194 0
-8.029027 -8.564296 34.984869 194 194 194 0
-7.894401 -8.563418 34.981281 194 194 194 0
-7.761672 -8.564604 34.986127 194 194 194 0
-7.628484 -8.565315 34.989032 194 194 194 0
-7.492915 -8.563331 34.980929 194 194 194 0
-7.357776 -8.561776 34.974576 194 194 194 0
-7.225106 -8.563089 34.979938 195 195 195 0
-7.092235 -8.564209 34.984513 195 195 195 0
-6.957771 -8.563410 34.981250 195 195 195 0
-6.822119 -8.561091 34.971776 195 195 195 0
-6.689131 -8.562088 34.975849 195 195 195 0
-6.556564 -8.563676 34.982336 195 195 195 0
-6.422894 -8.563859 34.983082 195 195 195 0
-6.287742 -8.562032 34.975622 195 195 195 0
-6.153558 -8.561472 34.973333 195 195 195 0
-6.020756 -8.562853 34.978976 195 195 195 0
-5.887266 -8.563296 34.980783 196 196 196 0
-5.752817 -8.562332 34.976845 196 196 196 0
-5.618510 -8.561540 34.973610 196 196 196 0
-5.484853 -8.561721 34.974351 196 196 196 0
-5.351672 -8.562675 34.978249 195 195 195 0
-5.217652 -8.562300 34.976715 196 196 196 0
-5.082732 -8.560391 34.968919 196 196 196 0
-4.948989 -8.560413 34.969008 196 196 196 0
-4.815849 -8.561509 34.973483 195 195 195 0
-4.682212 -8.561759 34.974507 196 196 196 0
-4.548136 -8.561198 34.972214 196 196 196 0
-4.413764 -8.560027 34.967432 196 196 196 0
-4.280492 -8.560984 34.971338 196 196 196 0
-4.147013 -8.561575 34.973755 196 196 196 0
-4.012937 -8.560932 34.971129 197 197 197 0
-3.878730 -8.559956 34.967142 197 197 197 0
-3.745187 -8.560426 34.969062 197 197 197 0
-3.611522 -8.560646 34.969958 196 196 196 0
-3.477635 -8.560333 34.968680 197 197 197 0
-3.343674 -8.559806 34.966526 197 197 197 0
-3.210054 -8.560144 34.967910 197 197 197 0
-3.076379 -8.560359 34.968788 197 197 197 0
-2.942527 -8.560079 34.967643 197 197 197 0
-2.808557 -8.559413 34.964923 197 197 197 0
-2.674749 -8.559195 34.964033 197 197 197 0
-2.541218 -8.559892 34.966878 198 198 198 0
-2.407512 -8.560041 34.967489 197 197 197 0
-2.273583 -8.559371 34.964749 198 198 198 0
-2.139736 -8.558942 34.963000 197 197 197 0
-2.006210 -8.559830 34.966625 197 197 197 0
-1.872498 -8.559992 34.967287 198 198 198 0
-1.738684 -8.559676 34.965998 198 198 198 0
-1.604877 -8.559343 34.964635 197 197 197 0
-1.471161 -8.559480 34.965196 198 198 198 0
-1.337433 -8.559574 34.965579 197 197 197 0
-1.203656 -8.559331 34.964588 198 198 198 0
-1.069892 -8.559135 34.963787 198 198 198 0
-0.936186 -8.559418 34.964942 198 198 198 0
-0.802431 -8.559264 34.964312 198 198 198 0
-0.668684 -8.559158 34.963882 198 198 198 0
-0.534941 -8.559051 34.963445 198 198 198 0
-0.401195 -8.558829 34.962536 198 198 198 0
-0.267467 -8.558945 34.963010 198 198 198 0
-0.133733 -8.558929 34.962946 199 199 199 0
0.000000 -8.558769 34.962293 198 198 198 0
0.133728 -8.558561 34.961441 198 198 198 0
0.267461 -8.558767 34.962285 199 199 199 0
0.401194 -8.558815 34.962481 198 198 198 0
0.534943 -8.559088 34.963593 199 199 199 0
0.668652 -8.558745 34.962193 199 199 199 0
0.802378 -8.558699 34.962005 199 199 199 0
0.936100 -8.558631 34.961729 199 199 199 0
1.069825 -8.558599 34.961598 199 199 199 0
1.203601 -8.558938 34.962981 200 200 200 0
1.337283 -8.558610 34.961642 199 199 199 0
1.470991 -8.558491 34.961154 200 200 200 0
1.604716 -8.558486 34.961134 200 200 200 0
1.738478 -8.558663 34.961858 200 200 200 0
1.872141 -8.558359 34.960617 199 199 199 0
2.005811 -8.558127 34.959670 200 200 200 0
2.139651 -8.558604 34.961618 200 200 200 0
2.273438 -8.558827 34.962527 200 200 200 0
2.406956 -8.558065 34.959415 200 200 200 0
2.540728 -8.558241 34.960135 200 200 200 0
2.674548 -8.558553 34.961411 200 200 200 0
2.808334 -8.558733 34.962144 200 200 200 0
2.941874 -8.558178 34.959877 200 200 200 0
3.075554 -8.558064 34.959412 200 200 200 0
3.209372 -8.558324 34.960474 200 200 200 0
3.343146 -8.558455 34.961009 200 200 200 0
3.476757 -8.558172 34.959853 201 201 201 0
3.610359 -8.557888 34.958692 200 200 200 0
3.744191 -8.558152 34.959770 199 199 199 0
3.878084 -8.558529 34.961312 200 200 200 0
4.011418 -8.557692 34.957894 200 200 200 0
4.145062 -8.557548 34.957303 200 200 200 0
4.279067 -8.558134 34.959698 200 200 200 0
4.412814 -8.558184 34.959904 200 200 200 0
4.546172 -8.557500 34.957107 201 201 201 0
4.679968 -8.557656 34.957745 200 200 200 0
4.813973 -8.558174 34.959861 200 200 200 0
4.947794 -8.558347 34.960568 200 200 200 0
5.081170 -8.557760 34.958169 200 200 200 0
5.214803 -8.557626 34.957622 200 200 200 0
5.348805 -8.558088 34.959510 201 201 201 0
5.482602 -8.558207 34.959998 201 201 201 0
5.615976 -8.557677 34.957832 201 201 201 0
5.749607 -8.557555 34.957333 201 201 201 0
5.883689 -8.558093 34.959531 200 200 200 0
6.017420 -8.558109 34.959594 201 201 201 0
6.150605 -8.557363 34.956549 200 200 200 0
6.284239 -8.557262 34.956136 201 201 201 0
6.418414 -8.557886 34.958684 201 201 201 0
6.552025 -8.557747 34.958115 201 201 201 0
6.685243 -8.557111 34.955517 201 201 201 0
6.819239 -8.557476 34.957012 201 201 201 0
6.953351 -8.557970 34.959027 200 200 200 0
7.087064 -8.557965 34.959005 201 201 201 0
7.220255 -8.557339 34.956451 200 200 200 0
7.354094 -8.557492 34.957074 201 201 201 0
7.488135 -8.557869 34.958614 201 201 201 0
7.621761 -8.557766 34.958196 201 201 201 0
7.755089 -8.557340 34.956454 201 201 201 0
7.888939 -8.557493 34.957078 201 201 201 0
8.023019 -8.557887 34.958688 201 201 201 0
8.156503 -8.557642 34.957688 201 201 201 0
8.289680 -8.557089 34.955429 201 201 201 0
8.423738 -8.557448 34.956896 201 201 201 0
8.557781 -8.557781 34.958254 201 201 201 0
8.691089 -8.557380 34.956619 201 201 201 0
8.824506 -8.557097 34.955461 201 201 201 0
8.958812 -8.557671 34.957806 200 200 200 0
9.092632 -8.557771 34.958217 202 202 202 0
9.225992 -8.557441 34.956869 202 202 202 0
9.359514 -8.557270 34.956167 202 202 202 0
9.493740 -8.557738 34.958079 201 201 201 0
9.627378 -8.557669 34.957798 201 201 201 0
9.760633 -8.557267 34.956156 202 202 202 0
9.894411 -8.557328 34.956406 201 201 201 0
10.028380 -8.557551 34.957317 202 202 202 0
10.162001 -8.557475 34.957005 202 202 202 0
10.295588 -8.557372 34.956584 202 202 202 0
10.429291 -8.557367 34.956565 201 201 201 0
10.563399 -8.557690 34.957884 202 202 202 0
-10.395966 -8.186823 33.973744 193 193 193 0
-10.244193 -8.169420 33.901524 192 192 192 0
-10.182647 -8.224445 34.129869 192 192 192 0
-10.280554 -8.411363 34.905541 192 192 192 0
-10.087151 -8.361717 34.699522 192 192 192 0
-9.879545 -8.298818 34.438502 193 193 193 0
-9.905228 -8.432829 34.994622 193 193 193 0
-9.770760 -8.432300 34.992425 192 192 192 0
-9.637546 -8.432853 34.994721 193 193 193 0
-9.483091 -8.414573 34.918864 192 192 192 0
-9.351598 -8.416438 34.926603 193 193 193 0
-9.234358 -8.431370 34.988569 192 192 192 0
-9.100660 -8.431493 34.989080 193 193 193 0
-8.968178 -8.432764 34.994354 194 194 194 0
-8.835479 -8.433867 34.998928 194 194 194 0
-8.699830 -8.432143 34.991775 194 194 194 0
-8.564055 -8.430241 34.983883 194 194 194 0
-8.430918 -8.430918 34.986690 194 194 194 0
-8.298465 -8.432311 34.992472 194 194 194 0
-8.164355 -8.432039 34.991343 193 193 193 0
-8.028974 -8.430422 34.984634 194 194 194 0
-7.894569 -8.429794 34.982027 194 194 194 0
-7.761767 -8.430885 34.986556 195 195 195 0
-7.628504 -8.431504 34.989125 194 194 194 0
-7.493046 -8.429677 34.981543 194 194 194 0
-7.357993 -8.428246 34.975605 195 195 195 0
-7.225188 -8.429386 34.980335 194 194 194 0
-7.092164 -8.430308 34.984160 195 195 195 0
-6.957755 -8.429587 34.981169 194 194 194 0
-6.822209 -8.427434 34.972235 195 195 195 0
-6.689198 -8.428389 34.976197 196 196 196 0
-6.556549 -8.429849 34.982257 195 195 195 0
-6.422901 -8.430058 34.983122 195 195 195 0
-6.287815 -8.428347 34.976024 196 196 196 0
-6.153504 -8.427625 34.973027 195 195 195 0
-6.020762 -8.429067 34.979008 195 195 195 0
-5.887159 -8.429342 34.980150 196 196 196 0
-5.752895 -8.428660 34.977322 196 196 196 0
-5.618463 -8.427695 34.973317 196 196 196 0
-5.484813 -8.427884 34.974101 196 196 196 0
-5.351653 -8.428854 34.978127 196 196 196 0
-5.217508 -8.428283 34.975756 196 196 196 0
-5.082679 -8.426547 34.968552 196 196 196 0
-4.949052 -8.426765 34.969457 196 196 196 0
-4.815812 -8.427672 34.973219 196 196 196 0
-4.682199 -8.427958 34.974410 196 196 196 0
-4.548112 -8.427383 34.972024 196 196 196 0
-4.413697 -8.426149 34.966902 196 196 196 0
-4.280587 -8.427405 34.972112 196 196 196 0
-4.147032 -8.427839 34.973913 196 196 196 0
-4.012982 -8.427261 34.971518 197 197 197 0
-3.878644 -8.426019 34.966361 196 196 196 0
-3.745128 -8.426538 34.968515 197 197 197 0
-3.611494 -8.426819 34.969680 197 197 197 0
-3.477610 -8.426516 34.968424 197 197 197 0
-3.343639 -8.425970 34.966159 196 196 196 0
-3.210052 -8.426386 34.967884 197 197 197 0
-3.076395 -8.426648 34.968971 197 197 197 0
-2.942513 -8.426287 34.967476 198 198 198 0
-2.808563 -8.425689 34.964994 198 198 198 0
-2.674754 -8.425476 34.964109 197 197 197 0
-2.541218 -8.426144 34.966881 198 198 198 0
-2.407494 -8.426230 34.967237 197 197 197 0
-2.273584 -8.425637 34.964775 198 198 198 0
-2.139761 -8.425308 34.963411 197 197 197 0
-2.006228 -8.426158 34.966938 198 198 198 0
-1.872486 -8.426186 34.967053 198 198 198 0
-1.738690 -8.425958 34.966109 198 198 198 0
-1.604861 -8.425521 34.964296 198 198 198 0
-1.471172 -8.425805 34.965473 198 198 198 0
-1.337441 -8.425877 34.965771 199 199 199 0
-1.203670 -8.425692 34.965005 198 198 198 0
-1.069911 -8.425551 34.964420 198 198 198 0
-0.936181 -8.425630 34.964747 198 198 198 0
-0.802430 -8.425511 34.964254 199 199 199 0
-0.668683 -8.425411 34.963838 198 198 198 0
-0.534943 -8.425353 34.963597 198 198 198 0
-0.401195 -8.425088 34.962499 199 199 199 0
-0.267467 -8.425207 34.962991 199 199 199 0
-0.133733 -8.425196 34.962948 199 199 199 0
0.000000 -8.425105 34.962570 199 199 199 0
0.133727 -8.424797 34.961290 199 199 199 0
0.267465 -8.425146 34.962737 199 199 199 0
0.401200 -8.425205 34.962985 199 199 199 0
0.534942 -8.425336 34.963525 198 198 198 0
0.668652 -8.425018 34.962208 199 199 199 0
0.802382 -8.425011 34.962178 199 199 199 0
0.936094 -8.424845 34.961488 199 199 199 0
1.069841 -8.425000 34.962132 199 199 199 0
1.203603 -8.425220 34.963046 199 199 199 0
1.337292 -8.424941 34.961889 199 199 199 0
1.470989 -8.424755 34.961115 199 199 199 0
1.604733 -8.424849 34.961507 199 199 199 0
1.738497 -8.425022 34.962223 200 200 200 0
1.872135 -8.424606 34.960498 199 199 199 0
2.005835 -8.424509 34.960094 200 200 200 0
2.139665 -8.424932 34.961852 200 200 200 0
2.273418 -8.425018 34.962209 200 200 200 0
2.406964 -8.424373 34.959533 200 200 200 0
2.540708 -8.424454 34.959866 200 200 200 0
2.674550 -8.424832 34.961437 200 200 200 0
2.808306 -8.424917 34.961791 200 200 200 0
2.941861 -8.424420 34.959726 200 200 200 0
3.075571 -8.424390 34.959600 200 200 200 0
3.209359 -8.424568 34.960342 201 201 201 0
3.343157 -8.424757 34.961124 200 200 200 0
3.476743 -8.424415 34.959704 201 201 201 0
3.610339 -8.424124 34.958500 200 200 200 0
3.744261 -8.424588 34.960423 200 200 200 0
3.878057 -8.424744 34.961070 200 200 200 0
4.011418 -8.423977 34.957888 200 200 200 0
4.145051 -8.423813 34.957207 200 200 200 0
4.279070 -8.424419 34.959724 200 200 200 0
4.412814 -8.424463 34.959904 200 200 200 0
4.546153 -8.423753 34.956960 200 200 200 0
4.679966 -8.423939 34.957731 200 200 200 0
4.814008 -8.424514 34.960115 200 200 200 0
4.947780 -8.424598 34.960464 200 200 200 0
5.081151 -8.424013 34.958038 200 200 200 0
5.214777 -8.423870 34.957443 200 200 200 0
5.348825 -8.424400 34.959643 201 201 201 0
5.482616 -8.424507 34.960087 201 201 201 0
5.615992 -8.423988 34.957933 201 201 201 0
5.749649 -8.423904 34.957586 201 201 201 0
5.883658 -8.424328 34.959344 201 201 201 0
6.017377 -8.424328 34.959345 201 201 201 0
6.150564 -8.423599 34.956318 201 201 201 0
6.284303 -8.423640 34.956487 201 201 201 0
6.418455 -8.424223 34.958908 200 200 200 0
6.552051 -8.424066 34.958256 201 201 201 0
6.685190 -8.423340 34.955243 201 201 201 0
6.819250 -8.423779 34.957068 201 201 201 0
6.953402 -8.424314 34.959286 201 201 201 0
7.087034 -8.424210 34.958856 201 201 201 0
7.220265 -8.423643 34.956501 202 202 202 0
7.354138 -8.423831 34.957281 201 201 201 0
7.488108 -8.424122 34.958489 201 201 201 0
7.621716 -8.424001 34.957989 201 201 201 0
7.755047 -8.423585 34.956263 202 202 202 0
7.888943 -8.423786 34.957096 201 201 201 0
8.023031 -8.424183 34.958742 201 201 201 0
8.156533 -8.423960 34.957817 202 202 202 0
8.289766 -8.423472 34.955791 202 202 202 0
8.423651 -8.423651 34.956534 201 201 201 0
8.557761 -8.424046 34.958174 201 201 201 0
8.691150 -8.423730 34.956863 201 201 201 0
8.824555 -8.423438 34.955653 201 201 201 0
8.958724 -8.423875 34.957463 201 201 201 0
9.092627 -8.424052 34.958198 201 201 201 0
9.225997 -8.423736 34.956889 201 201 201 0
9.359515 -8.423563 34.956171 201 201 201 0
9.493707 -8.423994 34.957958 202 202 202 0
9.627353 -8.423933 34.957707 201 201 201 0
9.760640 -8.423566 34.956182 201 201 201 0
9.894416 -8.423625 34.956426 201 201 201 0
10.028360 -8.423822 34.957245 201 201 201 0
10.162022 -8.423781 34.957075 201 201 201 0
10.295567 -8.423646 34.956514 202 202 202 0
10.429273 -8.423644 34.956505 201 201 201 0
10.563379 -8.423960 34.957819 202 202 202 0
-10.373673 -8.039596 33.900891 192 192 192 0
-10.240310 -8.036699 33.888675 192 192 192 0
-10.170223 -8.084024 34.088230 192 192 192 0
-10.241884 -8.246712 34.774244 192 192 192 0
-10.101122 -8.240389 34.747581 193 193 193 0
-9.855850 -8.147502 34.355903 193 193 193 0
-9.887173 -8.283848 34.930837 192 192 192 0
-9.770898 -8.298571 34.992920 192 192 192 0
-9.637503 -8.298961 34.994565 193 193 193 0
-9.485340 -8.282973 34.927147 193 193 193 0
-9.348177 -8.279814 34.913826 193 193 193 0
-9.234404 -8.297581 34.988744 193 193 193 0
-9.100636 -8.297638 34.988988 193 193 193 0
-8.968146 -8.298881 34.994228 193 193 193 0
-8.835565 -8.300076 34.999265 194 194 194 0
-8.699827 -8.298296 34.991762 194 194 194 0
-8.564194 -8.296563 34.984451 194 194 194 0
-8.431248 -8.297418 34.988060 194 194 194 0
-8.298543 -8.298543 34.992804 194 194 194 0
-8.164422 -8.298265 34.991630 194 194 194 0
-8.029029 -8.296663 34.984875 194 194 194 0
-7.894489 -8.295903 34.981671 194 194 194 0
-7.761669 -8.296956 34.986111 195 195 195 0
-7.628507 -8.297674 34.989138 195 195 195 0
-7.493209 -8.296053 34.982302 194 194 194 0
-7.358041 -8.294519 34.975832 194 194 194 0
-7.225057 -8.295436 34.979701 195 195 195 0
-7.092133 -8.296458 34.984009 194 194 194 0
-6.957740 -8.295767 34.981094 195 195 195 0
-6.822213 -8.293670 34.972255 195 195 195 0
-6.689175 -8.294577 34.976080 195 195 195 0
-6.556435 -8.295898 34.981648 195 195 195 0
-6.422952 -8.296313 34.983400 196 196 196 0
-6.287734 -8.294457 34.975574 195 195 195 0
-6.153603 -8.293987 34.973591 195 195 195 0
-6.020678 -8.295156 34.978520 195 195 195 0
-5.887309 -8.295754 34.981042 196 196 196 0
-5.752901 -8.294881 34.977361 195 195 195 0
-5.618604 -8.294130 34.974193 195 195 195 0
-5.484932 -8.294288 34.974859 195 195 195 0
-5.351694 -8.295125 34.978391 196 196 196 0
-5.217576 -8.294608 34.976210 196 196 196 0
-5.082734 -8.292882 34.968929 197 197 197 0
-4.949003 -8.292925 34.969111 196 196 196 0
-4.815867 -8.293993 34.973616 196 196 196 0
-4.682222 -8.294222 34.974580 196 196 196 0
-4.548004 -8.293419 34.971195 196 196 196 0
-4.413698 -8.292402 34.966908 196 196 196 0
-4.280594 -8.293650 34.972171 197 197 197 0
-4.147032 -8.294064 34.973914 197 197 197 0
-4.012919 -8.293366 34.970973 196 196 196 0
-3.878701 -8.292395 34.966877 196 196 196 0
-3.745199 -8.292941 34.969180 197 197 197 0
-3.611529 -8.293142 34.970026 197 197 197 0
-3.477613 -8.292770 34.968458 197 197 197 0
-3.343650 -8.292251 34.966271 197 197 197 0
-3.210039 -8.292600 34.967742 197 197 197 0
-3.076423 -8.292966 34.969287 197 197 197 0
-2.942551 -8.292645 34.967932 198 198 198 0
-2.808586 -8.292015 34.965275 197 197 197 0
-2.674762 -8.291762 34.964207 197 197 197 0
-2.541219 -8.292400 34.966900 198 198 198 0
-2.407512 -8.292542 34.967498 198 198 198 0
-2.273592 -8.291925 34.964894 198 198 198 0
-2.139744 -8.291506 34.963130 197 197 197 0
-2.006202 -8.292301 34.966481 198 198 198 0
-1.872507 -8.292532 34.967454 198 198 198 0
-1.738679 -8.292159 34.965883 198 198 198 0
-1.604860 -8.291776 34.964266 198 198 198 0
-1.471156 -8.291967 34.965074 198 198 198 0
-1.337434 -8.292093 34.965605 198 198 198 0
-1.203668 -8.291933 34.964929 198 198 198 0
-1.069911 -8.291811 34.964415 199 199 199 0
-0.936189 -8.291960 34.965041 198 198 198 0
-0.802432 -8.291796 34.964351 198 198 198 0
-0.668682 -8.291659 34.963776 198 198 198 0
-0.534943 -8.291623 34.963622 199 199 199 0
-0.401193 -8.291325 34.962367 199 199 199 0
-0.267465 -8.291429 34.962805 199 199 199 0
-0.133734 -8.291501 34.963106 199 199 199 0
0.000000 -8.291381 34.962604 198 198 198 0
0.133726 -8.291017 34.961067 199 199 199 0
0.267464 -8.291386 34.962622 199 199 199 0
0.401198 -8.291421 34.962772 198 198 198 0
0.534942 -8.291606 34.963550 198 198 198 0
0.668653 -8.291295 34.962239 200 200 200 0
0.802373 -8.291188 34.961788 199 199 199 0
0.936096 -8.291133 34.961556 199 199 199 0
1.069844 -8.291292 34.962227 199 199 199 0
1.203592 -8.291414 34.962743 200 200 200 0
1.337296 -8.291234 34.961982 199 199 199 0
1.470990 -8.291032 34.961131 200 200 200 0
1.604733 -8.291122 34.961509 200 200 200 0
1.738495 -8.291285 34.962195 199 199 199 0
1.872141 -8.290910 34.960617 199 199 199 0
2.005815 -8.290700 34.959732 199 199 199 0
2.139668 -8.291212 34.961890 200 200 200 0
2.273438 -8.291363 34.962526 199 199 199 0
2.406969 -8.290670 34.959605 200 200 200 0
2.540707 -8.290728 34.959850 199 199 199 0
2.674592 -8.291237 34.961993 200 200 200 0
2.808307 -8.291192 34.961803 199 199 199 0
2.941857 -8.290689 34.959683 200 200 200 0
3.075551 -8.290616 34.959377 199 199 199 0
3.209347 -8.290814 34.960211 200 200 200 0
3.343183 -8.291094 34.961390 200 200 200 0
3.476759 -8.290734 34.959872 201 201 201 0
3.610334 -8.290395 34.958446 200 200 200 0
3.744192 -8.290711 34.959777 200 200 200 0
3.878054 -8.291011 34.961042 200 200 200 0
4.011412 -8.290252 34.957840 200 200 200 0
4.145063 -8.290126 34.957309 200 200 200 0
4.279067 -8.290693 34.959699 201 201 201 0
4.412844 -8.290798 34.960144 201 201 201 0
4.546207 -8.290143 34.957380 200 200 200 0
4.679968 -8.290230 34.957748 200 200 200 0
4.813980 -8.290744 34.959914 201 201 201 0
4.947802 -8.290911 34.960618 201 201 201 0
5.081116 -8.290242 34.957799 200 200 200 0
5.214823 -8.290231 34.957753 200 200 200 0
5.348821 -8.290673 34.959615 201 201 201 0
5.482594 -8.290752 34.959948 201 201 201 0
5.616011 -8.290303 34.958054 201 201 201 0
5.749625 -8.290156 34.957438 201 201 201 0
5.883685 -8.290647 34.959505 201 201 201 0
6.017351 -8.290572 34.959190 201 201 201 0
6.150543 -8.289862 34.956196 201 201 201 0
6.284238 -8.289845 34.956126 201 201 201 0
6.418463 -8.290514 34.958947 201 201 201 0
6.552050 -8.290350 34.958253 201 201 201 0
6.685272 -8.289737 34.955671 201 201 201 0
6.819249 -8.290068 34.957065 201 201 201 0
6.953399 -8.290591 34.959271 201 201 201 0
7.087050 -8.290511 34.958934 201 201 201 0
7.220267 -8.289937 34.956511 201 201 201 0
7.354096 -8.290072 34.957083 201 201 201 0
7.488073 -8.290366 34.958322 202 202 202 0
7.621724 -8.290297 34.958029 201 201 201 0
7.755114 -8.289950 34.956567 201 201 201 0
7.888953 -8.290086 34.957141 201 201 201 0
8.022994 -8.290427 34.958580 201 201 201 0
8.156517 -8.290231 34.957752 202 202 202 0
8.289693 -8.289693 34.955483 201 201 201 0
8.423737 -8.290027 34.956893 202 202 202 0
8.557737 -8.290308 34.958075 201 201 201 0
8.691164 -8.290033 34.956918 201 201 201 0
8.824534 -8.289714 34.955572 201 201 201 0
8.958694 -8.290135 34.957346 201 201 201 0
9.092601 -8.290313 34.958097 201 201 201 0
9.225976 -8.290008 34.956812 202 202 202 0
9.359472 -8.289818 34.956011 201 201 201 0
9.493726 -8.290296 34.958027 201 201 201 0
9.627341 -8.290210 34.957666 201 201 201 0
9.760653 -8.289870 34.956229 202 202 202 0
9.894536 -8.290017 34.956850 201 201 201 0
10.028434 -8.290172 34.957504 202 202 202 0
10.162028 -8.290076 34.957097 202 202 202 0
10.295588 -8.289954 34.956586 201 201 201 0
10.429332 -8.289982 34.956702 201 201 201 0
10.563407 -8.290269 34.957913 201 201 201 0
-10.373730 -7.909969 33.901079 192 192 192 0
-10.231672 -7.900405 33.860087 192 192 192 0
-10.190987 -7.969875 34.157826 192 192 192 0
-10.242326 -8.114051 34.775745 193 193 193 0
-10.091621 -8.099854 34.714900 192 192 192 0
-9.853263 -8.013987 34.346885 193 193 193 0
-9.889447 -8.152112 34.938870 192 192 192 0
-9.770607 -8.164480 34.991877 193 193 193 0
-9.637570 -8.165164 34.994808 192 192 192 0
-9.469406 -8.135686 34.868473 192 192 192 0
-9.348629 -8.146663 34.915516 193 193 193 0
-9.234353 -8.163703 34.988550 194 194 194 0
-9.100534 -8.163714 34.988596 194 194 194 0
-8.968130 -8.165014 34.994168 193 193 193 0
-8.835401 -8.166053 34.998618 193 193 193 0
-8.699577 -8.164218 34.990757 194 194 194 0
-8.563999 -8.162562 34.983658 193 193 193 0
-8.431244 -8.163585 34.988044 194 194 194 0
-8.298522 -8.164675 34.992713 193 193 193 0
-8.164245 -8.164245 34.990873 193 193 193 0
-8.029102 -8.162920 34.985194 194 194 194 0
-7.894598 -8.162212 34.982156 195 195 195 0
-7.761618 -8.163081 34.985883 194 194 194 0
-7.628532 -8.163867 34.989253 194 194 194 0
-7.493125 -8.162154 34.981909 194 194 194 0
-7.357873 -8.160550 34.975035 195 195 195 0
-7.225047 -8.161627 34.979651 195 195 195 0
-7.092033 -8.162528 34.983512 195 195 195 0
-6.957689 -8.161904 34.980839 195 195 195 0
-6.822169 -8.159849 34.972032 195 195 195 0
-6.689076 -8.160673 34.975560 195 195 195 0
-6.556525 -8.162205 34.982127 195 195 195 0
-6.422802 -8.162310 34.982580 195 195 195 0
-6.287735 -8.160677 34.975580 196 196 196 0
-6.153606 -8.160216 34.973605 195 195 195 0
-6.020769 -8.161487 34.979051 196 196 196 0
-5.887209 -8.161813 34.980447 196 196 196 0
-5.752834 -8.160998 34.976953 195 195 195 0
-5.618563 -8.160293 34.973935 195 195 195 0
-5.484883 -8.160436 34.974544 196 196 196 0
-5.351664 -8.161288 34.978199 196 196 196 0
-5.217608 -8.160874 34.976425 196 196 196 0
-5.082828 -8.159276 34.969574 196 196 196 0
-4.949031 -8.159213 34.969304 196 196 196 0
-4.815852 -8.160193 34.973506 196 196 196 0
-4.682185 -8.160379 34.974301 196 196 196 0
-4.547979 -8.159609 34.971002 197 197 197 0
-4.413728 -8.158709 34.967145 197 197 197 0
-4.280543 -8.159785 34.971754 197 197 197 0
-4.147013 -8.160252 34.973756 196 196 196 0
-4.012984 -8.159735 34.971540 196 196 196 0
-3.878716 -8.158679 34.967014 196 196 196 0
-3.745227 -8.159244 34.969436 197 197 197 0
-3.611561 -8.159452 34.970329 197 197 197 0
-3.477665 -8.159137 34.968981 197 197 197 0
-3.343685 -8.158592 34.966642 197 197 197 0
-3.210046 -8.158866 34.967818 197 197 197 0
-3.076386 -8.159110 34.968861 197 197 197 0
-2.942547 -8.158881 34.967880 198 198 198 0
-2.808584 -8.158269 34.965259 197 197 197 0
-2.674767 -8.158038 34.964269 197 197 197 0
-2.541222 -8.158661 34.966939 198 198 198 0
-2.407528 -8.158844 34.967724 197 197 197 0
-2.273579 -8.158136 34.964689 198 198 198 0
-2.139743 -8.157772 34.963128 198 198 198 0
-2.006186 -8.158490 34.966205 197 197 197 0
-1.872483 -8.158678 34.967011 197 197 197 0
-1.738697 -8.158502 34.966256 198 198 198 0
-1.604840 -8.157934 34.963824 198 198 198 0
-1.471171 -8.158312 34.965443 197 197 197 0
-1.337433 -8.158342 34.965573 198 198 198 0
-1.203664 -8.158168 34.964825 197 197 197 0
-1.069912 -8.158076 34.964433 198 198 198 0
-0.936186 -8.158193 34.964935 199 199 199 0
-0.802421 -8.157944 34.963867 199 199 199 0
-0.668681 -8.157906 34.963703 199 199 199 0
-0.534938 -8.157799 34.963245 199 199 199 0
-0.401192 -8.157573 34.962278 198 198 198 0
-0.267464 -8.157666 34.962676 198 198 198 0
-0.133734 -8.157776 34.963146 198 198 198 0
0.000000 -8.157605 34.962411 198 198 198 0
0.133728 -8.157421 34.961625 199 199 199 0
0.267464 -8.157661 34.962651 198 198 198 0
0.401200 -8.157724 34.962925 199 199 199 0
0.534942 -8.157871 34.963555 199 199 199 0
0.668657 -8.157617 34.962464 199 199 199 0
0.802372 -8.157451 34.961752 200 200 200 0
0.936088 -8.157342 34.961286 199 199 199 0
1.069835 -8.157491 34.961926 200 200 200 0
1.203585 -8.157634 34.962536 199 199 199 0
1.337292 -8.157482 34.961886 200 200 200 0
1.471010 -8.157422 34.961627 199 199 199 0
1.604743 -8.157444 34.961725 199 199 199 0
1.738488 -8.157520 34.962050 200 200 200 0
1.872133 -8.157150 34.960465 200 200 200 0
2.005837 -8.157070 34.960119 199 199 199 0
2.139682 -8.157539 34.962130 199 199 199 0
2.273385 -8.157439 34.961702 200 200 200 0
2.406971 -8.156958 34.959640 200 200 200 0
2.540736 -8.157101 34.960252 200 200 200 0
2.674574 -8.157451 34.961753 200 200 200 0
2.808316 -8.157490 34.961918 199 199 199 0
2.941871 -8.157005 34.959842 199 199 199 0
3.075524 -8.156824 34.959067 201 201 201 0
3.209370 -8.157149 34.960457 200 200 200 0
3.343133 -8.157244 34.960864 200 200 200 0
3.476760 -8.157015 34.959883 200 200 200 0
3.610330 -8.156671 34.958411 200 200 200 0
3.744187 -8.156979 34.959729 200 200 200 0
3.878044 -8.157265 34.960957 200 200 200 0
