ply
    format ascii 1.0
    element vertex 25597
    property float x
    property float y
    property float z
    property uchar red
    property uchar green
    property uchar blue
    property uchar alpha
    end_header
4.948800 -4.012541 34.967675 202 202 202 0
5.082407 -4.012426 34.966679 201 201 201 0
5.215800 -4.012154 34.964301 202 202 202 0
5.349781 -4.012336 34.965888 202 202 202 0
5.483604 -4.012393 34.966387 203 203 203 0
5.617294 -4.012353 34.966039 202 202 202 0
5.750780 -4.012172 34.964462 202 202 202 0
5.884696 -4.012293 34.965514 202 202 202 0
6.018672 -4.012448 34.966868 203 203 203 0
6.152205 -4.012307 34.965642 202 202 202 0
6.285575 -4.012069 34.963563 203 203 203 0
6.419425 -4.012141 34.964190 203 203 203 0
6.553446 -4.012314 34.965698 202 202 202 0
6.686915 -4.012149 34.964264 203 203 203 0
6.820383 -4.011990 34.962874 202 202 202 0
6.954611 -4.012276 34.965365 203 203 203 0
7.088488 -4.012352 34.966029 203 203 203 0
7.222105 -4.012281 34.965410 203 203 203 0
7.355556 -4.012122 34.964023 202 202 202 0
7.489514 -4.012239 34.965049 202 202 202 0
7.623239 -4.012231 34.964975 203 203 203 0
7.756868 -4.012173 34.964470 203 203 203 0
7.890660 -4.012200 34.964706 202 202 202 0
8.024507 -4.012253 34.965172 203 203 203 0
8.158337 -4.012297 34.965552 203 203 203 0
8.291807 -4.012165 34.964397 202 202 202 0
8.425462 -4.012125 34.964049 203 203 203 0
8.559196 -4.012123 34.964037 203 203 203 0
8.693055 -4.012179 34.964525 202 202 202 0
8.826654 -4.012115 34.963969 203 203 203 0
8.960288 -4.012069 34.963567 203 203 203 0
9.094243 -4.012166 34.964411 203 203 203 0
9.228019 -4.012182 34.964551 202 202 202 0
9.361892 -4.012240 34.965050 203 203 203 0
9.495432 -4.012155 34.964310 203 203 203 0
9.629152 -4.012147 34.964241 203 203 203 0
9.762821 -4.012118 34.963994 202 202 202 0
9.896791 -4.012212 34.964814 202 202 202 0
10.030483 -4.012193 34.964647 203 203 203 0
10.164034 -4.012119 34.963998 203 203 203 0
10.297959 -4.012192 34.964635 203 203 203 0
10.432263 -4.012409 34.966527 203 203 203 0
10.565498 -4.012214 34.964831 202 202 202 0
-10.341146 -3.748666 33.794596 193 193 193 0
-10.185192 -3.738868 33.706269 193 193 193 0
-10.071411 -3.744499 33.757035 193 193 193 0
-10.142792 -3.820012 34.437795 194 194 194 0
-9.999162 -3.815470 34.396843 193 193 193 0
-9.757599 -3.772938 34.013416 194 194 194 0
-9.673096 -3.790808 34.174512 194 194 194 0
-9.772529 -3.882237 34.998760 194 194 194 0
-9.638962 -3.882360 34.999861 194 194 194 0
-9.404508 -3.841278 34.629507 194 194 194 0
-9.248850 -3.831666 34.542857 194 194 194 0
-9.236076 -3.881829 34.995079 195 195 195 0
-9.102132 -3.881792 34.994742 194 194 194 0
-8.959719 -3.878087 34.961346 195 195 195 0
-8.738838 -3.839792 34.616113 195 195 195 0
-8.685193 -3.874932 34.932903 195 195 195 0
-8.565734 -3.881348 34.990743 195 195 195 0
-8.432150 -3.881466 34.991802 195 195 195 0
-8.300101 -3.882305 34.999372 196 196 196 0
-8.165919 -3.882158 34.998044 196 196 196 0
-8.030650 -3.881481 34.991939 196 196 196 0
-7.896033 -3.881101 34.988515 195 195 195 0
-7.762707 -3.881354 34.990792 196 196 196 0
-7.629871 -3.881864 34.995393 196 196 196 0
-7.494860 -3.881267 34.990010 196 196 196 0
-7.359303 -3.880360 34.981834 196 196 196 0
-7.226266 -3.880773 34.985553 196 196 196 0
-7.093471 -3.881333 34.990609 196 196 196 0
-6.959192 -3.881088 34.988398 197 197 197 0
-6.823769 -3.880182 34.980231 196 196 196 0
-6.690198 -3.880315 34.981426 196 196 196 0
-6.557672 -3.881071 34.988243 197 197 197 0
-6.424095 -3.881224 34.989624 196 196 196 0
-6.289389 -3.880687 34.984779 196 196 196 0
-6.154646 -3.880103 34.979516 197 197 197 0
-6.021447 -3.880488 34.982990 197 197 197 0
-5.888115 -3.880803 34.985832 197 197 197 0
-5.753860 -3.880510 34.983191 197 197 197 0
-5.619544 -3.880161 34.980041 197 197 197 0
-5.485956 -3.880310 34.981384 197 197 197 0
-5.352382 -3.880477 34.982888 197 197 197 0
-5.218552 -3.880462 34.982754 197 197 197 0
-5.084223 -3.880065 34.979177 197 197 197 0
-4.950024 -3.879748 34.976319 198 198 198 0
-4.816681 -3.880104 34.979525 197 197 197 0
-4.683066 -3.880255 34.980886 198 198 198 0
-4.548744 -3.879811 34.976882 198 198 198 0
-4.414559 -3.879461 34.973733 198 198 198 0
-4.281272 -3.879902 34.977709 198 198 198 0
-4.147804 -3.880204 34.980426 198 198 198 0
-4.013787 -3.879994 34.978539 198 198 198 0
-3.879701 -3.879701 34.975892 198 198 198 0
-3.745970 -3.879755 34.976378 198 198 198 0
-3.612373 -3.879956 34.978194 198 198 198 0
-3.478499 -3.879864 34.977361 198 198 198 0
-3.344476 -3.879593 34.974918 198 198 198 0
-3.210796 -3.879712 34.975996 199 199 199 0
-3.076966 -3.879653 34.975459 198 198 198 0
-2.943172 -3.879636 34.975306 198 198 198 0
-2.809311 -3.879525 34.974308 199 199 199 0
-2.675334 -3.879234 34.971688 199 199 199 0
-2.541639 -3.879344 34.972679 199 199 199 0
-2.407827 -3.879277 34.972073 199 199 199 0
-2.273997 -3.879171 34.971120 199 199 199 0
-1.880086 -3.407656 30.720363 199 199 199 0
-2.006529 -3.879289 34.972180 199 199 199 0
-1.872796 -3.879363 34.972843 199 199 199 0
-1.739046 -3.879410 34.973275 199 199 199 0
-1.605298 -3.879470 34.973807 199 199 199 0
-1.471480 -3.879357 34.972788 200 200 200 0
-1.337673 -3.879252 34.971844 200 200 200 0
-1.203897 -3.879223 34.971583 200 200 200 0
-1.070160 -3.879331 34.972560 200 200 200 0
-0.936404 -3.879389 34.973085 200 200 200 0
-0.802610 -3.879283 34.972126 200 200 200 0
-0.668827 -3.879197 34.971352 199 199 199 0
-0.535068 -3.879240 34.971742 200 200 200 0
-0.401298 -3.879212 34.971481 200 200 200 0
-0.267517 -3.878990 34.969486 200 200 200 0
-0.133756 -3.878916 34.968820 200 200 200 0
0.000000 -3.879140 34.970837 200 200 200 0
0.133766 -3.879218 34.971535 200 200 200 0
0.267508 -3.878868 34.968387 200 200 200 0
0.401264 -3.878884 34.968532 201 201 201 0
0.535058 -3.879169 34.971096 200 200 200 0
0.668829 -3.879209 34.971462 200 200 200 0
0.802533 -3.878911 34.968775 200 200 200 0
0.936272 -3.878839 34.968124 200 200 200 0
1.070063 -3.878978 34.969375 200 200 200 0
1.203855 -3.879089 34.970373 201 201 201 0
1.337586 -3.878999 34.969563 201 201 201 0
1.471260 -3.878777 34.967565 201 201 201 0
1.605070 -3.878919 34.968844 201 201 201 0
1.738899 -3.879082 34.970317 201 201 201 0
1.872565 -3.878885 34.968539 201 201 201 0
2.006180 -3.878615 34.966104 201 201 201 0
2.140000 -3.878749 34.967315 201 201 201 0
2.273806 -3.878845 34.968176 201 201 201 0
2.407403 -3.878593 34.965906 201 201 201 0
2.541122 -3.878554 34.965557 201 201 201 0
2.675003 -3.878755 34.967363 201 201 201 0
2.808888 -3.878941 34.969041 201 201 201 0
2.942497 -3.878746 34.967281 201 201 201 0
3.076047 -3.878494 34.965017 202 202 202 0
3.209909 -3.878640 34.966325 202 202 202 0
3.343821 -3.878832 34.968061 201 201 201 0
3.477485 -3.878733 34.967168 201 201 201 0
3.611095 -3.878583 34.965815 202 202 202 0
3.744872 -3.878617 34.966124 201 201 201 0
3.878846 -3.878846 34.968190 202 202 202 0
4.012545 -3.878794 34.967713 202 202 202 0
4.145908 -3.878430 34.964435 202 202 202 0
4.279771 -3.878542 34.965445 202 202 202 0
4.413789 -3.878784 34.967629 202 202 202 0
4.547383 -3.878650 34.966420 202 202 202 0
4.680723 -3.878313 34.963382 202 202 202 0
4.814793 -3.878583 34.965819 202 202 202 0
4.948797 -3.878787 34.967652 202 202 202 0
5.082448 -3.878710 34.966961 202 202 202 0
5.215798 -3.878414 34.964292 202 202 202 0
5.349747 -3.878566 34.965665 202 202 202 0
5.483649 -3.878679 34.966678 202 202 202 0
5.617278 -3.878597 34.965939 202 202 202 0
5.750770 -3.878426 34.964403 202 202 202 0
5.884704 -3.878555 34.965559 202 202 202 0
6.018721 -3.878731 34.967151 202 202 202 0
6.152227 -3.878578 34.965768 202 202 202 0
6.285554 -3.878320 34.963447 202 202 202 0
6.419464 -3.878426 34.964399 202 202 202 0
6.553394 -3.878539 34.965419 202 202 202 0
6.686990 -3.878454 34.964652 202 202 202 0
6.820390 -3.878261 34.962914 203 203 203 0
6.954542 -3.878494 34.965016 202 202 202 0
7.088491 -3.878608 34.966044 203 203 203 0
7.222098 -3.878534 34.965372 203 203 203 0
7.355592 -3.878403 34.964192 203 203 203 0
7.489505 -3.878494 34.965011 202 202 202 0
7.623190 -3.878465 34.964751 203 203 203 0
7.756886 -3.878443 34.964552 203 203 203 0
7.890733 -3.878496 34.965028 202 202 202 0
8.024443 -3.878481 34.964892 203 203 203 0
8.158281 -3.878527 34.965309 203 203 203 0
8.291861 -3.878451 34.964627 203 203 203 0
8.425416 -3.878366 34.963858 203 203 203 0
8.559137 -3.878359 34.963795 203 203 203 0
8.692988 -3.878410 34.964256 203 203 203 0
8.826700 -3.878398 34.964151 203 203 203 0
8.960241 -3.878313 34.963383 203 203 203 0
9.094256 -3.878433 34.964458 202 202 202 0
9.228038 -3.878451 34.964622 203 203 203 0
9.361816 -3.878467 34.964765 203 203 203 0
9.495450 -3.878423 34.964374 202 202 202 0
9.629211 -3.878432 34.964454 203 203 203 0
9.762764 -3.878358 34.963788 203 203 203 0
9.896839 -3.878491 34.964985 203 203 203 0
10.030536 -3.878474 34.964832 203 203 203 0
10.164049 -3.878387 34.964048 203 203 203 0
10.297924 -3.878439 34.964516 203 203 203 0
10.432311 -3.878680 34.966688 203 203 203 0
10.565428 -3.878448 34.964601 203 203 203 0
-10.303212 -3.606124 33.670626 193 193 193 0
-10.188152 -3.610991 33.716067 194 194 194 0
-10.083852 -3.619844 33.798734 193 193 193 0
-10.152395 -3.691780 34.470402 194 194 194 0
-10.001923 -3.684919 34.406340 194 194 194 0
-9.777867 -3.650404 34.084067 194 194 194 0
-9.692706 -3.667510 34.243794 194 194 194 0
-9.772613 -3.748399 34.999062 193 193 193 0
-9.638781 -3.748415 34.999206 195 195 195 0
-9.393476 -3.704470 34.588885 194 194 194 0
-9.238326 -3.695330 34.503552 194 194 194 0
-9.236064 -3.747968 34.995034 194 194 194 0
-9.101919 -3.747849 34.993923 195 195 195 0
-8.949809 -3.740219 34.922675 195 195 195 0
-8.743246 -3.709256 34.633574 195 195 195 0
-8.683671 -3.740658 34.926781 195 195 195 0
-8.565989 -3.747620 34.991786 195 195 195 0
-8.432316 -3.747696 34.992494 195 195 195 0
-8.299991 -3.748383 34.998907 196 196 196 0
-8.165639 -3.748162 34.996846 195 195 195 0
-8.030569 -3.747599 34.991587 195 195 195 0
-7.896211 -3.747354 34.989303 196 196 196 0
-7.762883 -3.747599 34.991585 196 196 196 0
-7.629964 -3.748052 34.995821 196 196 196 0
-7.494873 -3.747437 34.990071 196 196 196 0
-7.359233 -3.746519 34.981501 196 196 196 0
-7.226136 -3.746885 34.984923 196 196 196 0
-7.093297 -3.747402 34.989750 196 196 196 0
-6.959132 -3.747225 34.988094 196 196 196 0
-6.823566 -3.746271 34.979190 197 197 197 0
-6.690131 -3.746473 34.981075 196 196 196 0
-6.557616 -3.747209 34.987946 196 196 196 0
-6.424052 -3.747364 34.989390 197 197 197 0
-6.289453 -3.746908 34.985139 197 197 197 0
-6.154668 -3.746319 34.979639 197 197 197 0
-6.021536 -3.746734 34.983508 197 197 197 0
-5.888213 -3.747045 34.986412 197 197 197 0
-5.753910 -3.746732 34.983493 197 197 197 0
-5.619549 -3.746366 34.980075 197 197 197 0
-5.485836 -3.746424 34.980620 197 197 197 0
-5.352260 -3.746582 34.982090 197 197 197 0
-5.218507 -3.746620 34.982448 197 197 197 0
-5.084238 -3.746281 34.979279 197 197 197 0
-4.950023 -3.745963 34.976312 197 197 197 0
-4.816727 -3.746343 34.979862 198 198 198 0
-4.683002 -3.746402 34.980408 198 198 198 0
-4.548745 -3.746025 34.976890 198 198 198 0
-4.414564 -3.745691 34.973769 197 197 197 0
-4.281318 -3.746153 34.978086 198 198 198 0
-4.147781 -3.746383 34.980234 198 198 198 0
-4.013796 -3.746210 34.978616 198 198 198 0
-3.879634 -3.745853 34.975287 198 198 198 0
-3.745979 -3.745979 34.976465 198 198 198 0
-3.612372 -3.746163 34.978183 198 198 198 0
-3.478539 -3.746119 34.977766 199 199 199 0
-3.344514 -3.745855 34.975306 198 198 198 0
-3.210707 -3.745825 34.975020 198 198 198 0
-3.076980 -3.745888 34.975614 199 199 199 0
-2.943165 -3.745847 34.975225 199 199 199 0
-2.809335 -3.745780 34.974602 199 199 199 0
-2.675366 -3.745513 34.972107 199 199 199 0
-2.541676 -3.745627 34.973176 199 199 199 0
-2.407827 -3.745509 34.972071 199 199 199 0
-2.273991 -3.745397 34.971031 199 199 199 0
-1.887426 -3.302995 30.840288 199 199 199 0
-2.006585 -3.745626 34.973161 199 199 199 0
-1.872822 -3.745643 34.973324 199 199 199 0
-1.739064 -3.745675 34.973627 199 199 199 0
-1.605296 -3.745690 34.973763 199 199 199 0
-1.471479 -3.745582 34.972756 200 200 200 0
-1.337677 -3.745496 34.971952 200 200 200 0
-1.203892 -3.745443 34.971453 199 199 199 0
-1.070153 -3.745535 34.972314 200 200 200 0
-0.936401 -3.745606 34.972975 200 200 200 0
-0.802604 -3.745486 34.971862 200 200 200 0
-0.668819 -3.745384 34.970902 200 200 200 0
-0.535062 -3.745436 34.971392 200 200 200 0
-0.401295 -3.745416 34.971201 200 200 200 0
-0.267518 -3.745248 34.969637 200 200 200 0
-0.133756 -3.745176 34.968966 200 200 200 0
0.000000 -3.745345 34.970542 200 200 200 0
0.133766 -3.745447 34.971490 200 200 200 0
0.267508 -3.745111 34.968357 201 201 201 0
0.401266 -3.745151 34.968728 201 201 201 0
0.535052 -3.745365 34.970728 200 200 200 0
0.668829 -3.745441 34.971434 201 201 201 0
0.802533 -3.745156 34.968777 200 200 200 0
0.936263 -3.745050 34.967790 200 200 200 0
1.070054 -3.745188 34.969072 201 201 201 0
1.203863 -3.745352 34.970605 201 201 201 0
1.337584 -3.745235 34.969510 201 201 201 0
1.471257 -3.745019 34.967498 201 201 201 0
1.605046 -3.745108 34.968325 202 202 202 0
1.738896 -3.745314 34.970248 201 201 201 0
1.872547 -3.745093 34.968192 201 201 201 0
2.006153 -3.744819 34.965635 201 201 201 0
2.139989 -3.744981 34.967142 201 201 201 0
2.273809 -3.745097 34.968227 201 201 201 0
2.407393 -3.744834 34.965771 201 201 201 0
2.541106 -3.744787 34.965334 202 202 202 0
2.674989 -3.744984 34.967175 202 202 202 0
2.808906 -3.745208 34.969259 201 201 201 0
2.942491 -3.744989 34.967215 201 201 201 0
3.076047 -3.744752 34.965009 202 202 202 0
3.209907 -3.744891 34.966302 202 202 202 0
3.343847 -3.745109 34.968335 201 201 201 0
3.477488 -3.744987 34.967201 201 201 201 0
3.611086 -3.744830 34.965732 201 201 201 0
3.744871 -3.744871 34.966113 202 202 202 0
3.878888 -3.745133 34.968562 202 202 202 0
4.012551 -3.745048 34.967765 202 202 202 0
4.145944 -3.744723 34.964737 201 201 201 0
4.279796 -3.744821 34.965650 201 201 201 0
4.413775 -3.745021 34.967519 202 202 202 0
4.547383 -3.744904 34.966421 202 202 202 0
4.680747 -3.744598 34.963564 202 202 202 0
4.814761 -3.744814 34.965588 202 202 202 0
4.948822 -3.745054 34.967826 201 201 201 0
5.082426 -3.744946 34.966813 202 202 202 0
5.215798 -3.744676 34.964291 201 201 201 0
5.349740 -3.744818 34.965624 202 202 202 0
5.483635 -3.744922 34.966589 202 202 202 0
5.617243 -3.744829 34.965722 202 202 202 0
5.750791 -3.744701 34.964529 202 202 202 0
5.884748 -3.744839 34.965821 203 203 203 0
6.018722 -3.744982 34.967156 202 202 202 0
6.152209 -3.744823 34.965668 202 202 202 0
6.285556 -3.744587 34.963461 202 202 202 0
6.419502 -3.744710 34.964608 202 202 202 0
6.553423 -3.744813 34.965577 202 202 202 0
6.686985 -3.744712 34.964629 202 202 202 0
6.820388 -3.744527 34.962901 202 202 202 0
6.954602 -3.744786 34.965319 202 202 202 0
7.088459 -3.744846 34.965883 203 203 203 0
7.222085 -3.744785 34.965309 203 203 203 0
7.355580 -3.744659 34.964136 202 202 202 0
7.489544 -3.744772 34.965192 202 202 202 0
7.623261 -3.744760 34.965078 202 202 202 0
7.756862 -3.744692 34.964445 202 202 202 0
7.890637 -3.744709 34.964604 203 203 203 0
8.024474 -3.744755 34.965030 203 203 203 0
8.158294 -3.744790 34.965364 203 203 203 0
8.291893 -3.744726 34.964763 203 203 203 0
8.425466 -3.744652 34.964068 203 203 203 0
8.559189 -3.744645 34.964007 203 203 203 0
8.693037 -3.744693 34.964451 203 203 203 0
8.826722 -3.744670 34.964240 203 203 203 0
8.960241 -3.744578 34.963384 203 203 203 0
9.094206 -3.744673 34.964269 203 203 203 0
9.228051 -3.744716 34.964671 203 203 203 0
9.361869 -3.744747 34.964962 203 203 203 0
9.495414 -3.744670 34.964243 202 202 202 0
9.629155 -3.744671 34.964251 203 203 203 0
9.762799 -3.744635 34.963913 203 203 203 0
9.896834 -3.744748 34.964968 203 203 203 0
10.030466 -3.744707 34.964587 203 203 203 0
10.163982 -3.744625 34.963817 204 204 204 0
10.297924 -3.744700 34.964515 203 203 203 0
10.432306 -3.744931 34.966671 203 203 203 0
10.565461 -3.744720 34.964709 203 203 203 0
-10.340881 -3.490047 33.793728 193 193 193 0
-10.204761 -3.487703 33.771030 194 194 194 0
-10.068718 -3.485325 33.748007 193 193 193 0
-10.158044 -3.561911 34.489580 194 194 194 0
-9.996012 -3.551215 34.386005 194 194 194 0
-9.775518 -3.519186 34.075879 194 194 194 0
-9.684754 -3.533626 34.215700 194 194 194 0
-9.772598 -3.614523 34.999009 193 193 193 0
-9.638900 -3.614588 34.999638 194 194 194 0
-9.407239 -3.577401 34.639563 195 195 195 0
-9.252690 -3.568895 34.557199 195 195 195 0
-9.236105 -3.614128 34.995190 194 194 194 0
-9.102102 -3.614070 34.994624 195 195 195 0
-8.968351 -3.614112 34.995029 195 195 195 0
-8.732607 -3.572430 34.591433 195 195 195 0
-8.670768 -3.601704 34.874885 195 195 195 0
-8.565903 -3.613740 34.991434 195 195 195 0
-8.432353 -3.613866 34.992646 195 195 195 0
-8.300134 -3.614574 34.999509 195 195 195 0
-8.165996 -3.614457 34.998376 196 196 196 0
-8.030733 -3.613830 34.992301 196 196 196 0
-7.896110 -3.613474 34.988858 196 196 196 0
-7.762818 -3.613726 34.991291 196 196 196 0
-7.629904 -3.614165 34.995546 196 196 196 0
-7.494893 -3.613609 34.990166 196 196 196 0
-7.359228 -3.612712 34.981477 196 196 196 0
-7.226137 -3.613069 34.984931 196 196 196 0
-7.093432 -3.613635 34.990418 196 196 196 0
-6.959218 -3.613440 34.988526 196 196 196 0
-6.823662 -3.612527 34.979683 196 196 196 0
-6.690203 -3.612710 34.981455 197 197 197 0
-6.557577 -3.613359 34.987741 197 197 197 0
-6.424139 -3.613578 34.989863 197 197 197 0
-6.289458 -3.613093 34.985164 197 197 197 0
-6.154785 -3.612591 34.980309 197 197 197 0
-6.021620 -3.612972 34.983996 197 197 197 0
-5.888161 -3.613190 34.986101 198 198 198 0
-5.753892 -3.612909 34.983383 196 196 196 0
-5.619621 -3.612614 34.980524 197 197 197 0
-5.485825 -3.612617 34.980553 197 197 197 0
-5.352223 -3.612751 34.981852 197 197 197 0
-5.218566 -3.612853 34.982844 197 197 197 0
-5.084192 -3.612452 34.978962 198 198 198 0
-4.950077 -3.612218 34.976697 198 198 198 0
-4.816676 -3.612507 34.979492 198 198 198 0
-4.682956 -3.612566 34.980067 198 198 198 0
-4.548824 -3.612301 34.977501 198 198 198 0
-4.414566 -3.611917 34.973783 197 197 197 0
-4.281313 -3.612358 34.978045 198 198 198 0
-4.147751 -3.612557 34.979975 198 198 198 0
-4.013801 -3.612421 34.978657 198 198 198 0
-3.879671 -3.612108 34.975624 199 199 199 0
-3.745969 -3.612184 34.976368 198 198 198 0
-3.612410 -3.612410 34.978552 199 199 199 0
-3.478502 -3.612290 34.977394 199 199 199 0
-3.344517 -3.612078 34.975339 198 198 198 0
-3.210726 -3.612066 34.975223 198 198 198 0
-3.076960 -3.612084 34.975395 199 199 199 0
-2.943166 -3.612068 34.975239 199 199 199 0
-2.809316 -3.611977 34.974363 199 199 199 0
-2.675403 -3.611794 34.972588 199 199 199 0
-2.541641 -3.611806 34.972705 199 199 199 0
-2.407826 -3.611739 34.972053 199 199 199 0
-2.273970 -3.611599 34.970700 199 199 199 0
-1.910216 -3.223489 31.212673 199 199 199 0
-2.006571 -3.611827 34.972912 199 199 199 0
-1.872829 -3.611885 34.973472 199 199 199 0
-1.739077 -3.611929 34.973895 199 199 199 0
-1.605292 -3.611908 34.973693 199 199 199 0
-1.471464 -3.611776 34.972414 199 199 199 0
-1.337675 -3.611722 34.971892 199 199 199 0
-1.203879 -3.611638 34.971081 200 200 200 0
-1.070140 -3.611722 34.971887 199 199 199 0
-0.936408 -3.611861 34.973233 200 200 200 0
-0.802596 -3.611683 34.971513 200 200 200 0
-0.668821 -3.611633 34.971030 200 200 200 0
-0.535064 -3.611680 34.971481 200 200 200 0
-0.401297 -3.611675 34.971437 200 200 200 0
-0.267520 -3.611515 34.969885 200 200 200 0
-0.133756 -3.611418 34.968947 200 200 200 0
0.000000 -3.611615 34.970855 200 200 200 0
0.133765 -3.611659 34.971285 200 200 200 0
0.267508 -3.611355 34.968333 200 200 200 0
0.401267 -3.611407 34.968845 201 201 201 0
0.535058 -3.611640 34.971099 200 200 200 0
0.668829 -3.611678 34.971466 200 200 200 0
0.802534 -3.611403 34.968803 201 201 201 0
0.936266 -3.611312 34.967921 201 201 201 0
1.070063 -3.611464 34.969395 201 201 201 0
1.203859 -3.611578 34.970496 201 201 201 0
1.337591 -3.611495 34.969693 201 201 201 0
1.471255 -3.611262 34.967439 201 201 201 0
1.605065 -3.611396 34.968733 200 200 200 0
1.738891 -3.611544 34.970164 201 201 201 0
1.872544 -3.611335 34.968142 201 201 201 0
2.006151 -3.611072 34.965597 201 201 201 0
2.140008 -3.611264 34.967459 202 202 202 0
2.273802 -3.611333 34.968120 201 201 201 0
2.407380 -3.611070 34.965582 202 202 202 0
2.541112 -3.611054 34.965427 201 201 201 0
2.675009 -3.611262 34.967441 202 202 202 0
2.808893 -3.611434 34.969106 201 201 201 0
2.942478 -3.611223 34.967055 201 201 201 0
3.076032 -3.610994 34.964839 202 202 202 0
3.209926 -3.611167 34.966515 201 201 201 0
3.343859 -3.611368 34.968462 201 201 201 0
3.477507 -3.611257 34.967393 202 202 202 0
3.611087 -3.611087 34.965741 202 202 202 0
3.744892 -3.611146 34.966316 202 202 202 0
3.878904 -3.611393 34.968709 202 202 202 0
4.012531 -3.611278 34.967587 202 202 202 0
4.145955 -3.610993 34.964830 201 201 201 0
4.279791 -3.611073 34.965610 202 202 202 0
4.413804 -3.611294 34.967750 202 202 202 0
4.547416 -3.611183 34.966676 202 202 202 0
4.680758 -3.610871 34.963647 202 202 202 0
4.814764 -3.611073 34.965603 202 202 202 0
4.948827 -3.611306 34.967865 202 202 202 0
5.082447 -3.611212 34.966953 202 202 202 0
5.215791 -3.610932 34.964241 201 201 201 0
5.349703 -3.611049 34.965376 202 202 202 0
5.483630 -3.611171 34.966555 202 202 202 0
5.617262 -3.611097 34.965838 202 202 202 0
5.750834 -3.610989 34.964791 202 202 202 0
5.884708 -3.611071 34.965584 203 203 203 0
6.018701 -3.611221 34.967036 202 202 202 0
6.152238 -3.611096 34.965830 202 202 202 0
6.285571 -3.610860 34.963542 203 203 203 0
6.419439 -3.610935 34.964267 203 203 203 0
6.553456 -3.611088 34.965750 203 203 203 0
6.686945 -3.610950 34.964419 202 202 202 0
6.820353 -3.610775 34.962720 203 203 203 0
6.954549 -3.611016 34.965055 202 202 202 0
7.088472 -3.611109 34.965950 202 202 202 0
7.222068 -3.611034 34.965229 202 202 202 0
7.355574 -3.610918 34.964109 203 203 203 0
7.489499 -3.611008 34.964982 202 202 202 0
7.623242 -3.611009 34.964990 203 203 203 0
7.756888 -3.610965 34.964561 203 203 203 0
7.890652 -3.610976 34.964671 203 203 203 0
8.024437 -3.610997 34.964867 203 203 203 0
8.158268 -3.611037 34.965254 203 203 203 0
8.291853 -3.610968 34.964593 203 203 203 0
8.425449 -3.610907 34.963997 203 203 203 0
8.559184 -3.610906 34.963986 202 202 202 0
8.692968 -3.610925 34.964175 203 203 203 0
8.826715 -3.610929 34.964212 203 203 203 0
8.960282 -3.610860 34.963545 203 203 203 0
9.094239 -3.610948 34.964396 203 203 203 0
9.228047 -3.610975 34.964658 203 203 203 0
9.361867 -3.611006 34.964956 203 203 203 0
9.495514 -3.610970 34.964611 203 203 203 0
9.629165 -3.610937 34.964289 203 203 203 0
9.762750 -3.610880 34.963740 203 203 203 0
9.896804 -3.610996 34.964862 203 203 203 0
10.030500 -3.610980 34.964708 203 203 203 0
10.163996 -3.610893 34.963867 202 202 202 0
10.297942 -3.610967 34.964578 203 203 203 0
10.432312 -3.611185 34.966689 203 203 203 0
10.565461 -3.610980 34.964710 203 203 203 0
-10.318780 -3.353604 33.721505 194 194 194 0
-10.186140 -3.352401 33.709408 194 194 194 0
-10.093061 -3.364354 33.829599 194 194 194 0
-10.139359 -3.423680 34.426141 194 194 194 0
-9.998563 -3.420561 34.394783 194 194 194 0
-9.766537 -3.385733 34.044575 194 194 194 0
-9.695868 -3.406656 34.254966 194 194 194 0
-9.772873 -3.480749 34.999994 194 194 194 0
-9.638912 -3.480718 34.999680 194 194 194 0
-9.395366 -3.440557 34.595842 194 194 194 0
-9.265009 -3.441289 34.603208 195 195 195 0
-9.236270 -3.480334 34.995812 194 194 194 0
-9.101936 -3.480152 34.993988 194 194 194 0
-8.958344 -3.476372 34.955982 195 195 195 0
-8.734610 -3.440907 34.599367 195 195 195 0
-8.668720 -3.467488 34.866648 195 195 195 0
-8.566053 -3.479959 34.992048 195 195 195 0
-8.432532 -3.480092 34.993388 196 196 196 0
-8.299862 -3.480587 34.998363 195 195 195 0
-8.165961 -3.480574 34.998226 195 195 195 0
-8.030596 -3.479925 34.991702 195 195 195 0
-7.896040 -3.479611 34.988545 195 195 195 0
-7.762923 -3.479931 34.991766 196 196 196 0
-7.629862 -3.480288 34.995356 196 196 196 0
-7.494898 -3.479774 34.990186 196 196 196 0
-7.359291 -3.478938 34.981778 196 196 196 0
-7.226247 -3.479304 34.985461 197 197 197 0
-7.093425 -3.479793 34.990379 196 196 196 0
-6.959131 -3.479565 34.988089 196 196 196 0
-6.823802 -3.478801 34.980400 196 196 196 0
-6.690306 -3.478959 34.981992 197 197 197 0
-6.557716 -3.479605 34.988482 197 197 197 0
-6.424064 -3.479701 34.989456 197 197 197 0
-6.289440 -3.479265 34.985067 197 197 197 0
-6.154777 -3.478787 34.980263 197 197 197 0
-6.021549 -3.479117 34.983581 197 197 197 0
-5.888186 -3.479383 34.986254 197 197 197 0
-5.753836 -3.479064 34.983044 197 197 197 0
-5.619588 -3.478793 34.980319 197 197 197 0
-5.485878 -3.478849 34.980890 198 198 198 0
-5.352321 -3.479009 34.982493 197 197 197 0
-5.218477 -3.478985 34.982248 198 198 198 0
-5.084239 -3.478690 34.979287 197 197 197 0
-4.950030 -3.478400 34.976366 197 197 197 0
-4.816659 -3.478698 34.979370 198 198 198 0
-4.683031 -3.478823 34.980622 198 198 198 0
-4.548795 -3.478490 34.977278 197 197 197 0
-4.414518 -3.478105 34.973407 198 198 198 0
-4.281313 -3.478567 34.978051 199 199 199 0
-4.147817 -3.478815 34.980539 198 198 198 0
-4.013813 -3.478638 34.978763 198 198 198 0
-3.879684 -3.478338 34.975745 198 198 198 0
-3.745998 -3.478427 34.976641 198 198 198 0
-3.612396 -3.478604 34.978421 199 199 199 0
-3.478495 -3.478495 34.977326 199 199 199 0
-3.344496 -3.478276 34.975126 198 198 198 0
-3.210738 -3.478300 34.975364 198 198 198 0
-3.076988 -3.478335 34.975712 198 198 198 0
-2.943189 -3.478315 34.975514 199 199 199 0
-2.809301 -3.478182 34.974175 199 199 199 0
-2.675354 -3.477960 34.971947 199 199 199 0
-2.541634 -3.478026 34.972609 199 199 199 0
-2.407813 -3.477952 34.971866 200 200 200 0
-2.273995 -3.477875 34.971089 200 200 200 0
-1.930239 -3.136639 31.539859 200 200 200 0
-2.006587 -3.478084 34.973188 199 199 199 0
-1.872829 -3.478111 34.973465 199 199 199 0
-1.739042 -3.478084 34.973193 200 200 200 0
-1.605308 -3.478168 34.974040 200 200 200 0
-1.471471 -3.478023 34.972580 200 200 200 0
-1.337676 -3.477956 34.971909 199 199 199 0
-1.203892 -3.477910 34.971443 200 200 200 0
-1.070160 -3.478020 34.972545 200 200 200 0
-0.936403 -3.478070 34.973048 200 200 200 0
-0.802602 -3.477943 34.971775 200 200 200 0
-0.668823 -3.477881 34.971147 200 200 200 0
-0.535070 -3.477955 34.971898 200 200 200 0
-0.401299 -3.477928 34.971625 200 200 200 0
-0.267520 -3.477765 34.969983 200 200 200 0
-0.133757 -3.477682 34.969147 201 201 201 0
0.000000 -3.477846 34.970797 201 201 201 0
0.133766 -3.477909 34.971432 200 200 200 0
0.267507 -3.477595 34.968280 201 201 201 0
0.401266 -3.477639 34.968719 200 200 200 0
0.535058 -3.477880 34.971141 201 201 201 0
0.668831 -3.477920 34.971547 201 201 201 0
0.802538 -3.477664 34.968973 200 200 200 0
0.936270 -3.477575 34.968072 201 201 201 0
1.070062 -3.477701 34.969344 202 202 202 0
1.203863 -3.477827 34.970611 201 201 201 0
1.337595 -3.477748 34.969809 201 201 201 0
1.471263 -3.477531 34.967627 201 201 201 0
1.605056 -3.477621 34.968537 200 200 200 0
1.738907 -3.477813 34.970468 201 201 201 0
1.872533 -3.477561 34.967936 201 201 201 0
2.006151 -3.477328 34.965593 201 201 201 0
2.139990 -3.477484 34.967162 202 202 202 0
2.273783 -3.477551 34.967830 201 201 201 0
2.407392 -3.477344 34.965756 202 202 202 0
2.541112 -3.477311 34.965425 202 202 202 0
2.675002 -3.477503 34.967352 202 202 202 0
2.808913 -3.477702 34.969349 202 202 202 0
2.942467 -3.477461 34.966924 202 202 202 0
3.076066 -3.477292 34.965233 202 202 202 0
3.209921 -3.477415 34.966464 201 201 201 0
3.343836 -3.477589 34.968214 202 202 202 0
3.477483 -3.477483 34.967153 201 201 201 0
3.611079 -3.477335 34.965664 201 201 201 0
3.744851 -3.477362 34.965930 202 202 202 0
3.878878 -3.477615 34.968477 202 202 202 0
4.012567 -3.477558 34.967903 201 201 201 0
4.145943 -3.477243 34.964733 202 202 202 0
4.279787 -3.477327 34.965580 202 202 202 0
4.413824 -3.477558 34.967906 202 202 202 0
4.547374 -3.477403 34.966348 202 202 202 0
4.680745 -3.477125 34.963550 202 202 202 0
4.814789 -3.477348 34.965788 202 202 202 0
4.948806 -3.477540 34.967719 203 203 203 0
5.082486 -3.477490 34.967224 203 203 203 0
5.215814 -3.477210 34.964401 202 202 202 0
5.349735 -3.477328 34.965591 202 202 202 0
5.483620 -3.477417 34.966490 202 202 202 0
5.617260 -3.477351 34.965823 202 202 202 0
5.750810 -3.477234 34.964647 202 202 202 0
5.884744 -3.477349 34.965802 202 202 202 0
6.018730 -3.477489 34.967205 202 202 202 0
6.152211 -3.477336 34.965675 203 203 203 0
6.285571 -3.477124 34.963544 203 203 203 0
6.419477 -3.477217 34.964473 203 203 203 0
6.553450 -3.477341 34.965720 202 202 202 0
6.686965 -3.477222 34.964521 202 202 202 0
6.820353 -3.477043 34.962722 203 203 203 0
6.954528 -3.477264 34.964945 203 203 203 0
7.088490 -3.477372 34.966036 203 203 203 0
7.222076 -3.477296 34.965269 202 202 202 0
7.355533 -3.477161 34.963912 203 203 203 0
7.489503 -3.477269 34.964999 203 203 203 0
7.623231 -3.477263 34.964938 203 203 203 0
7.756871 -3.477218 34.964486 203 203 203 0
7.890677 -3.477247 34.964781 203 203 203 0
8.024481 -3.477275 34.965058 203 203 203 0
8.158292 -3.477305 34.965357 203 203 203 0
8.291807 -3.477209 34.964397 203 203 203 0
8.425447 -3.477169 34.963989 203 203 203 0
8.559161 -3.477159 34.963894 203 203 203 0
8.692964 -3.477186 34.964160 203 203 203 0
8.826695 -3.477183 34.964133 203 203 203 0
8.960266 -3.477118 34.963479 203 203 203 0
9.094272 -3.477222 34.964523 203 203 203 0
9.228064 -3.477242 34.964721 204 204 204 0
9.361881 -3.477270 34.965008 203 203 203 0
9.495432 -3.477200 34.964308 203 203 203 0
9.629192 -3.477208 34.964386 204 204 204 0
9.762803 -3.477163 34.963927 203 203 203 0
9.896806 -3.477256 34.964869 203 203 203 0
10.030490 -3.477237 34.964672 203 203 203 0
10.163999 -3.477158 34.963877 202 202 202 0
10.297890 -3.477210 34.964401 204 204 204 0
10.432223 -3.477408 34.966392 203 203 203 0
10.565504 -3.477254 34.964851 203 203 203 0
-10.312960 -3.222800 33.702484 193 193 193 0
-10.176226 -3.220325 33.676599 193 193 193 0
-10.071949 -3.228189 33.758837 194 194 194 0
-10.116047 -3.284431 34.346991 194 194 194 0
-9.975629 -3.281457 34.315888 193 193 193 0
-9.750856 -3.250285 33.989911 194 194 194 0
-9.693166 -3.274718 34.245421 194 194 194 0
-9.770797 -3.346163 34.992557 194 194 194 0
-9.627651 -3.342934 34.958792 195 195 195 0
-9.394069 -3.307771 34.591068 195 195 195 0
-9.263563 -3.308415 34.597808 195 195 195 0
-9.235986 -3.346372 34.994736 194 194 194 0
-9.102072 -3.346350 34.994510 195 195 195 0
-8.969116 -3.346685 34.998012 195 195 195 0
-8.735643 -3.308956 34.603458 195 195 195 0
-8.670680 -3.334877 34.874530 194 194 194 0
-8.565913 -3.346060 34.991476 195 195 195 0
-8.432515 -3.346236 34.993317 195 195 195 0
-8.299750 -3.346674 34.997894 195 195 195 0
-8.165993 -3.346718 34.998361 195 195 195 0
-8.030702 -3.346126 34.992164 195 195 195 0
-7.896192 -3.345844 34.989218 195 195 195 0
-7.762951 -3.346099 34.991890 195 195 195 0
-7.629951 -3.346470 34.995762 195 195 195 0
-7.494996 -3.345981 34.990646 196 196 196 0
-7.359311 -3.345141 34.981871 196 196 196 0
-7.226256 -3.345489 34.985506 196 196 196 0
-7.093512 -3.345996 34.990810 196 196 196 0
-6.959210 -3.345774 34.988484 196 196 196 0
-6.823662 -3.344932 34.979683 197 197 197 0
-6.690230 -3.345115 34.981597 196 196 196 0
-6.557610 -3.345719 34.987915 196 196 196 0
-6.424166 -3.345920 34.990012 197 197 197 0
-6.289391 -3.345421 34.984791 196 196 196 0
-6.154654 -3.344921 34.979565 197 197 197 0
-6.021444 -3.345247 34.982974 197 197 197 0
-5.888153 -3.345541 34.986054 197 197 197 0
-5.753910 -3.345297 34.983494 197 197 197 0
-5.619618 -3.345010 34.980501 197 197 197 0
-5.485800 -3.345000 34.980395 197 197 197 0
-5.352274 -3.345171 34.982183 197 197 197 0
-5.218459 -3.345166 34.982125 197 197 197 0
-5.084166 -3.344846 34.978782 197 197 197 0
-4.950037 -3.344620 34.976414 197 197 197 0
-4.816738 -3.344957 34.979940 198 198 198 0
-4.683002 -3.345002 34.980410 198 198 198 0
-4.548786 -3.344695 34.977207 198 198 198 0
-4.414564 -3.344367 34.973771 198 198 198 0
-4.281256 -3.344731 34.977584 198 198 198 0
-4.147793 -3.344995 34.980336 199 199 199 0
-4.013818 -3.344848 34.978808 198 198 198 0
-3.879639 -3.344516 34.975332 199 199 199 0
-3.745987 -3.344631 34.976535 199 199 199 0
-3.612396 -3.344811 34.978415 199 199 199 0
-3.478494 -3.344705 34.977312 198 198 198 0
-3.344530 -3.344530 34.975480 198 198 198 0
-3.210820 -3.344604 34.976252 199 199 199 0
-3.077006 -3.344571 34.975908 199 199 199 0
-2.943190 -3.344534 34.975521 199 199 199 0
-2.809342 -3.344454 34.974687 199 199 199 0
-2.675379 -3.344224 34.972279 199 199 199 0
-2.541653 -3.344281 34.972869 199 199 199 0
-2.407829 -3.344207 34.972095 199 199 199 0
-2.274029 -3.344160 34.971604 199 199 199 0
-1.944053 -3.037583 31.765571 200 200 200 0
-2.006593 -3.344321 34.973290 200 200 200 0
-1.872818 -3.344319 34.973268 199 199 199 0
-1.739057 -3.344341 34.973502 199 199 199 0
-1.605298 -3.344372 34.973822 200 200 200 0
-1.471472 -3.344254 34.972592 200 200 200 0
-1.337660 -3.344150 34.971502 200 200 200 0
-1.203896 -3.344157 34.971574 199 199 199 0
-1.070149 -3.344217 34.972200 200 200 200 0
-0.936404 -3.344301 34.973080 200 200 200 0
-0.802605 -3.344186 34.971885 200 200 200 0
-0.668825 -3.344127 34.971262 199 199 199 0
-0.535062 -3.344138 34.971380 200 200 200 0
-0.401301 -3.344174 34.971754 200 200 200 0
-0.267519 -3.343989 34.969816 200 200 200 0
-0.133757 -3.343929 34.969195 200 200 200 0
0.000000 -3.344056 34.970517 201 201 201 0
0.133766 -3.344158 34.971591 200 200 200 0
0.267507 -3.343837 34.968231 200 200 200 0
0.401263 -3.343859 34.968461 201 201 201 0
0.535055 -3.344095 34.970924 200 200 200 0
0.668828 -3.344142 34.971415 201 201 201 0
0.802533 -3.343887 34.968758 200 200 200 0
0.936270 -3.343823 34.968084 201 201 201 0
1.070056 -3.343925 34.969148 201 201 201 0
1.203866 -3.344072 34.970691 201 201 201 0
1.337586 -3.343965 34.969569 201 201 201 0
1.471268 -3.343791 34.967752 201 201 201 0
1.605063 -3.343881 34.968691 201 201 201 0
1.738907 -3.344052 34.970479 201 201 201 0
1.872549 -3.343837 34.968234 201 201 201 0
2.006155 -3.343592 34.965664 200 200 200 0
2.139997 -3.343745 34.967268 201 201 201 0
2.273788 -3.343806 34.967911 201 201 201 0
2.407392 -3.343599 34.965745 201 201 201 0
2.541108 -3.343564 34.965370 201 201 201 0
2.675009 -3.343761 34.967435 202 202 202 0
2.808893 -3.343920 34.969103 202 202 202 0
2.942478 -3.343725 34.967056 201 201 201 0
3.076009 -3.343488 34.964584 201 201 201 0
3.209921 -3.343668 34.966462 201 201 201 0
3.343821 -3.343821 34.968060 201 201 201 0
3.477488 -3.343738 34.967195 201 201 201 0
3.611092 -3.343604 34.965789 201 201 201 0
3.744894 -3.343655 34.966328 202 202 202 0
3.878856 -3.343842 34.968279 202 202 202 0
4.012529 -3.343774 34.967571 202 202 202 0
4.145885 -3.343456 34.964246 202 202 202 0
4.279790 -3.343586 34.965605 202 202 202 0
4.413719 -3.343726 34.967073 202 202 202 0
4.547361 -3.343648 34.966253 202 202 202 0
4.680726 -3.343376 34.963405 202 202 202 0
4.814765 -3.343587 34.965613 202 202 202 0
4.948804 -3.343786 34.967700 203 203 203 0
5.082443 -3.343712 34.966926 202 202 202 0
5.215787 -3.343453 34.964214 202 202 202 0
5.349700 -3.343562 34.965359 202 202 202 0
5.483593 -3.343654 34.966317 202 202 202 0
5.617246 -3.343599 34.965736 202 202 202 0
5.750859 -3.343523 34.964946 203 203 203 0
5.884768 -3.343618 34.965940 202 202 202 0
6.018769 -3.343760 34.967429 202 202 202 0
6.152167 -3.343569 34.965428 202 202 202 0
6.285578 -3.343392 34.963580 202 202 202 0
6.419480 -3.343479 34.964487 203 203 203 0
6.553459 -3.343601 34.965765 203 203 203 0
6.686973 -3.343486 34.964562 202 202 202 0
6.820394 -3.343331 34.962935 202 202 202 0
6.954598 -3.343557 34.965301 203 203 203 0
7.088435 -3.343601 34.965765 203 203 203 0
7.222039 -3.343537 34.965089 203 203 203 0
7.355572 -3.343442 34.964097 202 202 202 0
7.489452 -3.343505 34.964762 202 202 202 0
7.623187 -3.343503 34.964736 203 203 203 0
7.756891 -3.343488 34.964576 203 203 203 0
7.890702 -3.343518 34.964891 202 202 202 0
8.024506 -3.343544 34.965169 203 203 203 0
8.158296 -3.343564 34.965376 202 202 202 0
8.291839 -3.343484 34.964533 203 203 203 0
8.425416 -3.343419 34.963859 202 202 202 0
8.559176 -3.343428 34.963953 203 203 203 0
8.693019 -3.343469 34.964382 203 203 203 0
8.826692 -3.343444 34.964119 203 203 203 0
8.960299 -3.343395 34.963608 203 203 203 0
9.094260 -3.343478 34.964476 203 203 203 0
9.228012 -3.343482 34.964522 203 203 203 0
9.361885 -3.343530 34.965022 203 203 203 0
9.495491 -3.343483 34.964526 203 203 203 0
9.629188 -3.343468 34.964370 203 203 203 0
9.762853 -3.343443 34.964109 203 203 203 0
9.896873 -3.343538 34.965104 203 203 203 0
10.030509 -3.343503 34.964736 203 203 203 0
10.163922 -3.343395 34.963612 203 203 203 0
10.297916 -3.343479 34.964488 203 203 203 0
10.432273 -3.343677 34.966558 203 203 203 0
10.565503 -3.343513 34.964847 202 202 202 0
-10.339131 -3.101739 33.788011 193 193 193 0
-10.177270 -3.091829 33.680052 193 193 193 0
-10.059284 -3.095164 33.716387 194 194 194 0
-10.121504 -3.154754 34.365517 194 194 194 0
-9.993232 -3.155757 34.376442 194 194 194 0
-9.772416 -3.127173 34.065068 193 193 193 0
-9.669967 -3.136206 34.163459 194 194 194 0
-9.772862 -3.212996 34.999954 194 194 194 0
-9.638979 -3.212993 34.999923 195 195 195 0
-9.393017 -3.175104 34.587194 195 195 195 0
-9.250058 -3.171448 34.547368 194 194 194 0
-9.235972 -3.212512 34.994685 194 194 194 0
-9.101906 -3.212437 34.993872 194 194 194 0
-8.969408 -3.212922 34.999152 195 195 195 0
-8.738625 -3.177682 34.615269 195 195 195 0
-8.670198 -3.201304 34.872590 195 195 195 0
-8.566096 -3.212286 34.992223 195 195 195 0
-8.432194 -3.212264 34.991986 195 195 195 0
-8.299902 -3.212865 34.998534 195 195 195 0
-8.165953 -3.212834 34.998193 195 195 195 0
-8.030696 -3.212279 34.992141 196 196 196 0
-7.896052 -3.211954 34.988601 195 195 195 0
-7.762855 -3.212216 34.991459 196 196 196 0
-7.630126 -3.212685 34.996563 196 196 196 0
-7.494935 -3.212115 34.990358 196 196 196 0
-7.359315 -3.211337 34.981888 196 196 196 0
-7.226132 -3.211614 34.984906 196 196 196 0
-7.093318 -3.212069 34.989855 196 196 196 0
-6.959159 -3.211919 34.988228 196 196 196 0
-6.823548 -3.211081 34.979098 196 196 196 0
-6.690347 -3.211367 34.982207 197 197 197 0
-6.557583 -3.211877 34.987772 197 197 197 0
-6.424175 -3.212087 34.990060 196 196 196 0
-6.289371 -3.211594 34.984680 196 196 196 0
-6.154596 -3.211094 34.979232 197 197 197 0
-6.021431 -3.211430 34.982895 197 197 197 0
-5.888142 -3.211714 34.985990 197 197 197 0
-5.753868 -3.211461 34.983238 197 197 197 0
-5.619563 -3.211179 34.980160 197 197 197 0
-5.485680 -3.211129 34.979624 197 197 197 0
-5.352271 -3.211362 34.982160 197 197 197 0
-5.218394 -3.211319 34.981693 198 198 198 0
-5.084125 -3.211026 34.978500 197 197 197 0
-4.950089 -3.210869 34.976782 197 197 197 0
-4.816681 -3.211121 34.979529 197 197 197 0
-4.683036 -3.211224 34.980659 197 197 197 0
-4.548799 -3.210917 34.977310 198 198 198 0
-4.414559 -3.210588 34.973730 198 198 198 0
-4.281306 -3.210979 34.977987 198 198 198 0
-4.147783 -3.211187 34.980246 199 199 199 0
-4.013809 -3.211048 34.978732 198 198 198 0
-3.879643 -3.210739 34.975374 198 198 198 0
-3.745990 -3.210849 34.976566 199 199 199 0
-3.612391 -3.211014 34.978366 198 198 198 0
-3.478546 -3.210965 34.977835 199 199 199 0
-3.344547 -3.210765 34.975655 198 198 198 0
-3.210767 -3.210767 34.975673 199 199 199 0
-3.077027 -3.210810 34.976147 198 198 198 0
-2.943169 -3.210730 34.975274 199 199 199 0
-2.809338 -3.210672 34.974637 199 199 199 0
-2.675346 -3.210415 34.971838 199 199 199 0
-2.541646 -3.210500 34.972772 199 199 199 0
-2.407814 -3.210419 34.971884 199 199 199 0
-2.274039 -3.210408 34.971762 199 199 199 0
-1.957673 -2.936510 31.988127 199 199 199 0
-2.006573 -3.210517 34.972950 199 199 199 0
-1.872826 -3.210559 34.973411 199 199 199 0
-1.739052 -3.210558 34.973402 199 199 199 0
-1.605286 -3.210571 34.973545 200 200 200 0
-1.471478 -3.210497 34.972729 199 199 199 0
-1.337674 -3.210419 34.971882 199 199 199 0
-1.203880 -3.210346 34.971085 200 200 200 0
-1.070149 -3.210448 34.972204 199 199 199 0
-0.936403 -3.210524 34.973031 200 200 200 0
-0.802601 -3.210404 34.971716 200 200 200 0
-0.668827 -3.210369 34.971336 199 199 199 0
-0.535066 -3.210394 34.971612 200 200 200 0
-0.401301 -3.210410 34.971788 200 200 200 0
-0.267519 -3.210228 34.969800 200 200 200 0
-0.133756 -3.210143 34.968873 200 200 200 0
0.000000 -3.210323 34.970839 200 200 200 0
0.133766 -3.210377 34.971428 200 200 200 0
0.267508 -3.210096 34.968366 200 200 200 0
0.401263 -3.210103 34.968438 200 200 200 0
0.535058 -3.210348 34.971111 201 201 201 0
0.668828 -3.210375 34.971406 200 200 200 0
0.802537 -3.210147 34.968924 201 201 201 0
0.936270 -3.210070 34.968084 200 200 200 0
1.070055 -3.210164 34.969110 200 200 200 0
1.203858 -3.210289 34.970471 201 201 201 0
1.337598 -3.210235 34.969879 201 201 201 0
1.471284 -3.210074 34.968128 200 200 200 0
1.605083 -3.210166 34.969126 201 201 201 0
1.738893 -3.210265 34.970203 201 201 201 0
1.872551 -3.210087 34.968266 201 201 201 0
2.006164 -3.209862 34.965814 202 202 202 0
2.139965 -3.209947 34.966743 201 201 201 0
2.273791 -3.210058 34.967953 201 201 201 0
2.407403 -3.209870 34.965905 201 201 201 0
2.541137 -3.209857 34.965761 201 201 201 0
2.675008 -3.210009 34.967423 201 201 201 0
2.808916 -3.210190 34.969385 201 201 201 0
2.942474 -3.209972 34.967015 202 202 202 0
3.076054 -3.209795 34.965090 201 201 201 0
3.209902 -3.209902 34.966251 202 202 202 0
3.343856 -3.210102 34.968434 202 202 202 0
3.477482 -3.209984 34.967143 201 201 201 0
3.611063 -3.209834 34.965512 201 201 201 0
3.744857 -3.209877 34.965982 201 201 201 0
3.878880 -3.210108 34.968495 201 201 201 0
4.012527 -3.210022 34.967559 202 202 202 0
4.145951 -3.209769 34.964801 202 202 202 0
4.279792 -3.209844 34.965625 202 202 202 0
4.413775 -3.210018 34.967522 202 202 202 0
4.547356 -3.209898 34.966210 202 202 202 0
4.680743 -3.209652 34.963531 202 202 202 0
4.814759 -3.209839 34.965571 202 202 202 0
4.948809 -3.210038 34.967734 202 202 202 0
5.082431 -3.209956 34.966843 202 202 202 0
5.215788 -3.209716 34.964222 202 202 202 0
5.349734 -3.209840 34.965580 203 203 203 0
5.483601 -3.209913 34.966372 202 202 202 0
5.617226 -3.209844 34.965617 203 203 203 0
5.750848 -3.209776 34.964875 202 202 202 0
5.884765 -3.209872 34.965924 202 202 202 0
6.018743 -3.209996 34.967281 203 203 203 0
6.152232 -3.209860 34.965797 202 202 202 0
6.285583 -3.209659 34.963608 203 203 203 0
6.419438 -3.209719 34.964257 202 202 202 0
6.553458 -3.209857 34.965762 202 202 202 0
6.686979 -3.209750 34.964594 203 203 203 0
6.820395 -3.209598 34.962937 202 202 202 0
6.954567 -3.209800 34.965143 203 203 203 0
7.088486 -3.209880 34.966018 202 202 202 0
7.222024 -3.209788 34.965015 202 202 202 0
7.355489 -3.209668 34.963702 203 203 203 0
7.489487 -3.209780 34.964926 202 202 202 0
7.623215 -3.209775 34.964868 203 203 203 0
7.756815 -3.209716 34.964231 203 203 203 0
7.890684 -3.209770 34.964812 202 202 202 0
8.024525 -3.209810 34.965251 202 202 202 0
8.158309 -3.209827 34.965432 203 203 203 0
8.291930 -3.209779 34.964916 203 203 203 0
8.425377 -3.209668 34.963699 203 203 203 0
8.559169 -3.209688 34.963926 203 203 203 0
8.693018 -3.209730 34.964375 203 203 203 0
8.826672 -3.209699 34.964041 203 203 203 0
8.960207 -3.209626 34.963250 203 203 203 0
9.094250 -3.209735 34.964436 203 203 203 0
9.228031 -3.209750 34.964595 203 203 203 0
9.361843 -3.209775 34.964868 203 203 203 0
9.495425 -3.209721 34.964283 203 203 203 0
9.629218 -3.209739 34.964479 203 203 203 0
9.762823 -3.209695 34.963999 203 203 203 0
9.896813 -3.209777 34.964892 203 203 203 0
10.030552 -3.209777 34.964886 202 202 202 0
10.164012 -3.209688 34.963920 203 203 203 0
10.297932 -3.209745 34.964542 204 204 204 0
10.432333 -3.209948 34.966759 203 203 203 0
10.565476 -3.209765 34.964759 204 204 204 0
-10.314095 -2.965302 33.706194 193 193 193 0
-10.172834 -2.961711 33.665374 194 194 194 0
-10.056401 -2.965349 33.706722 193 193 193 0
-10.125505 -3.024501 34.379102 194 194 194 0
-9.997794 -3.025648 34.392137 194 194 194 0
-9.748850 -2.989647 33.982920 194 194 194 0
-9.670213 -3.005607 34.164326 194 194 194 0
-9.772864 -3.079122 34.999961 194 194 194 0
-9.638801 -3.079061 34.999276 194 194 194 0
-9.404087 -3.046395 34.627957 195 195 195 0
-9.234043 -3.034043 34.487557 194 194 194 0
-9.236106 -3.078702 34.995193 194 194 194 0
-9.101910 -3.078587 34.993886 195 195 195 0
-8.957943 -3.075115 34.954417 195 195 195 0
-8.733401 -3.043458 34.594578 195 195 195 0
-8.674673 -3.069500 34.890590 195 195 195 0
-8.565984 -3.078400 34.991763 195 195 195 0
-8.432146 -3.078403 34.991790 196 196 196 0
-8.299771 -3.078947 34.997980 195 195 195 0
-8.165921 -3.078954 34.998052 195 195 195 0
-8.030782 -3.078466 34.992513 195 195 195 0
-7.896080 -3.078133 34.988721 195 195 195 0
-7.762919 -3.078399 34.991744 195 195 195 0
-7.630022 -3.078781 34.996089 196 196 196 0
-7.494892 -3.078259 34.990159 196 196 196 0
-7.359274 -3.077515 34.981697 195 195 195 0
-7.226239 -3.077843 34.985423 196 196 196 0
-7.093379 -3.078259 34.990153 196 196 196 0
-6.959149 -3.078085 34.988180 196 196 196 0
-6.823704 -3.077357 34.979902 196 196 196 0
-6.690148 -3.077468 34.981166 197 197 197 0
-6.557589 -3.078052 34.987802 196 196 196 0
-6.424093 -3.078211 34.989611 196 196 196 0
-6.289328 -3.077756 34.984442 196 196 196 0
-6.154607 -3.077304 34.979296 197 197 197 0
-6.021603 -3.077708 34.983896 197 197 197 0
-5.888157 -3.077900 34.986076 197 197 197 0
-5.753803 -3.077616 34.982844 197 197 197 0
-5.619561 -3.077379 34.980151 197 197 197 0
-5.485774 -3.077385 34.980226 198 198 198 0
-5.352313 -3.077580 34.982438 198 198 198 0
-5.218390 -3.077512 34.981664 198 198 198 0
-5.084110 -3.077225 34.978398 198 198 198 0
-4.950019 -3.077039 34.976284 198 198 198 0
-4.816672 -3.077318 34.979461 197 197 197 0
-4.682998 -3.077399 34.980379 197 197 197 0
-4.548789 -3.077122 34.977233 198 198 198 0
-4.414550 -3.076808 34.973661 198 198 198 0
-4.281237 -3.077139 34.977424 198 198 198 0
-4.147768 -3.077376 34.980120 197 197 197 0
-4.013768 -3.077222 34.978369 198 198 198 0
-3.879654 -3.076967 34.975470 198 198 198 0
-3.745981 -3.077056 34.976483 198 198 198 0
-3.612448 -3.077271 34.978924 198 198 198 0
-3.478513 -3.077146 34.977509 198 198 198 0
-3.344570 -3.077004 34.975896 198 198 198 0
-3.210742 -3.076961 34.975399 198 198 198 0
-3.076962 -3.076962 34.975414 199 199 199 0
-2.943188 -3.076970 34.975501 199 199 199 0
-2.809297 -3.076849 34.974130 199 199 199 0
-2.675359 -3.076662 34.972008 199 199 199 0
-2.541645 -3.076728 34.972752 199 199 199 0
-2.407793 -3.076625 34.971581 200 200 200 0
-2.274096 -3.076719 34.972647 199 199 199 0
-1.979904 -2.846112 32.351375 199 199 199 0
-2.006592 -3.076774 34.973282 199 199 199 0
-1.872827 -3.076787 34.973423 199 199 199 0
-1.739054 -3.076788 34.973432 200 200 200 0
-1.605318 -3.076860 34.974252 200 200 200 0
-1.471467 -3.076703 34.972469 200 200 200 0
-1.337667 -3.076634 34.971690 200 200 200 0
-1.203896 -3.076622 34.971554 199 199 199 0
-1.070160 -3.076709 34.972538 199 199 199 0
-0.936400 -3.076743 34.972926 199 199 199 0
-0.802609 -3.076667 34.972062 200 200 200 0
-0.668823 -3.076588 34.971161 199 199 199 0
-0.535066 -3.076628 34.971619 200 200 200 0
-0.401301 -3.076639 34.971746 200 200 200 0
-0.267519 -3.076472 34.969848 200 200 200 0
-0.133757 -3.076416 34.969202 200 200 200 0
0.000000 -3.076568 34.970930 201 201 201 0
0.133766 -3.076611 34.971429 201 201 201 0
0.267506 -3.076324 34.968166 200 200 200 0
0.401263 -3.076346 34.968412 200 200 200 0
0.535057 -3.076580 34.971076 200 200 200 0
0.668829 -3.076615 34.971469 200 200 200 0
0.802532 -3.076372 34.968708 201 201 201 0
0.936267 -3.076305 34.967941 200 200 200 0
1.070066 -3.076439 34.969474 200 200 200 0
1.203860 -3.076530 34.970507 200 200 200 0
1.337601 -3.076483 34.969973 201 201 201 0
1.471272 -3.076295 34.967833 201 201 201 0
1.605074 -3.076393 34.968943 201 201 201 0
