ply
    format ascii 1.0
    element vertex 25597
    property float x
    property float y
    property float z
    property uchar red
    property uchar green
    property uchar blue
    property uchar alpha
    end_header
10.433576 3.344095 34.970928 204 204 204 0
10.567713 3.344213 34.972163 203 203 203 0
-10.200457 3.315149 33.334827 194 194 194 0
-10.096702 3.322965 33.413425 194 194 194 0
-9.952942 3.317647 33.359952 194 194 194 0
-9.978183 3.369257 33.878901 193 193 193 0
-9.891615 3.383974 34.026884 194 194 194 0
-9.659599 3.348661 33.671806 195 195 195 0
-9.495357 3.336207 33.546572 194 194 194 0
-9.580499 3.412232 34.311035 195 195 195 0
-9.538878 3.444595 34.636450 194 194 194 0
-9.300139 3.405685 34.245196 195 195 195 0
-9.079686 3.372455 33.911059 195 195 195 0
-8.440133 3.180340 31.979286 195 195 195 0
-9.102877 3.480512 34.997604 195 195 195 0
-8.893150 3.451073 34.701591 196 196 196 0
-8.642710 3.404704 34.235334 195 195 195 0
-8.503990 3.401596 34.204084 195 195 195 0
-8.553954 3.475044 34.942623 196 196 196 0
-8.434050 3.480719 34.999690 196 196 196 0
-8.236856 3.454165 34.732684 196 196 196 0
-8.039472 3.426660 34.456112 196 196 196 0
-8.032499 3.480750 34.999997 195 195 195 0
-7.897544 3.480274 34.995209 196 196 196 0
-7.764201 3.480504 34.997524 196 196 196 0
-7.604547 3.468741 34.879243 196 196 196 0
-7.492132 3.478490 34.977272 196 196 196 0
-7.361225 3.479852 34.990970 197 197 197 0
-7.227421 3.479869 34.991145 196 196 196 0
-7.094704 3.480421 34.996690 196 196 196 0
-6.961130 3.480565 34.998139 196 196 196 0
-6.826133 3.479990 34.992354 197 197 197 0
-6.691231 3.479440 34.986828 197 197 197 0
-6.558638 3.480094 34.993401 197 197 197 0
-6.425289 3.480365 34.996126 197 197 197 0
-6.290819 3.480028 34.992736 197 197 197 0
-6.156088 3.479528 34.987710 197 197 197 0
-6.022491 3.479662 34.989055 197 197 197 0
-5.889123 3.479936 34.991820 197 197 197 0
-5.755125 3.479843 34.990879 198 198 198 0
-5.620834 3.479564 34.988074 198 198 198 0
-5.486969 3.479542 34.987848 197 197 197 0
-5.353433 3.479732 34.989760 197 197 197 0
-5.219556 3.479704 34.989483 198 198 198 0
-5.085570 3.479601 34.988445 198 198 198 0
-4.951246 3.479254 34.984957 198 198 198 0
-4.817677 3.479433 34.986761 198 198 198 0
-4.683832 3.479418 34.986608 198 198 198 0
-4.549888 3.479326 34.985683 199 199 199 0
-4.415933 3.479220 34.984611 199 199 199 0
-4.281962 3.479094 34.983350 199 199 199 0
-4.148418 3.479319 34.985608 198 198 198 0
-4.014621 3.479338 34.985800 198 198 198 0
-3.880677 3.479227 34.984690 199 199 199 0
-3.746746 3.479121 34.983625 199 199 199 0
-3.612918 3.479106 34.983468 199 199 199 0
-3.479053 3.479053 34.982932 198 198 198 0
-3.345229 3.479039 34.982791 199 199 199 0
-3.211474 3.479097 34.983376 198 198 198 0
-3.077621 3.479050 34.982905 199 199 199 0
-2.943667 3.478879 34.981183 199 199 199 0
-2.809894 3.478916 34.981562 200 200 200 0
-2.676086 3.478911 34.981512 199 199 199 0
-2.542137 3.478714 34.979531 199 199 199 0
-2.408273 3.478616 34.978543 199 199 199 0
-2.274496 3.478642 34.978800 199 199 199 0
-2.140769 3.478750 34.979887 200 200 200 0
-2.006845 3.478531 34.977689 200 200 200 0
-1.873090 3.478596 34.978343 200 200 200 0
-1.739370 3.478741 34.979795 200 200 200 0
-1.605654 3.478916 34.981561 200 200 200 0
-1.471835 3.478883 34.981231 200 200 200 0
-1.337933 3.478626 34.978645 200 200 200 0
-1.204145 3.478640 34.978786 201 201 201 0
-1.070391 3.478771 34.980102 200 200 200 0
-0.936620 3.478873 34.981130 200 200 200 0
-0.802783 3.478726 34.979649 200 200 200 0
-0.668945 3.478513 34.977502 200 200 200 0
-0.535181 3.478677 34.979151 201 201 201 0
-0.401398 3.478780 34.980186 200 200 200 0
-0.267571 3.478422 34.976594 201 201 201 0
-0.133777 3.478210 34.974462 200 200 200 0
0.000000 3.478396 34.976328 200 200 200 0
0.133789 3.478512 34.977493 201 201 201 0
0.267555 3.478213 34.974487 201 201 201 0
0.401325 3.478148 34.973834 201 201 201 0
0.535140 3.478413 34.976497 200 200 200 0
0.668965 3.478618 34.978565 200 200 200 0
0.802722 3.478464 34.977012 200 200 200 0
0.936433 3.478181 34.974168 201 201 201 0
1.070240 3.478280 34.975164 201 201 201 0
1.204087 3.478475 34.977122 201 201 201 0
1.337850 3.478411 34.976477 201 201 201 0
1.471544 3.478194 34.974296 201 201 201 0
1.605331 3.478216 34.974522 201 201 201 0
1.739261 3.478522 34.977593 201 201 201 0
1.873020 3.478465 34.977026 201 201 201 0
2.006590 3.478089 34.973245 201 201 201 0
2.140356 3.478079 34.973143 202 202 202 0
2.274297 3.478336 34.975730 201 201 201 0
2.408051 3.478296 34.975323 201 201 201 0
2.541574 3.477943 34.971772 202 202 202 0
2.675441 3.478073 34.973084 202 202 202 0
2.809449 3.478365 34.976017 202 202 202 0
2.943280 3.478421 34.976585 202 202 202 0
3.076814 3.478138 34.973734 201 201 201 0
3.210552 3.478098 34.973330 201 201 201 0
3.344514 3.478294 34.975309 202 202 202 0
3.478248 3.478248 34.974841 202 202 202 0
3.611789 3.478019 34.972540 202 202 202 0
3.745530 3.477992 34.972267 202 202 202 0
3.879464 3.478140 34.973761 202 202 202 0
4.013241 3.478143 34.973782 203 203 203 0
4.146820 3.477978 34.972126 203 203 203 0
4.280500 3.477906 34.971403 203 203 203 0
4.414446 3.478048 34.972832 202 202 202 0
4.548341 3.478143 34.973784 202 202 202 0
4.681949 3.478019 34.972541 203 203 203 0
4.815539 3.477889 34.971235 203 203 203 0
4.949626 3.478116 34.973510 202 202 202 0
5.083464 3.478160 34.973953 202 202 202 0
5.217195 3.478130 34.973658 203 203 203 0
5.350815 3.478030 34.972647 202 202 202 0
5.484745 3.478131 34.973662 203 203 203 0
5.618457 3.478092 34.973275 203 203 203 0
5.752190 3.478068 34.973033 203 203 203 0
5.886011 3.478098 34.973329 203 203 203 0
6.019728 3.478065 34.973004 203 203 203 0
6.153520 3.478077 34.973119 202 202 202 0
6.287114 3.477978 34.972129 203 203 203 0
6.420751 3.477907 34.971411 203 203 203 0
6.554459 3.477876 34.971103 203 203 203 0
6.688330 3.477932 34.971662 203 203 203 0
6.822102 3.477934 34.971687 203 203 203 0
6.955692 3.477846 34.970800 203 203 203 0
7.089635 3.477934 34.971685 203 203 203 0
7.223474 3.477969 34.972034 203 203 203 0
7.357429 3.478057 34.972925 204 204 204 0
7.491086 3.478004 34.972389 203 203 203 0
7.624792 3.477975 34.972100 203 203 203 0
7.758466 3.477933 34.971673 202 202 202 0
7.892525 3.478062 34.972971 203 203 203 0
8.026245 3.478040 34.972746 203 203 203 0
8.159799 3.477947 34.971817 203 203 203 0
8.293607 3.477964 34.971986 203 203 203 0
8.427583 3.478050 34.972850 203 203 203 0
8.560880 3.477857 34.970914 203 203 203 0
8.694370 3.477748 34.969812 203 203 203 0
8.828460 3.477878 34.971125 203 203 203 0
8.962420 3.477954 34.971885 204 204 204 0
9.095706 3.477770 34.970035 203 203 203 0
9.229535 3.477796 34.970295 203 203 203 0
9.363602 3.477909 34.971436 203 203 203 0
9.497745 3.478047 34.972824 203 203 203 0
9.630960 3.477847 34.970805 204 204 204 0
9.764631 3.477814 34.970476 203 203 203 0
9.898789 3.477953 34.971875 203 203 203 0
10.032633 3.477979 34.972140 204 204 204 0
10.165986 3.477837 34.970711 203 203 203 0
10.299749 3.477837 34.970712 203 203 203 0
10.433599 3.477866 34.971005 203 203 203 0
10.567678 3.477970 34.972044 203 203 203 0
-10.222911 3.450232 33.408205 194 194 194 0
-10.077949 3.444362 33.351367 194 194 194 0
-9.953250 3.445356 33.360986 194 194 194 0
-10.001684 3.507084 33.958693 194 194 194 0
-9.896730 3.515944 34.044479 194 194 194 0
-9.641615 3.470981 33.609116 194 194 194 0
-9.493121 3.463706 33.538672 194 194 194 0
-9.590254 3.547080 34.345972 195 195 195 0
-9.546621 3.579983 34.664564 195 195 195 0
-9.305930 3.538875 34.266520 195 195 195 0
-9.065150 3.496558 33.856771 195 195 195 0
-8.357961 3.270507 31.667941 195 195 195 0
-9.102893 3.614384 34.997665 195 195 195 0
-8.896812 3.585282 34.715879 195 195 195 0
-8.634101 3.532132 34.201233 195 195 195 0
-8.494529 3.528497 34.166029 196 196 196 0
-8.542372 3.603813 34.895310 195 195 195 0
-8.433917 3.614536 34.999136 196 196 196 0
-8.236741 3.586968 34.732197 196 196 196 0
-8.059953 3.567520 34.543889 196 196 196 0
-8.032488 3.614620 34.999949 196 196 196 0
-7.897582 3.614148 34.995379 196 196 196 0
-7.764372 3.614449 34.998295 196 196 196 0
-7.593688 3.597010 34.829439 196 196 196 0
-7.489896 3.611200 34.966832 196 196 196 0
-7.361185 3.613673 34.990779 196 196 196 0
-7.227550 3.613775 34.991767 197 197 197 0
-7.094700 3.614281 34.996671 197 197 197 0
-6.961040 3.614386 34.997689 197 197 197 0
-6.826123 3.613830 34.992299 197 197 197 0
-6.691290 3.613296 34.987135 196 196 196 0
-6.558546 3.613893 34.992912 196 196 196 0
-6.425119 3.614129 34.995202 196 196 196 0
-6.290787 3.613856 34.992555 197 197 197 0
-6.156026 3.613319 34.987359 197 197 197 0
-6.022574 3.613544 34.989536 197 197 197 0
-5.889158 3.613802 34.992028 198 198 198 0
-5.755103 3.613670 34.990748 197 197 197 0
-5.620822 3.613386 34.988001 198 198 198 0
-5.487009 3.613396 34.988102 197 197 197 0
-5.353472 3.613593 34.990010 198 198 198 0
-5.219568 3.613547 34.989561 198 198 198 0
-5.085544 3.613413 34.988261 198 198 198 0
-4.951246 3.613071 34.984956 198 198 198 0
-4.817636 3.613227 34.986461 198 198 198 0
-4.683832 3.613242 34.986610 197 197 197 0
-4.549879 3.613139 34.985615 199 199 199 0
-4.415922 3.613027 34.984531 199 199 199 0
-4.281971 3.612913 34.983421 198 198 198 0
-4.148323 3.613056 34.984805 199 199 199 0
-4.014622 3.613160 34.985814 199 199 199 0
-3.880729 3.613093 34.985162 199 199 199 0
-3.746717 3.612905 34.983350 198 198 198 0
-3.612927 3.612927 34.983554 199 199 199 0
-3.479034 3.612843 34.982742 199 199 199 0
-3.345253 3.612874 34.983043 199 199 199 0
-3.211412 3.612838 34.982698 199 199 199 0
-3.077625 3.612864 34.982946 199 199 199 0
-2.943637 3.612646 34.980836 199 199 199 0
-2.809916 3.612749 34.981831 199 199 199 0
-2.676078 3.612706 34.981418 199 199 199 0
-2.542135 3.612507 34.979491 199 199 199 0
-2.408273 3.612410 34.978548 199 199 199 0
-2.274508 3.612454 34.978979 200 200 200 0
-2.140748 3.612512 34.979539 199 199 199 0
-2.006843 3.612318 34.977660 200 200 200 0
-1.873099 3.612405 34.978507 199 199 199 0
-1.739361 3.612520 34.979614 200 200 200 0
-1.605654 3.612722 34.981574 200 200 200 0
-1.471828 3.612670 34.981069 200 200 200 0
-1.337931 3.612414 34.978590 200 200 200 0
-1.204126 3.612379 34.978248 200 200 200 0
-1.070393 3.612577 34.980169 200 200 200 0
-0.936624 3.612691 34.981274 200 200 200 0
-0.802786 3.612538 34.979788 200 200 200 0
-0.668942 3.612286 34.977351 200 200 200 0
-0.535183 3.612484 34.979266 200 200 200 0
-0.401400 3.612600 34.980393 200 200 200 0
-0.267570 3.612197 34.976494 201 201 201 0
-0.133778 3.612010 34.974678 200 200 200 0
0.000000 3.612198 34.976495 201 201 201 0
0.133789 3.612293 34.977423 201 201 201 0
0.267552 3.611950 34.974099 201 201 201 0
0.401327 3.611944 34.974035 201 201 201 0
0.535141 3.612200 34.976515 201 201 201 0
0.668967 3.612420 34.978651 201 201 201 0
0.802729 3.612282 34.977316 201 201 201 0
0.936433 3.611955 34.974146 202 202 202 0
1.070257 3.612119 34.975730 201 201 201 0
1.204097 3.612291 34.977402 201 201 201 0
1.337858 3.612216 34.976673 201 201 201 0
1.471555 3.611999 34.974568 201 201 201 0
1.605332 3.611996 34.974548 202 202 202 0
1.739253 3.612295 34.977436 201 201 201 0
1.873025 3.612262 34.977121 201 201 201 0
2.006585 3.611852 34.973153 201 201 201 0
2.140362 3.611861 34.973239 201 201 201 0
2.274313 3.612144 34.975976 202 202 202 0
2.408046 3.612070 34.975257 201 201 201 0
2.541582 3.611722 34.971893 202 202 202 0
2.675457 3.611867 34.973293 202 202 202 0
2.809463 3.612167 34.976196 201 201 201 0
2.943278 3.612205 34.976565 202 202 202 0
3.076788 3.611881 34.973433 202 202 202 0
3.210553 3.611872 34.973347 202 202 202 0
3.344528 3.612090 34.975453 202 202 202 0
3.478219 3.611997 34.974554 202 202 202 0
3.611778 3.611778 34.972429 202 202 202 0
3.745552 3.611782 34.972470 202 202 202 0
3.879466 3.611916 34.973773 201 201 201 0
4.013214 3.611892 34.973538 203 203 203 0
4.146788 3.611718 34.971855 203 203 203 0
4.280488 3.611662 34.971309 202 202 202 0
4.414441 3.611816 34.972796 203 203 203 0
4.548317 3.611899 34.973600 203 203 203 0
4.681905 3.611755 34.972213 202 202 202 0
4.815533 3.611650 34.971191 202 202 202 0
4.949624 3.611888 34.973495 202 202 202 0
5.083479 3.611945 34.974053 202 202 202 0
5.217139 3.611866 34.973283 203 203 203 0
5.350814 3.611799 34.972639 203 203 203 0
5.484705 3.611879 34.973409 203 203 203 0
5.618448 3.611860 34.973224 203 203 203 0
5.752243 3.611874 34.973361 202 202 202 0
5.885959 3.611838 34.973018 203 203 203 0
6.019739 3.611843 34.973064 202 202 202 0
6.153506 3.611841 34.973038 203 203 203 0
6.287109 3.611743 34.972097 203 203 203 0
6.420726 3.611658 34.971273 203 203 203 0
6.554482 3.611653 34.971223 203 203 203 0
6.688342 3.611705 34.971721 203 203 203 0
6.822054 3.611676 34.971441 203 203 203 0
6.955686 3.611606 34.970768 203 203 203 0
7.089657 3.611712 34.971793 203 203 203 0
7.223423 3.611711 34.971788 203 203 203 0
7.357465 3.611847 34.973098 203 203 203 0
7.491070 3.611766 34.972316 203 203 203 0
7.624765 3.611731 34.971976 203 203 203 0
7.758464 3.611699 34.971665 202 202 202 0
7.892443 3.611796 34.972607 203 203 203 0
8.026265 3.611819 34.972833 203 203 203 0
8.159816 3.611722 34.971890 203 203 203 0
8.293646 3.611749 34.972154 203 203 203 0
8.427523 3.611796 34.972603 203 203 203 0
8.560832 3.611601 34.970718 203 203 203 0
8.694364 3.611505 34.969788 203 203 203 0
8.828504 3.611661 34.971298 203 203 203 0
8.962428 3.611725 34.971916 203 203 203 0
9.095701 3.611528 34.970016 203 203 203 0
9.229571 3.611571 34.970432 204 204 204 0
9.363620 3.611682 34.971503 203 203 203 0
9.497739 3.611816 34.972802 204 204 204 0
9.630988 3.611621 34.970909 203 203 203 0
9.764694 3.611599 34.970701 203 203 203 0
9.898869 3.611750 34.972157 204 204 204 0
10.032683 3.611766 34.972315 203 203 203 0
10.166047 3.611622 34.970922 204 204 204 0
10.299788 3.611614 34.970844 203 203 203 0
10.433663 3.611652 34.971217 203 203 203 0
10.567724 3.611754 34.972197 203 203 203 0
-10.207568 3.572649 33.358065 193 193 193 0
-10.094209 3.577694 33.405176 193 193 193 0
-9.951537 3.572347 33.355244 194 194 194 0
-10.023384 3.644867 34.032370 195 195 195 0
-9.905026 3.649220 34.073017 194 194 194 0
-9.659731 3.606300 33.672266 194 194 194 0
-9.510110 3.598420 33.598691 195 195 195 0
-9.597524 3.681242 34.372009 195 195 195 0
-9.545819 3.712263 34.661651 195 195 195 0
-9.304337 3.669316 34.260655 194 194 194 0
-9.061268 3.624507 33.842271 195 195 195 0
-8.179941 3.319396 30.993430 195 195 195 0
-9.102892 3.748250 34.997662 195 195 195 0
-8.895179 3.717388 34.709506 195 195 195 0
-8.634312 3.663041 34.202067 196 196 196 0
-8.495399 3.659557 34.169529 196 196 196 0
-8.558476 3.744333 34.961093 195 195 195 0
-8.434071 3.748476 34.999775 195 195 195 0
-8.228078 3.715906 34.695671 196 196 196 0
-8.049819 3.694999 34.500458 196 196 196 0
-8.032344 3.748427 34.999319 197 197 197 0
-7.897690 3.748056 34.995858 195 195 195 0
-7.764358 3.748311 34.998232 196 196 196 0
-7.583694 3.725323 34.783598 195 195 195 0
-7.488512 3.744256 34.960373 196 196 196 0
-7.361207 3.747524 34.990885 196 196 196 0
-7.227596 3.747642 34.991991 196 196 196 0
-7.094676 3.748131 34.996550 197 197 197 0
-6.961165 3.748319 34.998314 197 197 197 0
-6.826095 3.747660 34.992156 197 197 197 0
-6.691305 3.747131 34.987215 197 197 197 0
-6.558576 3.747758 34.993069 197 197 197 0
-6.425121 3.747987 34.995214 197 197 197 0
-6.290865 3.747749 34.992989 196 196 196 0
-6.156094 3.747188 34.987746 197 197 197 0
-6.022505 3.747336 34.989136 197 197 197 0
-5.889056 3.747581 34.991419 198 198 198 0
-5.755118 3.747518 34.990835 197 197 197 0
-5.620813 3.747209 34.987943 197 197 197 0
-5.486897 3.747149 34.987385 198 198 198 0
-5.353375 3.747363 34.989381 197 197 197 0
-5.219640 3.747434 34.990048 198 198 198 0
-5.085497 3.747208 34.987937 198 198 198 0
-4.951189 3.746845 34.984551 198 198 198 0
-4.817689 3.747092 34.986850 197 197 197 0
-4.683830 3.747064 34.986589 199 199 199 0
-4.549930 3.747001 34.986006 198 198 198 0
-4.415959 3.746874 34.984821 198 198 198 0
-4.281942 3.746699 34.983186 199 199 199 0
-4.148429 3.746968 34.985695 199 199 199 0
-4.014661 3.747017 34.986155 199 199 199 0
-3.880674 3.746858 34.984669 198 198 198 0
-3.746721 3.746721 34.983386 198 198 198 0
-3.612903 3.746714 34.983327 199 199 199 0
-3.479054 3.746673 34.982943 198 198 198 0
-3.345246 3.746675 34.982961 199 199 199 0
-3.211466 3.746710 34.983287 199 199 199 0
-3.077581 3.746620 34.982449 199 199 199 0
-2.943711 3.746541 34.981712 199 199 199 0
-2.809921 3.746561 34.981898 199 199 199 0
-2.676134 3.746588 34.982147 200 200 200 0
-2.542126 3.746290 34.979368 200 200 200 0
-2.408291 3.746230 34.978802 199 199 199 0
-2.274522 3.746272 34.979194 200 200 200 0
-2.140776 3.746358 34.979998 200 200 200 0
-2.006836 3.746094 34.977534 199 199 199 0
-1.873102 3.746204 34.978563 200 200 200 0
-1.739366 3.746326 34.979698 200 200 200 0
-1.605652 3.746522 34.981528 200 200 200 0
-1.471837 3.746495 34.981279 200 200 200 0
-1.337936 3.746221 34.978725 200 200 200 0
-1.204137 3.746204 34.978559 200 200 200 0
-1.070385 3.746347 34.979895 200 200 200 0
-0.936616 3.746465 34.980997 201 201 201 0
-0.802792 3.746361 34.980032 201 201 201 0
-0.668951 3.746125 34.977825 200 200 200 0
-0.535186 3.746303 34.979483 200 200 200 0
-0.401399 3.746389 34.980286 200 200 200 0
-0.267571 3.745993 34.976587 200 200 200 0
-0.133778 3.745780 34.974603 200 200 200 0
0.000000 3.745974 34.976410 201 201 201 0
0.133788 3.746064 34.977256 201 201 201 0
0.267555 3.745764 34.974458 200 200 200 0
0.401325 3.745696 34.973818 201 201 201 0
0.535141 3.745988 34.976545 201 201 201 0
0.668969 3.746228 34.978788 201 201 201 0
0.802719 3.746021 34.976853 201 201 201 0
0.936431 3.745724 34.974076 201 201 201 0
1.070257 3.745898 34.975709 201 201 201 0
1.204096 3.746077 34.977380 201 201 201 0
1.337859 3.746005 34.976707 201 201 201 0
1.471537 3.745732 34.974151 202 202 202 0
1.605344 3.745803 34.974821 201 201 201 0
1.739234 3.746042 34.977048 201 201 201 0
1.873027 3.746054 34.977157 201 201 201 0
2.006605 3.745663 34.973509 201 201 201 0
2.140364 3.745638 34.973276 201 201 201 0
2.274298 3.745903 34.975754 201 201 201 0
2.408035 3.745833 34.975096 202 202 202 0
2.541576 3.745481 34.971810 201 201 201 0
2.675474 3.745663 34.973511 202 202 202 0
2.809445 3.745926 34.975967 202 202 202 0
2.943276 3.745987 34.976541 202 202 202 0
3.076816 3.745689 34.973752 202 202 202 0
3.210512 3.745597 34.972898 202 202 202 0
3.344526 3.745869 34.975437 202 202 202 0
3.478217 3.745772 34.974532 202 202 202 0
3.611773 3.745542 34.972384 202 202 202 0
3.745551 3.745551 34.972469 201 201 201 0
3.879452 3.745678 34.973648 203 203 203 0
4.013270 3.745719 34.974031 202 202 202 0
4.146854 3.745546 34.972415 202 202 202 0
4.280484 3.745424 34.971276 202 202 202 0
4.414449 3.745593 34.972856 203 203 203 0
4.548328 3.745682 34.973690 203 203 203 0
4.681929 3.745543 34.972392 202 202 202 0
4.815532 3.745414 34.971182 202 202 202 0
4.949650 3.745681 34.973680 202 202 202 0
5.083475 3.745719 34.974029 202 202 202 0
5.217161 3.745654 34.973430 202 202 202 0
5.350812 3.745569 34.972629 203 203 203 0
5.484677 3.745633 34.973230 202 202 202 0
5.618439 3.745626 34.973168 202 202 202 0
5.752164 3.745595 34.972875 202 202 202 0
5.885934 3.745594 34.972868 203 203 203 0
6.019724 3.745606 34.972979 203 203 203 0
6.153536 3.745630 34.973206 203 203 203 0
6.287078 3.745494 34.971928 203 203 203 0
6.420720 3.745420 34.971240 203 203 203 0
6.554403 3.745373 34.970806 202 202 202 0
6.688298 3.745447 34.971492 203 203 203 0
6.821981 3.745401 34.971068 203 203 203 0
6.955697 3.745375 34.970825 203 203 203 0
7.089628 3.745464 34.971651 203 203 203 0
7.223487 3.745512 34.972098 203 203 203 0
7.357430 3.745601 34.972931 203 203 203 0
7.491103 3.745552 34.972471 203 203 203 0
7.624730 3.745481 34.971815 204 204 204 0
7.758488 3.745477 34.971773 204 204 204 0
7.892502 3.745594 34.972870 203 203 203 0
8.026198 3.745559 34.972539 203 203 203 0
8.159800 3.745482 34.971820 203 203 203 0
8.293569 3.745483 34.971827 203 203 203 0
8.427565 3.745584 34.972777 202 202 202 0
8.560820 3.745359 34.970670 204 204 204 0
8.694335 3.745252 34.969672 203 203 203 0
8.828547 3.745444 34.971467 203 203 203 0
8.962435 3.745495 34.971942 203 203 203 0
9.095705 3.745290 34.970031 203 203 203 0
9.229549 3.745324 34.970346 203 203 203 0
9.363715 3.745486 34.971858 203 203 203 0
9.497717 3.745579 34.972723 203 203 203 0
9.630990 3.745385 34.970913 203 203 203 0
9.764653 3.745346 34.970552 204 204 204 0
9.898811 3.745496 34.971953 203 203 203 0
10.032594 3.745502 34.972007 204 204 204 0
10.166015 3.745374 34.970811 203 203 203 0
10.299707 3.745348 34.970570 203 203 203 0
10.433605 3.745397 34.971025 203 203 203 0
10.567704 3.745515 34.972132 203 203 203 0
-10.220347 3.704876 33.399826 194 194 194 0
-10.108394 3.710676 33.452119 194 194 194 0
-9.940460 3.695812 33.318117 194 194 194 0
-9.988967 3.762078 33.915515 193 193 193 0
-9.891950 3.774560 34.028035 195 195 195 0
-9.658306 3.734545 33.667297 194 194 194 0
-9.500311 3.723095 33.564073 194 194 194 0
-9.572131 3.802627 34.281066 194 194 194 0
-9.537119 3.841340 34.630062 195 195 195 0
-9.292235 3.795420 34.216092 195 195 195 0
-9.055279 3.751473 33.819905 194 194 194 0
-7.805734 3.280671 29.575577 194 194 194 0
-9.103265 3.882275 34.999097 195 195 195 0
-8.896026 3.850519 34.712813 195 195 195 0
-8.642160 3.797313 34.233156 195 195 195 0
-8.486919 3.786472 34.135421 195 195 195 0
-8.558795 3.878204 34.962399 195 195 195 0
-8.433926 3.882283 34.999175 195 195 195 0
-8.236108 3.852373 34.729529 195 195 195 0
-8.059154 3.831401 34.540465 196 196 196 0
-8.026947 3.879691 34.975805 196 196 196 0
-7.897738 3.881939 34.996071 196 196 196 0
-7.764434 3.882217 34.998577 195 195 195 0
-7.598904 3.866109 34.853359 196 196 196 0
-7.484824 3.876070 34.943155 197 197 197 0
-7.361378 3.881454 34.991698 196 196 196 0
-7.227522 3.881447 34.991633 197 197 197 0
-7.094693 3.882002 34.996638 196 196 196 0
-6.960974 3.882081 34.997353 197 197 197 0
-6.826012 3.881458 34.991733 196 196 196 0
-6.691289 3.880947 34.987131 197 197 197 0
-6.558542 3.881586 34.992888 197 197 197 0
-6.425203 3.881894 34.995659 197 197 197 0
-6.290899 3.881619 34.993183 197 197 197 0
-6.156114 3.881028 34.987860 197 197 197 0
-6.022515 3.881176 34.989193 198 198 198 0
-5.889116 3.881463 34.991777 197 197 197 0
-5.755189 3.881406 34.991267 197 197 197 0
-5.620724 3.880976 34.987389 197 197 197 0
-5.486886 3.880968 34.987319 197 197 197 0
-5.353376 3.881197 34.989384 197 197 197 0
-5.219574 3.881222 34.989603 198 198 198 0
-5.085556 3.881082 34.988344 198 198 198 0
-4.951300 3.880748 34.985336 198 198 198 0
-4.817628 3.880867 34.986408 197 197 197 0
-4.683823 3.880882 34.986538 198 198 198 0
-4.549886 3.880785 34.985669 199 199 199 0
-4.416035 3.880758 34.985420 198 198 198 0
-4.281973 3.880538 34.983442 198 198 198 0
-4.148402 3.880763 34.985470 198 198 198 0
-4.014628 3.880807 34.985869 198 198 198 0
-3.880695 3.880695 34.984852 199 199 199 0
-3.746761 3.880574 34.983762 198 198 198 0
-3.612869 3.880489 34.982997 198 198 198 0
-3.479007 3.880431 34.982477 199 199 199 0
-3.345229 3.880465 34.982785 198 198 198 0
-3.211461 3.880516 34.983240 199 199 199 0
-3.077665 3.880534 34.983402 199 199 199 0
-2.943663 3.880283 34.981140 198 198 198 0
-2.809894 3.880330 34.981563 199 199 199 0
-2.676118 3.880371 34.981930 199 199 199 0
-2.542138 3.880105 34.979532 199 199 199 0
-2.408264 3.879981 34.978414 199 199 199 0
-2.274489 3.880010 34.978679 199 199 199 0
-2.140760 3.880127 34.979738 200 200 200 0
-2.006843 3.879897 34.977664 199 199 199 0
-1.873090 3.879973 34.978343 200 200 200 0
-1.739345 3.880076 34.979276 199 199 199 0
-1.605636 3.880287 34.981177 200 200 200 0
-1.471817 3.880245 34.980801 199 199 199 0
-1.337928 3.879990 34.978501 200 200 200 0
-1.204125 3.879957 34.978203 200 200 200 0
-1.070388 3.880156 34.979996 200 200 200 0
-0.936617 3.880271 34.981029 201 201 201 0
-0.802789 3.880145 34.979893 200 200 200 0
-0.668946 3.879890 34.977594 200 200 200 0
-0.535182 3.880068 34.979203 200 200 200 0
-0.401398 3.880181 34.980219 200 200 200 0
-0.267566 3.879714 34.976007 201 201 201 0
-0.133776 3.879504 34.974117 201 201 201 0
0.000000 3.879729 34.976144 200 200 200 0
0.133788 3.879863 34.977353 201 201 201 0
0.267553 3.879520 34.974262 200 200 200 0
0.401323 3.879459 34.973713 201 201 201 0
0.535142 3.879776 34.976569 201 201 201 0
0.668975 3.880054 34.979079 201 201 201 0
0.802719 3.879809 34.976869 200 200 200 0
0.936443 3.879551 34.974543 201 201 201 0
1.070246 3.879642 34.975366 201 201 201 0
1.204082 3.879821 34.976976 201 201 201 0
1.337844 3.879748 34.976314 201 201 201 0
1.471545 3.879529 34.974342 201 201 201 0
1.605342 3.879575 34.974762 201 201 201 0
1.739242 3.879848 34.977218 202 202 202 0
1.873010 3.879807 34.976851 201 201 201 0
2.006579 3.879387 34.973061 202 202 202 0
2.140368 3.879417 34.973338 202 202 202 0
2.274302 3.879691 34.975805 202 202 202 0
2.408046 3.879629 34.975243 202 202 202 0
2.541579 3.879253 34.971854 202 202 202 0
2.675488 3.879457 34.973697 202 202 202 0
2.809448 3.879713 34.976005 202 202 202 0
2.943274 3.879770 34.976517 201 201 201 0
3.076814 3.879461 34.973732 201 201 201 0
3.210529 3.879389 34.973084 202 202 202 0
3.344525 3.879649 34.975422 202 202 202 0
3.478230 3.879564 34.974663 202 202 202 0
3.611780 3.879319 34.972454 202 202 202 0
3.745505 3.879273 34.972038 202 202 202 0
3.879472 3.879472 34.973832 202 202 202 0
4.013256 3.879480 34.973906 203 203 203 0
4.146839 3.879301 34.972284 202 202 202 0
4.280517 3.879218 34.971543 202 202 202 0
4.414430 3.879348 34.972709 202 202 202 0
4.548318 3.879447 34.973608 202 202 202 0
4.681934 3.879317 34.972428 203 203 203 0
4.815569 3.879209 34.971454 202 202 202 0
4.949627 3.879437 34.973518 202 202 202 0
5.083476 3.879495 34.974036 202 202 202 0
5.217160 3.879427 34.973420 202 202 202 0
5.350821 3.879345 34.972683 203 203 203 0
5.484707 3.879427 34.973421 203 203 203 0
5.618389 3.879364 34.972853 202 202 202 0
5.752159 3.879363 34.972846 203 203 203 0
5.885956 3.879380 34.973001 203 203 203 0
6.019724 3.879378 34.972981 203 203 203 0
6.153458 3.879354 34.972764 203 203 203 0
6.287067 3.879254 34.971864 203 203 203 0
6.420709 3.879178 34.971183 203 203 203 0
6.554472 3.879177 34.971172 203 203 203 0
6.688324 3.879228 34.971630 203 203 203 0
6.822059 3.879210 34.971468 203 203 203 0
6.955666 3.879122 34.970671 203 203 203 0
7.089584 3.879207 34.971437 203 203 203 0
7.223472 3.879272 34.972026 203 203 203 0
7.357470 3.879393 34.973118 203 203 203 0
7.491077 3.879308 34.972349 203 203 203 0
7.624813 3.879291 34.972196 204 204 204 0
7.758542 3.879271 34.972016 203 203 203 0
7.892510 3.879369 34.972905 203 203 203 0
8.026237 3.879348 34.972709 203 203 203 0
8.159764 3.879232 34.971666 203 203 203 0
8.293619 3.879273 34.972038 203 203 203 0
8.427502 3.879326 34.972514 203 203 203 0
8.560849 3.879135 34.970788 203 203 203 0
8.694334 3.879010 34.969668 204 204 204 0
8.828445 3.879165 34.971062 203 203 203 0
8.962431 3.879261 34.971929 203 203 203 0
9.095692 3.879045 34.969979 203 203 203 0
9.229506 3.879068 34.970184 204 204 204 0
9.363662 3.879231 34.971660 203 203 203 0
9.497781 3.879375 34.972957 203 203 203 0
9.630922 3.879121 34.970666 203 203 203 0
9.764631 3.879100 34.970477 204 204 204 0
9.898831 3.879272 34.972022 203 203 203 0
10.032567 3.879259 34.971912 203 203 203 0
10.166077 3.879161 34.971024 203 203 203 0
10.299688 3.879103 34.970504 204 204 204 0
10.433676 3.879187 34.971262 203 203 203 0
10.567674 3.879273 34.972033 204 204 204 0
-10.210779 3.829042 33.368559 193 193 193 0
-10.079386 3.827615 33.356121 194 194 194 0
-9.969857 3.834561 33.416650 194 194 194 0
-9.995573 3.894379 33.937942 194 194 194 0
-9.894227 3.905616 34.035868 194 194 194 0
-9.656113 3.862445 33.659653 194 194 194 0
-9.498712 3.850829 33.558426 194 194 194 0
-9.589219 3.940775 34.342265 194 194 194 0
-9.551076 3.979615 34.680743 195 195 195 0
-9.294144 3.927103 34.223122 195 195 195 0
-9.052094 3.879469 33.808006 195 195 195 0
-7.828857 3.403851 29.663190 195 195 195 0
-9.090598 4.010558 34.950395 196 196 196 0
-8.879014 3.975678 34.646432 196 196 196 0
-8.632849 3.924022 34.196272 196 196 196 0
-8.494739 3.920649 34.166872 196 196 196 0
-8.553465 4.009437 34.940623 196 196 196 0
-8.433937 4.016161 34.999222 195 195 195 0
-8.238262 3.986256 34.738612 196 196 196 0
-8.055074 3.961512 34.522978 196 196 196 0
-8.032412 4.016206 34.999615 195 195 195 0
-7.897539 4.015698 34.995189 196 196 196 0
-7.764309 4.016022 34.998013 196 196 196 0
-7.605454 4.002870 34.883403 196 196 196 0
-7.485143 4.009898 34.944646 196 196 196 0
-7.361108 4.015150 34.990414 196 196 196 0
-7.227484 4.015269 34.991449 196 196 196 0
-7.094697 4.015866 34.996654 196 196 196 0
-6.961130 4.016036 34.998138 197 197 197 0
-6.826031 4.015313 34.991831 197 197 197 0
-6.691492 4.014895 34.988196 197 197 197 0
-6.558670 4.015512 34.993570 197 197 197 0
-6.425159 4.015724 34.995419 196 196 196 0
-6.290869 4.015448 34.993011 197 197 197 0
-6.156212 4.014921 34.988415 197 197 197 0
-6.022592 4.015061 34.989642 198 198 198 0
-5.889027 4.015245 34.991246 197 197 197 0
-5.755143 4.015216 34.990988 197 197 197 0
-5.620772 4.014837 34.987688 198 198 198 0
-5.486909 4.014812 34.987466 197 197 197 0
-5.353286 4.014964 34.988794 198 198 198 0
-5.219564 4.015050 34.989539 198 198 198 0
-5.085565 4.014920 34.988407 197 197 197 0
-4.951220 4.014503 34.984775 197 197 197 0
-4.817607 4.014672 34.986252 198 198 198 0
-4.683697 4.014597 34.985595 198 198 198 0
-4.549888 4.014607 34.985681 198 198 198 0
-4.415966 4.014514 34.984874 198 198 198 0
-4.281938 4.014317 34.983156 198 198 198 0
-4.148461 4.014640 34.985967 198 198 198 0
-4.014666 4.014666 34.986195 199 199 199 0
-3.880696 4.014513 34.984861 199 199 199 0
-3.746744 4.014368 34.983602 198 198 198 0
-3.612948 4.014387 34.983763 199 199 199 0
-3.479054 4.014293 34.982949 198 198 198 0
-3.345216 4.014260 34.982654 199 199 199 0
-3.211451 4.014314 34.983126 198 198 198 0
-3.077642 4.014316 34.983148 200 200 200 0
-2.943645 4.014061 34.980923 199 199 199 0
-2.809902 4.014145 34.981658 200 200 200 0
-2.676116 4.014173 34.981902 200 200 200 0
-2.542113 4.013863 34.979195 200 200 200 0
-2.408297 4.013828 34.978890 199 199 199 0
-2.274509 4.013840 34.978999 200 200 200 0
-2.140784 4.013969 34.980124 200 200 200 0
-2.006831 4.013661 34.977439 200 200 200 0
-1.873094 4.013773 34.978411 199 199 199 0
-1.739367 4.013924 34.979727 199 199 199 0
-1.605638 4.014094 34.981212 199 199 199 0
-1.471828 4.014078 34.981068 200 200 200 0
-1.337938 4.013815 34.978777 200 200 200 0
-1.204124 4.013748 34.978193 200 200 200 0
-1.070387 4.013953 34.979979 200 200 200 0
-0.936620 4.014086 34.981138 200 200 200 0
-0.802790 4.013948 34.979938 200 200 200 0
-0.668940 4.013642 34.977270 200 200 200 0
-0.535185 4.013888 34.979418 200 200 200 0
-0.401396 4.013963 34.980066 201 201 201 0
-0.267568 4.013524 34.976247 200 200 200 0
-0.133776 4.013288 34.974190 201 201 201 0
0.000000 4.013535 34.976342 201 201 201 0
0.133788 4.013652 34.977356 200 200 200 0
0.267555 4.013319 34.974456 201 201 201 0
0.401330 4.013304 34.974328 201 201 201 0
0.535143 4.013576 34.976699 200 200 200 0
0.668970 4.013822 34.978839 201 201 201 0
0.802719 4.013594 34.976858 201 201 201 0
0.936427 4.013260 34.973948 201 201 201 0
1.070237 4.013390 34.975080 201 201 201 0
1.204089 4.013630 34.977164 201 201 201 0
1.337845 4.013536 34.976346 202 202 202 0
1.471538 4.013285 34.974160 202 202 202 0
1.605322 4.013306 34.974345 202 202 202 0
1.739240 4.013631 34.977178 201 201 201 0
1.873011 4.013595 34.976862 202 202 202 0
2.006578 4.013157 34.973043 201 201 201 0
2.140361 4.013176 34.973215 201 201 201 0
2.274294 4.013460 34.975689 201 201 201 0
2.408044 4.013406 34.975219 201 201 201 0
2.541602 4.013056 34.972164 202 202 202 0
2.675466 4.013199 34.973409 201 201 201 0
2.809458 4.013512 34.976137 202 202 202 0
2.943275 4.013556 34.976525 202 202 202 0
3.076806 4.013225 34.973637 202 202 202 0
3.210529 4.013161 34.973084 202 202 202 0
3.344483 4.013380 34.974989 202 202 202 0
3.478232 4.013344 34.974679 201 201 201 0
3.611747 4.013053 34.972136 201 201 201 0
3.745497 4.013033 34.971963 202 202 202 0
3.879462 4.013237 34.973741 202 202 202 0
4.013240 4.013240 34.973773 202 202 202 0
4.146860 4.013090 34.972462 202 202 202 0
4.280467 4.012937 34.971132 202 202 202 0
4.414466 4.013151 34.972995 202 202 202 0
4.548327 4.013229 34.973676 202 202 202 0
4.681928 4.013081 34.972386 203 203 203 0
4.815579 4.012983 34.971525 202 202 202 0
4.949630 4.013213 34.973535 203 203 203 0
5.083499 4.013289 34.974193 202 202 202 0
5.217177 4.013213 34.973537 202 202 202 0
5.350829 4.013122 34.972741 202 202 202 0
5.484739 4.013223 34.973625 203 203 203 0
5.618459 4.013185 34.973291 203 203 203 0
5.752191 4.013156 34.973039 203 203 203 0
5.885958 4.013153 34.973014 203 203 203 0
6.019732 4.013155 34.973026 203 203 203 0
6.153499 4.013152 34.973000 203 203 203 0
6.287036 4.013002 34.971694 203 203 203 0
6.420740 4.012962 34.971349 203 203 203 0
6.554467 4.012939 34.971145 203 203 203 0
6.688340 4.013004 34.971714 202 202 202 0
6.822070 4.012982 34.971523 202 202 202 0
6.955696 4.012902 34.970822 202 202 202 0
7.089580 4.012970 34.971416 203 203 203 0
7.223478 4.013044 34.972057 203 203 203 0
7.357443 4.013151 34.972992 203 203 203 0
7.491088 4.013083 34.972401 203 203 203 0
7.624781 4.013043 34.972050 202 202 202 0
7.758489 4.013012 34.971778 203 203 203 0
7.892481 4.013126 34.972774 203 203 203 0
8.026197 4.013098 34.972534 203 203 203 0
8.159740 4.012987 34.971562 204 204 204 0
8.293621 4.013042 34.972047 203 203 203 0
8.427475 4.013083 34.972404 203 203 203 0
8.560830 4.012889 34.970710 203 203 203 0
8.694358 4.012780 34.969765 203 203 203 0
8.828450 4.012932 34.971084 203 203 203 0
8.962430 4.013028 34.971925 203 203 203 0
9.095740 4.012827 34.970167 203 203 203 0
9.229486 4.012820 34.970108 203 203 203 0
9.363656 4.012995 34.971637 203 203 203 0
9.497756 4.013136 34.972866 203 203 203 0
9.630925 4.012886 34.970681 204 204 204 0
9.764689 4.012886 34.970682 203 203 203 0
9.898814 4.013033 34.971963 204 204 204 0
10.032622 4.013049 34.972103 204 204 204 0
10.166085 4.012928 34.971054 204 204 204 0
10.299651 4.012851 34.970380 203 203 203 0
10.433560 4.012908 34.970873 204 204 204 0
10.567698 4.013050 34.972111 203 203 203 0
-10.202975 3.953653 33.343055 194 194 194 0
-10.082538 3.956439 33.366552 194 194 194 0
-9.967897 3.961600 33.410077 194 194 194 0
-9.977852 4.017057 33.877775 194 194 194 0
-9.908267 4.041530 34.084166 194 194 194 0
-9.672493 3.997964 33.716753 195 195 195 0
-9.517775 3.987176 33.625772 194 194 194 0
-9.603561 4.078225 34.393629 194 194 194 0
-9.550946 4.112213 34.680267 195 195 195 0
-9.305392 4.062917 34.264537 195 195 195 0
-9.055397 4.010247 33.820342 195 195 195 0
-7.848784 3.526265 29.738690 195 195 195 0
-9.103474 4.150113 34.999901 195 195 195 0
-8.888801 4.112729 34.684620 195 195 195 0
-8.641625 4.058945 34.231035 195 195 195 0
-8.498196 4.052986 34.180776 196 196 196 0
-8.560740 4.146609 34.970344 196 196 196 0
-8.434097 4.150111 34.999886 196 196 196 0
-8.237174 4.118587 34.734023 196 196 196 0
-8.048979 4.090465 34.496858 196 196 196 0
-8.028911 4.148270 34.984360 196 196 196 0
-7.897536 4.149553 34.995174 196 196 196 0
-7.764332 4.149901 34.998115 196 196 196 0
-7.588573 4.127119 34.805977 197 197 197 0
-7.486513 4.144320 34.951042 196 196 196 0
-7.361210 4.149045 34.990895 196 196 196 0
-7.227497 4.149119 34.991513 196 196 196 0
-7.094742 4.149755 34.996879 196 196 196 0
-6.961060 4.149862 34.997785 197 197 197 0
-6.826121 4.149211 34.992289 196 196 196 0
-6.691326 4.148622 34.987325 196 196 196 0
-6.558566 4.149297 34.993018 196 196 196 0
-6.425164 4.149585 34.995447 197 197 197 0
-6.290978 4.149369 34.993620 198 198 198 0
-6.156114 4.148686 34.987863 197 197 197 0
-6.022506 4.148837 34.989140 197 197 197 0
-5.889051 4.149104 34.991390 197 197 197 0
-5.755133 4.149049 34.990928 197 197 197 0
-5.620888 4.148751 34.988410 197 197 197 0
-5.486899 4.148631 34.987399 198 198 198 0
-5.353348 4.148845 34.989203 197 197 197 0
-5.219505 4.148838 34.989142 197 197 197 0
-5.085509 4.148704 34.988019 198 198 198 0
-4.951196 4.148299 34.984603 198 198 198 0
-4.817577 4.148469 34.986033 198 198 198 0
-4.683836 4.148541 34.986637 198 198 198 0
-4.549877 4.148417 34.985595 198 198 198 0
-4.415944 4.148311 34.984701 198 198 198 0
-4.281826 4.148019 34.982241 198 198 198 0
-4.148429 4.148429 34.985701 199 199 199 0
-4.014610 4.148431 34.985711 199 199 199 0
-3.880690 4.148323 34.984806 198 198 198 0
-3.746745 4.148182 34.983613 199 199 199 0
-3.612939 4.148190 34.983678 199 199 199 0
-3.479074 4.148126 34.983142 198 198 198 0
-3.345235 4.148091 34.982845 199 199 199 0
-3.211443 4.148114 34.983040 199 199 199 0
-3.077590 4.148056 34.982548 199 199 199 0
-2.943680 4.147913 34.981346 199 199 199 0
-2.809939 4.148005 34.982120 199 199 199 0
-2.676109 4.147968 34.981813 199 199 199 0
-2.542136 4.147696 34.979518 199 199 199 0
-2.408300 4.147627 34.978936 200 200 200 0
-2.274511 4.147638 34.979029 200 200 200 0
-2.140763 4.147729 34.979793 200 200 200 0
-2.006853 4.147495 34.977823 200 200 200 0
-1.873107 4.147594 34.978654 200 200 200 0
-1.739362 4.147709 34.979626 200 200 200 0
-1.605640 4.147903 34.981258 200 200 200 0
-1.471845 4.147927 34.981462 200 200 200 0
-1.337940 4.147615 34.978828 200 200 200 0
-1.204137 4.147582 34.978556 200 200 200 0
-1.070393 4.147772 34.980158 200 200 200 0
-0.936614 4.147862 34.980913 200 200 200 0
-0.802769 4.147639 34.979038 200 200 200 0
-0.668936 4.147401 34.977025 200 200 200 0
-0.535185 4.147687 34.979441 201 201 201 0
-0.401392 4.147712 34.979652 201 201 201 0
-0.267569 4.147320 34.976345 200 200 200 0
-0.133777 4.147088 34.974392 201 201 201 0
0.000000 4.147261 34.975847 201 201 201 0
0.133789 4.147457 34.977498 200 200 200 0
0.267554 4.147088 34.974388 200 200 200 0
0.401326 4.147038 34.973969 201 201 201 0
0.535144 4.147362 34.976702 201 201 201 0
0.668965 4.147583 34.978559 201 201 201 0
0.802723 4.147400 34.977018 201 201 201 0
0.936433 4.147059 34.974139 201 201 201 0
1.070248 4.147210 34.975417 200 200 200 0
1.204091 4.147423 34.977216 201 201 201 0
1.337844 4.147316 34.976313 201 201 201 0
1.471524 4.147022 34.973834 201 201 201 0
1.605339 4.147125 34.974699 201 201 201 0
1.739234 4.147405 34.977060 201 201 201 0
1.873018 4.147398 34.976998 202 202 202 0
2.006587 4.146946 34.973187 201 201 201 0
2.140353 4.146933 34.973082 202 202 202 0
2.274297 4.147247 34.975729 202 202 202 0
2.408058 4.147210 34.975418 202 202 202 0
2.541583 4.146794 34.971907 202 202 202 0
2.675445 4.146940 34.973143 202 202 202 0
2.809457 4.147294 34.976126 201 201 201 0
2.943272 4.147338 34.976499 202 202 202 0
3.076805 4.146998 34.973628 202 202 202 0
3.210555 4.146967 34.973370 202 202 202 0
3.344523 4.147208 34.975399 202 202 202 0
3.478243 4.147136 34.974791 202 202 202 0
3.611778 4.146856 34.972430 202 202 202 0
3.745521 4.146827 34.972185 202 202 202 0
3.879461 4.147010 34.973730 202 202 202 0
4.013230 4.147004 34.973680 202 202 202 0
4.146855 4.146855 34.972426 202 202 202 0
4.280507 4.146741 34.971459 202 202 202 0
4.414418 4.146877 34.972612 203 203 203 0
4.548334 4.147010 34.973730 202 202 202 0
4.681944 4.146864 34.972501 202 202 202 0
4.815582 4.146751 34.971546 202 202 202 0
4.949642 4.146998 34.973626 203 203 203 0
5.083506 4.147071 34.974241 202 202 202 0
5.217173 4.146984 34.973509 202 202 202 0
5.350834 4.146896 34.972772 203 203 203 0
5.484728 4.146989 34.973554 203 203 203 0
5.618481 4.146974 34.973429 202 202 202 0
5.752250 4.146971 34.973401 203 203 203 0
5.885960 4.146926 34.973023 203 203 203 0
6.019750 4.146939 34.973130 202 202 202 0
6.153449 4.146889 34.972712 203 203 203 0
6.287071 4.146791 34.971885 203 203 203 0
6.420686 4.146693 34.971054 203 203 203 0
6.554466 4.146703 34.971142 203 203 203 0
6.688339 4.146770 34.971708 203 203 203 0
6.822070 4.146748 34.971522 203 203 203 0
6.955704 4.146669 34.970857 203 203 203 0
7.089635 4.146768 34.971685 203 203 203 0
7.223484 4.146815 34.972084 203 203 203 0
7.357482 4.146944 34.973174 203 203 203 0
7.491092 4.146854 34.972418 202 202 202 0
7.624782 4.146811 34.972054 203 203 203 0
7.758461 4.146764 34.971652 202 202 202 0
7.892505 4.146909 34.972880 203 203 203 0
8.026232 4.146887 34.972690 203 203 203 0
8.159784 4.146775 34.971751 203 203 203 0
8.293567 4.146783 34.971819 203 203 203 0
8.427512 4.146871 34.972556 204 204 204 0
8.560851 4.146662 34.970795 204 204 204 0
8.694322 4.146523 34.969623 203 203 203 0
8.828534 4.146735 34.971415 203 203 203 0
8.962397 4.146781 34.971796 203 203 203 0
9.095739 4.146587 34.970162 203 203 203 0
9.229460 4.146569 34.970012 203 203 203 0
9.363694 4.146779 34.971779 203 203 203 0
9.497630 4.146853 34.972402 203 203 203 0
9.630922 4.146647 34.970667 203 203 203 0
9.764607 4.146614 34.970390 204 204 204 0
9.898841 4.146812 34.972058 203 203 203 0
10.032606 4.146810 34.972047 203 203 203 0
10.166046 4.146677 34.970919 204 204 204 0
10.299754 4.146654 34.970731 203 203 203 0
10.433622 4.146696 34.971083 204 204 204 0
10.567718 4.146826 34.972177 203 203 203 0
-10.216124 4.086449 33.386025 194 194 194 0
-10.084885 4.085017 33.374318 194 194 194 0
-9.962133 4.087029 33.390759 194 194 194 0
-9.987907 4.150819 33.911916 193 193 193 0
-9.909902 4.172590 34.089789 194 194 194 0
-9.654054 4.119063 33.652477 194 194 194 0
-9.510279 4.112553 33.599292 194 194 194 0
-9.589786 4.203742 34.344297 195 195 195 0
-9.550133 4.244503 34.677315 195 195 195 0
-9.304729 4.193681 34.262098 195 195 195 0
-9.054094 4.139014 33.815475 194 194 194 0
-7.940010 3.682324 30.084343 195 195 195 0
-9.103425 4.283965 34.999712 195 195 195 0
-8.906716 4.253954 34.754527 195 195 195 0
-8.641620 4.189876 34.231015 195 195 195 0
-8.489538 4.179465 34.145953 195 195 195 0
-8.542553 4.271277 34.896051 196 196 196 0
-8.434044 4.283959 34.999665 196 196 196 0
-8.228410 4.246921 34.697068 196 196 196 0
-8.056879 4.226560 34.530715 196 196 196 0
-8.028172 4.281692 34.981141 196 196 196 0
-7.897563 4.283424 34.995293 196 196 196 0
-7.764326 4.283766 34.998091 196 196 196 0
-7.592967 4.262718 34.826130 196 196 196 0
-7.485708 4.277547 34.947282 196 196 196 0
-7.361283 4.282928 34.991245 196 196 196 0
-7.227502 4.282964 34.991538 196 196 196 0
-7.094751 4.283623 34.996921 196 196 196 0
-6.961074 4.283738 34.997860 196 196 196 0
-6.826205 4.283109 34.992723 197 197 197 0
-6.691453 4.282530 34.987990 197 197 197 0
-6.558712 4.283240 34.993794 196 196 196 0
-6.425230 4.283487 34.995805 197 197 197 0
-6.290866 4.283143 34.992998 198 198 198 0
-6.156105 4.282508 34.987810 197 197 197 0
-6.022591 4.282732 34.989637 197 197 197 0
-5.889126 4.283001 34.991835 198 198 198 0
-5.755261 4.282985 34.991707 197 197 197 0
-5.620759 4.282483 34.987609 197 197 197 0
-5.486817 4.282394 34.986877 197 197 197 0
-5.353282 4.282626 34.988774 198 198 198 0
-5.219502 4.282668 34.989119 198 198 198 0
-5.085514 4.282538 34.988053 198 198 198 0
-4.951236 4.282150 34.984887 198 198 198 0
-4.817605 4.282316 34.986241 198 198 198 0
-4.683799 4.282331 34.986364 198 198 198 0
-4.549880 4.282240 34.985624 198 198 198 0
-4.415950 4.282133 34.984748 198 198 198 0
-4.281870 4.281870 34.982599 198 198 198 0
-4.148426 4.282246 34.985673 199 199 199 0
-4.014634 4.282276 34.985918 198 198 198 0
-3.880695 4.282146 34.984856 199 199 199 0
-3.746749 4.281999 34.983650 199 199 199 0
-3.612964 4.282031 34.983914 198 198 198 0
-3.479069 4.281931 34.983098 199 199 199 0
-3.345285 4.281964 34.983367 199 199 199 0
-3.211452 4.281936 34.983140 199 199 199 0
-3.077638 4.281931 34.983099 199 199 199 0
-2.943684 4.281722 34.981390 200 200 200 0
-2.809895 4.281744 34.981572 199 199 199 0
-2.676107 4.281772 34.981797 198 198 198 0
-2.542149 4.281514 34.979692 199 199 199 0
-2.408303 4.281427 34.978977 199 199 199 0
-2.274516 4.281442 34.979098 200 200 200 0
-2.140749 4.281498 34.979559 199 199 199 0
-2.006882 4.281347 34.978328 200 200 200 0
-1.873119 4.281414 34.978875 200 200 200 0
-1.739350 4.281476 34.979381 200 200 200 0
-1.605655 4.281747 34.981595 200 200 200 0
-1.471829 4.281685 34.981088 200 200 200 0
-1.337942 4.281416 34.978888 200 200 200 0
-1.204137 4.281377 34.978570 200 200 200 0
-1.070390 4.281558 34.980051 200 200 200 0
-0.936604 4.281621 34.980560 200 200 200 0
-0.802762 4.281398 34.978742 200 200 200 0
-0.668933 4.281172 34.976895 200 200 200 0
-0.535177 4.281412 34.978859 200 200 200 0
-0.401397 4.281565 34.980103 201 201 201 0
-0.267567 4.281077 34.976119 200 200 200 0
-0.133775 4.280808 34.973922 200 200 200 0
0.000000 4.281091 34.976232 201 201 201 0
0.133788 4.281226 34.977336 201 201 201 0
0.267553 4.280840 34.974183 200 200 200 0
0.401323 4.280783 34.973717 200 200 200 0
0.535137 4.281099 34.976302 200 200 200 0
0.668968 4.281396 34.978729 201 201 201 0
0.802720 4.281173 34.976903 201 201 201 0
0.936420 4.280776 34.973658 201 201 201 0
1.070249 4.280998 34.975471 201 201 201 0
1.204089 4.281205 34.977166 201 201 201 0
1.337845 4.281103 34.976334 202 202 202 0
1.471525 4.280801 34.973865 202 202 202 0
1.605327 4.280873 34.974452 201 201 201 0
1.739237 4.281199 34.977118 201 201 201 0
1.873021 4.281191 34.977051 201 201 201 0
2.006614 4.280776 34.973663 201 201 201 0
2.140348 4.280696 34.973009 202 202 202 0
2.274293 4.281023 34.975675 202 202 202 0
2.408059 4.280993 34.975436 201 201 201 0
2.541578 4.280552 34.971829 201 201 201 0
2.675450 4.280719 34.973196 202 202 202 0
2.809456 4.281076 34.976109 201 201 201 0
2.943273 4.281124 34.976506 201 201 201 0
3.076808 4.280776 34.973661 201 201 201 0
3.210535 4.280713 34.973146 202 202 202 0
3.344534 4.281003 34.975514 202 202 202 0
3.478241 4.280912 34.974770 202 202 202 0
3.611767 4.280613 34.972325 202 202 202 0
3.745532 4.280608 34.972286 202 202 202 0
3.879447 4.280769 34.973606 202 202 202 0
4.013272 4.280823 34.974045 202 202 202 0
4.146845 4.280614 34.972340 202 202 202 0
4.280490 4.280490 34.971326 201 201 201 0
4.414466 4.280695 34.972996 202 202 202 0
4.548337 4.280788 34.973759 202 202 202 0
4.681923 4.280615 34.972348 202 202 202 0
4.815558 4.280496 34.971373 202 202 202 0
4.949632 4.280763 34.973554 202 202 202 0
5.083512 4.280852 34.974279 203 203 203 0
5.217169 4.280754 34.973482 203 203 203 0
5.350803 4.280643 34.972572 202 202 202 0
5.484761 4.280789 34.973764 203 203 203 0
5.618469 4.280738 34.973349 203 203 203 0
5.752207 4.280712 34.973136 202 202 202 0
5.885979 4.280712 34.973137 202 202 202 0
6.019743 4.280706 34.973087 203 203 203 0
6.153489 4.280688 34.972939 203 203 203 0
6.287121 4.280593 34.972167 203 203 203 0
6.420715 4.280477 34.971214 203 203 203 0
6.554471 4.280471 34.971168 203 203 203 0
6.688341 4.280538 34.971718 203 203 203 0
6.822061 4.280509 34.971478 203 203 203 0
6.955676 4.280416 34.970717 203 203 203 0
7.089599 4.280513 34.971508 203 203 203 0
7.223462 4.280570 34.971978 203 203 203 0
7.357438 4.280691 34.972966 203 203 203 0
7.491084 4.280619 34.972380 202 202 202 0
7.624780 4.280578 34.972043 203 203 203 0
7.758500 4.280552 34.971829 203 203 203 0
7.892433 4.280642 34.972563 203 203 203 0
8.026208 4.280644 34.972584 203 203 203 0
8.159764 4.280532 34.971666 204 204 204 0
8.293592 4.280563 34.971923 203 203 203 0
8.427513 4.280641 34.972561 203 203 203 0
8.560841 4.280420 34.970754 203 203 203 0
8.694331 4.280286 34.969658 203 203 203 0
8.828541 4.280505 34.971443 203 203 203 0
8.962483 4.280589 34.972131 203 203 203 0
9.095739 4.280348 34.970161 203 203 203 0
9.229570 4.280380 34.970429 203 203 203 0
9.363693 4.280545 34.971776 203 203 203 0
9.497689 4.280649 34.972620 203 203 203 0
9.630883 4.280393 34.970527 203 203 203 0
9.764636 4.280388 34.970494 203 203 203 0
9.898808 4.280566 34.971941 204 204 204 0
10.032668 4.280605 34.972262 204 204 204 0
10.166045 4.280440 34.970914 203 203 203 0
10.299712 4.280400 34.970586 203 203 203 0
10.433641 4.280468 34.971145 203 203 203 0
10.567727 4.280598 34.972207 203 203 203 0
