ply
    format ascii 1.0
    element vertex 25597
    property float x
    property float y
    property float z
    property uchar red
    property uchar green
    property uchar blue
    property uchar alpha
    end_header
-9.953152 6.469549 32.526640 194 194 194 0
-9.885203 6.506716 32.713503 194 194 194 0
-9.759447 6.506298 32.711403 194 194 194 0
-9.773013 6.599957 33.182288 193 193 193 0
-9.751709 6.672222 33.545610 194 194 194 0
-9.524215 6.603456 33.199877 194 194 194 0
-9.354173 6.573202 33.047775 195 195 195 0
-9.403867 6.698645 33.678456 194 194 194 0
-9.428742 6.809647 34.236535 195 195 195 0
-9.209437 6.744940 33.911210 195 195 195 0
-8.964592 6.659411 33.481202 195 195 195 0
-8.880674 6.692682 33.648477 195 195 195 0
-8.967559 6.857545 34.477352 195 195 195 0
-8.785722 6.818769 34.282398 195 195 195 0
-8.558942 6.743409 33.903514 196 196 196 0
-8.371431 6.697145 33.670915 196 196 196 0
-8.371712 6.802016 34.198171 195 195 195 0
-8.347470 6.889976 34.640400 195 195 195 0
-8.147411 6.833312 34.355517 196 196 196 0
-7.961773 6.787085 34.123104 196 196 196 0
-7.874729 6.824765 34.312544 196 196 196 0
-7.843491 6.912907 34.755693 196 196 196 0
-7.703003 6.906140 34.721671 196 196 196 0
-7.509221 6.850518 34.442019 196 196 196 0
-7.397829 6.869413 34.537017 196 196 196 0
-7.363106 6.961482 34.999911 196 196 196 0
-7.228591 6.960865 34.996808 196 196 196 0
-7.073225 6.939768 34.890738 196 196 196 0
-6.913135 6.913135 34.756839 196 196 196 0
-6.827279 6.961148 34.998228 197 197 197 0
-6.692643 6.960349 34.994211 197 197 197 0
-6.559374 6.960968 34.997327 197 197 197 0
-6.415823 6.950475 34.944568 196 196 196 0
-6.292000 6.961361 34.999302 197 197 197 0
-6.157564 6.960725 34.996104 197 197 197 0
-6.023782 6.960815 34.996554 197 197 197 0
-5.890209 6.961156 34.998269 198 198 198 0
-5.756095 6.960858 34.996775 197 197 197 0
-5.621925 6.960479 34.994866 197 197 197 0
-5.488037 6.960437 34.994658 197 197 197 0
-5.354411 6.960735 34.996152 197 197 197 0
-5.220277 6.960370 34.994319 197 197 197 0
-5.086145 6.959988 34.992397 198 198 198 0
-4.952251 6.959921 34.992061 197 197 197 0
-4.818216 6.959645 34.990672 197 197 197 0
-4.684415 6.959703 34.990964 198 198 198 0
-4.550638 6.959799 34.991449 198 198 198 0
-4.416715 6.959673 34.990814 197 197 197 0
-4.282663 6.959327 34.989075 198 198 198 0
-4.149039 6.959678 34.990840 198 198 198 0
-4.015235 6.959740 34.991151 198 198 198 0
-3.881441 6.959825 34.991580 198 198 198 0
-3.747719 6.960050 34.992708 199 199 199 0
-3.613669 6.959658 34.990741 199 199 199 0
-3.479768 6.959537 34.990129 198 198 198 0
-3.345910 6.959492 34.989904 199 199 199 0
-3.212253 6.959881 34.991859 198 198 198 0
-3.078322 6.959684 34.990871 199 199 199 0
-2.944309 6.959275 34.988813 199 199 199 0
-2.810487 6.959300 34.988941 199 199 199 0
-2.676736 6.959513 34.990011 199 199 199 0
-2.542856 6.959395 34.989416 200 200 200 0
-2.408779 6.958696 34.985902 200 200 200 0
-2.274925 6.958596 34.985397 200 200 200 0
-2.141304 6.959238 34.988629 199 199 199 0
-2.007499 6.959330 34.989091 199 199 199 0
-1.873406 6.958366 34.984245 200 200 200 0
-1.739631 6.958525 34.985041 199 199 199 0
-1.605926 6.959012 34.987492 200 200 200 0
-1.472186 6.959426 34.989573 200 200 200 0
-1.338220 6.958744 34.986145 199 199 199 0
-1.204324 6.958317 34.983997 200 200 200 0
-1.070558 6.958630 34.985569 200 200 200 0
-0.936814 6.959190 34.988385 200 200 200 0
-0.802940 6.958814 34.986494 199 199 199 0
-0.669069 6.958322 34.984024 200 200 200 0
-0.535269 6.958500 34.984917 200 200 200 0
-0.401478 6.958955 34.987205 200 200 200 0
-0.267647 6.958824 34.986544 200 200 200 0
-0.133807 6.957939 34.982098 200 200 200 0
0.000000 6.958042 34.982616 200 200 200 0
0.133822 6.958720 34.986022 200 200 200 0
0.267634 6.958472 34.984778 200 200 200 0
0.401400 6.957593 34.980358 201 201 201 0
0.535233 6.958024 34.982526 200 200 200 0
0.669098 6.958618 34.985509 201 201 201 0
0.802927 6.958704 34.985943 200 200 200 0
0.936657 6.958022 34.982514 201 201 201 0
1.070447 6.957908 34.981941 201 201 201 0
1.204334 6.958376 34.984294 201 201 201 0
1.338140 6.958326 34.984041 201 201 201 0
1.471869 6.957926 34.982029 201 201 201 0
1.605635 6.957751 34.981153 201 201 201 0
1.739496 6.957984 34.982323 201 201 201 0
1.873354 6.958170 34.983259 200 200 200 0
2.007079 6.957873 34.981765 201 201 201 0
2.140736 6.957394 34.979354 201 201 201 0
2.274646 6.957742 34.981105 201 201 201 0
2.408550 6.958032 34.982566 202 202 202 0
2.542228 6.957675 34.980771 201 201 201 0
2.675888 6.957309 34.978931 202 202 202 0
2.809885 6.957810 34.981449 201 201 201 0
2.943785 6.958037 34.982589 201 201 201 0
3.077560 6.957963 34.982216 201 201 201 0
3.211256 6.957722 34.981003 201 201 201 0
3.345092 6.957792 34.981357 202 202 202 0
3.478927 6.957855 34.981673 202 202 202 0
3.612660 6.957716 34.980975 201 201 201 0
3.746418 6.957634 34.980564 201 201 201 0
3.880353 6.957874 34.981769 202 202 202 0
4.014068 6.957719 34.980988 202 202 202 0
4.147874 6.957725 34.981020 201 201 201 0
4.281705 6.957771 34.981252 202 202 202 0
4.415351 6.957522 34.980001 202 202 202 0
4.549164 6.957545 34.980117 202 202 202 0
4.682986 6.957580 34.980291 202 202 202 0
4.816834 6.957648 34.980636 202 202 202 0
4.950458 6.957401 34.979391 203 203 203 0
5.084340 6.957518 34.979980 202 202 202 0
5.218247 6.957662 34.980704 203 203 203 0
5.352227 6.957895 34.981878 202 202 202 0
5.485794 6.957592 34.980352 202 202 202 0
5.619434 6.957395 34.979361 202 202 202 0
5.753288 6.957465 34.979714 202 202 202 0
5.887255 6.957664 34.980716 202 202 202 0
6.021024 6.957628 34.980532 203 203 203 0
6.154614 6.957390 34.979338 203 203 203 0
6.288621 6.957623 34.980507 203 203 203 0
6.422478 6.957684 34.980815 202 202 202 0
6.556024 6.957413 34.979453 203 203 203 0
6.689548 6.957130 34.978028 203 203 203 0
6.823593 6.957389 34.979332 202 202 202 0
6.957572 6.957572 34.980251 203 203 203 0
7.090950 6.957159 34.978174 203 203 203 0
7.224724 6.957142 34.978087 202 202 202 0
7.358839 6.957448 34.979628 203 203 203 0
7.492963 6.957752 34.981154 203 203 203 0
7.626374 6.957394 34.979355 203 203 203 0
7.759865 6.957120 34.977980 202 202 202 0
7.894105 6.957516 34.979970 203 203 203 0
8.027993 6.957594 34.980361 203 203 203 0
8.161519 6.957360 34.979186 203 203 203 0
8.295112 6.957191 34.978336 203 203 203 0
8.429270 6.957493 34.979853 203 203 203 0
8.563128 6.957541 34.980097 202 202 202 0
8.696536 6.957229 34.978525 203 203 203 0
8.830257 6.957172 34.978240 203 203 203 0
8.964389 6.957437 34.979571 203 203 203 0
9.098162 6.957418 34.979479 203 203 203 0
9.231256 6.956889 34.976815 203 203 203 0
9.365232 6.957029 34.977523 203 203 203 0
9.499598 6.957452 34.979649 203 203 203 0
9.633487 6.957518 34.979982 203 203 203 0
9.766753 6.957139 34.978076 203 203 203 0
9.900678 6.957233 34.978548 204 204 204 0
10.034742 6.957421 34.979494 203 203 203 0
10.168411 6.957334 34.979056 203 203 203 0
10.302036 6.957219 34.978477 204 204 204 0
10.436017 6.957345 34.979110 202 202 202 0
10.570108 6.957539 34.980087 203 203 203 0
-9.978216 6.610568 32.608547 193 193 193 0
-9.880101 6.628422 32.696618 194 194 194 0
-9.747306 6.623169 32.670709 194 194 194 0
-9.786562 6.736205 33.228290 195 195 195 0
-9.741938 6.793720 33.512000 194 194 194 0
-9.530266 6.734721 33.220970 194 194 194 0
-9.339894 6.689384 32.997331 194 194 194 0
-9.409990 6.831910 33.700384 194 194 194 0
-9.442601 6.950803 34.286858 194 194 194 0
-9.208689 6.874092 33.908457 194 194 194 0
-8.966370 6.788823 33.487844 194 194 194 0
-8.877955 6.819298 33.638172 195 195 195 0
-8.955951 6.980373 34.432720 195 195 195 0
-8.786597 6.950592 34.285816 195 195 195 0
-8.541283 6.858909 33.833565 195 195 195 0
-8.366369 6.821808 33.650553 195 195 195 0
-8.375877 6.936273 34.215185 195 195 195 0
-8.347997 7.022918 34.642584 196 196 196 0
-8.134172 6.953405 34.299691 196 196 196 0
-7.962917 6.918600 34.128007 195 195 195 0
-7.882407 6.962793 34.346002 195 195 195 0
-7.840238 7.042925 34.741277 196 196 196 0
-7.701043 7.037160 34.712836 196 196 196 0
-7.514114 6.986808 34.464462 195 195 195 0
-7.392588 6.996557 34.512551 196 196 196 0
-7.363123 7.095373 34.999990 196 196 196 0
-7.228716 7.094851 34.997416 197 197 197 0
-7.077938 7.077938 34.913986 196 196 196 0
-6.913970 7.046931 34.761037 196 196 196 0
-6.827233 7.094968 34.997993 197 197 197 0
-6.692651 7.094210 34.994253 197 197 197 0
-6.559435 7.094899 34.997653 197 197 197 0
-6.419912 7.088653 34.966840 197 197 197 0
-6.292077 7.095320 34.999731 197 197 197 0
-6.157568 7.094589 34.996124 197 197 197 0
-6.023787 7.094682 34.996581 197 197 197 0
-5.890278 7.095108 34.998683 197 197 197 0
-5.756099 7.094727 34.996805 197 197 197 0
-5.621937 7.094350 34.994942 198 198 198 0
-5.488200 7.094502 34.995695 198 198 198 0
-5.354361 7.094528 34.995823 197 197 197 0
-5.220317 7.094277 34.994585 198 198 198 0
-5.086144 7.093833 34.992392 198 198 198 0
-4.952330 7.093878 34.992615 198 198 198 0
-4.818303 7.093612 34.991306 197 197 197 0
-4.684379 7.093489 34.990696 198 198 198 0
-4.550654 7.093667 34.991574 198 198 198 0
-4.416749 7.093567 34.991083 198 198 198 0
-4.282679 7.093188 34.989211 198 198 198 0
-4.148976 7.093411 34.990314 198 198 198 0
-4.015204 7.093527 34.990884 199 199 199 0
-3.881531 7.093833 34.992395 198 198 198 0
-3.747717 7.093893 34.992689 199 199 199 0
-3.613685 7.093529 34.990893 198 198 198 0
-3.479765 7.093367 34.990096 199 199 199 0
-3.345949 7.093412 34.990319 199 199 199 0
-3.212250 7.093719 34.991831 198 198 198 0
-3.078353 7.093597 34.991229 198 198 198 0
-2.944279 7.093035 34.988459 199 199 199 0
-2.810465 7.093078 34.988671 199 199 199 0
-2.676702 7.093261 34.989572 199 199 199 0
-2.542840 7.093185 34.989197 199 199 199 0
-2.408768 7.092483 34.985734 198 198 198 0
-2.274947 7.092481 34.985723 200 200 200 0
-2.141304 7.093068 34.988622 200 200 200 0
-2.007469 7.093058 34.988572 199 199 199 0
-1.873403 7.092170 34.984190 199 199 199 0
-1.739624 7.092314 34.984901 200 200 200 0
-1.605926 7.092838 34.987487 200 200 200 0
-1.472191 7.093285 34.989688 200 200 200 0
-1.338226 7.092600 34.986311 200 200 200 0
-1.204321 7.092114 34.983915 200 200 200 0
-1.070563 7.092478 34.985710 199 199 199 0
-0.936810 7.092989 34.988230 199 199 199 0
-0.802936 7.092603 34.986326 200 200 200 0
-0.669066 7.092104 34.983866 200 200 200 0
-0.535260 7.092191 34.984294 200 200 200 0
-0.401478 7.092781 34.987206 200 200 200 0
-0.267646 7.092618 34.986399 201 201 201 0
-0.133808 7.091799 34.982361 200 200 200 0
0.000000 7.091723 34.981984 201 201 201 0
0.133820 7.092474 34.985688 201 201 201 0
0.267632 7.092254 34.984604 200 200 200 0
0.401402 7.091434 34.980558 200 200 200 0
0.535232 7.091829 34.982506 200 200 200 0
0.669096 7.092420 34.985424 201 201 201 0
0.802915 7.092415 34.985400 200 200 200 0
0.936663 7.091876 34.982739 200 200 200 0
1.070446 7.091705 34.981899 201 201 201 0
1.204344 7.092249 34.984582 201 201 201 0
1.338141 7.092145 34.984068 201 201 201 0
1.471865 7.091712 34.981932 201 201 201 0
1.605641 7.091583 34.981293 201 201 201 0
1.739512 7.091855 34.982636 201 201 201 0
1.873336 7.091914 34.982930 201 201 201 0
2.007085 7.091700 34.981871 201 201 201 0
2.140755 7.091252 34.979662 201 201 201 0
2.274681 7.091653 34.981639 201 201 201 0
2.408551 7.091846 34.982591 202 202 202 0
2.542247 7.091532 34.981041 201 201 201 0
2.675901 7.091138 34.979098 201 201 201 0
2.809874 7.091586 34.981308 201 201 201 0
2.943806 7.091895 34.982836 202 202 202 0
3.077546 7.091736 34.982050 202 202 202 0
3.211259 7.091529 34.981030 202 202 202 0
3.345047 7.091500 34.980885 202 202 202 0
3.478931 7.091667 34.981709 202 202 202 0
3.612684 7.091566 34.981210 202 202 202 0
3.746435 7.091466 34.980716 201 201 201 0
3.880338 7.091652 34.981633 202 202 202 0
4.014064 7.091513 34.980950 202 202 202 0
4.147903 7.091576 34.981260 202 202 202 0
4.281702 7.091570 34.981229 202 202 202 0
4.415379 7.091367 34.980229 202 202 202 0
4.549150 7.091322 34.980007 203 203 203 0
4.682987 7.091380 34.980293 202 202 202 0
4.816854 7.091480 34.980786 202 202 202 0
4.950443 7.091176 34.979286 202 202 202 0
5.084396 7.091394 34.980363 203 203 203 0
5.218285 7.091516 34.980962 203 203 203 0
5.352248 7.091728 34.982012 202 202 202 0
5.485788 7.091384 34.980313 202 202 202 0
5.619421 7.091174 34.979275 202 202 202 0
5.753261 7.091229 34.979547 202 202 202 0
5.887292 7.091511 34.980940 203 203 203 0
6.021032 7.091437 34.980575 202 202 202 0
6.154652 7.091229 34.979548 202 202 202 0
6.288606 7.091407 34.980428 203 203 203 0
6.422464 7.091470 34.980739 203 203 203 0
6.556021 7.091207 34.979438 203 203 203 0
6.689521 7.090892 34.977888 202 202 202 0
6.823626 7.091220 34.979502 203 203 203 0
6.957568 7.091367 34.980230 203 203 203 0
7.090936 7.090936 34.978103 203 203 203 0
7.224746 7.090954 34.978193 203 203 203 0
7.358897 7.091301 34.979905 203 203 203 0
7.492971 7.091562 34.981192 202 202 202 0
7.626367 7.091183 34.979322 202 202 202 0
7.759904 7.090947 34.978158 202 202 202 0
7.894064 7.091278 34.979792 203 203 203 0
8.028062 7.091455 34.980663 203 203 203 0
8.161476 7.091118 34.979003 203 203 203 0
8.295135 7.091003 34.978433 203 203 203 0
8.429306 7.091321 34.980002 202 202 202 0
8.563080 7.091300 34.979901 204 204 204 0
8.696502 7.090994 34.978389 203 203 203 0
8.830225 7.090938 34.978114 203 203 203 0
8.964368 7.091216 34.979485 203 203 203 0
9.098158 7.091211 34.979462 203 203 203 0
9.231236 7.090659 34.976738 204 204 204 0
9.365220 7.090810 34.977480 202 202 202 0
9.499599 7.091250 34.979653 203 203 203 0
9.633424 7.091270 34.979751 203 203 203 0
9.766622 7.090835 34.977604 203 203 203 0
9.900671 7.091021 34.978524 203 203 203 0
10.034795 7.091255 34.979676 203 203 203 0
10.168357 7.091091 34.978869 203 203 203 0
10.302068 7.091034 34.978584 203 203 203 0
10.436112 7.091204 34.979428 203 203 203 0
10.570070 7.091313 34.979963 203 203 203 0
-10.010997 6.757423 32.715675 194 194 194 0
-9.890949 6.760902 32.732520 194 194 194 0
-9.737673 6.741466 32.638421 194 194 194 0
-9.764890 6.848105 33.154707 194 194 194 0
-9.719851 6.906210 33.436019 194 194 194 0
-9.550495 6.876356 33.291485 194 194 194 0
-9.349011 6.822251 33.029540 195 195 195 0
-9.387730 6.944348 33.620665 195 195 195 0
-9.401200 7.050900 34.136530 194 194 194 0
-9.211870 7.006211 33.920171 195 195 195 0
-8.987697 6.933366 33.567495 194 194 194 0
-8.868431 6.940512 33.602090 195 195 195 0
-8.959562 7.114946 34.446605 195 195 195 0
-8.783554 7.079282 34.273938 195 195 195 0
-8.543125 6.989829 33.840858 195 195 195 0
-8.381727 6.963281 33.712325 195 195 195 0
-8.371185 7.063188 34.196019 195 195 195 0
-8.340399 7.148914 34.611056 195 195 195 0
-8.147933 7.096587 34.357719 196 196 196 0
-7.964050 7.050143 34.132862 196 196 196 0
-7.883935 7.095541 34.352656 196 196 196 0
-7.849428 7.184223 34.782003 196 196 196 0
-7.700533 7.169461 34.710537 196 196 196 0
-7.511213 7.115886 34.451154 196 196 196 0
-7.399334 7.135072 34.544043 196 196 196 0
-7.360400 7.226575 34.987048 196 196 196 0
-7.228604 7.228604 34.996873 196 196 196 0
-7.078247 7.211799 34.915512 196 196 196 0
-6.907037 7.172692 34.726178 196 196 196 0
-6.827397 7.229009 34.998833 196 196 196 0
-6.692568 7.227974 34.993821 197 197 197 0
-6.559444 7.228775 34.997700 196 196 196 0
-6.409810 7.211037 34.911820 196 196 196 0
-6.290574 7.227468 34.991372 197 197 197 0
-6.157749 7.228662 34.997151 197 197 197 0
-6.023877 7.228653 34.997108 198 198 198 0
-5.890258 7.228953 34.998563 197 197 197 0
-5.756159 7.228665 34.997169 197 197 197 0
-5.621959 7.228233 34.995075 198 198 198 0
-5.488180 7.228334 34.995566 197 197 197 0
-5.354377 7.228410 34.995931 198 198 198 0
-5.220398 7.228243 34.995126 197 197 197 0
-5.086181 7.227731 34.992648 198 198 198 0
-4.952316 7.227704 34.992515 197 197 197 0
-4.818203 7.227304 34.990577 197 197 197 0
-4.684468 7.227465 34.991360 198 198 198 0
-4.550627 7.227466 34.991362 198 198 198 0
-4.416707 7.227339 34.990747 198 198 198 0
-4.282740 7.227123 34.989703 198 198 198 0
-4.149000 7.227290 34.990512 198 198 198 0
-4.015236 7.227424 34.991161 198 198 198 0
-3.881510 7.227639 34.992199 198 198 198 0
-3.747717 7.227740 34.992688 198 198 198 0
-3.613655 7.227310 34.990610 198 198 198 0
-3.479724 7.227119 34.989683 199 199 199 0
-3.345961 7.227275 34.990439 199 199 199 0
-3.212249 7.227561 34.991824 198 198 198 0
-3.078302 7.227319 34.990650 199 199 199 0
-2.944272 7.226850 34.988379 199 199 199 0
-2.810461 7.226899 34.988620 199 199 199 0
-2.676700 7.227089 34.989536 199 199 199 0
-2.542813 7.226943 34.988832 199 199 199 0
-2.408769 7.226308 34.985759 199 199 199 0
-2.274950 7.226313 34.985781 199 199 199 0
-2.141328 7.226983 34.989025 199 199 199 0
-2.007454 7.226834 34.988305 199 199 199 0
-1.873416 7.226032 34.984420 199 199 199 0
-1.739648 7.226229 34.985372 199 199 199 0
-1.605940 7.226728 34.987792 199 199 199 0
-1.472188 7.227103 34.989603 200 200 200 0
-1.338213 7.226348 34.985949 199 199 199 0
-1.204327 7.225963 34.984086 200 200 200 0
-1.070558 7.226266 34.985556 200 200 200 0
-0.936807 7.226800 34.988140 200 200 200 0
-0.802942 7.226478 34.986578 200 200 200 0
-0.669071 7.225965 34.984096 200 200 200 0
-0.535264 7.226057 34.984543 200 200 200 0
-0.401476 7.226566 34.987006 200 200 200 0
-0.267644 7.226400 34.986203 200 200 200 0
-0.133806 7.225542 34.982049 200 200 200 0
0.000000 7.225638 34.982514 201 201 201 0
0.133820 7.226273 34.985588 200 200 200 0
0.267632 7.226061 34.984561 201 201 201 0
0.401402 7.225237 34.980570 200 200 200 0
0.535228 7.225577 34.982216 201 201 201 0
0.669104 7.226325 34.985836 201 201 201 0
0.802927 7.226345 34.985938 200 200 200 0
0.936662 7.225680 34.982714 201 201 201 0
1.070446 7.225512 34.981902 201 201 201 0
1.204342 7.226051 34.984511 200 200 200 0
1.338154 7.226031 34.984417 201 201 201 0
1.471878 7.225585 34.982257 201 201 201 0
1.605656 7.225452 34.981611 201 201 201 0
1.739507 7.225644 34.982541 201 201 201 0
1.873356 7.225802 34.983304 202 202 202 0
2.007081 7.225492 34.981806 201 201 201 0
2.140754 7.225044 34.979638 201 201 201 0
2.274650 7.225360 34.981166 201 201 201 0
2.408560 7.225679 34.982710 201 201 201 0
2.542222 7.225262 34.980693 202 202 202 0
2.675918 7.224978 34.979316 201 201 201 0
2.809900 7.225456 34.981632 202 202 202 0
2.943795 7.225679 34.982713 202 202 202 0
3.077583 7.225630 34.982476 201 201 201 0
3.211243 7.225296 34.980858 202 202 202 0
3.345079 7.225371 34.981221 201 201 201 0
3.478930 7.225471 34.981703 202 202 202 0
3.612700 7.225400 34.981360 201 201 201 0
3.746416 7.225230 34.980538 201 201 201 0
3.880302 7.225389 34.981308 202 202 202 0
4.014077 7.225338 34.981061 202 202 202 0
4.147849 7.225285 34.980803 202 202 202 0
4.281722 7.225407 34.981392 202 202 202 0
4.415385 7.225175 34.980271 202 202 202 0
4.549116 7.225067 34.979750 202 202 202 0
4.683023 7.225236 34.980568 202 202 202 0
4.816854 7.225280 34.980782 202 202 202 0
4.950481 7.225027 34.979554 202 202 202 0
5.084373 7.225162 34.980207 202 202 202 0
5.218254 7.225274 34.980751 202 202 202 0
5.352187 7.225453 34.981616 202 202 202 0
5.485805 7.225207 34.980425 203 203 203 0
5.619426 7.224976 34.979310 202 202 202 0
5.753290 7.225062 34.979724 202 202 202 0
5.887261 7.225275 34.980757 202 202 202 0
6.021044 7.225253 34.980649 203 203 203 0
6.154665 7.225042 34.979626 202 202 202 0
6.288594 7.225193 34.980359 202 202 202 0
6.422567 7.225388 34.981303 203 203 203 0
6.556032 7.225015 34.979497 202 202 202 0
6.689523 7.224684 34.977896 202 202 202 0
6.823600 7.224988 34.979365 202 202 202 0
6.957514 7.225111 34.979960 203 203 203 0
7.090978 7.224770 34.978312 203 203 203 0
7.224703 7.224703 34.977986 202 202 202 0
7.358862 7.225064 34.979734 203 203 203 0
7.492937 7.225332 34.981033 203 203 203 0
7.626319 7.224934 34.979103 203 203 203 0
7.760023 7.224849 34.978692 203 203 203 0
7.894028 7.225042 34.979628 203 203 203 0
8.028012 7.225210 34.980443 203 203 203 0
8.161471 7.224909 34.978983 203 203 203 0
8.295062 7.224732 34.978125 202 202 202 0
8.429255 7.225076 34.979792 203 203 203 0
8.563115 7.225128 34.980044 203 203 203 0
8.696486 7.224773 34.978324 203 203 203 0
8.830189 7.224700 34.977973 203 203 203 0
8.964365 7.225011 34.979476 203 203 203 0
9.098134 7.224989 34.979370 203 203 203 0
9.231237 7.224446 34.976742 203 203 203 0
9.365272 7.224638 34.977674 202 202 202 0
9.499628 7.225069 34.979757 203 203 203 0
9.633423 7.225067 34.979748 203 203 203 0
9.766654 7.224648 34.977720 202 202 202 0
9.900613 7.224772 34.978318 203 203 203 0
10.034838 7.225083 34.979826 203 203 203 0
10.168441 7.224945 34.979158 203 203 203 0
10.302059 7.224820 34.978555 204 204 204 0
10.436084 7.224981 34.979332 204 204 204 0
10.570115 7.225142 34.980112 203 203 203 0
-9.998378 6.873885 32.674436 194 194 194 0
-9.871424 6.872510 32.667903 194 194 194 0
-9.756713 6.879733 32.702238 194 194 194 0
-9.782928 6.987806 33.215952 194 194 194 0
-9.738492 7.047593 33.500144 194 194 194 0
-9.526813 6.986330 33.208936 193 193 193 0
-9.332149 6.936057 32.969968 194 194 194 0
-9.379204 7.066523 33.590129 194 194 194 0
-9.430014 7.203483 34.241155 194 194 194 0
-9.209725 7.134294 33.912271 194 194 194 0
-8.973764 7.050814 33.515458 195 195 195 0
-8.874343 7.073751 33.624487 195 195 195 0
-8.964605 7.250784 34.465995 195 195 195 0
-8.796374 7.220904 34.323963 195 195 195 0
-8.553047 7.127539 33.880161 195 195 195 0
-8.387921 7.097472 33.737241 195 195 195 0
-8.372455 7.195078 34.201204 195 195 195 0
-8.339119 7.280184 34.605745 195 195 195 0
-8.148273 7.228307 34.359152 196 196 196 0
-7.967665 7.183960 34.148355 195 195 195 0
-7.890892 7.233318 34.382974 195 195 195 0
-7.850296 7.318073 34.785849 196 196 196 0
-7.699267 7.301029 34.704833 196 196 196 0
-7.510880 7.247341 34.449629 196 196 196 0
-7.392239 7.260234 34.510918 196 196 196 0
-7.363008 7.363008 34.999444 196 196 196 0
-7.228718 7.362583 34.997424 196 196 196 0
-7.076419 7.343453 34.906492 196 196 196 0
-6.908268 7.306821 34.732366 196 196 196 0
-6.827400 7.362882 34.998846 196 196 196 0
-6.692649 7.361914 34.994245 196 196 196 0
-6.559485 7.362688 34.997921 197 197 197 0
-6.411321 7.346305 34.920049 197 197 197 0
-6.292113 7.363110 34.999931 197 197 197 0
-6.157757 7.362535 34.997198 197 197 197 0
-6.023779 7.362396 34.996536 197 197 197 0
-5.890208 7.362760 34.998265 197 197 197 0
-5.756060 7.362403 34.996566 197 197 197 0
-5.621979 7.362115 34.995200 197 197 197 0
-5.488141 7.362141 34.995322 198 198 198 0
-5.354271 7.362122 34.995233 197 197 197 0
-5.220353 7.362036 34.994825 198 198 198 0
-5.086220 7.361635 34.992917 197 197 197 0
-4.952329 7.361570 34.992607 197 197 197 0
-4.818291 7.361278 34.991221 197 197 197 0
-4.684477 7.361321 34.991424 198 198 198 0
-4.550637 7.361325 34.991444 198 198 198 0
-4.416748 7.361247 34.991071 198 198 198 0
-4.282659 7.360819 34.989040 197 197 197 0
-4.149005 7.361138 34.990555 198 198 198 0
-4.015249 7.361290 34.991280 198 198 198 0
-3.881475 7.361418 34.991888 198 198 198 0
-3.747720 7.361593 34.992716 198 198 198 0
-3.613662 7.361163 34.990673 198 198 198 0
-3.479701 7.360905 34.989448 198 198 198 0
-3.345913 7.361008 34.989937 199 199 199 0
-3.212249 7.361404 34.991822 198 198 198 0
-3.078377 7.361336 34.991495 199 199 199 0
-2.944328 7.360820 34.989042 199 199 199 0
-2.810442 7.360683 34.988391 199 199 199 0
-2.676727 7.361000 34.989900 199 199 199 0
-2.542848 7.360876 34.989308 199 199 199 0
-2.408785 7.360177 34.985987 200 200 200 0
-2.274934 7.360081 34.985533 199 199 199 0
-2.141313 7.360762 34.988768 199 199 199 0
-2.007482 7.360769 34.988800 200 200 200 0
-1.873419 7.359860 34.984478 199 199 199 0
-1.739630 7.359972 34.985014 199 199 199 0
-1.605939 7.360553 34.987773 199 199 199 0
-1.472194 7.360969 34.989750 200 200 200 0
-1.338223 7.360228 34.986228 200 200 200 0
-1.204333 7.359813 34.984258 199 199 199 0
-1.070561 7.360107 34.985654 199 199 199 0
-0.936820 7.360726 34.988594 200 200 200 0
-0.802938 7.360266 34.986409 201 201 201 0
-0.669068 7.359752 34.983968 200 200 200 0
-0.535260 7.359829 34.984333 200 200 200 0
-0.401480 7.360470 34.987378 200 200 200 0
-0.267648 7.360310 34.986620 200 200 200 0
-0.133806 7.359336 34.981991 200 200 200 0
0.000000 7.359391 34.982253 201 201 201 0
0.133820 7.360084 34.985543 200 200 200 0
0.267631 7.359861 34.984486 200 200 200 0
0.401400 7.358995 34.980369 201 201 201 0
0.535231 7.359423 34.982402 201 201 201 0
0.669094 7.360036 34.985318 201 201 201 0
0.802931 7.360201 34.986100 200 200 200 0
0.936660 7.359472 34.982638 200 200 200 0
1.070440 7.359272 34.981684 201 201 201 0
1.204354 7.359939 34.984853 201 201 201 0
1.338151 7.359828 34.984328 201 201 201 0
1.471884 7.359421 34.982392 200 200 200 0
1.605644 7.359204 34.981361 201 201 201 0
1.739531 7.359556 34.983034 201 201 201 0
1.873370 7.359667 34.983563 201 201 201 0
2.007086 7.359317 34.981899 202 202 202 0
2.140751 7.358831 34.979587 201 201 201 0
2.274635 7.359112 34.980924 201 201 201 0
2.408545 7.359445 34.982505 201 201 201 0
2.542226 7.359075 34.980747 202 202 202 0
2.675894 7.358708 34.979002 201 201 201 0
2.809890 7.359235 34.981509 202 202 202 0
2.943793 7.359483 34.982690 201 201 201 0
3.077569 7.359403 34.982310 202 202 202 0
3.211247 7.359108 34.980906 201 201 201 0
3.345058 7.359127 34.980995 202 202 202 0
3.478958 7.359335 34.981983 201 201 201 0
3.612681 7.359165 34.981176 201 201 201 0
3.746423 7.359044 34.980603 201 201 201 0
3.880311 7.359211 34.981396 202 202 202 0
4.014091 7.359167 34.981187 202 202 202 0
4.147899 7.359176 34.981227 201 201 201 0
4.281727 7.359219 34.981434 201 201 201 0
4.415364 7.358939 34.980103 202 202 202 0
4.549172 7.358954 34.980175 202 202 202 0
4.682990 7.358984 34.980316 202 202 202 0
4.816825 7.359038 34.980573 202 202 202 0
4.950442 7.358765 34.979275 202 202 202 0
5.084349 7.358927 34.980044 202 202 202 0
5.218248 7.359068 34.980716 202 202 202 0
5.352244 7.359335 34.981986 202 202 202 0
5.485768 7.358957 34.980188 202 202 202 0
5.619429 7.358776 34.979329 202 202 202 0
5.753261 7.358822 34.979546 202 202 202 0
5.887266 7.359082 34.980784 202 202 202 0
6.021055 7.359067 34.980710 203 203 203 0
6.154681 7.358858 34.979715 203 203 203 0
6.288587 7.358984 34.980318 203 203 203 0
6.422487 7.359099 34.980863 202 202 202 0
6.556002 7.358778 34.979335 203 203 203 0
6.689578 7.358536 34.978185 202 202 202 0
6.823638 7.358825 34.979561 202 202 202 0
6.957604 7.359005 34.980415 202 202 202 0
7.090922 7.358504 34.978034 203 203 203 0
7.224720 7.358511 34.978069 203 203 203 0
7.358901 7.358901 34.979924 202 202 202 0
7.492984 7.359181 34.981252 202 202 202 0
7.626336 7.358745 34.979181 203 203 203 0
7.759902 7.358528 34.978148 204 204 204 0
7.894052 7.358862 34.979738 203 203 203 0
8.027981 7.358983 34.980311 203 203 203 0
8.161547 7.358772 34.979309 203 203 203 0
8.295080 7.358539 34.978198 203 203 203 0
8.429258 7.358876 34.979805 203 203 203 0
8.563116 7.358928 34.980050 203 203 203 0
8.696472 7.358553 34.978268 203 203 203 0
8.830159 7.358465 34.977851 203 203 203 0
8.964425 7.358857 34.979710 203 203 203 0
9.098123 7.358776 34.979327 203 203 203 0
9.231249 7.358242 34.976790 203 203 203 0
9.365278 7.358432 34.977694 203 203 203 0
9.499620 7.358860 34.979729 202 202 202 0
9.633451 7.358886 34.979851 203 203 203 0
9.766654 7.358438 34.977719 203 203 203 0
9.900630 7.358576 34.978379 203 203 203 0
10.034773 7.358833 34.979599 203 203 203 0
10.168450 7.358747 34.979188 203 203 203 0
10.302114 7.358653 34.978741 203 203 203 0
10.436055 7.358757 34.979235 203 203 203 0
10.570012 7.358869 34.979769 204 204 204 0
-10.018197 7.012738 32.739205 194 194 194 0
-9.884442 7.006693 32.710986 194 194 194 0
-9.761802 7.008473 32.719295 194 194 194 0
-9.779934 7.112679 33.205784 194 194 194 0
-9.739046 7.176139 33.502049 194 194 194 0
-9.537852 7.121596 33.247415 194 194 194 0
-9.345951 7.072612 33.018730 194 194 194 0
-9.387611 7.201455 33.620238 195 195 195 0
-9.413124 7.321319 34.179826 194 194 194 0
-9.212874 7.266492 33.923867 194 194 194 0
-8.961408 7.169127 33.469312 195 195 195 0
-8.882861 7.209278 33.656761 194 194 194 0
-8.964759 7.382743 34.466586 195 195 195 0
-8.787380 7.344676 34.288868 194 194 194 0
-8.554740 7.258567 33.886868 195 195 195 0
-8.373331 7.213946 33.678555 195 195 195 0
-8.388316 7.339777 34.265998 196 196 196 0
-8.351274 7.423354 34.656182 195 195 195 0
-8.149708 7.361027 34.365204 196 196 196 0
-7.964566 7.311732 34.135072 196 196 196 0
-7.883431 7.357869 34.350461 195 195 195 0
-7.840516 7.441845 34.742509 196 196 196 0
-7.710752 7.444864 34.756601 196 196 196 0
-7.507290 7.375583 34.433161 196 196 196 0
-7.389960 7.389960 34.500279 196 196 196 0
-7.363069 7.496943 34.999734 197 197 197 0
-7.228672 7.496401 34.997202 196 196 196 0
-7.082880 7.483798 34.938367 197 197 197 0
-6.908619 7.440052 34.734134 196 196 196 0
-6.827334 7.496680 34.998506 196 196 196 0
-6.692417 7.495507 34.993030 197 197 197 0
-6.559381 7.496436 34.997366 196 196 196 0
-6.417267 7.486811 34.952434 196 196 196 0
-6.292118 7.496991 34.999959 197 197 197 0
-6.157799 7.496451 34.997435 197 197 197 0
-6.023856 7.496354 34.996985 197 197 197 0
-5.890238 7.496666 34.998441 196 196 196 0
-5.756128 7.496353 34.996978 197 197 197 0
-5.622005 7.496007 34.995363 198 198 198 0
-5.488096 7.495935 34.995030 197 197 197 0
-5.354329 7.496061 34.995617 197 197 197 0
-5.220251 7.495745 34.994143 198 198 198 0
-5.086290 7.495585 34.993395 197 197 197 0
-4.952328 7.495416 34.992603 197 197 197 0
-4.818201 7.494980 34.990567 198 198 198 0
-4.684476 7.495162 34.991418 198 198 198 0
-4.550638 7.495168 34.991447 198 198 198 0
-4.416775 7.495134 34.991289 198 198 198 0
-4.282719 7.494758 34.989533 198 198 198 0
-4.149054 7.495066 34.990970 198 198 198 0
-4.015237 7.495109 34.991170 198 198 198 0
-3.881506 7.495322 34.992167 198 198 198 0
-3.747708 7.495416 34.992606 198 198 198 0
-3.613676 7.495031 34.990807 199 199 199 0
-3.479744 7.494834 34.989886 198 198 198 0
-3.345945 7.494917 34.990275 198 198 198 0
-3.212245 7.495238 34.991773 198 198 198 0
-3.078315 7.495028 34.990795 199 199 199 0
-2.944279 7.494529 34.988463 199 199 199 0
-2.810486 7.494629 34.988929 198 198 198 0
-2.676732 7.494850 34.989962 199 199 199 0
-2.542848 7.494709 34.989307 199 199 199 0
-2.408769 7.493948 34.985752 199 199 199 0
-2.274936 7.493908 34.985563 199 199 199 0
-2.141313 7.494594 34.988768 200 200 200 0
-2.007476 7.494578 34.988693 200 200 200 0
-1.873430 7.493718 34.984678 199 199 199 0
-1.739628 7.493781 34.984970 199 199 199 0
-1.605942 7.494395 34.987839 199 199 199 0
-1.472212 7.494896 34.990175 200 200 200 0
-1.338217 7.494017 34.986073 199 199 199 0
-1.204319 7.493539 34.983840 200 200 200 0
-1.070573 7.494010 34.986040 199 199 199 0
-0.936826 7.494606 34.988824 200 200 200 0
-0.802954 7.494240 34.987114 200 200 200 0
-0.669067 7.493545 34.983871 200 200 200 0
-0.535264 7.493697 34.984579 200 200 200 0
-0.401477 7.494245 34.987139 200 200 200 0
-0.267648 7.494153 34.986707 200 200 200 0
-0.133806 7.493152 34.982037 200 200 200 0
0.000000 7.493211 34.982312 200 200 200 0
0.133820 7.493898 34.985520 200 200 200 0
0.267631 7.493670 34.984452 200 200 200 0
0.401399 7.492783 34.980311 201 201 201 0
0.535231 7.493239 34.982442 200 200 200 0
0.669104 7.493965 34.985830 200 200 200 0
0.802931 7.494025 34.986113 200 200 200 0
0.936658 7.493261 34.982545 201 201 201 0
1.070455 7.493187 34.982199 201 201 201 0
1.204338 7.493656 34.984390 200 200 200 0
1.338159 7.493690 34.984545 201 201 201 0
1.471881 7.493210 34.982308 201 201 201 0
1.605643 7.493002 34.981334 201 201 201 0
1.739507 7.493263 34.982554 201 201 201 0
1.873344 7.493377 34.983088 201 201 201 0
2.007065 7.493042 34.981521 201 201 201 0
2.140750 7.492625 34.979574 201 201 201 0
2.274658 7.492990 34.981277 201 201 201 0
2.408578 7.493352 34.982971 201 201 201 0
2.542232 7.492893 34.980826 201 201 201 0
2.675895 7.492505 34.979015 201 201 201 0
2.809879 7.493011 34.981379 201 201 201 0
2.943803 7.493316 34.982802 202 202 202 0
3.077572 7.493220 34.982351 201 201 201 0
3.211270 7.492963 34.981151 201 201 201 0
3.345075 7.492967 34.981173 202 202 202 0
3.478928 7.493075 34.981676 201 201 201 0
3.612686 7.492978 34.981224 202 202 202 0
3.746418 7.492837 34.980563 202 202 202 0
3.880340 7.493071 34.981659 202 202 202 0
4.014085 7.492958 34.981130 202 202 202 0
4.147898 7.492977 34.981219 202 202 202 0
4.281727 7.493022 34.981430 202 202 202 0
4.415368 7.492745 34.980136 202 202 202 0
4.549136 7.492694 34.979898 202 202 202 0
4.682965 7.492744 34.980131 202 202 202 0
4.816789 7.492783 34.980315 201 201 201 0
4.950436 7.492552 34.979235 203 203 203 0
5.084361 7.492743 34.980126 202 202 202 0
5.218250 7.492871 34.980725 202 202 202 0
5.352254 7.493156 34.982055 202 202 202 0
5.485814 7.492820 34.980484 203 203 203 0
5.619438 7.492584 34.979383 202 202 202 0
5.753254 7.492610 34.979505 202 202 202 0
5.887257 7.492873 34.980733 202 202 202 0
6.021055 7.492868 34.980709 202 202 202 0
6.154699 7.492677 34.979818 202 202 202 0
6.288604 7.492804 34.980412 202 202 202 0
6.422473 7.492885 34.980790 203 203 203 0
6.556029 7.492604 34.979479 203 203 203 0
6.689573 7.492322 34.978160 202 202 202 0
6.823531 7.492505 34.979014 202 202 202 0
6.957599 7.492799 34.980387 202 202 202 0
7.090940 7.492314 34.978122 203 203 203 0
7.224751 7.492335 34.978220 202 202 202 0
7.358833 7.492630 34.979597 203 203 203 0
7.492981 7.492981 34.981239 202 202 202 0
7.626349 7.492554 34.979243 202 202 202 0
7.759883 7.492301 34.978064 203 203 203 0
7.894060 7.492667 34.979772 203 203 203 0
8.027977 7.492778 34.980291 203 203 203 0
8.161526 7.492548 34.979216 203 203 203 0
8.295137 7.492382 34.978441 203 203 203 0
8.429230 7.492649 34.979688 203 203 203 0
8.563123 7.492733 34.980079 203 203 203 0
8.696499 7.492368 34.978377 203 203 203 0
8.830185 7.492278 34.977955 203 203 203 0
8.964337 7.492580 34.979365 203 203 203 0
9.098191 7.492628 34.979589 203 203 203 0
9.231274 7.492048 34.976882 203 203 203 0
9.365240 7.492192 34.977553 203 203 203 0
9.499644 7.492677 34.979819 203 203 203 0
9.633506 7.492727 34.980049 203 203 203 0
9.766623 7.492204 34.977611 203 203 203 0
9.900677 7.492404 34.978543 203 203 203 0
10.034767 7.492626 34.979581 203 203 203 0
10.168433 7.492530 34.979131 203 203 203 0
10.302031 7.492386 34.978459 203 203 203 0
10.435971 7.492492 34.978954 203 203 203 0
10.570053 7.492696 34.979905 203 203 203 0
-9.982461 7.112504 32.622422 193 193 193 0
-9.907364 7.148351 32.786842 194 194 194 0
-9.748306 7.123762 32.674062 194 194 194 0
-9.789366 7.246674 33.237811 194 194 194 0
-9.733731 7.300298 33.483767 194 194 194 0
-9.532779 7.244912 33.229732 194 194 194 0
-9.349256 7.201454 33.030406 194 194 194 0
-9.395590 7.336282 33.648812 194 194 194 0
-9.415807 7.454180 34.189567 195 195 195 0
-9.208776 7.392961 33.908778 194 194 194 0
-8.975625 7.308723 33.522408 195 195 195 0
-8.870284 7.327626 33.609108 194 194 194 0
-8.970144 7.519091 34.487290 194 194 194 0
-8.797257 7.484234 34.327410 194 194 194 0
-8.559708 7.392475 33.906549 195 195 195 0
-8.371740 7.341372 33.672158 195 195 195 0
-8.381412 7.464695 34.237794 196 196 196 0
-8.351391 7.556021 34.656671 195 195 195 0
-8.142962 7.486272 34.336759 195 195 195 0
-7.959553 7.437615 34.113588 195 195 195 0
-7.888885 7.494441 34.374227 195 195 195 0
-7.837903 7.572212 34.730934 196 196 196 0
-7.706853 7.573976 34.739027 196 196 196 0
-7.515083 7.515083 34.468904 196 196 196 0
-7.399657 7.531794 34.545552 196 196 196 0
-7.363019 7.630765 34.999495 196 196 196 0
-7.228768 7.630366 34.997666 196 196 196 0
-7.074356 7.608269 34.896316 196 196 196 0
-6.913884 7.578680 34.760603 197 197 197 0
-6.827402 7.630625 34.998854 196 196 196 0
-6.692475 7.629422 34.993335 196 196 196 0
-6.559600 7.630555 34.998535 196 196 196 0
-6.411528 7.613689 34.921176 196 196 196 0
-6.292108 7.630854 34.999904 197 197 197 0
-6.157680 7.630169 34.996761 197 197 197 0
-6.023852 7.630212 34.996961 197 197 197 0
-5.890182 7.630463 34.998113 197 197 197 0
-5.756118 7.630202 34.996915 197 197 197 0
-5.621951 7.629790 34.995024 197 197 197 0
-5.488158 7.629878 34.995428 198 198 198 0
-5.354338 7.629931 34.995670 197 197 197 0
-5.220325 7.629705 34.994634 197 197 197 0
-5.086207 7.629310 34.992821 198 198 198 0
-4.952377 7.629338 34.992949 197 197 197 0
-4.818250 7.628895 34.990920 198 198 198 0
-4.684482 7.629013 34.991459 197 197 197 0
-4.550615 7.628972 34.991273 198 198 198 0
-4.416763 7.628955 34.991194 198 198 198 0
-4.282737 7.628625 34.989678 198 198 198 0
-4.149073 7.628941 34.991128 198 198 198 0
-4.015281 7.629033 34.991552 198 198 198 0
-3.881565 7.629283 34.992696 198 198 198 0
-3.747776 7.629401 34.993237 198 198 198 0
-3.613671 7.628861 34.990761 199 199 199 0
-3.479767 7.628720 34.990114 199 199 199 0
-3.345909 7.628673 34.989901 198 198 198 0
-3.212243 7.629078 34.991756 199 199 199 0
-3.078341 7.628933 34.991093 198 198 198 0
-2.944269 7.628332 34.988337 198 198 198 0
-2.810507 7.628518 34.989189 198 198 198 0
-2.676710 7.628624 34.989676 199 199 199 0
-2.542848 7.628545 34.989315 199 199 199 0
-2.408768 7.627764 34.985732 199 199 199 0
-2.274936 7.627727 34.985562 199 199 199 0
-2.141292 7.628351 34.988425 199 199 199 0
-2.007477 7.628412 34.988703 200 200 200 0
-1.873421 7.627499 34.984517 199 199 199 0
-1.739644 7.627670 34.985298 199 199 199 0
-1.605915 7.628096 34.987255 200 200 200 0
-1.472199 7.628665 34.989865 200 200 200 0
-1.338219 7.627847 34.986109 200 200 200 0
-1.204330 7.627426 34.984181 200 200 200 0
-1.070556 7.627710 34.985484 199 199 199 0
-0.936828 7.628456 34.988903 200 200 200 0
-0.802948 7.628009 34.986856 200 200 200 0
-0.669077 7.627481 34.984433 200 200 200 0
-0.535264 7.627508 34.984558 200 200 200 0
-0.401478 7.628073 34.987150 200 200 200 0
-0.267647 7.627941 34.986544 200 200 200 0
-0.133808 7.627047 34.982442 201 201 201 0
0.000000 7.627084 34.982613 200 200 200 0
0.133821 7.627790 34.985849 201 201 201 0
0.267631 7.627486 34.984454 200 200 200 0
0.401396 7.626530 34.980072 200 200 200 0
0.535227 7.626984 34.982155 201 201 201 0
0.669098 7.627719 34.985526 201 201 201 0
0.802926 7.627795 34.985872 200 200 200 0
0.936658 7.627072 34.982559 201 201 201 0
1.070449 7.626948 34.981989 201 201 201 0
1.204328 7.627411 34.984111 201 201 201 0
1.338145 7.627426 34.984183 200 200 200 0
1.471888 7.627054 34.982476 201 201 201 0
1.605648 7.626829 34.981442 201 201 201 0
1.739501 7.627042 34.982418 201 201 201 0
1.873338 7.627162 34.982969 201 201 201 0
2.007074 7.626881 34.981679 201 201 201 0
2.140752 7.626428 34.979601 200 200 200 0
2.274667 7.626826 34.981429 201 201 201 0
2.408545 7.627059 34.982497 201 201 201 0
2.542234 7.626702 34.980861 201 201 201 0
2.675891 7.626288 34.978963 202 202 202 0
2.809890 7.626846 34.981519 201 201 201 0
2.943776 7.627056 34.982484 201 201 201 0
3.077567 7.627014 34.982290 202 202 202 0
3.211259 7.626740 34.981036 201 201 201 0
3.345048 7.626709 34.980894 201 201 201 0
3.478926 7.626877 34.981662 202 202 202 0
3.612703 7.626817 34.981389 201 201 201 0
3.746415 7.626631 34.980535 202 202 202 0
3.880304 7.626805 34.981330 201 201 201 0
4.014076 7.626744 34.981053 202 202 202 0
4.147871 7.626731 34.980994 202 202 202 0
4.281726 7.626824 34.981419 201 201 201 0
4.415401 7.626602 34.980401 202 202 202 0
4.549169 7.626548 34.980153 201 201 201 0
4.682986 7.626578 34.980291 201 201 201 0
4.816812 7.626618 34.980477 202 202 202 0
4.950436 7.626348 34.979235 203 203 203 0
5.084355 7.626533 34.980085 202 202 202 0
5.218244 7.626665 34.980689 202 202 202 0
5.352233 7.626932 34.981913 202 202 202 0
5.485783 7.626577 34.980286 202 202 202 0
5.619438 7.626380 34.979382 202 202 202 0
5.753290 7.626454 34.979721 202 202 202 0
5.887268 7.626688 34.980794 202 202 202 0
6.021076 7.626696 34.980834 202 202 202 0
6.154666 7.626434 34.979630 202 202 202 0
6.288597 7.626596 34.980376 202 202 202 0
6.422481 7.626696 34.980831 202 202 202 0
6.556004 7.626372 34.979345 203 203 203 0
6.689535 7.626070 34.977961 202 202 202 0
6.823588 7.626363 34.979303 202 202 202 0
6.957556 7.626552 34.980173 203 203 203 0
7.090936 7.626101 34.978106 203 203 203 0
7.224775 7.626151 34.978332 203 203 203 0
7.358917 7.626514 34.979998 203 203 203 0
7.493003 7.626807 34.981341 202 202 202 0
7.626383 7.626383 34.979395 203 203 203 0
7.759915 7.626123 34.978205 203 203 203 0
7.894061 7.626465 34.979775 203 203 203 0
8.027952 7.626554 34.980182 203 203 203 0
8.161463 7.626285 34.978948 203 203 203 0
8.295084 7.626126 34.978218 203 203 203 0
8.429238 7.626454 34.979721 203 203 203 0
8.563131 7.626538 34.980109 202 202 202 0
8.696448 7.626116 34.978172 203 203 203 0
8.830149 7.626038 34.977814 203 203 203 0
8.964374 7.626408 34.979510 203 203 203 0
9.098185 7.626420 34.979566 203 203 203 0
9.231319 7.625872 34.977054 203 203 203 0
9.365292 7.626024 34.977749 202 202 202 0
9.499594 7.626434 34.979632 203 203 203 0
9.633423 7.626460 34.979751 203 203 203 0
9.766688 7.626044 34.977842 203 203 203 0
9.900585 7.626127 34.978221 202 202 202 0
10.034772 7.626427 34.979599 203 203 203 0
10.168410 7.626308 34.979051 203 203 203 0
10.302034 7.626181 34.978470 203 203 203 0
10.436037 7.626335 34.979176 203 203 203 0
10.569992 7.626450 34.979704 203 203 203 0
-10.002981 7.252161 32.689479 193 193 193 0
-9.891527 7.262134 32.734431 194 194 194 0
-9.749768 7.249828 32.678961 193 193 193 0
-9.793811 7.377156 33.252902 194 194 194 0
-9.753830 7.443712 33.552906 194 194 194 0
-9.540836 7.378247 33.257818 194 194 194 0
-9.353625 7.331219 33.045838 194 194 194 0
-9.404532 7.472094 33.680837 195 195 195 0
-9.428539 7.595212 34.235798 195 195 195 0
-9.198540 7.514300 33.871085 195 195 195 0
-8.966973 7.429777 33.490094 195 195 195 0
-8.880594 7.464847 33.648172 195 195 195 0
-8.965268 7.646846 34.468542 195 195 195 0
-8.778811 7.599568 34.255433 195 195 195 0
-8.555198 7.518204 33.888682 195 195 195 0
-8.371077 7.469577 33.669492 195 195 195 0
-8.372987 7.588020 34.203380 195 195 195 0
-8.348883 7.686273 34.646261 196 196 196 0
-8.141220 7.615980 34.329412 195 195 195 0
-7.963708 7.572050 34.131394 196 196 196 0
-7.878300 7.615690 34.328106 196 196 196 0
-7.842578 7.709653 34.751649 196 196 196 0
-7.711260 7.711260 34.758891 196 196 196 0
-7.514142 7.645969 34.464587 196 196 196 0
-7.408864 7.673466 34.588533 195 195 195 0
-7.363122 7.764747 34.999985 196 196 196 0
-7.228564 7.764013 34.996678 196 196 196 0
-7.077991 7.745726 34.914251 196 196 196 0
-6.916530 7.714592 34.773908 196 196 196 0
-6.827391 7.764484 34.998800 196 196 196 0
-6.692644 7.763467 34.994215 197 197 197 0
-6.559474 7.764275 34.997860 197 197 197 0
-6.409221 7.744476 34.908613 196 196 196 0
-6.292099 7.764718 34.999854 196 196 196 0
-6.157673 7.764022 34.996718 197 197 197 0
-6.023756 7.763952 34.996401 197 197 197 0
-5.890260 7.764433 34.998571 197 197 197 0
-5.756019 7.763933 34.996317 196 196 196 0
-5.621944 7.763638 34.994986 197 197 197 0
-5.488122 7.763685 34.995200 197 197 197 0
-5.354388 7.763863 34.996001 197 197 197 0
-5.220287 7.763503 34.994380 197 197 197 0
-5.086257 7.763235 34.993170 198 198 198 0
-4.952316 7.763090 34.992518 198 198 198 0
-4.818232 7.762707 34.990793 198 198 198 0
-4.684444 7.762793 34.991180 198 198 198 0
-4.550672 7.762911 34.991712 198 198 198 0
-4.416775 7.762817 34.991287 198 198 198 0
-4.282747 7.762479 34.989764 198 198 198 0
-4.149145 7.762917 34.991738 198 198 198 0
-4.015288 7.762891 34.991621 198 198 198 0
-3.881525 7.763050 34.992337 199 199 199 0
-3.747776 7.763250 34.993237 199 199 199 0
-3.613656 7.762669 34.990619 198 198 198 0
-3.479729 7.762473 34.989737 198 198 198 0
-3.345908 7.762506 34.989885 199 199 199 0
-3.212217 7.762859 34.991475 199 199 199 0
-3.078345 7.762782 34.991130 199 199 199 0
-2.944272 7.762171 34.988375 199 199 199 0
-2.810487 7.762297 34.988943 199 199 199 0
-2.676715 7.762475 34.989743 198 198 198 0
-2.542851 7.762388 34.989354 199 199 199 0
-2.408780 7.761623 34.985904 200 200 200 0
-2.274933 7.761538 34.985521 199 199 199 0
-2.141311 7.762254 34.988749 199 199 199 0
-2.007499 7.762328 34.989085 199 199 199 0
-1.873409 7.761266 34.984294 199 199 199 0
-1.739645 7.761491 34.985309 200 200 200 0
-1.605944 7.762061 34.987879 199 199 199 0
-1.472186 7.762438 34.989578 200 200 200 0
-1.338226 7.761708 34.986288 200 200 200 0
-1.204323 7.761192 34.983961 200 200 200 0
-1.070574 7.761661 34.986076 200 200 200 0
-0.936826 7.762273 34.988834 200 200 200 0
-0.802952 7.761870 34.987016 200 200 200 0
-0.669076 7.761278 34.984349 200 200 200 0
-0.535262 7.761303 34.984464 200 200 200 0
-0.401481 7.761975 34.987494 200 200 200 0
-0.267646 7.761729 34.986383 199 199 199 0
-0.133807 7.760816 34.982265 200 200 200 0
0.000000 7.760881 34.982558 200 200 200 0
0.133820 7.761564 34.985637 200 200 200 0
0.267634 7.761395 34.984875 200 200 200 0
0.401402 7.760431 34.980533 201 201 201 0
0.535233 7.760876 34.982539 200 200 200 0
0.669106 7.761625 34.985916 201 201 201 0
0.802938 7.761738 34.986425 201 201 201 0
0.936659 7.760892 34.982609 201 201 201 0
1.070447 7.760741 34.981930 201 201 201 0
1.204336 7.761274 34.984331 200 200 200 0
1.338161 7.761331 34.984591 200 200 200 0
1.471881 7.760829 34.982328 201 201 201 0
1.605646 7.760622 34.981394 200 200 200 0
1.739494 7.760822 34.982292 201 201 201 0
1.873350 7.761020 34.983187 201 201 201 0
2.007093 7.760758 34.982004 201 201 201 0
2.140755 7.760238 34.979663 200 200 200 0
2.274665 7.760622 34.981393 201 201 201 0
2.408538 7.760843 34.982391 202 202 202 0
2.542253 7.760560 34.981116 202 202 202 0
2.675896 7.760098 34.979032 201 201 201 0
2.809877 7.760612 34.981347 201 201 201 0
2.943809 7.760951 34.982874 202 202 202 0
3.077556 7.760794 34.982166 201 201 201 0
3.211250 7.760521 34.980936 201 201 201 0
3.345086 7.760600 34.981293 201 201 201 0
3.478939 7.760709 34.981785 202 202 202 0
3.612694 7.760601 34.981300 202 202 202 0
3.746423 7.760448 34.980610 202 202 202 0
3.880306 7.760613 34.981351 202 202 202 0
4.014069 7.760534 34.980998 202 202 202 0
4.147869 7.760530 34.980978 202 202 202 0
4.281732 7.760638 34.981467 202 202 202 0
4.415380 7.760365 34.980236 202 202 202 0
4.549134 7.760288 34.979887 202 202 202 0
4.682984 7.760373 34.980271 202 202 202 0
4.816807 7.760412 34.980446 202 202 202 0
4.950450 7.760165 34.979332 202 202 202 0
5.084340 7.760308 34.979978 202 202 202 0
5.218254 7.760480 34.980751 202 202 202 0
5.352206 7.760699 34.981741 203 203 203 0
5.485791 7.760388 34.980336 203 203 203 0
5.619436 7.760174 34.979372 202 202 202 0
5.753271 7.760226 34.979607 203 203 203 0
5.887258 7.760476 34.980737 202 202 202 0
6.021009 7.760411 34.980443 203 203 203 0
6.154628 7.760183 34.979412 203 203 203 0
6.288568 7.760361 34.980216 202 202 202 0
6.422508 7.760530 34.980980 202 202 202 0
6.556024 7.760192 34.979453 203 203 203 0
6.689558 7.759888 34.978083 202 202 202 0
6.823612 7.760186 34.979428 203 203 203 0
6.957560 7.760355 34.980190 202 202 202 0
7.090930 7.759885 34.978073 203 203 203 0
7.224735 7.759900 34.978140 203 203 203 0
7.358883 7.760277 34.979837 203 203 203 0
7.492983 7.760589 34.981245 203 203 203 0
7.626379 7.760176 34.979380 203 203 203 0
7.759914 7.759914 34.978202 202 202 202 0
7.894058 7.760260 34.979763 203 203 203 0
8.028021 7.760421 34.980485 203 203 203 0
8.161481 7.760097 34.979025 203 203 203 0
8.295022 7.759860 34.977956 202 202 202 0
8.429281 7.760291 34.979899 203 203 203 0
8.563111 7.760320 34.980030 203 203 203 0
8.696450 7.759909 34.978178 202 202 202 0
8.830187 7.759861 34.977964 203 203 203 0
8.964346 7.760180 34.979400 203 203 203 0
9.098136 7.760175 34.979376 203 203 203 0
9.231253 7.759604 34.976804 203 203 203 0
9.365298 7.759818 34.977771 203 203 203 0
9.499655 7.760281 34.979857 203 203 203 0
9.633425 7.760259 34.979756 203 203 203 0
9.766668 7.759818 34.977770 202 202 202 0
9.900631 7.759954 34.978380 203 203 203 0
10.034740 7.760199 34.979487 203 203 203 0
10.168423 7.760112 34.979094 202 202 202 0
10.302001 7.759949 34.978360 203 203 203 0
10.436027 7.760122 34.979140 203 203 203 0
10.570022 7.760269 34.979803 203 203 203 0
-10.016016 7.386812 32.732078 194 194 194 0
-9.871522 7.372402 32.668228 193 193 193 0
-9.783889 7.400634 32.793327 193 193 193 0
