ply
format ascii 1.0
element vertex 1127
property float x
property float y
property float z
property uchar red
property uchar green
property uchar blue
property uchar alpha
end_header
4.761640 3.174426 20.747885 210 210 210 0
4.837558 3.172169 20.733133 210 210 210 0
4.918277 3.173082 20.739097 210 210 210 0
4.994941 3.171391 20.728047 210 210 210 0
5.064968 3.165605 20.690227 211 211 211 0
5.139351 3.162678 20.671095 210 210 210 0
5.214320 3.160194 20.654862 210 210 210 0
5.289909 3.158155 20.641534 211 211 211 0
5.365581 3.156224 20.628915 211 211 211 0
5.440692 3.154025 20.614539 211 211 211 0
5.514526 3.151158 20.595803 211 211 211 0
5.585929 3.147003 20.568644 211 211 211 0
5.660249 3.144583 20.552827 211 211 211 0
5.734268 3.142065 20.536370 211 211 211 0
5.811190 3.141184 20.530613 211 211 211 0
5.886594 3.139517 20.519717 211 211 211 0
5.957680 3.135621 20.494257 212 212 212 0
6.027672 3.131258 20.465738 211 211 211 0
6.100975 3.128705 20.449054 212 212 212 0
6.174476 3.126317 20.433446 212 212 212 0
-8.894041 4.558196 29.065495 196 196 196 0
-8.810649 4.572615 29.157439 197 197 197 0
-8.698149 4.572104 29.154177 197 197 197 0
-8.543807 4.549300 29.008768 198 198 198 0
-8.465257 4.566783 29.120251 198 198 198 0
-8.357769 4.568913 29.133834 197 197 197 0
-8.217024 4.552675 29.030290 198 198 198 0
-8.126800 4.564367 29.104843 197 197 197 0
-8.006604 4.559316 29.072637 198 198 198 0
-7.914587 4.570396 29.143284 198 198 198 0
-7.812928 4.576143 29.179935 199 199 199 0
-7.715055 4.584308 29.231998 198 198 198 0
-7.557823 4.556923 29.057374 198 198 198 0
-7.370128 4.510078 28.758670 184 184 184 0
-7.391020 4.591391 29.277164 99 99 99 0
-6.296237 4.033527 25.719922 70 70 70 0
-8.410276 5.473354 34.901032 70 70 70 0
-4.987416 3.298130 21.030638 86 86 86 0
-5.555240 3.733850 23.809022 122 122 122 0
-5.297628 3.620046 23.083347 194 194 194 0
-5.195673 3.610552 23.022812 199 199 199 0
-5.105944 3.609375 23.015301 199 199 199 0
-5.014300 3.606777 22.998737 199 199 199 0
-4.917637 3.600412 22.958154 200 200 200 0
-4.818308 3.591830 22.903424 200 200 200 0
-4.730679 3.591812 22.903312 201 201 201 0
-4.646848 3.594731 22.921928 200 200 200 0
-4.552447 3.589430 22.888121 201 201 201 0
-4.462066 3.587151 22.873593 200 200 200 0
-4.358011 3.573569 22.786986 201 201 201 0
-4.273529 3.575810 22.801275 201 201 201 0
-4.188539 3.577710 22.813393 202 202 202 0
-4.097791 3.574668 22.793996 201 201 201 0
-4.012743 3.576576 22.806157 201 201 201 0
-3.914458 3.566506 22.741949 201 201 201 0
-3.817814 3.557509 22.684577 202 202 202 0
-3.732418 3.558817 22.692917 201 201 201 0
-3.649889 3.562987 22.719508 202 202 202 0
-3.555025 3.555025 22.668740 202 202 202 0
-3.465774 3.552418 22.652115 202 202 202 0
-3.372623 3.545578 22.608499 203 203 203 0
-3.284686 3.544004 22.598460 202 202 202 0
-3.196074 3.541595 22.583104 202 202 202 0
-3.110312 3.542300 22.587599 202 202 202 0
-3.021730 3.539741 22.571278 203 203 203 0
-2.926447 3.528951 22.502476 202 202 202 0
-2.836806 3.524517 22.474203 202 202 202 0
-2.748994 3.522149 22.459105 203 203 203 0
-2.663530 3.522734 22.462833 202 202 202 0
-2.575914 3.520416 22.448052 203 203 203 0
-2.491146 3.521965 22.457933 203 203 203 0
-2.400210 3.514594 22.410926 203 203 203 0
-2.309211 3.506580 22.359827 204 204 204 0
-2.224233 3.507444 22.365334 203 203 203 0
-2.138337 3.506872 22.361693 204 204 204 0
-2.050581 3.503075 22.337480 203 203 203 0
-1.960852 3.495432 22.288744 204 204 204 0
-1.874966 3.494255 22.281240 204 204 204 0
-1.786292 3.487523 22.238311 204 204 204 0
-1.701865 3.488824 22.246605 203 203 203 0
-1.616064 3.487296 22.236863 204 204 204 0
-1.529081 3.482906 22.208872 204 204 204 0
-1.444145 3.482939 22.209080 204 204 204 0
-1.355297 3.472949 22.145377 205 205 205 0
-1.270171 3.471800 22.138054 205 205 205 0
-1.185646 3.472248 22.140909 205 205 205 0
-1.100028 3.469319 22.122234 205 205 205 0
-1.014630 3.466654 22.105236 205 205 205 0
-0.929890 3.465952 22.100762 205 205 205 0
-0.843763 3.459429 22.059165 205 205 205 0
-0.757819 3.452286 22.013618 205 205 205 0
-0.673834 3.453398 22.020713 205 205 205 0
-0.589653 3.453680 22.022508 204 204 204 0
-0.504877 3.449994 21.999006 205 205 205 0
-0.420047 3.444388 21.963258 205 205 205 0
-0.335355 3.437393 21.918652 206 206 206 0
-0.251291 3.434306 21.898970 205 205 205 0
-0.167604 3.435878 21.908996 206 206 206 0
-0.083733 3.433055 21.890996 205 205 205 0
0.000000 3.430391 21.874007 206 206 206 0
0.083545 3.425360 21.841928 205 205 205 0
0.166896 3.421370 21.816484 206 206 206 0
0.250111 3.418186 21.796180 206 206 206 0
0.333657 3.419981 21.807624 206 206 206 0
0.416787 3.417657 21.792805 207 207 207 0
0.499342 3.412171 21.757827 206 206 206 0
0.581552 3.406232 21.719953 206 206 206 0
0.664366 3.404878 21.711319 206 206 206 0
0.746911 3.402596 21.696769 207 207 207 0
0.829879 3.402506 21.696194 207 207 207 0
0.912219 3.400090 21.680788 207 207 207 0
0.992744 3.391875 21.628404 207 207 207 0
1.074459 3.388678 21.608023 208 208 208 0
1.155510 3.383994 21.578155 207 207 207 0
1.239497 3.387959 21.603438 207 207 207 0
1.320748 3.384416 21.580848 208 208 208 0
1.403455 3.384803 21.583311 207 207 207 0
1.482490 3.376782 21.532167 207 207 207 0
1.562232 3.371133 21.496145 207 207 207 0
1.643694 3.369573 21.486195 208 208 208 0
1.726000 3.369809 21.487703 208 208 208 0
1.806677 3.366988 21.469715 208 208 208 0
1.885772 3.361594 21.435318 208 208 208 0
1.966983 3.360263 21.426834 208 208 208 0
2.046768 3.356699 21.404109 209 209 209 0
2.126247 3.352928 21.380058 208 208 208 0
2.208304 3.353351 21.382756 208 208 208 0
2.290082 3.353334 21.382649 208 208 208 0
2.366214 3.345337 21.331655 209 209 209 0
2.443673 3.339686 21.295623 208 208 208 0
2.523912 3.338077 21.285361 208 208 208 0
2.604082 3.336480 21.275178 208 208 208 0
2.685067 3.335993 21.272072 208 208 208 0
2.766058 3.335541 21.269190 209 209 209 0
2.839871 3.326706 21.212854 209 209 209 0
2.916855 3.321974 21.182680 209 209 209 0
2.996168 3.320078 21.170594 209 209 209 0
3.077952 3.320948 21.176140 208 208 208 0
3.159821 3.321863 21.181976 209 209 209 0
3.235788 3.316683 21.148943 209 209 209 0
3.311850 3.311850 21.118127 209 209 209 0
3.386437 3.305808 21.079596 209 209 209 0
3.466425 3.305196 21.075697 209 209 209 0
3.547581 3.305700 21.078910 209 209 209 0
3.624834 3.302627 21.059313 210 210 210 0
3.701370 3.299047 21.036487 209 209 209 0
3.778031 3.295729 21.015329 210 210 210 0
3.852561 3.290730 20.983450 210 210 210 0
3.931488 3.289613 20.976328 210 210 210 0
4.010468 3.288584 20.969769 210 210 210 0
4.087235 3.285816 20.952121 210 210 210 0
4.163603 3.282841 20.933146 210 210 210 0
4.239888 3.279913 20.914481 210 210 210 0
4.312687 3.274448 20.879629 210 210 210 0
4.391301 3.273515 20.873683 210 210 210 0
4.470624 3.273135 20.871259 210 210 210 0
4.546766 3.270481 20.854332 209 209 209 0
4.621276 3.266764 20.830635 210 210 210 0
4.691386 3.260115 20.788238 210 210 210 0
4.768351 3.258373 20.777130 211 211 211 0
4.845006 3.256480 20.765055 210 210 210 0
4.924515 3.256534 20.765403 211 211 211 0
5.000759 3.254462 20.752191 210 210 210 0
5.073011 3.249898 20.723084 211 211 211 0
5.144871 3.245226 20.693298 210 210 210 0
5.219888 3.242658 20.676919 210 210 210 0
5.298928 3.242628 20.676726 211 211 211 0
5.372444 3.239268 20.655304 210 210 210 0
5.447605 3.236983 20.640732 212 212 212 0
5.521101 3.233788 20.620359 211 211 211 0
5.594943 3.230883 20.601833 211 211 211 0
5.665033 3.225922 20.570200 211 211 211 0
5.743780 3.225959 20.570438 211 211 211 0
5.820077 3.224637 20.562011 211 211 211 0
5.895667 3.222965 20.551346 211 211 211 0
5.967278 3.219189 20.527272 211 211 211 0
6.035561 3.213740 20.492526 212 212 212 0
6.109411 3.211357 20.477327 212 212 212 0
6.181792 3.208272 20.457656 212 212 212 0
-8.920338 4.683177 29.151432 197 197 197 0
-8.815896 4.686932 29.174804 196 196 196 0
-8.686745 4.677478 29.115954 197 197 197 0
-8.566427 4.672597 29.085569 197 197 197 0
-8.446518 4.667813 29.055790 197 197 197 0
-8.362002 4.682721 29.148589 198 198 198 0
-8.217586 4.664036 29.032279 197 197 197 0
-8.117711 4.670464 29.072293 198 198 198 0
-8.011976 4.673653 29.092142 198 198 198 0
-7.898683 4.672460 29.084720 198 198 198 0
-7.795998 4.677599 29.116706 198 198 198 0
-7.695316 4.684105 29.157207 197 197 197 0
-7.563772 4.671742 29.080247 198 198 198 0
-7.403604 4.641065 28.889294 189 189 189 0
-7.273280 4.628451 28.810776 101 101 101 0
-5.834191 3.769785 23.465825 67 67 67 0
-5.604190 3.677750 22.892933 79 79 79 0
-8.390149 5.593432 34.817506 70 70 70 0
-5.642006 3.884660 24.180891 115 115 115 0
-5.311687 3.718181 23.144608 193 193 193 0
-5.208163 3.707506 23.078159 199 199 199 0
-5.118959 3.706832 23.073965 200 200 200 0
-5.022415 3.700727 23.035958 200 200 200 0
-4.926977 3.695233 23.001760 200 200 200 0
-4.825647 3.685040 22.938310 201 201 201 0
-4.742429 3.688556 22.960197 201 201 201 0
-4.656228 3.689841 22.968196 200 200 200 0
-4.562316 3.684947 22.937736 201 201 201 0
-4.466660 3.678426 22.897143 200 200 200 0
-4.373452 3.673700 22.867724 201 201 201 0
-4.282144 3.670409 22.847238 200 200 200 0
-4.192899 3.668787 22.837142 201 201 201 0
-4.106318 3.669476 22.841430 201 201 201 0
-4.014342 3.665269 22.815241 201 201 201 0
-3.914093 3.653153 22.739829 201 201 201 0
-3.825582 3.651692 22.730731 202 202 202 0
-3.735232 3.648367 22.710031 202 202 202 0
-3.654236 3.654236 22.746564 201 201 201 0
-3.563970 3.650897 22.725780 201 201 201 0
-3.468066 3.641469 22.667096 202 202 202 0
-3.378034 3.637883 22.644775 201 201 201 0
-3.284829 3.630600 22.599442 202 202 202 0
-3.196284 3.628215 22.584592 203 203 203 0
-3.113504 3.632421 22.610777 202 202 202 0
-3.022611 3.627133 22.577861 202 202 202 0
-2.932925 3.623025 22.552288 203 203 203 0
-2.843187 3.618601 22.524750 203 203 203 0
-2.755759 3.616933 22.514367 203 203 203 0
-2.666674 3.612913 22.489345 203 203 203 0
-2.580396 3.612554 22.487107 203 203 203 0
-2.491659 3.608609 22.462555 203 203 203 0
-2.402856 3.604284 22.435630 203 203 203 0
-2.313171 3.598266 22.398167 202 202 202 0
-2.224055 3.592705 22.363554 203 203 203 0
-2.140933 3.596767 22.388841 203 203 203 0
-2.053966 3.594441 22.374360 203 203 203 0
-1.964512 3.587369 22.330341 204 204 204 0
-1.876153 3.581746 22.295336 203 203 203 0
-1.789245 3.578489 22.275066 204 204 204 0
-1.704713 3.579898 22.283833 203 203 203 0
-1.619039 3.578928 22.277796 204 204 204 0
-1.531606 3.573748 22.245551 204 204 204 0
-1.443521 3.566346 22.199476 204 204 204 0
-1.358486 3.566025 22.197479 204 204 204 0
-1.272354 3.562591 22.176101 205 205 205 0
-1.186315 3.558946 22.153412 205 205 205 0
-1.101402 3.558376 22.149863 204 204 204 0
-1.016328 3.557146 22.142211 205 205 205 0
-0.929229 3.547966 22.085065 205 205 205 0
-0.844031 3.544932 22.066180 204 204 204 0
-0.758922 3.541637 22.045672 205 205 205 0
-0.674850 3.542963 22.053927 205 205 205 0
-0.589800 3.538803 22.028030 204 204 204 0
-0.505014 3.535099 22.004973 205 205 205 0
-0.420233 3.529959 21.972981 205 205 205 0
-0.335973 3.527717 21.959022 205 205 205 0
-0.251590 3.522263 21.925074 206 206 206 0
-0.167870 3.525262 21.943744 205 205 205 0
-0.083899 3.523763 21.934411 205 205 205 0
0.000000 3.518386 21.900943 206 206 206 0
0.083575 3.510150 21.849674 206 206 206 0
0.167018 3.507382 21.832441 206 206 206 0
0.250719 3.510060 21.849113 207 207 207 0
0.333702 3.503867 21.810566 206 206 206 0
0.417320 3.505488 21.820651 207 207 207 0
0.500141 3.500987 21.792638 207 207 207 0
0.582641 3.495844 21.760622 206 206 206 0
0.665660 3.494715 21.753596 207 207 207 0
0.747861 3.490017 21.724351 207 207 207 0
0.830769 3.489231 21.719457 207 207 207 0
0.914116 3.490262 21.725875 206 206 206 0
0.994082 3.479287 21.657561 207 207 207 0
1.075374 3.474284 21.626416 207 207 207 0
1.157436 3.472308 21.614116 207 207 207 0
1.240477 3.473337 21.620521 207 207 207 0
1.322701 3.472091 21.612768 207 207 207 0
1.403621 3.467770 21.585871 207 207 207 0
1.484278 3.463316 21.558145 207 207 207 0
1.564491 3.458349 21.527227 207 207 207 0
1.645997 3.456594 21.516301 208 208 208 0
1.728199 3.456397 21.515079 208 208 208 0
1.811103 3.457560 21.522317 207 207 207 0
1.888794 3.449103 21.469670 207 207 207 0
1.967634 3.443359 21.433917 208 208 208 0
2.048810 3.442001 21.425468 207 207 207 0
2.128853 3.438917 21.406268 208 208 208 0
2.210515 3.438579 21.404162 208 208 208 0
2.290195 3.435292 21.383705 208 208 208 0
2.369902 3.432272 21.364903 208 208 208 0
2.447268 3.426175 21.326955 209 209 209 0
2.527664 3.424577 21.317007 209 209 209 0
2.608003 3.423003 21.307210 209 209 209 0
2.687302 3.420202 21.289774 209 209 209 0
2.769688 3.421380 21.297103 209 209 209 0
2.844205 3.413046 21.245227 209 209 209 0
2.921674 3.408619 21.217673 208 208 208 0
2.998477 3.403677 21.186910 208 208 208 0
3.081355 3.405708 21.199552 209 209 209 0
3.161689 3.404895 21.194494 208 208 208 0
3.240559 3.402587 21.180122 208 208 208 0
3.315142 3.395999 21.139118 209 209 209 0
3.389809 3.389809 21.100585 209 209 209 0
3.472660 3.391900 21.113603 209 209 209 0
3.550254 3.388879 21.094795 209 209 209 0
3.628542 3.386639 21.080855 210 210 210 0
3.705068 3.382888 21.057506 209 209 209 0
3.780746 3.378539 21.030432 209 209 209 0
3.856790 3.374691 21.006480 210 210 210 0
3.936832 3.374427 21.004839 210 210 210 0
4.011667 3.369800 20.976037 210 210 210 0
4.091143 3.369176 20.972154 210 210 210 0
4.169374 3.367571 20.962163 210 210 210 0
4.244906 3.363888 20.939233 210 210 210 0
4.317298 3.357899 20.901953 210 210 210 0
4.395748 3.356753 20.894820 210 210 210 0
4.474876 3.356157 20.891111 210 210 210 0
4.551499 3.353736 20.876041 209 209 209 0
4.627227 3.350750 20.857457 210 210 210 0
4.697875 3.344250 20.816995 210 210 210 0
4.776400 3.343480 20.812201 210 210 210 0
4.849459 3.338971 20.784136 211 211 211 0
4.929267 3.339181 20.785440 210 210 210 0
5.008147 3.338765 20.782849 210 210 210 0
5.077366 3.332022 20.740875 211 211 211 0
5.150634 3.328102 20.716476 210 210 210 0
5.225248 3.325158 20.698148 211 211 211 0
5.305463 3.325813 20.702227 211 211 211 0
5.378319 3.321903 20.677889 210 210 210 0
5.452853 3.319128 20.660615 212 212 212 0
5.525546 3.315328 20.636961 211 211 211 0
5.599147 3.312172 20.617315 211 211 211 0
5.673643 3.309625 20.601464 211 211 211 0
5.750556 3.308539 20.594702 211 211 211 0
5.824925 3.306039 20.579139 211 211 211 0
5.898466 3.303141 20.561102 211 211 211 0
5.969360 3.298857 20.534435 211 211 211 0
6.042903 3.296129 20.517452 211 211 211 0
6.116187 3.293331 20.500039 211 211 211 0
6.191232 3.291541 20.488894 211 211 211 0
-8.881418 4.773762 29.024242 197 197 197 0
-8.757750 4.766876 28.982377 197 197 197 0
-8.661510 4.774935 29.031372 197 197 197 0
-8.564335 4.782680 29.078465 198 198 198 0
-8.461167 4.787239 29.106181 197 197 197 0
-8.283323 4.749105 28.874330 198 198 198 0
-8.220514 4.776785 29.042621 197 197 197 0
-8.119393 4.782656 29.078317 197 197 197 0
-7.993628 4.773972 29.025517 198 198 198 0
-7.883700 4.774635 29.029550 197 197 197 0
-7.773647 4.775240 29.033230 197 197 197 0
-7.664016 4.776126 29.038613 198 198 198 0
-7.539177 4.767421 28.985687 199 199 199 0
-7.409020 4.755043 28.910430 192 192 192 0
-7.155573 4.661964 28.344515 111 111 111 0
-7.607925 5.032935 30.600000 78 78 78 0
-7.046804 4.734572 28.785966 70 70 70 0
-5.178405 3.534467 21.489385 78 78 78 0
-7.825950 5.427675 33.000000 80 80 80 0
-5.551428 3.913301 23.792682 99 99 99 0
-5.325947 3.816929 23.206741 190 190 190 0
-5.215316 3.800993 23.109852 199 199 199 0
-5.125880 3.800221 23.105162 199 199 199 0
-5.026692 3.792066 23.055575 200 200 200 0
-4.931362 3.786582 23.022233 200 200 200 0
-4.845988 3.788681 23.034998 200 200 200 0
-4.751110 3.783291 23.002225 200 200 200 0
-4.664823 3.784668 23.010594 200 200 200 0
-4.562705 3.773006 22.939691 200 200 200 0
-4.472985 3.771340 22.929564 200 200 200 0
-4.381770 3.768322 22.911217 200 200 200 0
-4.290281 3.764941 22.890658 200 200 200 0
-4.204200 3.766263 22.898693 201 201 201 0
-4.111592 3.761670 22.870768 201 201 201 0
-4.022607 3.760263 22.862219 201 201 201 0
-3.919130 3.744946 22.769090 201 201 201 0
-3.832168 3.745074 22.769865 201 201 201 0
-3.742906 3.742906 22.756684 202 202 202 0
-3.658008 3.745103 22.770047 202 202 202 0
-3.571621 3.745846 22.774562 201 201 201 0
-3.481038 3.742116 22.751885 202 202 202 0
-3.383740 3.730791 22.683026 201 201 201 0
-3.293878 3.727283 22.661696 202 202 202 0
-3.205819 3.725681 22.651961 203 203 203 0
-3.115166 3.720892 22.622843 202 202 202 0
-3.024504 3.715819 22.591997 202 202 202 0
-2.935991 3.713166 22.575867 202 202 202 0
-2.844264 3.706162 22.533287 202 202 202 0
-2.758914 3.707290 22.540144 203 203 203 0
-2.670146 3.703750 22.518621 203 203 203 0
-2.583841 3.703505 22.517130 203 203 203 0
-2.494869 3.699288 22.491491 202 202 202 0
-2.404386 3.692451 22.449920 203 203 203 0
-2.314648 3.686291 22.412470 203 203 203 0
-2.228575 3.685720 22.409000 203 203 203 0
-2.143796 3.687329 22.418779 203 203 203 0
-2.057253 3.685911 22.410160 204 204 204 0
-1.969188 3.681526 22.383497 204 204 204 0
-1.879251 3.673082 22.332161 204 204 204 0
-1.793044 3.671470 22.322359 204 204 204 0
-1.708018 3.672238 22.327028 203 203 203 0
-1.619878 3.666039 22.289339 204 204 204 0
-1.532652 3.661335 22.260738 203 203 203 0
-1.446189 3.658008 22.240510 204 204 204 0
-1.359849 3.654594 22.219754 204 204 204 0
-1.273667 3.651179 22.198988 204 204 204 0
-1.187710 3.647967 22.179462 204 204 204 0
-1.103234 3.649160 22.186714 205 205 205 0
-1.016374 3.642008 22.143232 205 205 205 0
-0.931199 3.640143 22.131890 205 205 205 0
-0.845648 3.636286 22.108441 205 205 205 0
-0.760144 3.631801 22.081172 205 205 205 0
-0.676019 3.633600 22.092114 205 205 205 0
-0.591040 3.630672 22.074311 205 205 205 0
-0.505852 3.625276 22.041503 205 205 205 0
-0.420466 3.616010 21.985163 205 205 205 0
-0.336355 3.615819 21.984006 205 205 205 0
-0.252008 3.612108 21.961439 205 205 205 0
-0.168124 3.614658 21.976944 206 206 206 0
-0.083957 3.610148 21.949526 206 206 206 0
0.000000 3.607444 21.933082 205 205 205 0
0.083813 3.603963 21.911921 206 206 206 0
0.167312 3.597212 21.870876 206 206 206 0
0.250845 3.595440 21.860102 206 206 206 0
0.334515 3.596035 21.863718 206 206 206 0
0.417549 3.590922 21.832631 206 206 206 0
0.500661 3.588074 21.815315 206 206 206 0
0.583412 3.583815 21.789420 206 206 206 0
0.665838 3.578877 21.759396 207 207 207 0
0.748219 3.574823 21.734749 206 206 206 0
0.832216 3.578527 21.757269 206 206 206 0
0.914049 3.573099 21.724269 207 207 207 0
0.995595 3.567550 21.690528 207 207 207 0
1.077429 3.563803 21.667749 206 206 206 0
1.159349 3.560859 21.649847 207 207 207 0
1.242421 3.561608 21.654404 207 207 207 0
1.323723 3.557507 21.629467 207 207 207 0
1.405449 3.554958 21.613973 207 207 207 0
1.485056 3.547634 21.569441 207 207 207 0
1.566050 3.544219 21.548682 207 207 207 0
1.648095 3.543405 21.543730 207 207 207 0
1.730421 3.543243 21.542742 208 208 208 0
1.811635 3.540922 21.528634 208 208 208 0
1.890764 3.534907 21.492061 207 207 207 0
1.969844 3.529304 21.457997 208 208 208 0
2.050698 3.527201 21.445211 207 207 207 0
2.132171 3.526284 21.439632 208 208 208 0
2.214047 3.526075 21.438365 209 209 209 0
2.293755 3.522552 21.416946 208 208 208 0
2.372476 3.517809 21.388106 208 208 208 0
2.451225 3.513423 21.361442 208 208 208 0
2.529323 3.508416 21.330996 208 208 208 0
2.612843 3.511007 21.346753 208 208 208 0
2.691559 3.507182 21.323498 208 208 208 0
2.771153 3.504693 21.308366 209 209 209 0
2.847928 3.498882 21.273035 208 208 208 0
2.923722 3.492223 21.232547 209 209 209 0
3.003850 3.490960 21.224869 208 208 208 0
3.086518 3.492639 21.235075 209 209 209 0
3.167434 3.492300 21.233011 208 208 208 0
3.242890 3.486107 21.195360 209 209 209 0
3.317941 3.479791 21.156962 209 209 209 0
3.395412 3.476255 21.135460 209 209 209 0
3.476998 3.476998 21.139977 209 209 209 0
3.555370 3.474566 21.125192 209 209 209 0
3.634858 3.473308 21.117545 209 209 209 0
3.708799 3.466921 21.078708 209 209 209 0
3.786900 3.464610 21.064662 209 209 209 0
3.861825 3.459552 21.033907 209 209 209 0
3.940642 3.458114 21.025165 210 210 210 0
4.022193 3.459086 21.031077 210 210 210 0
4.096675 3.454059 21.000512 210 210 210 0
4.173183 3.450901 20.981313 210 210 210 0
4.248575 3.446957 20.957332 210 210 210 0
4.322404 3.441914 20.926670 210 210 210 0
4.401563 3.441222 20.922464 210 210 210 0
4.480205 3.440157 20.915990 210 210 210 0
4.557241 3.437919 20.902378 210 210 210 0
4.630743 3.433137 20.873306 210 210 210 0
4.699633 3.425156 20.824784 210 210 210 0
4.780595 3.426093 20.830481 210 210 210 0
4.856611 3.423512 20.814789 210 210 210 0
4.938033 3.424765 20.822403 211 211 211 0
5.010428 3.419816 20.792315 210 210 210 0
5.083941 3.415773 20.767732 210 210 210 0
5.155311 3.410436 20.735288 211 211 211 0
5.232260 3.408896 20.725925 211 211 211 0
5.312647 3.409610 20.730260 210 210 210 0
5.387401 3.406739 20.712809 211 211 211 0
5.460120 3.402684 20.688150 211 211 211 0
5.529955 3.396972 20.653427 211 211 211 0
5.604533 3.394295 20.637147 211 211 211 0
5.680551 3.392551 20.626547 211 211 211 0
5.757471 3.391387 20.619470 210 210 210 0
5.831493 3.388570 20.602341 211 211 211 0
5.905975 3.386092 20.587277 211 211 211 0
5.978885 3.382790 20.567199 211 211 211 0
6.051169 3.379224 20.545520 211 211 211 0
6.124782 3.376482 20.528849 211 211 211 0
6.201780 3.375652 20.523802 211 211 211 0
-8.906845 4.898765 29.107336 197 197 197 0
-8.843134 4.925290 29.264944 197 197 197 0
-8.659533 4.884865 29.024745 196 196 196 0
-8.555397 4.888798 29.048119 197 197 197 0
-8.441853 4.887388 29.039740 197 197 197 0
-8.354199 4.901130 29.121392 197 197 197 0
-8.218001 4.886379 29.033744 198 198 198 0
-8.112410 4.889672 29.053308 198 198 198 0
-8.015367 4.898280 29.104455 198 198 198 0
-7.863750 4.873310 28.956088 198 198 198 0
-7.754391 4.874189 28.961312 199 199 199 0
-7.670836 4.891547 29.064452 198 198 198 0
-7.574191 4.900947 29.120304 199 199 199 0
-7.449836 4.892430 29.069695 196 196 196 0
-7.205209 4.803473 28.541132 129 129 129 0
-4.564010 3.089484 18.357003 77 77 77 0
-7.046804 4.844678 28.785966 70 70 70 0
-8.379347 5.852242 34.772683 69 69 69 0
-7.699877 5.464429 32.468382 67 67 67 0
-5.376416 3.878070 23.042605 94 94 94 0
-5.332092 3.910201 23.233518 188 188 188 0
-5.227351 3.898363 23.163180 199 199 199 0
-5.133186 3.894141 23.138094 200 200 200 0
-5.034719 3.886450 23.092392 199 199 199 0
-4.938638 3.880358 23.056198 200 200 200 0
-4.846021 3.876817 23.035158 199 199 199 0
-4.760811 3.879179 23.049192 200 200 200 0
-4.669399 3.876482 23.033170 200 200 200 0
-4.576623 3.872527 23.009668 200 200 200 0
-4.484605 3.869071 22.989132 200 200 200 0
-4.381313 3.855555 22.908826 201 201 201 0
-4.294256 3.856067 22.911864 200 200 200 0
-4.203681 3.853374 22.895867 200 200 200 0
-4.113063 3.850527 22.878946 201 201 201 0
-4.019367 3.844612 22.843802 201 201 201 0
-3.929084 3.841771 22.826919 200 200 200 0
-3.833283 3.833283 22.776487 201 201 201 0
-3.747556 3.834709 22.784959 201 201 201 0
-3.663274 3.837715 22.802823 201 201 201 0
-3.572596 3.834006 22.780782 202 202 202 0
-3.479607 3.827568 22.742531 202 202 202 0
-3.385507 3.819546 22.694867 202 202 202 0
-3.296153 3.816598 22.677349 201 201 201 0
-3.208008 3.814928 22.667430 202 202 202 0
-3.120045 3.813388 22.658279 202 202 202 0
-3.030695 3.810017 22.638245 202 202 202 0
-2.939483 3.804037 22.602718 202 202 202 0
-2.848678 3.798237 22.568252 202 202 202 0
-2.757411 3.791440 22.527869 202 202 202 0
-2.676947 3.799537 22.575978 203 203 203 0
-2.586934 3.794169 22.544085 203 203 203 0
-2.498373 3.790635 22.523085 203 203 203 0
-2.408334 3.784525 22.486782 203 203 203 0
-2.316710 3.775379 22.432436 204 204 204 0
-2.232281 3.777706 22.446263 203 203 203 0
-2.148689 3.781693 22.469953 204 204 204 0
-2.058890 3.774632 22.427995 203 203 203 0
-1.970393 3.769447 22.397187 203 203 203 0
-1.880497 3.760994 22.346965 203 203 203 0
-1.796132 3.763324 22.360808 204 204 204 0
-1.708133 3.757893 22.328537 204 204 204 0
-1.623935 3.760692 22.345167 203 203 203 0
-1.538016 3.759595 22.338651 203 203 203 0
-1.447536 3.746564 22.261222 203 203 203 0
-1.360998 3.742743 22.238522 204 204 204 0
-1.275866 3.742540 22.237312 204 204 204 0
-1.190356 3.741119 22.228870 204 204 204 0
-1.104650 3.738814 22.215177 204 204 204 0
-1.017839 3.732076 22.175139 204 204 204 0
-0.931825 3.727299 22.146753 205 205 205 0
-0.845755 3.721324 22.111251 205 205 205 0
-0.761382 3.722311 22.117118 205 205 205 0
-0.676840 3.722623 22.118970 205 205 205 0
-0.591704 3.719285 22.099139 205 205 205 0
-0.506529 3.714549 22.070999 205 205 205 0
-0.421594 3.710028 22.044137 205 205 205 0
-0.336820 3.705018 22.014367 205 205 205 0
-0.252331 3.700854 21.989628 205 205 205 0
-0.168298 3.702555 21.999732 205 205 205 0
-0.084086 3.699800 21.983366 205 205 205 0
0.000000 3.691732 21.935423 205 205 205 0
0.083854 3.689561 21.922527 206 206 206 0
0.167564 3.686407 21.903785 206 206 206 0
0.251131 3.683259 21.885078 205 205 205 0
0.334995 3.684941 21.895072 206 206 206 0
0.418150 3.679721 21.864061 206 206 206 0
0.500836 3.672799 21.822930 206 206 206 0
0.583667 3.668767 21.798970 206 206 206 0
0.666936 3.668147 21.795291 206 206 206 0
0.749901 3.666184 21.783625 206 206 206 0
0.832637 3.663604 21.768294 206 206 206 0
0.915650 3.662600 21.762330 206 206 206 0
0.996436 3.653598 21.708840 207 207 207 0
1.079303 3.653027 21.705449 207 207 207 0
1.160905 3.648558 21.678895 207 207 207 0
1.243460 3.647481 21.672497 207 207 207 0
1.326307 3.647345 21.671685 206 206 206 0
1.407190 3.642138 21.640750 207 207 207 0
1.486900 3.634644 21.596222 207 207 207 0
1.568654 3.632673 21.584512 207 207 207 0
1.649996 3.629991 21.568574 207 207 207 0
1.732190 3.629349 21.564762 207 207 207 0
1.814786 3.629572 21.566085 207 207 207 0
1.891619 3.618750 21.501784 208 208 208 0
1.972952 3.617078 21.491847 208 208 208 0
2.053300 3.613809 21.472423 208 208 208 0
2.134697 3.612564 21.465030 207 207 207 0
2.216099 3.611421 21.458236 208 208 208 0
2.295111 3.606603 21.429610 208 208 208 0
2.375088 3.603581 21.411654 208 208 208 0
2.453321 3.598204 21.379703 208 208 208 0
2.533562 3.596023 21.366746 208 208 208 0
2.614757 3.595291 21.362392 208 208 208 0
2.695519 3.594026 21.354877 209 209 209 0
2.773494 3.589227 21.326365 209 209 209 0
2.852397 3.585870 21.306418 209 209 209 0
2.928688 3.579508 21.268613 208 208 208 0
3.008265 3.577396 21.256066 209 209 209 0
3.089233 3.577007 21.253754 208 208 208 0
3.170345 3.576800 21.252524 209 209 209 0
3.246722 3.571395 21.220408 208 208 208 0
3.322786 3.565917 21.187862 209 209 209 0
3.399650 3.561538 21.161843 209 209 209 0
3.480107 3.561040 21.158882 209 209 209 0
3.560382 3.560382 21.154974 210 210 210 0
3.638650 3.557791 21.139580 209 209 209 0
3.713968 3.552491 21.108089 209 209 209 0
3.791070 3.549087 21.087859 209 209 209 0
3.868265 3.545910 21.068983 210 210 210 0
3.945839 3.543202 21.052895 210 210 210 0
4.022548 3.539842 21.032930 209 209 209 0
4.102214 3.539165 21.028907 209 209 209 0
4.176863 3.534268 20.999812 210 210 210 0
4.250583 3.528786 20.967237 210 210 210 0
4.327827 3.526378 20.952928 210 210 210 0
4.405731 3.524584 20.942272 210 210 210 0
4.485505 3.524326 20.940735 210 210 210 0
4.560764 3.520590 20.918537 210 210 210 0
4.635696 3.516735 20.895632 210 210 210 0
4.707991 3.511044 20.861817 210 210 210 0
4.785516 3.509378 20.851921 210 210 210 0
4.861854 3.506911 20.837263 210 210 210 0
4.943906 3.508579 20.847169 210 210 210 0
5.018628 3.505074 20.826345 210 210 210 0
5.089971 3.499355 20.792367 210 210 210 0
5.161382 3.493858 20.759706 210 210 210 0
5.238845 3.492563 20.752009 211 211 211 0
5.317123 3.491842 20.747723 210 210 210 0
5.395864 3.491441 20.745342 210 210 210 0
5.465596 3.485307 20.708897 211 211 211 0
5.537568 3.480757 20.681858 211 211 211 0
5.613098 3.478539 20.668683 211 211 211 0
5.688159 3.476097 20.654173 210 210 210 0
5.767582 3.476351 20.655679 211 211 211 0
5.837653 3.471037 20.624105 210 210 210 0
5.913022 3.468973 20.611842 211 211 211 0
5.985049 3.465028 20.588402 211 211 211 0
6.057417 3.461381 20.566733 212 212 212 0
6.133423 3.459879 20.557810 211 211 211 0
6.206495 3.456782 20.539406 211 211 211 0
-8.874000 4.991625 29.000000 197 197 197 0
-8.782621 5.002759 29.064686 197 197 197 0
-8.638990 4.984033 28.955891 197 197 197 0
-8.532842 4.986726 28.971537 197 197 197 0
-8.425993 4.989075 28.985183 197 197 197 0
-8.319822 4.991893 29.001557 197 197 197 0
-8.216859 4.996738 29.029708 198 198 198 0
-8.097525 4.991625 29.000000 197 197 197 0
-7.995020 4.996888 29.030575 198 198 198 0
-7.875675 4.991625 29.000000 198 198 198 0
-7.791418 5.008769 29.099602 198 198 198 0
-7.654614 4.992140 29.002991 198 198 198 0
-7.551478 4.997302 29.032980 198 198 198 0
-7.415495 4.980556 28.935695 198 198 198 0
-7.194280 4.905191 28.497842 145 145 145 0
-5.888383 4.076573 23.683794 68 68 68 0
-6.469956 4.549187 26.429557 73 73 73 0
-4.609964 3.292832 19.130467 74 74 74 0
-5.959307 4.325304 25.128852 70 70 70 0
-5.401416 3.984651 23.149754 89 89 89 0
-5.350749 4.013062 23.314810 185 185 185 0
-5.233431 3.991600 23.190122 199 199 199 0
-5.135386 3.984351 23.148008 200 200 200 0
-5.030966 3.971815 23.075178 199 199 199 0
-4.938155 3.968160 23.053943 199 199 199 0
-4.845713 3.964674 23.033690 200 200 200 0
-4.760635 3.967196 23.048341 201 201 201 0
-4.669395 3.964581 23.033150 200 200 200 0
-4.579134 3.962712 23.022293 201 201 201 0
-4.484226 3.956670 22.987191 200 200 200 0
-4.387775 3.948997 22.942613 200 200 200 0
-4.301852 3.950680 22.952391 200 200 200 0
-4.211441 3.948226 22.938130 201 201 201 0
-4.120021 3.944701 22.917652 201 201 201 0
-4.030402 3.942784 22.906518 201 201 201 0
-3.930223 3.930223 22.833541 201 201 201 0
-3.843171 3.930516 22.835242 201 201 201 0
-3.750572 3.925017 22.803294 201 201 201 0
-3.670199 3.932356 22.845931 202 202 202 0
-3.576459 3.925382 22.805414 202 202 202 0
-3.482119 3.917384 22.758948 202 202 202 0
-3.389114 3.910516 22.719045 201 201 201 0
-3.297843 3.905340 22.688978 202 202 202 0
-3.212719 3.907361 22.700717 202 202 202 0
-3.126298 3.907872 22.703688 202 202 202 0
-3.033506 3.900222 22.659245 202 202 202 0
-2.942643 3.894675 22.627014 203 203 203 0
-2.855312 3.893607 22.620811 202 202 202 0
-2.767382 3.891631 22.609331 202 202 202 0
-2.679072 3.888975 22.593900 202 202 202 0
-2.591218 3.886827 22.581421 203 203 203 0
-2.502653 3.883426 22.561664 203 203 203 0
-2.411434 3.875519 22.515725 203 203 203 0
-2.321188 3.868646 22.475797 202 202 202 0
-2.234302 3.867060 22.466581 203 203 203 0
-2.150465 3.870838 22.488526 203 203 203 0
-2.063744 3.869521 22.480875 203 203 203 0
-1.973247 3.860701 22.429638 204 204 204 0
-1.883790 3.853207 22.386099 203 203 203 0
-1.795427 3.847343 22.352031 204 204 204 0
-1.710668 3.849003 22.361676 203 203 203 0
-1.624804 3.848219 22.357120 204 204 204 0
-1.537539 3.843847 22.331719 204 204 204 0
-1.448977 3.835528 22.283386 204 204 204 0
-1.361306 3.828672 22.243558 204 204 204 0
-1.277488 3.832465 22.265590 204 204 204 0
-1.191788 3.830749 22.255620 204 204 204 0
-1.105334 3.826157 22.228945 204 204 204 0
-1.019620 3.823576 22.213951 204 204 204 0
-0.932433 3.814499 22.161212 205 205 205 0
-0.847825 3.815213 22.165362 205 205 205 0
-0.762488 3.812438 22.149239 204 204 204 0
-0.677538 3.811149 22.141754 205 205 205 0
-0.592476 3.808773 22.127950 205 205 205 0
-0.506761 3.800706 22.081083 204 204 204 0
-0.421407 3.792659 22.034328 205 205 205 0
-0.337180 3.793277 22.037919 206 206 206 0
-0.252701 3.790517 22.021886 206 206 206 0
-0.168609 3.793691 22.040328 206 206 206 0
-0.084232 3.790425 22.021353 205 205 205 0
0.000000 3.784656 21.987837 205 205 205 0
0.083890 3.775035 21.931940 205 205 205 0
0.167741 3.774181 21.926979 206 206 206 0
0.251611 3.774163 21.926872 206 206 206 0
0.335308 3.772211 21.915534 206 206 206 0
0.418696 3.768265 21.892604 207 207 207 0
0.501527 3.761449 21.853007 206 206 206 0
0.584606 3.758180 21.834018 206 206 206 0
0.667797 3.756357 21.823427 206 206 206 0
0.750627 3.753135 21.804704 207 207 207 0
0.833669 3.751512 21.795277 206 206 206 0
0.916011 3.747317 21.770903 206 206 206 0
0.997664 3.741240 21.735599 206 206 206 0
1.079896 3.738103 21.717375 207 207 207 0
1.161539 3.733518 21.690735 207 207 207 0
1.245343 3.736028 21.705320 206 206 206 0
1.327586 3.733835 21.692581 207 207 207 0
1.408633 3.728736 21.662952 207 207 207 0
1.488398 3.720995 21.617983 207 207 207 0
1.570279 3.719081 21.606863 207 207 207 0
1.651812 3.716577 21.592313 207 207 207 0
1.735165 3.718211 21.601810 207 207 207 0
1.816927 3.716442 21.591530 208 208 208 0
1.894203 3.706049 21.531149 208 208 208 0
1.975430 3.703932 21.518850 208 208 208 0
2.055772 3.700390 21.498271 207 207 207 0
2.137154 3.698920 21.489734 208 208 208 0
2.217891 3.696484 21.475580 208 208 208 0
2.298083 3.693348 21.457359 208 208 208 0
2.376395 3.687509 21.423436 208 208 208 0
2.457948 3.686921 21.420023 209 209 209 0
2.535767 3.680952 21.385343 208 208 208 0
2.617907 3.681432 21.388133 208 208 208 0
2.698527 3.679810 21.378706 208 208 208 0
2.777544 3.676161 21.357509 209 209 209 0
2.853396 3.668653 21.313885 209 209 209 0
2.932854 3.666068 21.298870 209 209 209 0
3.011755 3.662945 21.280728 208 208 208 0
3.093622 3.663500 21.283951 208 208 208 0
3.174947 3.663401 21.283374 209 209 209 0
3.249184 3.655332 21.236499 209 209 209 0
3.327189 3.651793 21.215934 209 209 209 0
3.401432 3.644391 21.172934 209 209 209 0
3.484573 3.646646 21.186033 210 210 210 0
3.563680 3.644673 21.174572 209 209 209 0
3.641586 3.641586 21.156636 209 209 209 0
3.715700 3.634924 21.117932 210 210 210 0
3.792974 3.631571 21.098452 210 210 210 0
3.871165 3.629217 21.084775 209 209 209 0
3.948744 3.626398 21.068396 209 209 209 0
4.029738 3.626764 21.070524 209 209 209 0
4.104941 3.622007 21.042885 209 209 209 0
4.182561 3.619524 21.028461 210 210 210 0
4.258291 3.615530 21.005260 210 210 210 0
4.334709 3.612258 20.986247 210 210 210 0
4.412484 3.610214 20.974376 210 210 210 0
4.489469 3.607609 20.959237 210 210 210 0
4.565839 3.604609 20.941812 211 211 211 0
4.642240 3.601738 20.925129 209 209 209 0
4.714585 3.595870 20.891040 210 210 210 0
4.792343 3.594258 20.881671 211 211 211 0
4.867518 3.590792 20.861537 210 210 210 0
4.949427 3.592326 20.870450 211 211 211 0
5.022821 3.587730 20.843745 210 210 210 0
5.094390 3.581993 20.810417 210 210 210 0
5.170919 3.579867 20.798064 210 210 210 0
5.246792 3.577358 20.783492 211 211 211 0
5.323982 3.575809 20.774487 211 211 211 0
5.400244 3.573691 20.762184 211 211 211 0
5.473223 3.569493 20.737797 211 211 211 0
5.543450 3.563646 20.703827 211 211 211 0
5.618631 3.561104 20.689057 211 211 211 0
5.693402 3.558377 20.673211 211 211 211 0
5.774482 3.559612 20.680391 211 211 211 0
5.848976 3.556810 20.664109 211 211 211 0
5.918697 3.551218 20.631624 211 211 211 0
5.991011 3.547309 20.608913 211 211 211 0
6.065513 3.544780 20.594221 211 211 211 0
6.138723 3.541571 20.575576 212 212 212 0
6.216618 3.541112 20.572907 211 211 211 0
-8.860447 5.094757 28.955710 196 196 196 0
-8.769865 5.106503 29.022469 197 197 197 0
-8.627354 5.087927 28.916890 197 197 197 0
-8.532578 5.097384 28.970642 196 196 196 0
-8.457942 5.119281 29.095088 197 197 197 0
-8.308145 5.095663 28.960856 197 197 197 0
-8.207747 5.102113 28.997517 198 198 198 0
-8.113701 5.112743 29.057933 197 197 197 0
-7.995583 5.108289 29.032618 197 197 197 0
-7.865325 5.095845 28.961891 198 198 198 0
-7.770173 5.106113 29.020253 197 197 197 0
-7.638711 5.092474 28.942734 197 197 197 0
-7.540724 5.101078 28.991635 199 199 199 0
-7.420786 5.094868 28.956341 198 198 198 0
-7.193174 5.013424 28.493461 155 155 155 0
-8.121772 5.837524 33.177173 74 74 74 0
-6.606963 4.824131 27.417627 75 75 75 0
-5.271707 3.911267 22.229422 81 81 81 0
-5.491895 4.141429 23.537533 75 75 75 0
-5.372357 4.118807 23.408964 182 182 182 0
-5.230889 4.078320 23.178857 199 199 199 0
-5.149186 4.083837 23.210216 199 199 199 0
-5.048522 4.074246 23.155703 199 199 199 0
-4.945882 4.062689 23.090018 200 200 200 0
-4.859835 4.064589 23.100820 200 200 200 0
-4.773600 4.066400 23.111110 200 200 200 0
-4.679432 4.061394 23.082659 200 200 200 0
-4.582220 4.053503 23.037809 200 200 200 0
-4.481598 4.042226 22.973718 200 200 200 0
-4.388509 4.037428 22.946454 201 201 201 0
-4.305794 4.042174 22.973425 201 201 201 0
-4.218616 4.042840 22.977212 200 200 200 0
-4.123697 4.035958 22.938098 200 200 200 0
-4.036080 4.036080 22.938788 200 200 200 0
-3.934253 4.021680 22.856950 201 201 201 0
-3.843807 4.018525 22.839017 202 202 202 0
-3.757661 4.019824 22.846398 201 201 201 0
-3.672649 4.022426 22.861185 201 201 201 0
-3.581260 4.017999 22.836025 201 201 201 0
-3.483987 4.006585 22.771154 202 202 202 0
-3.396196 4.005769 22.766519 201 201 201 0
-3.304691 4.000415 22.736089 202 202 202 0
-3.217462 4.000088 22.734232 202 202 202 0
-3.126687 3.995212 22.706516 202 202 202 0
-3.037651 3.992341 22.690203 203 203 203 0
-2.945018 3.984437 22.645278 202 202 202 0
-2.855386 3.980236 22.621402 201 201 201 0
-2.769245 3.980790 22.624550 203 203 203 0
-2.682852 3.981006 22.625779 202 202 202 0
-2.596847 3.981832 22.630475 203 203 203 0
-2.506589 3.975969 22.597152 203 203 203 0
-2.412600 3.963556 22.526606 203 203 203 0
-2.322769 3.957311 22.491111 202 202 202 0
-2.239234 3.961722 22.516180 203 203 203 0
-2.152407 3.960428 22.508829 202 202 202 0
-2.063964 3.955930 22.483263 203 203 203 0
-1.976203 3.952407 22.463238 203 203 203 0
-1.885030 3.941427 22.400836 203 203 203 0
-1.799636 3.942059 22.404427 204 204 204 0
-1.713093 3.940115 22.393379 203 203 203 0
-1.626734 3.938408 22.383676 204 204 204 0
-1.539706 3.934803 22.363189 204 204 204 0
-1.451046 3.926360 22.315205 204 204 204 0
-1.364721 3.923574 22.299368 204 204 204 0
-1.278693 3.921324 22.286582 204 204 204 0
-1.193955 3.922996 22.296085 204 204 204 0
-1.107252 3.917970 22.267518 204 204 204 0
-1.021106 3.914239 22.246312 204 204 204 0
-0.934246 3.906846 22.204297 204 204 204 0
-0.848561 3.903380 22.184597 205 205 205 0
-0.763736 3.903539 22.185499 205 205 205 0
-0.678220 3.899763 22.164039 205 205 205 0
-0.593277 3.898678 22.157874 205 205 205 0
-0.508098 3.895420 22.139356 205 205 205 0
-0.422525 3.887230 22.092812 205 205 205 0
-0.337482 3.881037 22.057615 205 205 205 0
-0.253031 3.879803 22.050602 205 205 205 0
-0.168643 3.878783 22.044805 205 205 205 0
-0.084310 3.878250 22.041772 205 205 205 0
0.000000 3.875923 22.028547 205 205 205 0
0.084053 3.866444 21.974676 205 205 205 0
0.168064 3.865470 21.969140 205 205 205 0
0.251947 3.863193 21.956198 206 206 206 0
0.335457 3.857753 21.925280 206 206 206 0
0.419014 3.854925 21.909209 206 206 206 0
0.502207 3.850257 21.882676 206 206 206 0
0.585128 3.845128 21.853525 206 206 206 0
0.668335 3.842926 21.841009 206 206 206 0
0.752281 3.844990 21.852744 206 206 206 0
0.834574 3.839040 21.818925 207 207 207 0
0.917131 3.835276 21.797533 207 207 207 0
0.998683 3.828284 21.757793 207 207 207 0
1.081160 3.825641 21.742776 207 207 207 0
1.164327 3.825647 21.742808 206 206 206 0
1.247690 3.826250 21.746235 207 207 207 0
1.329076 3.821092 21.716920 207 207 207 0
1.410823 3.817520 21.696619 206 206 206 0
1.490208 3.808310 21.644274 207 207 207 0
1.572069 3.806061 21.631490 207 207 207 0
1.653999 3.804199 21.620908 208 208 208 0
1.737969 3.806979 21.636712 208 208 208 0
1.818436 3.802185 21.609465 207 207 207 0
1.897716 3.795432 21.571085 207 207 207 0
1.976210 3.787736 21.527344 208 208 208 0
2.057906 3.786547 21.520587 207 207 207 0
2.141036 3.787986 21.528764 208 208 208 0
2.221533 3.784834 21.510849 208 208 208 0
2.302205 3.782194 21.495844 208 208 208 0
2.380136 3.775388 21.457165 208 208 208 0
2.459594 3.771378 21.434371 208 208 208 0
2.539629 3.768482 21.417915 207 207 207 0
2.620735 3.767307 21.411237 208 208 208 0
2.701149 3.765238 21.399478 208 208 208 0
2.781430 3.763111 21.387390 208 208 208 0
2.857549 3.755636 21.344905 208 208 208 0
2.938042 3.754165 21.336545 208 208 208 0
3.015802 3.749376 21.309325 208 208 208 0
3.097081 3.749098 21.307746 209 209 209 0
3.176796 3.746991 21.295770 208 208 208 0
3.253945 3.742036 21.267612 209 209 209 0
3.329192 3.735191 21.228709 209 209 209 0
3.407341 3.731849 21.209716 209 209 209 0
3.488358 3.731732 21.209050 209 209 209 0
3.568184 3.730374 21.201331 209 209 209 0
3.650014 3.731126 21.205602 209 209 209 0
3.721477 3.721477 21.150762 209 209 209 0
3.797870 3.717064 21.125686 209 209 209 0
3.876359 3.714844 21.113064 210 210 210 0
3.955998 3.713794 21.107100 210 210 210 0
4.034782 3.711999 21.096899 210 210 210 0
4.109432 3.706547 21.065909 210 210 210 0
4.185546 3.702599 21.043471 209 209 209 0
4.259470 3.696898 21.011074 209 209 209 0
4.340745 3.697672 21.015469 210 210 210 0
4.419688 3.696466 21.008617 210 210 210 0
4.494965 3.692293 20.984897 210 210 210 0
4.571201 3.689039 20.966408 210 210 210 0
4.646356 3.685041 20.943683 210 210 210 0
4.718723 3.679004 20.909374 210 210 210 0
4.795766 3.676754 20.896585 210 210 210 0
4.874583 3.675915 20.891816 210 210 210 0
4.955900 3.676958 20.897744 210 210 210 0
5.028731 3.671772 20.868269 210 210 210 0
5.100671 3.666107 20.836074 210 210 210 0
5.172963 3.660866 20.806287 210 210 210 0
5.252925 3.661129 20.807782 210 210 210 0
5.330089 3.659464 20.798319 211 211 211 0
5.407617 3.658094 20.790529 210 210 210 0
5.480183 3.653455 20.764166 210 210 210 0
5.548003 3.645831 20.720833 210 210 210 0
5.626700 3.645468 20.718771 210 210 210 0
5.701691 3.642747 20.703308 211 211 211 0
5.779656 3.641975 20.698920 211 211 211 0
5.855738 3.640053 20.687997 211 211 211 0
5.924561 3.633731 20.652063 211 211 211 0
5.997444 3.630032 20.631041 211 211 211 0
6.072144 3.627515 20.616737 211 211 211 0
6.147648 3.625536 20.605491 211 211 211 0
6.222216 3.623062 20.591432 212 212 212 0
-8.873146 5.212973 28.997209 197 197 197 0
-8.714964 5.184852 28.840785 196 196 196 0
-8.644026 5.208580 28.972769 198 198 198 0
-8.538001 5.211507 28.989054 197 197 197 0
-8.444544 5.222283 29.048997 198 198 198 0
-8.308108 5.206415 28.960727 198 198 198 0
-8.236280 5.231151 29.098320 198 198 198 0
-8.110883 5.222075 29.047839 198 198 198 0
-7.964290 5.198911 28.918990 198 198 198 0
-7.877629 5.214769 29.007196 197 197 197 0
-7.759931 5.210240 28.982003 197 197 197 0
-7.653825 5.213475 29.000000 198 198 198 0
-7.507253 5.188837 28.862951 199 199 199 0
-7.422683 5.206957 28.963741 198 198 198 0
-7.265926 5.174220 28.781644 171 171 171 0
-5.057423 3.714045 20.659407 75 75 75 0
-8.422330 6.283325 34.951053 66 66 66 0
-5.770426 4.446066 24.731279 80 80 80 0
-5.365302 4.202820 23.378224 177 177 177 0
-5.236474 4.171429 23.203608 200 200 200 0
-5.140409 4.165504 23.170653 199 199 199 0
-5.051923 4.165621 23.171302 200 200 200 0
-4.946124 4.151211 23.091150 199 199 199 0
-4.863402 4.155998 23.117773 200 200 200 0
-4.781724 4.161871 23.150445 199 199 199 0
-4.688610 4.157824 23.127933 200 200 200 0
-4.584006 4.143236 23.046788 200 200 200 0
-4.494785 4.142253 23.041316 200 200 200 0
-4.397490 4.133641 22.993411 201 201 201 0
-4.309580 4.133679 22.993625 201 201 201 0
-4.221486 4.133538 22.992843 201 201 201 0
-4.130951 4.130951 22.978448 201 201 201 0
-4.041394 4.129251 22.968994 201 201 201 0
-3.939482 4.114570 22.887332 200 200 200 0
-3.847045 4.109343 22.858258 201 201 201 0
-3.765502 4.115781 22.894068 201 201 201 0
-3.678902 4.116867 22.900107 201 201 201 0
-3.584870 4.109485 22.859044 201 201 201 0
-3.492714 4.103939 22.828195 201 201 201 0
-3.397329 4.094217 22.774119 202 202 202 0
-3.309594 4.093445 22.769825 201 201 201 0
-3.220468 4.090864 22.755468 202 202 202 0
-3.133386 4.090809 22.755160 202 202 202 0
-3.048321 4.093460 22.769905 202 202 202 0
-2.947947 4.075103 22.667793 202 202 202 0
-2.861433 4.075374 22.669302 202 202 202 0
-2.772905 4.072704 22.654451 202 202 202 0
-2.684660 4.070291 22.641030 202 202 202 0
-2.596101 4.067224 22.623971 202 202 202 0
-2.505576 4.060761 22.588019 202 202 202 0
-2.419939 4.062040 22.595135 203 203 203 0
-2.330676 4.057103 22.567672 202 202 202 0
-2.240928 4.050908 22.533211 203 203 203 0
-2.154059 4.049630 22.526104 203 203 203 0
-2.068107 4.050044 22.528404 202 202 202 0
-1.977770 4.041530 22.481045 204 204 204 0
-1.887905 4.033251 22.434995 203 203 203 0
-1.803520 4.036450 22.452790 203 203 203 0
-1.714388 4.028811 22.410298 204 204 204 0
-1.630192 4.032581 22.431266 204 204 204 0
-1.542463 4.027543 22.403241 204 204 204 0
-1.453139 4.017501 22.347386 204 204 204 0
-1.367014 4.015603 22.336825 204 204 204 0
-1.279812 4.010076 22.306083 205 205 205 0
-1.194860 4.011317 22.312986 204 204 204 0
-1.108876 4.009014 22.300176 204 204 204 0
-1.021029 3.999029 22.244634 204 204 204 0
-0.935371 3.996584 22.231031 204 204 204 0
-0.849331 3.991856 22.204736 204 204 204 0
-0.764132 3.990466 22.197000 204 204 204 0
-0.679141 3.989955 22.194160 205 205 205 0
-0.593862 3.987357 22.179707 205 205 205 0
-0.508129 3.980347 22.140713 205 205 205 0
-0.422739 3.973742 22.103977 205 205 205 0
-0.338002 3.971522 22.091626 205 205 205 0
-0.253403 3.969987 22.083087 205 205 205 0
-0.168965 3.970687 22.086979 206 206 206 0
-0.084462 3.969729 22.081651 206 206 206 0
0.000000 3.962811 22.043170 205 205 205 0
0.084112 3.953262 21.990054 205 205 205 0
0.168097 3.950270 21.973411 206 206 206 0
0.252216 3.951383 21.979600 206 206 206 0
0.336296 3.951477 21.980127 206 206 206 0
0.419743 3.945589 21.947371 205 205 205 0
0.502717 3.937953 21.904899 206 206 206 0
0.586037 3.934821 21.887474 206 206 206 0
0.669244 3.931810 21.870727 206 206 206 0
0.752333 3.928852 21.854275 206 206 206 0
0.835679 3.927690 21.847812 207 207 207 0
0.918684 3.925287 21.834441 206 206 206 0
1.000346 3.918023 21.794035 206 206 206 0
1.083006 3.915484 21.779915 207 207 207 0
1.165385 3.912364 21.762561 207 207 207 0
1.248204 3.911040 21.755195 207 207 207 0
1.330482 3.908291 21.739905 207 207 207 0
1.412002 3.903771 21.714762 207 207 207 0
1.492734 3.897694 21.680957 208 208 208 0
1.573954 3.893464 21.657430 206 206 206 0
1.656018 3.891643 21.647296 207 207 207 0
1.739251 3.892610 21.652676 208 208 208 0
1.820468 3.889182 21.633608 207 207 207 0
1.899876 3.882355 21.595633 207 207 207 0
1.979060 3.875660 21.558393 207 207 207 0
2.059877 3.872568 21.541193 208 208 208 0
2.144290 3.876217 21.561489 207 207 207 0
2.225337 3.873735 21.547686 208 208 208 0
2.304095 3.867589 21.513495 208 208 208 0
2.380758 3.858469 21.462770 208 208 208 0
2.461560 3.856443 21.451500 208 208 208 0
2.542677 3.855026 21.443616 208 208 208 0
2.622876 3.852350 21.428729 208 208 208 0
2.703691 3.850711 21.419614 208 208 208 0
2.782969 3.847045 21.399223 208 208 208 0
2.861381 3.842426 21.373529 208 208 208 0
2.938904 3.836903 21.342807 209 209 209 0
3.018920 3.834845 21.331358 208 208 208 0
3.101230 3.835732 21.336291 209 209 209 0
3.180126 3.832460 21.318090 208 208 208 0
3.259336 3.829720 21.302853 208 208 208 0
3.334587 3.822576 21.263111 209 209 209 0
3.410822 3.816873 21.231387 209 209 209 0
3.493290 3.818247 21.239030 209 209 209 0
3.571525 3.815039 21.221185 209 209 209 0
3.650548 3.812795 21.208704 209 209 209 0
3.724440 3.805406 21.167604 209 209 209 0
3.803020 3.803020 21.154335 209 209 209 0
3.880995 3.800141 21.138315 210 210 210 0
3.962606 3.800867 21.142354 210 210 210 0
4.040803 3.798355 21.128384 209 209 209 0
4.114983 3.792239 21.094362 209 209 209 0
4.190469 3.787539 21.068219 209 209 209 0
4.267014 3.783956 21.048287 210 210 210 0
4.344924 3.781693 21.035702 209 209 209 0
4.423748 3.780294 21.027915 210 210 210 0
4.500814 3.777469 21.012206 210 210 210 0
4.578525 3.775275 21.000000 210 210 210 0
4.651453 3.769281 20.966657 210 210 210 0
4.725727 3.764562 20.940409 210 210 210 0
4.804132 3.763236 20.933035 210 210 210 0
4.881684 3.761297 20.922250 209 209 209 0
4.959835 3.759875 20.914339 211 211 211 0
5.033458 3.755120 20.887887 211 211 211 0
5.107492 3.750815 20.863940 210 210 210 0
5.181087 3.746325 20.838964 210 210 210 0
5.257560 3.744020 20.826145 211 211 211 0
5.335423 3.742759 20.819132 211 211 211 0
5.411956 3.740617 20.807213 211 211 211 0
5.484727 3.735973 20.781383 210 210 210 0
5.557812 3.731673 20.757466 211 211 211 0
5.632601 3.728623 20.740501 211 211 211 0
