ply
format ascii 1.0
element vertex 1127
property float x
property float y
property float z
property uchar red
property uchar green
property uchar blue
property uchar alpha
end_header
4.930389 0.657385 21.483175 212 212 212 0
5.033070 0.660075 21.571068 211 211 211 0
5.139491 0.663160 21.671901 211 211 211 0
5.241001 0.665524 21.749150 211 211 211 0
5.344352 0.668044 21.831505 210 210 210 0
5.469655 0.673188 21.999618 210 210 210 0
5.584914 0.676959 22.122853 210 210 210 0
5.691243 0.679551 22.207564 209 209 209 0
5.828043 0.685652 22.406931 209 209 209 0
5.969133 0.692073 22.616777 209 209 209 0
6.116239 0.698999 22.843094 208 208 208 0
6.308770 0.710847 23.230305 209 209 209 0
6.422166 0.713574 23.319413 215 215 215 0
6.492213 0.711475 23.250830 215 215 215 0
6.578711 0.711212 23.242224 215 215 215 0
6.676000 0.712107 23.271459 215 215 215 0
6.761358 0.711722 23.258886 214 214 214 0
6.837172 0.710356 23.214233 214 214 214 0
6.933376 0.711115 23.239068 215 215 215 0
7.039301 0.712841 23.295445 213 213 213 0
-5.551620 0.925270 26.877851 88 88 88 0
-5.370105 0.911905 26.489603 120 120 120 0
-5.218045 0.903123 26.234517 136 136 136 0
-5.051185 0.891386 25.893556 149 149 149 0
-4.897191 0.881494 25.606230 155 155 155 0
-4.759895 0.874266 25.396265 164 164 164 0
-4.627625 0.867680 25.204928 165 165 165 0
-4.520105 0.865552 25.143121 173 173 173 0
-4.404340 0.861719 25.031768 175 175 175 0
-4.289367 0.857873 24.920069 176 176 176 0
-4.175160 0.854010 24.807840 182 182 182 0
-4.060236 0.849817 24.686035 183 183 183 0
-3.942393 0.844798 24.540260 184 184 184 0
-3.838137 0.842518 24.474013 187 187 187 0
-3.735467 0.840480 24.414815 190 190 190 0
-3.637853 0.839504 24.386478 190 190 190 0
-3.528828 0.835775 24.278144 191 191 191 0
-3.421913 0.832357 24.178858 194 194 194 0
-3.318854 0.829714 24.102066 195 195 195 0
-3.222565 0.828660 24.071448 195 195 195 0
-3.125892 0.827442 24.036082 196 196 196 0
-3.032225 0.826970 24.022381 197 197 197 0
-2.929566 0.823941 23.934367 200 200 200 0
-2.826848 0.820698 23.840168 200 200 200 0
-2.732473 0.819742 23.812399 200 200 200 0
-2.639225 0.819070 23.792880 201 201 201 0
-2.550287 0.819735 23.812206 202 202 202 0
-2.455300 0.818433 23.774391 203 203 203 0
-2.362594 0.817821 23.756606 204 204 204 0
-2.265756 0.815672 23.694178 203 203 203 0
-2.173694 0.815135 23.678580 204 204 204 0
-2.082581 0.814923 23.672422 205 205 205 0
-1.992307 0.815035 23.675668 206 206 206 0
-1.898093 0.813468 23.630166 206 206 206 0
-1.806880 0.813096 23.619340 207 207 207 0
-1.714315 0.812044 23.588786 207 207 207 0
-1.615134 0.807567 23.458742 197 197 197 0
-1.499302 0.793748 23.057320 165 165 165 0
-1.401361 0.788265 22.898050 159 159 159 0
-1.313871 0.788322 22.899709 164 164 164 0
-1.214018 0.780440 22.670735 171 171 171 0
-1.125163 0.778959 22.627705 170 170 170 0
-1.027298 0.770473 22.381219 174 174 174 0
-0.939205 0.768440 22.322154 179 179 179 0
-0.849423 0.764481 22.207144 179 179 179 0
-0.761722 0.761722 22.127003 179 179 179 0
-0.676703 0.761291 22.114468 184 184 184 0
-0.589873 0.758408 22.030720 187 187 187 0
-0.503701 0.755551 21.947741 186 186 186 0
-0.417125 0.750824 21.810440 186 186 186 0
-0.331844 0.746650 21.689174 190 190 190 0
-0.248241 0.744724 21.633230 193 193 193 0
-0.164974 0.742383 21.565221 193 193 193 0
-0.082355 0.741199 21.530831 194 194 194 0
0.000000 0.739503 21.481565 194 194 194 0
0.081964 0.737679 21.428595 197 197 197 0
0.163242 0.734590 21.338852 199 199 199 0
0.244038 0.732113 21.266887 199 199 199 0
0.324343 0.729772 21.198899 199 199 199 0
0.404986 0.728974 21.175726 199 199 199 0
0.485262 0.727894 21.144331 201 201 201 0
0.565198 0.726683 21.109161 203 203 203 0
0.644521 0.725086 21.062766 203 203 203 0
0.722766 0.722766 20.995390 203 203 203 0
0.802166 0.721949 20.971656 203 203 203 0
0.880971 0.720794 20.938105 203 203 203 0
0.959767 0.719825 20.909957 205 205 205 0
1.039452 0.719621 20.904020 207 207 207 0
1.118173 0.718825 20.880911 207 207 207 0
1.194803 0.716882 20.824453 207 207 207 0
1.272829 0.715966 20.797862 207 207 207 0
1.350315 0.714873 20.766089 208 208 208 0
1.429188 0.714594 20.757995 208 208 208 0
1.507844 0.714242 20.747762 208 208 208 0
1.586316 0.713842 20.736152 210 210 210 0
1.663078 0.712748 20.704362 210 210 210 0
1.739661 0.711680 20.673336 211 211 211 0
1.818053 0.711412 20.665562 211 211 211 0
1.896192 0.711072 20.655689 211 211 211 0
1.976638 0.711590 20.670721 211 211 211 0
2.052944 0.710635 20.642979 211 211 211 0
2.130986 0.710329 20.634093 212 212 212 0
2.206619 0.709270 20.603349 212 212 212 0
2.288310 0.710165 20.629347 211 211 211 0
2.367531 0.710259 20.632075 212 212 212 0
2.446122 0.710164 20.629320 212 212 212 0
2.524184 0.709927 20.622421 213 213 213 0
2.604183 0.710232 20.631275 213 213 213 0
2.683728 0.710399 20.636128 213 213 213 0
2.761878 0.710197 20.630277 213 213 213 0
2.843760 0.710940 20.651855 213 213 213 0
2.925955 0.711719 20.674472 213 213 213 0
3.004049 0.711485 20.667692 214 214 214 0
3.084241 0.711748 20.675318 213 213 213 0
3.166945 0.712563 20.698989 214 214 214 0
3.250057 0.713427 20.724100 214 214 214 0
3.331079 0.713803 20.735010 213 213 213 0
3.411479 0.714031 20.741628 214 214 214 0
3.495908 0.715072 20.771885 214 214 214 0
3.580845 0.716169 20.803745 213 213 213 0
3.667202 0.717496 20.842297 214 214 214 0
3.750858 0.718249 20.864183 214 214 214 0
3.833286 0.718741 20.878465 214 214 214 0
3.921076 0.720198 20.920773 213 213 213 0
4.008856 0.721594 20.961340 213 213 213 0
4.100995 0.723705 21.022656 213 213 213 0
4.186463 0.724580 21.048077 214 214 214 0
4.273496 0.725688 21.080262 213 213 213 0
4.368099 0.728016 21.147899 214 214 214 0
4.461473 0.730059 21.207239 213 213 213 0
4.557056 0.732384 21.274769 213 213 213 0
4.651791 0.734493 21.336044 213 213 213 0
4.741114 0.735690 21.370811 213 213 213 0
4.845538 0.739150 21.471310 211 211 211 0
4.940443 0.741067 21.526987 211 211 211 0
5.040409 0.743667 21.602526 211 211 211 0
5.145983 0.746998 21.699275 211 211 211 0
5.248917 0.749845 21.782000 211 211 211 0
5.356697 0.753286 21.881932 210 210 210 0
5.474648 0.758028 22.019700 210 210 210 0
5.589744 0.762238 22.141983 210 210 210 0
5.706744 0.766578 22.268049 210 210 210 0
5.840167 0.772963 22.453544 209 209 209 0
5.990687 0.781394 22.698444 208 208 208 0
6.139982 0.789426 22.931772 208 208 208 0
6.323102 0.801520 23.283079 211 211 211 0
6.405273 0.800659 23.258074 216 216 216 0
6.487888 0.799877 23.235342 216 216 216 0
6.576673 0.799866 23.235022 215 215 215 0
6.666332 0.799960 23.237758 214 214 214 0
6.753069 0.799706 23.230372 214 214 214 0
6.828952 0.798189 23.186322 214 214 214 0
6.926703 0.799235 23.216701 214 214 214 0
7.033253 0.801257 23.275430 214 214 214 0
-5.549937 1.027766 26.869703 89 89 89 0
-5.372611 1.013700 26.501964 122 122 122 0
-5.205554 1.001068 26.171715 137 137 137 0
-5.054483 0.991075 25.910460 150 150 150 0
-4.893384 0.978677 25.586319 155 155 155 0
-4.759278 0.971281 25.392972 165 165 165 0
-4.634080 0.965433 25.240085 166 166 166 0
-4.514497 0.960531 25.111928 174 174 174 0
-4.404832 0.957572 25.034568 175 175 175 0
-4.287936 0.952875 24.911756 176 176 176 0
-4.164997 0.946590 24.747458 182 182 182 0
-4.054299 0.942860 24.649939 184 184 184 0
-3.939162 0.937896 24.520148 183 183 183 0
-3.836056 0.935623 24.460740 187 187 187 0
-3.735410 0.933852 24.414443 190 190 190 0
-3.633392 0.931639 24.356576 190 190 190 0
-3.526131 0.927929 24.259591 190 190 190 0
-3.421913 0.924841 24.178858 194 194 194 0
-3.314909 0.920808 24.073414 195 195 195 0
-3.219826 0.919950 24.050991 195 195 195 0
-3.127324 0.919801 24.047092 196 196 196 0
-3.031510 0.918639 24.016718 197 197 197 0
-2.926101 0.914407 23.906053 200 200 200 0
-2.825298 0.911386 23.827095 200 200 200 0
-2.731207 0.910402 23.801366 200 200 200 0
-2.639053 0.910018 23.791328 201 201 201 0
-2.551180 0.911136 23.820538 202 202 202 0
-2.452920 0.908489 23.751346 203 203 203 0
-2.363553 0.909059 23.766249 204 204 204 0
-2.259394 0.903758 23.627653 203 203 203 0
-2.172191 0.905080 23.662215 204 204 204 0
-2.082321 0.905357 23.669465 205 205 205 0
-1.992765 0.905802 23.681103 206 206 206 0
-1.901530 0.905491 23.672960 206 206 206 0
-1.804422 0.902211 23.587211 206 206 206 0
-1.710252 0.900132 23.532873 207 207 207 0
-1.620213 0.900118 23.532502 205 205 205 0
-1.503660 0.884506 23.124337 173 173 173 0
-1.397620 0.873513 22.836931 164 164 164 0
-1.307792 0.871862 22.793765 162 162 162 0
-1.218250 0.870179 22.749768 169 169 169 0
-1.123913 0.864549 22.602578 171 171 171 0
-1.031036 0.859196 22.462649 172 172 172 0
-0.938838 0.853489 22.313448 179 179 179 0
-0.851254 0.851254 22.255019 180 180 180 0
-0.765013 0.850014 22.222586 178 178 178 0
-0.677502 0.846877 22.140578 182 182 182 0
-0.591023 0.844318 22.073678 187 187 187 0
-0.504545 0.840908 21.984524 187 187 187 0
-0.418458 0.836915 21.880137 187 187 187 0
-0.333147 0.832867 21.774306 189 189 189 0
-0.248588 0.828625 21.663411 193 193 193 0
-0.165230 0.826150 21.598689 193 193 193 0
-0.082462 0.824617 21.558616 193 193 193 0
0.000000 0.823115 21.519335 193 193 193 0
0.081948 0.819476 21.424208 196 196 196 0
0.163368 0.816839 21.355262 198 198 198 0
0.244244 0.814146 21.284859 199 199 199 0
0.324737 0.811842 21.224625 199 199 199 0
0.405478 0.810956 21.201456 200 200 200 0
0.486040 0.810066 21.178197 200 200 200 0
0.566201 0.808859 21.146638 203 203 203 0
0.645706 0.807133 21.101504 203 203 203 0
0.723943 0.804381 21.029563 204 204 204 0
0.803060 0.803060 20.995036 204 204 204 0
0.881504 0.801368 20.950790 204 204 204 0
0.960386 0.800321 20.923432 204 204 204 0
1.040278 0.800214 20.920624 206 206 206 0
1.118173 0.798695 20.880919 207 207 207 0
1.195696 0.797130 20.840009 208 208 208 0
1.273512 0.795945 20.809022 208 208 208 0
1.351276 0.794868 20.780864 208 208 208 0
1.431137 0.795076 20.786299 208 208 208 0
1.509554 0.794502 20.771293 208 208 208 0
1.586605 0.793302 20.739932 209 209 209 0
1.663748 0.792261 20.712708 210 210 210 0
1.741245 0.791475 20.692152 210 210 210 0
1.819980 0.791295 20.687463 211 211 211 0
1.899134 0.791306 20.687729 211 211 211 0
1.979035 0.791614 20.695790 211 211 211 0
2.054439 0.790169 20.658005 211 211 211 0
2.132928 0.789973 20.652900 212 212 212 0
2.211309 0.789753 20.647143 212 212 212 0
2.290903 0.789967 20.652723 212 212 212 0
2.370434 0.790145 20.657373 212 212 212 0
2.447720 0.789587 20.642800 212 212 212 0
2.528377 0.790118 20.656671 213 213 213 0
2.605644 0.789589 20.642854 213 213 213 0
2.685636 0.789893 20.650793 213 213 213 0
2.765678 0.790194 20.658660 213 213 213 0
2.847768 0.791047 20.680956 213 213 213 0
2.926924 0.791061 20.681323 213 213 213 0
3.007796 0.791525 20.693473 214 214 214 0
3.086952 0.791526 20.693494 213 213 213 0
3.167580 0.791895 20.703140 213 213 213 0
3.254183 0.793703 20.750411 213 213 213 0
3.336122 0.794315 20.766396 213 213 213 0
3.416177 0.794460 20.770188 213 213 213 0
3.499620 0.795368 20.793941 213 213 213 0
3.584990 0.796664 20.827826 213 213 213 0
3.669806 0.797784 20.857095 214 214 214 0
3.753477 0.798612 20.878749 214 214 214 0
3.839658 0.799929 20.913171 213 213 213 0
3.928025 0.801638 20.957849 213 213 213 0
4.013942 0.802788 20.987933 214 214 214 0
4.102283 0.804369 21.029261 213 213 213 0
4.189337 0.805642 21.062531 213 213 213 0
4.278754 0.807312 21.106197 213 213 213 0
4.371869 0.809605 21.166156 213 213 213 0
4.466657 0.812119 21.231882 212 212 212 0
4.560954 0.814456 21.292971 212 212 212 0
4.651261 0.816011 21.333614 212 212 212 0
4.750858 0.819114 21.414733 212 212 212 0
4.850191 0.822066 21.491930 211 211 211 0
4.945899 0.824317 21.550759 211 211 211 0
5.051623 0.828135 21.650585 211 211 211 0
5.151590 0.830902 21.722920 211 211 211 0
5.258431 0.834672 21.821477 210 210 210 0
5.368121 0.838769 21.928599 209 209 209 0
5.487532 0.844236 22.071522 211 211 211 0
5.609592 0.849938 22.220606 209 209 209 0
5.723524 0.854257 22.333523 210 210 210 0
5.856448 0.861242 22.516139 208 208 208 0
5.998640 0.869368 22.728577 209 209 209 0
6.164043 0.880578 23.021636 208 208 208 0
6.326517 0.891059 23.295653 213 213 213 0
6.393468 0.887982 23.215208 215 215 215 0
6.474458 0.886912 23.187242 215 215 215 0
6.563206 0.886920 23.187443 216 216 216 0
6.658323 0.887776 23.209840 215 215 215 0
6.750445 0.888216 23.221346 214 214 214 0
6.822341 0.886018 23.163877 214 214 214 0
6.920790 0.887281 23.196883 214 214 214 0
7.024051 0.889120 23.244979 214 214 214 0
-5.555565 1.131689 26.896951 87 87 87 0
-5.374565 1.115476 26.511606 120 120 120 0
-5.203207 1.100678 26.159916 136 136 136 0
-5.048563 1.088906 25.880112 150 150 150 0
-4.891800 1.076196 25.578038 156 156 156 0
-4.757897 1.068099 25.385605 163 163 163 0
-4.632651 1.061649 25.232304 165 165 165 0
-4.515477 1.056814 25.117382 173 173 173 0
-4.404958 1.053359 25.035281 175 175 175 0
-4.283792 1.047149 24.887678 176 176 176 0
-4.166980 1.041745 24.759237 182 182 182 0
-4.051999 1.036558 24.635957 183 183 183 0
-3.938441 1.031496 24.515662 183 183 183 0
-3.836230 1.029232 24.461854 187 187 187 0
-3.736665 1.027583 24.422644 189 189 189 0
-3.638388 1.026212 24.390067 190 190 190 0
-3.525654 1.020584 24.256304 190 190 190 0
-3.419443 1.016591 24.161403 193 193 193 0
-3.319329 1.014239 24.105512 195 195 195 0
-3.217252 1.011136 24.031761 196 196 196 0
-3.122536 1.010232 24.010275 196 196 196 0
-3.030062 1.010021 24.005246 197 197 197 0
-2.926967 1.006145 23.913127 199 199 199 0
-2.830606 1.004408 23.871859 200 200 200 0
-2.730250 1.001092 23.793028 200 200 200 0
-2.639304 1.001115 23.793593 200 200 200 0
-2.548854 1.001336 23.798825 202 202 202 0
-2.456124 1.000643 23.782366 203 203 203 0
-2.360933 0.998856 23.739903 204 204 204 0
-2.262983 0.995713 23.665186 203 203 203 0
-2.170354 0.994746 23.642206 204 204 204 0
-2.080407 0.994977 23.647708 206 206 206 0
-1.990643 0.995321 23.655883 205 205 205 0
-1.899360 0.994903 23.645935 206 206 206 0
-1.807831 0.994307 23.631781 206 206 206 0
-1.714398 0.992546 23.589926 206 206 206 0
-1.621137 0.990695 23.545920 208 208 208 0
-1.512850 0.978903 23.265660 190 190 190 0
-1.408664 0.968456 23.017382 161 161 161 0
-1.306668 0.958223 22.774168 165 165 165 0
-1.221416 0.959684 22.808890 168 168 168 0
-1.128486 0.954873 22.694538 170 170 170 0
-1.031983 0.945984 22.483290 172 172 172 0
-0.942175 0.942175 22.392741 175 175 175 0
-0.853615 0.938976 22.316727 178 178 178 0
-0.765620 0.935757 22.240226 178 178 178 0
-0.678631 0.933118 22.177481 180 180 180 0
-0.590977 0.928679 22.071981 186 186 186 0
-0.505076 0.925972 22.007648 187 187 187 0
-0.418466 0.920624 21.880552 187 187 187 0
-0.333021 0.915807 21.766060 188 188 188 0
-0.248953 0.912828 21.695257 192 192 192 0
-0.165551 0.910530 21.640632 194 194 194 0
-0.082612 0.908731 21.597881 193 193 193 0
0.000000 0.906572 21.546579 193 193 193 0
0.081993 0.901919 21.435977 194 194 194 0
0.163610 0.899853 21.386878 198 198 198 0
0.244673 0.897133 21.322228 199 199 199 0
0.325020 0.893805 21.243130 199 199 199 0
0.405864 0.892900 21.221631 199 199 199 0
0.486671 0.892230 21.205716 200 200 200 0
0.566824 0.890724 21.169910 201 201 201 0
0.646631 0.889117 21.131727 204 204 204 0
0.724547 0.885557 21.047103 204 204 204 0
0.803589 0.883948 21.008862 205 205 205 0
0.883135 0.883135 20.989539 205 205 205 0
0.962147 0.881968 20.961818 204 204 204 0
1.041705 0.881443 20.949330 205 205 205 0
1.119999 0.880000 20.915022 206 206 206 0
1.196805 0.877657 20.859350 207 207 207 0
1.274803 0.876427 20.830114 208 208 208 0
1.352625 0.875228 20.801613 207 207 207 0
1.432911 0.875668 20.812076 208 208 208 0
1.511085 0.874838 20.792358 208 208 208 0
1.589186 0.874052 20.773674 208 208 208 0
1.666454 0.872904 20.746393 208 208 208 0
1.742698 0.871349 20.709424 209 209 209 0
1.822417 0.871591 20.715166 210 210 210 0
1.900119 0.870888 20.698462 210 210 210 0
1.981135 0.871699 20.717753 211 211 211 0
2.057944 0.870669 20.693252 211 211 211 0
2.135245 0.869914 20.675328 211 211 211 0
2.211737 0.868897 20.651135 211 211 211 0
2.293934 0.870113 20.680046 212 212 212 0
2.372130 0.869781 20.672158 212 212 212 0
2.452577 0.870269 20.683763 212 212 212 0
2.530440 0.869839 20.673529 212 212 212 0
2.608503 0.869501 20.665503 213 213 213 0
2.689495 0.870131 20.680467 213 213 213 0
2.768758 0.870181 20.681667 213 213 213 0
2.850794 0.871076 20.702936 213 213 213 0
2.929723 0.870999 20.701099 213 213 213 0
3.010438 0.871442 20.711646 214 214 214 0
3.090537 0.871690 20.717523 213 213 213 0
3.173315 0.872662 20.740620 213 213 213 0
3.257714 0.874021 20.772928 214 214 214 0
3.339366 0.874596 20.786594 213 213 213 0
3.421603 0.875294 20.803178 214 214 214 0
3.504316 0.876079 20.821840 213 213 213 0
3.589512 0.877436 20.854097 213 213 213 0
3.674103 0.878590 20.881517 213 213 213 0
3.761241 0.880290 20.921934 213 213 213 0
3.843886 0.880890 20.936196 212 212 212 0
3.931868 0.882664 20.978356 213 213 213 0
4.019771 0.884350 21.018410 213 213 213 0
4.110347 0.886546 21.070600 213 213 213 0
4.199723 0.888403 21.114744 214 214 214 0
4.285419 0.889427 21.139075 213 213 213 0
4.380126 0.892248 21.206129 213 213 213 0
4.474605 0.894921 21.269660 213 213 213 0
4.565036 0.896704 21.312027 212 212 212 0
4.664299 0.900128 21.393412 212 212 212 0
4.758300 0.902436 21.448277 212 212 212 0
4.860717 0.906235 21.538573 211 211 211 0
4.959045 0.909158 21.608041 211 211 211 0
5.062555 0.912920 21.697439 211 211 211 0
5.168174 0.916934 21.792850 211 211 211 0
5.273920 0.920843 21.885757 210 210 210 0
5.377631 0.924280 21.967449 210 210 210 0
5.497169 0.930290 22.110282 210 210 210 0
5.616550 0.936092 22.248167 209 209 209 0
5.734028 0.941408 22.374514 209 209 209 0
5.888669 0.952579 22.640021 208 208 208 0
6.027581 0.960919 22.838236 207 207 207 0
6.205433 0.975139 23.176220 211 211 211 0
6.314156 0.978250 23.250139 214 214 214 0
6.382477 0.975101 23.175297 216 216 216 0
6.467489 0.974553 23.162285 215 215 215 0
6.564281 0.975772 23.191242 215 215 215 0
6.662582 0.977179 23.224685 215 215 215 0
6.744832 0.976226 23.202037 214 214 214 0
6.831118 0.975874 23.193679 214 214 214 0
6.914305 0.975094 23.175146 214 214 214 0
7.018532 0.977264 23.226711 213 213 213 0
-5.565473 1.236772 26.944918 86 86 86 0
-5.367148 1.215203 26.475017 119 119 119 0
-5.209775 1.202256 26.192936 136 136 136 0
-5.058520 1.190240 25.931152 149 149 149 0
-4.898876 1.175730 25.615039 155 155 155 0
-4.758623 1.165377 25.389478 165 165 165 0
-4.629308 1.157327 25.214096 165 165 165 0
-4.518810 1.153739 25.135919 173 173 173 0
-4.398750 1.147500 25.000000 175 175 175 0
-4.282148 1.141906 24.878131 176 176 176 0
-4.174296 1.138444 24.802712 182 182 182 0
-4.052663 1.130976 24.639994 183 183 183 0
-3.938177 1.125193 24.514019 183 183 183 0
-3.834483 1.122288 24.450714 186 186 186 0
-3.734055 1.120216 24.405585 189 189 189 0
-3.631487 1.117380 24.343801 190 190 190 0
-3.531026 1.115061 24.293265 191 191 191 0
-3.419379 1.108988 24.160953 193 193 193 0
-3.316661 1.105554 24.086134 195 195 195 0
-3.215482 1.102451 24.018542 196 196 196 0
-3.122849 1.102182 24.012683 196 196 196 0
-3.029665 1.101696 24.002101 197 197 197 0
-2.923349 1.096256 23.883574 200 200 200 0
-2.825845 1.093875 23.831709 199 199 199 0
-2.730675 1.092270 23.796731 200 200 200 0
-2.639304 1.092126 23.793593 200 200 200 0
-2.547964 1.091984 23.790509 202 202 202 0
-2.456075 1.091589 23.781889 203 203 203 0
-2.361336 1.089847 23.743948 204 204 204 0
-2.265804 1.087586 23.694680 203 203 203 0
-2.175026 1.087513 23.693092 205 205 205 0
-2.080031 1.085234 23.643436 206 206 206 0
-1.991961 1.086524 23.671554 206 206 206 0
-1.904196 1.088112 23.706143 207 207 207 0
-1.806796 1.084078 23.618251 206 206 206 0
-1.714019 1.082538 23.584714 206 206 206 0
-1.623532 1.082355 23.580718 208 208 208 0
-1.525058 1.076512 23.453411 201 201 201 0
-1.415888 1.061916 23.135417 168 168 168 0
-1.308273 1.046618 22.802140 164 164 164 0
-1.217985 1.043987 22.744818 165 165 165 0
-1.125190 1.038637 22.628259 171 171 171 0
-1.032735 1.032735 22.499681 170 170 170 0
-0.943528 1.029304 22.424919 173 173 173 0
-0.853434 1.024121 22.312013 180 180 180 0
-0.767755 1.023673 22.302242 180 180 180 0
-0.679188 1.018783 22.195699 180 180 180 0
-0.593364 1.017195 22.161109 185 185 185 0
-0.506813 1.013627 22.083369 188 188 188 0
-0.419472 1.006732 21.933155 187 187 187 0
-0.333774 1.001321 21.815263 187 187 187 0
-0.249361 0.997443 21.730790 189 189 189 0
-0.165869 0.995215 21.682244 193 193 193 0
-0.082720 0.992645 21.626258 194 194 194 0
0.000000 0.990905 21.588346 194 194 194 0
0.082270 0.987239 21.508476 195 195 195 0
0.163867 0.983203 21.420554 197 197 197 0
0.244790 0.979161 21.332488 199 199 199 0
0.325890 0.977670 21.300002 200 200 200 0
0.406748 0.976196 21.267888 199 199 199 0
0.487440 0.974880 21.239220 200 200 200 0
0.567697 0.973194 21.202490 200 200 200 0
0.646430 0.969646 21.125180 201 201 201 0
0.726176 0.968234 21.094431 204 204 204 0
0.805360 0.966432 21.055172 204 204 204 0
0.884372 0.964770 21.018945 204 204 204 0
0.963375 0.963375 20.988562 204 204 204 0
1.042247 0.962074 20.960227 204 204 204 0
1.121545 0.961324 20.943883 205 205 205 0
1.198456 0.958765 20.888120 207 207 207 0
1.276985 0.957739 20.865765 208 208 208 0
1.354510 0.956124 20.830598 208 208 208 0
1.434053 0.956035 20.828653 208 208 208 0
1.513523 0.955909 20.825906 208 208 208 0
1.591315 0.954789 20.801498 209 209 209 0
1.668491 0.953424 20.771755 208 208 208 0
1.745274 0.951968 20.740037 209 209 209 0
1.824537 0.951932 20.739269 208 208 208 0
1.903720 0.951860 20.737688 209 209 209 0
1.982462 0.951582 20.731633 210 210 210 0
2.059762 0.950659 20.711531 211 211 211 0
2.136831 0.949703 20.690690 211 211 211 0
2.215640 0.949560 20.687582 212 212 212 0
2.295828 0.949998 20.697122 212 212 212 0
2.375415 0.950166 20.700781 212 212 212 0
2.455937 0.950685 20.712095 212 212 212 0
2.533251 0.949969 20.696495 213 213 213 0
2.610998 0.949454 20.685271 212 212 212 0
2.692857 0.950420 20.706323 213 213 213 0
2.772168 0.950457 20.707135 213 213 213 0
2.854160 0.951387 20.727381 212 212 212 0
2.933547 0.951421 20.728116 213 213 213 0
3.014056 0.951807 20.736539 213 213 213 0
3.094517 0.952159 20.744205 213 213 213 0
3.179237 0.953771 20.779327 213 213 213 0
3.263614 0.955204 20.810547 213 213 213 0
3.345657 0.955902 20.825754 213 213 213 0
3.426136 0.956131 20.830741 214 214 214 0
3.509533 0.957145 20.852840 213 213 213 0
3.596679 0.959114 20.895740 213 213 213 0
3.680291 0.960076 20.916689 213 213 213 0
3.764811 0.961228 20.941793 213 213 213 0
3.850161 0.962540 20.970377 213 213 213 0
3.938444 0.964517 21.013441 212 212 212 0
4.026108 0.966266 21.051545 213 213 213 0
4.116818 0.968663 21.103769 213 213 213 0
4.201944 0.969679 21.125913 212 212 212 0
4.292489 0.971884 21.173951 213 213 213 0
4.391735 0.975941 21.262335 213 213 213 0
4.482257 0.977947 21.306033 213 213 213 0
4.574791 0.980312 21.357569 212 212 212 0
4.667203 0.982569 21.406733 212 212 212 0
4.770032 0.986903 21.501160 211 211 211 0
4.871250 0.990763 21.585245 211 211 211 0
4.969801 0.993960 21.654908 211 211 211 0
5.070496 0.997475 21.731473 211 211 211 0
5.179715 1.002526 21.841516 210 210 210 0
5.286290 1.006912 21.937089 211 211 211 0
5.394269 1.011425 22.035412 210 210 210 0
5.511642 1.017534 22.168496 210 210 210 0
5.632574 1.024104 22.311641 210 210 210 0
5.746051 1.029143 22.421425 209 209 209 0
5.913118 1.043491 22.734019 208 208 208 0
6.072378 1.056066 23.007968 208 208 208 0
6.215633 1.065537 23.214316 213 213 213 0
6.303983 1.065462 23.212677 217 217 217 0
6.371536 1.061923 23.135570 214 214 214 0
6.455661 1.061205 23.119925 216 216 216 0
6.554280 1.062856 23.155910 215 215 215 0
6.655070 1.064811 23.198501 214 214 214 0
6.750686 1.065898 23.222174 214 214 214 0
6.825105 1.063653 23.173262 213 213 213 0
6.907793 1.062737 23.153321 214 214 214 0
7.011087 1.064975 23.202076 215 215 215 0
-5.579559 1.343227 27.013117 84 84 84 0
-5.369985 1.317166 26.489011 118 118 118 0
-5.204020 1.301005 26.164002 135 135 135 0
-5.048469 1.286865 25.879630 149 149 149 0
-4.911894 1.277093 25.683108 154 154 154 0
-4.763489 1.263783 25.415442 164 164 164 0
-4.629880 1.253926 25.217212 166 166 166 0
-4.518621 1.249831 25.134870 172 172 172 0
-4.404340 1.244705 25.031768 175 175 175 0
-4.289634 1.239228 24.921621 176 176 176 0
-4.169945 1.232029 24.776854 182 182 182 0
-4.058139 1.226879 24.673290 183 183 183 0
-3.927943 1.215792 24.450317 183 183 183 0
-3.836607 1.216485 24.464257 186 186 186 0
-3.735951 1.214184 24.417978 190 190 190 0
-3.634041 1.211347 24.360928 190 190 190 0
-3.531535 1.208157 24.296769 191 191 191 0
-3.419049 1.201287 24.158621 193 193 193 0
-3.316989 1.197801 24.088517 195 195 195 0
-3.219860 1.195948 24.051245 195 195 195 0
-3.126345 1.195367 24.039564 196 196 196 0
-3.031151 1.194090 24.013876 197 197 197 0
-2.926037 1.188702 23.905530 199 199 199 0
-2.831509 1.187407 23.879474 199 199 199 0
-2.730295 1.183128 23.793417 200 200 200 0
-2.640969 1.183883 23.808598 200 200 200 0
-2.552206 1.184953 23.830121 202 202 202 0
-2.455650 1.182350 23.777777 203 203 203 0
-2.364848 1.182424 23.779265 203 203 203 0
-2.264461 1.177520 23.680637 204 204 204 0
-2.172629 1.176841 23.666981 205 205 205 0
-2.083990 1.177908 23.688438 208 208 208 0
-1.994178 1.178378 23.697894 208 208 208 0
-1.902720 1.177874 23.687769 207 207 207 0
-1.806016 1.173910 23.608052 207 207 207 0
-1.715211 1.173565 23.601112 207 207 207 0
-1.623530 1.172550 23.580686 208 208 208 0
-1.531427 1.171091 23.551351 206 206 206 0
-1.412028 1.147272 23.072346 182 182 182 0
-1.310243 1.135544 22.836480 168 168 168 0
-1.215368 1.128556 22.695955 164 164 164 0
-1.126462 1.126462 22.653838 172 172 172 0
-1.033802 1.119952 22.522918 172 172 172 0
-0.946260 1.118307 22.489843 173 173 173 0
-0.855975 1.112767 22.378426 179 179 179 0
-0.770222 1.112543 22.373917 180 180 180 0
-0.681128 1.106833 22.259083 180 180 180 0
-0.592967 1.101224 22.146286 182 182 182 0
-0.506849 1.098172 22.084902 187 187 187 0
-0.420065 1.092169 21.964175 187 187 187 0
-0.333960 1.085371 21.827466 187 187 187 0
-0.249583 1.081526 21.750142 188 188 188 0
-0.166074 1.079483 21.709060 192 192 192 0
-0.082886 1.077521 21.669596 194 194 194 0
0.000000 1.075735 21.633688 194 194 194 0
0.082329 1.070280 21.523981 194 194 194 0
0.164058 1.066378 21.445515 195 195 195 0
0.245242 1.062716 21.371865 197 197 197 0
0.326313 1.060518 21.327657 199 199 199 0
0.407470 1.059421 21.305606 200 200 200 0
0.488185 1.057735 21.271696 200 200 200 0
0.568002 1.054861 21.213906 200 200 200 0
0.648085 1.053138 21.179252 200 200 200 0
0.726293 1.049090 21.097841 203 203 203 0
0.805853 1.047609 21.068045 204 204 204 0
0.885469 1.046463 21.045014 205 205 205 0
0.965074 1.045497 21.025576 205 205 205 0
1.044023 1.044023 20.995928 204 204 204 0
1.122642 1.042454 20.964376 205 205 205 0
1.199635 1.039684 20.908673 205 205 205 0
1.278154 1.038501 20.884877 207 207 207 0
1.356823 1.037570 20.866171 208 208 208 0
1.436691 1.037610 20.866971 208 208 208 0
1.515680 1.037044 20.855587 208 208 208 0
1.593681 1.035893 20.832430 209 209 209 0
1.669057 1.033225 20.778793 208 208 208 0
1.747745 1.032758 20.769395 208 208 208 0
1.826824 1.032553 20.765259 209 209 209 0
1.906373 1.032619 20.766588 210 210 210 0
1.986582 1.033023 20.774711 210 210 210 0
2.062882 1.031441 20.742902 210 210 210 0
2.139683 1.030218 20.718309 210 210 210 0
2.217884 1.029732 20.708534 211 211 211 0
2.298281 1.030264 20.719237 211 211 211 0
2.377798 1.030379 20.721555 211 211 211 0
2.457911 1.030737 20.728746 212 212 212 0
2.537599 1.030900 20.732020 212 212 212 0
2.615729 1.030439 20.722751 211 211 211 0
2.697127 1.031254 20.739153 212 212 212 0
2.777560 1.031665 20.747414 212 212 212 0
2.859009 1.032420 20.762590 212 212 212 0
2.937884 1.032229 20.758763 212 212 212 0
3.018074 1.032499 20.764185 212 212 212 0
3.098745 1.032915 20.772546 213 213 213 0
3.185414 1.035260 20.819700 213 213 213 0
3.267547 1.036052 20.835626 213 213 213 0
3.349314 1.036692 20.848515 214 214 214 0
3.430852 1.037234 20.859411 213 213 213 0
3.515203 1.038583 20.886527 213 213 213 0
3.599296 1.039797 20.910943 213 213 213 0
3.686681 1.041888 20.953002 212 212 212 0
3.772053 1.043334 20.982079 213 213 213 0
3.858398 1.044983 21.015238 213 213 213 0
3.944794 1.046578 21.047322 213 213 213 0
4.034869 1.049066 21.097357 212 212 212 0
4.121539 1.050588 21.127973 213 213 213 0
4.210870 1.052718 21.170792 212 212 212 0
4.300324 1.054796 21.212597 212 212 212 0
4.393028 1.057581 21.268593 212 212 212 0
4.490941 1.061495 21.347315 212 212 212 0
4.584553 1.064271 21.403141 212 212 212 0
4.677694 1.066843 21.454853 212 212 212 0
4.780986 1.071600 21.550532 211 211 211 0
4.879109 1.075058 21.620069 211 211 211 0
4.979547 1.078902 21.697374 210 210 210 0
5.077060 1.081996 21.759607 211 211 211 0
5.189316 1.088082 21.881997 210 210 210 0
5.300338 1.093720 21.995385 210 210 210 0
5.403064 1.097497 22.071339 209 209 209 0
5.534053 1.106811 22.258636 209 209 209 0
5.647991 1.112483 22.372710 209 209 209 0
5.778010 1.121106 22.546133 208 208 208 0
5.942623 1.136090 22.847456 209 209 209 0
6.098838 1.149056 23.108225 208 208 208 0
6.216083 1.154415 23.215997 216 216 216 0
6.287971 1.151319 23.153719 215 215 215 0
6.367865 1.149753 23.122240 215 215 215 0
6.450267 1.148678 23.100608 215 215 215 0
6.542211 1.149307 23.113270 214 214 214 0
6.649636 1.152604 23.179559 215 215 215 0
6.740315 1.152949 23.186499 214 214 214 0
6.810901 1.149892 23.125036 214 214 214 0
6.901027 1.150171 23.130643 214 214 214 0
6.998488 1.151650 23.160379 214 214 214 0
-5.586878 1.448450 27.048552 83 83 83 0
-5.383244 1.421989 26.554416 116 116 116 0
-5.209079 1.402444 26.189437 134 134 134 0
-5.057776 1.388409 25.927341 149 149 149 0
-4.902002 1.372561 25.631383 154 154 154 0
-4.771983 1.363424 25.460762 163 163 163 0
-4.634309 1.351674 25.241335 164 164 164 0
-4.528159 1.348813 25.187922 173 173 173 0
-4.405545 1.340818 25.038619 175 175 175 0
-4.290066 1.334687 24.924129 176 176 176 0
-4.172962 1.327761 24.794785 181 181 181 0
-4.051456 1.319079 24.632654 183 183 183 0
-3.940961 1.313654 24.531348 184 184 184 0
-3.839432 1.311025 24.482268 186 186 186 0
-3.738604 1.308511 24.435318 190 190 190 0
-3.635028 1.304882 24.367540 191 191 191 0
-3.530328 1.300647 24.288466 190 190 190 0
-3.419272 1.293779 24.160198 193 193 193 0
-3.316460 1.289735 24.084680 195 195 195 0
-3.219847 1.287939 24.051143 195 195 195 0
-3.125117 1.286813 24.030118 196 196 196 0
-3.030538 1.285683 24.009013 197 197 197 0
-2.926101 1.280169 23.906053 200 200 200 0
-2.831151 1.278584 23.876461 200 200 200 0
-2.730663 1.274309 23.796625 200 200 200 0
-2.639077 1.274037 23.791544 200 200 200 0
-2.548410 1.274205 23.794682 202 202 202 0
-2.454967 1.272946 23.771165 202 202 202 0
-2.361124 1.271375 23.741821 202 202 202 0
-2.262381 1.266933 23.658885 202 202 202 0
-2.171901 1.266942 23.659056 205 205 205 0
-2.080873 1.266618 23.653001 207 207 207 0
-1.993268 1.268443 23.687081 208 208 208 0
-1.903201 1.268801 23.693759 207 207 207 0
-1.808239 1.265767 23.637110 207 207 207 0
-1.714148 1.263056 23.586486 207 207 207 0
-1.622792 1.262172 23.569970 207 207 207 0
-1.532951 1.262430 23.574788 209 209 209 0
-1.429287 1.250626 23.354359 193 193 193 0
-1.314986 1.227321 22.919154 171 171 171 0
-1.217973 1.217973 22.744591 164 164 164 0
-1.124834 1.211360 22.621094 171 171 171 0
-1.038798 1.211931 22.631770 171 171 171 0
-0.946478 1.204608 22.495017 171 171 171 0
-0.857443 1.200420 22.416815 175 175 175 0
-0.770497 1.198550 22.381894 180 180 180 0
-0.684016 1.197028 22.353457 180 180 180 0
-0.594854 1.189707 22.216758 180 180 180 0
-0.507465 1.184085 22.111759 185 185 185 0
-0.420438 1.177228 21.983710 187 187 187 0
-0.334861 1.172012 21.886309 187 187 187 0
-0.250046 1.166882 21.790507 188 188 188 0
-0.166554 1.165877 21.771748 190 190 190 0
-0.083017 1.162235 21.703739 193 193 193 0
0.000000 1.159441 21.651554 194 194 194 0
0.082486 1.154809 21.565053 195 195 195 0
0.164347 1.150427 21.483222 194 194 194 0
0.245645 1.146344 21.406992 196 196 196 0
0.326959 1.144357 21.369873 199 199 199 0
0.408285 1.143197 21.348221 200 200 200 0
0.489254 1.141592 21.318244 200 200 200 0
0.569711 1.139423 21.277737 200 200 200 0
0.648611 1.135070 21.196454 200 200 200 0
0.727386 1.131489 21.129579 201 201 201 0
0.807312 1.130236 21.106188 204 204 204 0
0.887400 1.129418 21.090898 204 204 204 0
0.966885 1.128032 21.065023 205 205 205 0
1.046295 1.126779 21.041631 205 205 205 0
1.124438 1.124438 20.997907 205 205 205 0
1.201691 1.121579 20.944511 205 205 205 0
1.280229 1.120200 20.918776 205 205 205 0
1.358003 1.118355 20.884318 207 207 207 0
1.438275 1.118658 20.889980 208 208 208 0
1.518156 1.118641 20.889658 208 208 208 0
1.595582 1.116908 20.857287 209 209 209 0
1.672297 1.114865 20.819140 208 208 208 0
1.751347 1.114494 20.812207 209 209 209 0
1.828601 1.113062 20.785466 209 209 209 0
1.909673 1.113976 20.802542 209 209 209 0
1.988818 1.113738 20.798096 210 210 210 0
2.065798 1.112353 20.772225 209 209 209 0
2.144494 1.111960 20.764887 210 210 210 0
2.223499 1.111750 20.760965 210 210 210 0
2.302229 1.111421 20.754825 210 210 210 0
2.381314 1.111280 20.752192 211 211 211 0
2.461441 1.111618 20.758515 212 212 212 0
2.539920 1.111215 20.750983 212 212 212 0
2.619085 1.111127 20.749339 212 212 212 0
2.699471 1.111547 20.757174 211 211 211 0
2.780688 1.112275 20.770777 212 212 212 0
2.863985 1.113772 20.798729 212 212 212 0
2.942560 1.113401 20.791800 212 212 212 0
3.023050 1.113755 20.798417 212 212 212 0
3.103854 1.114204 20.806794 212 212 212 0
3.189252 1.116238 20.844783 213 213 213 0
3.272729 1.117517 20.868670 213 213 213 0
3.354501 1.118167 20.880805 213 213 213 0
3.436404 1.118829 20.893168 213 213 213 0
3.518363 1.119479 20.905303 212 212 212 0
3.604468 1.121390 20.940988 212 212 212 0
3.692347 1.123758 20.985207 212 212 212 0
3.777910 1.125335 21.014655 212 212 212 0
3.862416 1.126538 21.037127 212 212 212 0
3.952484 1.129281 21.088352 213 213 213 0
4.041880 1.131726 21.134011 212 212 212 0
4.131146 1.134040 21.177219 213 213 213 0
4.219684 1.136069 21.215102 211 211 211 0
4.308218 1.138020 21.251536 211 211 211 0
4.404393 1.141880 21.323614 211 211 211 0
4.497522 1.144824 21.378594 212 212 212 0
4.588375 1.147094 21.420984 211 211 211 0
4.686734 1.151128 21.496314 211 211 211 0
4.788208 1.155774 21.583089 211 211 211 0
4.890150 1.160375 21.668995 211 211 211 0
4.982741 1.162640 21.711290 210 210 210 0
5.090638 1.168343 21.817799 209 209 209 0
5.202367 1.174728 21.937032 210 210 210 0
5.307326 1.179406 22.024382 209 209 209 0
5.420273 1.185685 22.141640 209 209 209 0
5.549282 1.195230 22.319885 210 210 210 0
5.661019 1.200822 22.424316 209 209 209 0
5.805358 1.213060 22.652844 208 208 208 0
5.976322 1.230419 22.977016 209 209 209 0
6.117521 1.241236 23.179012 213 213 213 0
6.201102 1.240220 23.160045 216 216 216 0
6.279231 1.238158 23.121536 215 215 215 0
6.351218 1.234959 23.061792 215 215 215 0
6.444619 1.235954 23.080378 214 214 214 0
6.540879 1.237464 23.108564 214 214 214 0
6.641022 1.239657 23.149532 214 214 214 0
6.732263 1.240154 23.158798 214 214 214 0
6.810338 1.238243 23.123124 214 214 214 0
6.901049 1.238650 23.130717 214 214 214 0
6.988492 1.238467 23.127302 214 214 214 0
-5.609322 1.558145 27.157212 80 80 80 0
-5.392214 1.526098 26.598666 114 114 114 0
-5.217702 1.505106 26.232791 132 132 132 0
-5.066143 1.490042 25.970232 148 148 148 0
-4.899545 1.469863 25.618534 153 153 153 0
-4.769880 1.460167 25.449541 163 163 163 0
-4.640689 1.450215 25.276086 165 165 165 0
-4.522904 1.443480 25.158695 171 171 171 0
-4.409690 1.437942 25.062176 175 175 175 0
-4.295796 1.431932 24.957419 176 176 176 0
-4.176034 1.423648 24.813036 181 181 181 0
-4.063941 1.417654 24.708564 183 183 183 0
-3.942917 1.408185 24.543521 183 183 183 0
-3.839776 1.404796 24.484461 185 185 185 0
-3.741213 1.402955 24.452371 189 189 189 0
-3.636768 1.398757 24.379206 189 189 189 0
-3.533425 1.394773 24.309768 190 190 190 0
-3.424184 1.388183 24.194904 192 192 192 0
-3.319290 1.383038 24.105229 195 195 195 0
-3.222246 1.380963 24.069068 194 194 194 0
-3.128180 1.380079 24.053670 196 196 196 0
-3.027224 1.376011 23.982761 196 196 196 0
-2.932828 1.374763 23.961015 199 199 199 0
-2.826640 1.367729 23.838418 199 199 199 0
-2.734406 1.367203 23.829248 200 200 200 0
-2.640991 1.366030 23.808799 200 200 200 0
-2.548507 1.365271 23.795581 201 201 201 0
-2.458472 1.365818 23.805104 203 203 203 0
-2.361075 1.362159 23.741329 203 203 203 0
-2.259406 1.355643 23.627773 202 202 202 0
-2.171952 1.357470 23.659608 203 203 203 0
-2.078516 1.355554 23.626214 207 207 207 0
-1.987285 1.354967 23.615984 207 207 207 0
-1.898055 1.355754 23.629695 208 208 208 0
-1.809065 1.356798 23.647903 208 208 208 0
-1.717654 1.356042 23.634725 209 209 209 0
-1.624720 1.353933 23.597965 208 208 208 0
-1.530246 1.350217 23.533194 209 209 209 0
-1.437897 1.348029 23.495051 205 205 205 0
-1.322897 1.322897 23.057029 179 179 179 0
-1.221040 1.308257 22.801870 168 168 168 0
-1.126997 1.300381 22.664586 169 169 169 0
-1.036971 1.296213 22.591953 174 174 174 0
-0.947616 1.292203 22.522065 172 172 172 0
-0.860722 1.291083 22.502535 173 173 173 0
-0.772344 1.287240 22.435557 179 179 179 0
-0.685224 1.284795 22.392939 180 180 180 0
-0.596544 1.278309 22.279897 180 180 180 0
-0.508070 1.270176 22.138143 182 182 182 0
-0.421860 1.265580 22.058040 187 187 187 0
-0.335069 1.256508 21.899920 187 187 187 0
-0.250827 1.254137 21.858601 188 188 188 0
-0.166845 1.251336 21.809785 188 188 188 0
-0.083235 1.248528 21.760829 192 192 192 0
0.000000 1.244573 21.691899 194 194 194 0
0.082635 1.239518 21.603801 195 195 195 0
0.164651 1.234885 21.523053 195 195 195 0
0.245963 1.229815 21.434690 195 195 195 0
0.327509 1.228159 21.405816 197 197 197 0
0.408837 1.226512 21.377110 199 199 199 0
0.489960 1.224901 21.349036 200 200 200 0
0.570719 1.222969 21.315361 201 201 201 0
0.649445 1.217709 21.223691 200 200 200 0
0.728866 1.214776 21.172570 200 200 200 0
0.808155 1.212233 21.128240 202 202 202 0
0.888313 1.211336 21.112616 204 204 204 0
0.967859 1.209823 21.086244 204 204 204 0
1.047366 1.208499 21.063165 205 205 205 0
1.126297 1.206747 21.032626 205 205 205 0
1.204124 1.204124 20.986919 205 205 205 0
1.282829 1.202652 20.961255 206 206 206 0
1.360696 1.200614 20.925737 205 205 205 0
1.440376 1.200313 20.920488 207 207 207 0
1.519512 1.199615 20.908318 208 208 208 0
1.598694 1.199020 20.897960 209 209 209 0
1.674941 1.196387 20.852053 208 208 208 0
1.753593 1.195632 20.838898 208 208 208 0
1.831857 1.194689 20.822468 209 209 209 0
1.911856 1.194910 20.826316 209 209 209 0
1.993049 1.195830 20.842346 209 209 209 0
2.068174 1.193177 20.796116 210 210 210 0
2.146392 1.192440 20.783272 210 210 210 0
2.225742 1.192362 20.781905 211 211 211 0
2.306593 1.193066 20.794171 210 210 210 0
2.386448 1.193224 20.796936 211 211 211 0
2.467182 1.193798 20.806936 210 210 210 0
2.543685 1.192353 20.781743 211 211 211 0
2.622836 1.192198 20.779056 211 211 211 0
2.705769 1.193722 20.805607 212 212 212 0
2.785551 1.193807 20.807102 212 212 212 0
2.868119 1.195050 20.828752 211 211 211 0
2.946121 1.194373 20.816962 212 212 212 0
3.028609 1.195503 20.836661 213 213 213 0
3.108308 1.195503 20.836656 213 213 213 0
3.192705 1.197264 20.867351 213 213 213 0
3.277403 1.199050 20.898474 212 212 212 0
3.359117 1.199685 20.909535 212 212 212 0
3.440652 1.200227 20.918995 212 212 212 0
3.527153 1.202438 20.957531 212 212 212 0
3.613814 1.204605 20.995287 212 212 212 0
3.696418 1.205354 21.008341 212 212 212 0
3.783257 1.207423 21.044402 212 212 212 0
3.869293 1.209154 21.074583 212 212 212 0
3.957457 1.211466 21.114882 212 212 212 0
4.048599 1.214580 21.169143 211 211 211 0
4.138138 1.217099 21.213062 211 211 211 0
4.226635 1.219222 21.250052 212 212 212 0
4.316009 1.221512 21.289968 211 211 211 0
4.414948 1.226374 21.374716 212 212 212 0
4.500003 1.227274 21.390389 212 212 212 0
4.598446 1.231727 21.468003 210 210 210 0
4.697614 1.236214 21.546217 211 211 211 0
4.803720 1.242341 21.653009 211 211 211 0
4.896801 1.244949 21.698464 211 211 211 0
4.996548 1.249137 21.771449 209 209 209 0
5.116153 1.258070 21.927153 210 210 210 0
5.217604 1.262323 22.001280 209 209 209 0
5.323089 1.267402 22.089797 209 209 209 0
5.442480 1.275581 22.232353 209 209 209 0
5.570136 1.285416 22.403765 209 209 209 0
5.701841 1.295873 22.586022 209 209 209 0
5.844764 1.308529 22.806610 208 208 208 0
5.992881 1.321959 23.040681 208 208 208 0
6.115207 1.329393 23.170246 215 215 215 0
6.193692 1.327220 23.132370 215 215 215 0
6.271890 1.325047 23.094503 216 216 216 0
6.354048 1.323760 23.072069 214 214 214 0
6.435916 1.322448 23.049210 214 214 214 0
6.536577 1.324982 23.093366 215 215 215 0
6.637288 1.327458 23.136515 215 215 215 0
6.731824 1.328650 23.157290 213 213 213 0
6.809799 1.326584 23.121294 214 214 214 0
6.886004 1.324231 23.080287 214 214 214 0
6.981194 1.325543 23.103150 214 214 214 0
-5.603037 1.660159 27.126784 76 76 76 0
-5.395326 1.628778 26.614013 109 109 109 0
-5.215812 1.604865 26.223288 130 130 130 0
-5.067656 1.589853 25.977989 146 146 146 0
-4.913600 1.572352 25.692024 152 152 152 0
-4.771551 1.558057 25.458454 162 162 162 0
-4.638823 1.546274 25.265921 164 164 164 0
-4.523643 1.539963 25.162801 170 170 170 0
-4.414780 1.535575 25.091103 175 175 175 0
-4.297641 1.528050 24.968138 176 176 176 0
-4.179161 1.519695 24.831614 180 180 180 0
-4.057535 1.509781 24.669617 183 183 183 0
-3.944357 1.502612 24.552487 183 183 183 0
-3.842161 1.499380 24.499673 185 185 185 0
-3.741611 1.496644 24.454973 190 190 190 0
-3.640524 1.493548 24.404384 190 190 190 0
-3.532471 1.487356 24.303206 190 190 190 0
-3.420073 1.478951 24.165860 191 191 191 0
-3.318338 1.474817 24.098316 195 195 195 0
-3.223240 1.473481 24.076486 195 195 195 0
-3.130415 1.473137 24.070858 195 195 195 0
-3.031863 1.469994 24.019513 195 195 195 0
-2.929829 1.464915 23.936512 199 199 199 0
-2.831397 1.461366 23.878535 199 199 199 0
-2.734882 1.458604 23.833396 200 200 200 0
-2.641098 1.457157 23.809761 199 199 199 0
-2.550170 1.457240 23.811111 201 201 201 0
-2.456785 1.455872 23.788763 203 203 203 0
-2.361344 1.453135 23.744037 202 202 202 0
-2.265778 1.450098 23.694405 199 199 199 0
-2.166928 1.444618 23.604877 202 202 202 0
-2.075295 1.443684 23.589605 208 208 208 0
-1.988184 1.445952 23.626661 207 207 207 0
-1.898146 1.446207 23.630827 208 208 208 0
-1.807963 1.446370 23.633503 207 207 207 0
-1.713099 1.442610 23.572059 208 208 208 0
-1.619414 1.439479 23.520907 209 209 209 0
-1.530036 1.440034 23.529970 209 209 209 0
-1.439132 1.439132 23.515224 208 208 208 0
-1.339725 1.429040 23.350328 195 195 195 0
-1.226786 1.402041 22.909173 172 172 172 0
-1.128866 1.389373 22.702181 168 168 168 0
-1.040539 1.387386 22.669703 171 171 171 0
-0.951707 1.384301 22.619305 174 174 174 0
-0.863398 1.381437 22.572505 172 172 172 0
-0.774276 1.376490 22.491674 177 177 177 0
-0.686839 1.373678 22.445711 182 182 182 0
-0.597589 1.365918 22.318926 181 181 181 0
-0.508957 1.357220 22.176794 181 181 181 0
-0.422697 1.352631 22.101818 185 185 185 0
-0.336321 1.345285 21.981777 188 188 188 0
-0.251229 1.339891 21.893637 189 189 189 0
-0.167177 1.337412 21.853138 189 189 189 0
-0.083488 1.335810 21.826966 190 190 190 0
0.000000 1.329836 21.729354 194 194 194 0
0.082833 1.325329 21.655708 194 194 194 0
0.164979 1.319831 21.565873 195 195 195 0
0.246456 1.314431 21.477634 195 195 195 0
0.328242 1.312968 21.453725 196 196 196 0
0.409538 1.310522 21.413761 198 198 198 0
0.491053 1.309474 21.396626 200 200 200 0
0.570964 1.305060 21.324503 200 200 200 0
0.650790 1.301580 21.267648 200 200 200 0
0.730520 1.298703 21.220632 201 201 201 0
0.809755 1.295607 21.170053 201 201 201 0
0.889521 1.293849 21.141317 202 202 202 0
0.970711 1.294282 21.148396 204 204 204 0
1.049430 1.291606 21.104674 205 205 205 0
1.127676 1.288773 21.058378 205 205 205 0
1.205598 1.285972 21.012608 205 205 205 0
1.285331 1.285331 21.002142 205 205 205 0
1.363145 1.282960 20.963398 206 206 206 0
1.442816 1.282504 20.955940 206 206 206 0
1.522778 1.282339 20.953257 206 206 206 0
1.599882 1.279906 20.913491 208 208 208 0
1.676699 1.277485 20.873941 208 208 208 0
1.756498 1.277453 20.873422 209 209 209 0
1.835120 1.276605 20.859562 209 209 209 0
1.915086 1.276724 20.861503 210 210 210 0
1.994923 1.276751 20.861945 209 209 209 0
2.071423 1.274722 20.828790 209 209 209 0
2.151024 1.274681 20.828123 210 210 210 0
2.229197 1.273827 20.814160 210 210 210 0
2.310716 1.274878 20.831334 211 211 211 0
2.391360 1.275392 20.839739 210 210 210 0
2.470118 1.274899 20.831690 210 210 210 0
2.547797 1.273898 20.815334 211 211 211 0
2.627676 1.274025 20.817401 211 211 211 0
2.708462 1.274570 20.826313 211 211 211 0
2.790778 1.275784 20.846146 211 211 211 0
2.872004 1.276446 20.856967 212 212 212 0
2.952205 1.276629 20.859953 212 212 212 0
3.032198 1.276715 20.861358 212 212 212 0
3.114399 1.277702 20.877487 212 212 212 0
3.197841 1.279136 20.900923 212 212 212 0
3.281507 1.280588 20.924643 212 212 212 0
3.365018 1.281912 20.946266 211 211 211 0
3.448319 1.283095 20.965613 212 212 212 0
3.532946 1.284708 20.991955 211 211 211 0
3.620658 1.287345 21.035052 212 212 212 0
3.705776 1.288966 21.061528 213 213 213 0
3.790468 1.290372 21.084513 212 212 212 0
3.875963 1.291988 21.110911 211 211 211 0
3.967395 1.295476 21.167906 212 212 212 0
4.058400 1.298688 21.220395 211 211 211 0
4.145811 1.300646 21.252394 212 212 212 0
4.231971 1.302145 21.276878 211 211 211 0
4.328995 1.306866 21.354026 211 211 211 0
4.422967 1.310509 21.413541 212 212 212 0
4.513818 1.313111 21.456056 211 211 211 0
4.609267 1.316933 21.518518 211 211 211 0
4.710861 1.322347 21.606976 211 211 211 0
4.810129 1.326932 21.681898 211 211 211 0
4.904056 1.329913 21.730611 209 209 209 0
5.014499 1.337200 21.849667 209 209 209 0
5.129765 1.345512 21.985492 210 210 210 0
5.231454 1.350053 22.059684 210 210 210 0
5.340422 1.356298 22.161725 208 208 208 0
5.464422 1.366106 22.321987 209 209 209 0
5.589761 1.375941 22.482697 208 208 208 0
5.718277 1.386249 22.651128 208 208 208 0
5.893498 1.407403 22.996774 209 209 209 0
6.015027 1.415301 23.125825 211 211 211 0
6.099613 1.414403 23.111160 216 216 216 0
6.182007 1.413030 23.088727 215 215 215 0
6.269101 1.412755 23.084233 215 215 215 0
6.352778 1.411728 23.067457 215 215 215 0
6.437875 1.411041 23.056228 214 214 214 0
6.524985 1.410808 23.052413 215 215 215 0
6.626291 1.413609 23.098182 215 215 215 0
6.729278 1.416690 23.148530 214 214 214 0
6.813159 1.415721 23.132703 214 214 214 0
6.893902 1.414134 23.106761 214 214 214 0
6.977744 1.413214 23.091733 214 214 214 0
-5.415940 1.737188 26.715701 103 103 103 0
-5.238146 1.712471 26.335576 129 129 129 0
-5.062843 1.687614 25.953315 145 145 145 0
-4.922961 1.673807 25.740970 151 151 151 0
-4.784397 1.659893 25.526996 161 161 161 0
-4.648995 1.646519 25.321321 164 164 164 0
-4.531830 1.639173 25.208347 169 169 169 0
-4.421940 1.634195 25.131801 175 175 175 0
-4.295173 1.622621 24.953802 176 176 176 0
-4.180108 1.615042 24.837244 179 179 179 0
-4.063046 1.606321 24.703125 183 183 183 0
-3.949614 1.598653 24.585207 184 184 184 0
-3.840710 1.592490 24.490419 184 184 184 0
-3.744305 1.591329 24.472580 188 188 188 0
-3.640966 1.587088 24.407345 190 190 190 0
-3.529491 1.578983 24.282706 190 190 190 0
-3.425527 1.573891 24.204396 191 191 191 0
-3.324487 1.569897 24.142969 195 195 195 0
-3.226175 1.566999 24.098410 195 195 195 0
-3.129946 1.564973 24.067254 195 195 195 0
-3.034159 1.563052 24.037703 195 195 195 0
-2.934927 1.559180 23.978163 197 197 197 0
-2.829720 1.551782 23.864388 200 200 200 0
-2.733836 1.549174 23.824275 200 200 200 0
-2.646198 1.551220 23.855740 200 200 200 0
-2.547604 1.546760 23.787156 200 200 200 0
-2.455894 1.546304 23.780145 202 202 202 0
-2.362115 1.544460 23.751789 203 203 203 0
-2.260196 1.536933 23.636035 196 196 196 0
-2.164127 1.532923 23.574368 203 203 203 0
-2.073916 1.532895 23.573928 208 208 208 0
-1.985992 1.534630 23.600613 207 207 207 0
-1.896928 1.535608 23.615661 208 208 208 0
-1.808214 1.536982 23.636789 207 207 207 0
-1.709035 1.529137 23.516139 209 209 209 0
