ply
format ascii 1.0
element vertex 1099
property float x
property float y
property float z
property uchar red
property uchar green
property uchar blue
property uchar alpha
end_header
3.470924 -3.155385 20.623434 212 212 212 0
3.549844 -3.155417 20.623638 211 211 211 0
3.625817 -3.152884 20.607086 212 212 212 0
3.705040 -3.153226 20.609318 212 212 212 0
3.780895 -3.150746 20.593110 212 212 212 0
3.858193 -3.149545 20.585263 211 211 211 0
3.931269 -3.145016 20.555657 212 212 212 0
4.011473 -3.146253 20.563746 212 212 212 0
4.083214 -3.140934 20.528980 212 212 212 0
4.165915 -3.144087 20.549586 212 212 212 0
4.241312 -3.141713 20.534069 212 212 212 0
4.319745 -3.141633 20.533546 212 212 212 0
4.385529 -3.132521 20.473993 212 212 212 0
4.466200 -3.134176 20.484807 212 212 212 0
4.545822 -3.135050 20.490520 211 211 211 0
4.625314 -3.135806 20.495466 212 212 212 0
4.697040 -3.131360 20.466407 212 212 212 0
4.767581 -3.126282 20.433218 212 212 212 0
4.843960 -3.125135 20.425721 212 212 212 0
4.923644 -3.126123 20.432178 212 212 212 0
4.998932 -3.124332 20.420474 212 212 212 0
5.074929 -3.123033 20.411981 212 212 212 0
5.145842 -3.118692 20.383610 213 213 213 0
5.220684 -3.116827 20.371415 212 212 212 0
5.294723 -3.114543 20.356489 212 212 212 0
5.378023 -3.117695 20.377089 213 213 213 0
5.451391 -3.115081 20.360004 212 212 212 0
5.523235 -3.111681 20.337787 213 213 213 0
5.595859 -3.108810 20.319022 213 213 213 0
5.668914 -3.106254 20.302315 213 213 213 0
5.745643 -3.105753 20.299038 213 213 213 0
5.826615 -3.107528 20.310641 213 213 213 0
5.903206 -3.106950 20.306866 213 213 213 0
5.972693 -3.102698 20.279071 213 213 213 0
6.046106 -3.100567 20.265146 213 213 213 0
6.119602 -3.098532 20.251846 214 214 214 0
-6.735204 -3.367602 22.574841 138 138 138 0
-6.467846 -3.275922 21.960261 199 199 199 0
-6.372722 -3.270213 21.921989 202 202 202 0
-6.308582 -3.280462 21.990698 202 202 202 0
-6.229964 -3.283359 22.010119 201 201 201 0
-6.132558 -3.276298 21.962781 202 202 202 0
-6.033220 -3.267994 21.907115 202 202 202 0
-5.954290 -3.270666 21.925030 203 203 203 0
-5.873862 -3.272580 21.937861 203 203 203 0
-5.783421 -3.268890 21.913124 202 202 202 0
-5.702072 -3.270306 21.922615 202 202 202 0
-5.612858 -3.267186 21.901698 203 203 203 0
-5.515227 -3.258998 21.846811 203 203 203 0
-5.420164 -3.252098 21.800558 203 203 203 0
-5.344607 -3.256870 21.832546 203 203 203 0
-5.260380 -3.256426 21.829567 203 203 203 0
-5.181447 -3.259297 21.848816 204 204 204 0
-5.084809 -3.250944 21.792817 203 203 203 0
-4.999561 -3.249715 21.784582 204 204 204 0
-4.911244 -3.246416 21.762465 204 204 204 0
-4.825191 -3.244525 21.749792 204 204 204 0
-4.747358 -3.248192 21.774372 204 204 204 0
-4.663971 -3.248123 21.773908 203 203 203 0
-4.578552 -3.246610 21.763766 204 204 204 0
-4.479025 -3.234851 21.684942 204 204 204 0
-4.398860 -3.236897 21.698655 204 204 204 0
-4.314479 -3.235859 21.691698 204 204 204 0
-4.228879 -3.233849 21.678223 204 204 204 0
-4.145441 -3.233444 21.675510 204 204 204 0
-4.060327 -3.231689 21.663743 205 205 205 0
-3.974895 -3.229602 21.649756 204 204 204 0
-3.893589 -3.230851 21.658124 205 205 205 0
-3.805508 -3.226409 21.628351 205 205 205 0
-3.721815 -3.225573 21.622748 205 205 205 0
-3.639810 -3.226196 21.626919 205 205 205 0
-3.552122 -3.221692 21.596731 205 205 205 0
-3.462977 -3.215621 21.556033 205 205 205 0
-3.381688 -3.216727 21.563447 205 205 205 0
-3.300890 -3.218368 21.574447 205 205 205 0
-3.221272 -3.221272 21.593914 206 206 206 0
-3.133482 -3.215942 21.558181 205 205 205 0
-3.051831 -3.216795 21.563900 206 206 206 0
-2.960452 -3.207156 21.499288 206 206 206 0
-2.877393 -3.206237 21.493129 205 205 205 0
-2.793346 -3.204133 21.479019 206 206 206 0
-2.711812 -3.204869 21.483953 206 206 206 0
-2.631348 -3.206955 21.497941 206 206 206 0
-2.542267 -3.198336 21.440160 206 206 206 0
-2.460255 -3.198332 21.440132 206 206 206 0
-2.376295 -3.195707 21.422540 207 207 207 0
-2.292952 -3.193755 21.409450 206 206 206 0
-2.214876 -3.199265 21.446387 207 207 207 0
-2.127989 -3.191983 21.397573 207 207 207 0
-2.045585 -3.191113 21.391743 206 206 206 0
-1.959949 -3.184918 21.350212 206 206 206 0
-1.878104 -3.184611 21.348154 207 207 207 0
-1.798760 -3.188710 21.375635 206 206 206 0
-1.716495 -3.187777 21.369376 207 207 207 0
-1.631354 -3.181140 21.324885 207 207 207 0
-1.547514 -3.176477 21.293626 207 207 207 0
-1.466826 -3.178122 21.304657 207 207 207 0
-1.384769 -3.176824 21.295954 207 207 207 0
-1.303091 -3.176285 21.292338 207 207 207 0
-1.222000 -3.177200 21.298476 208 208 208 0
-1.138248 -3.170835 21.255805 207 207 207 0
-1.057174 -3.171522 21.260413 207 207 207 0
-0.974417 -3.166856 21.229132 208 208 208 0
-0.893780 -3.168857 21.242550 208 208 208 0
-0.812567 -3.169011 21.243582 207 207 207 0
-0.730504 -3.165516 21.220149 208 208 208 0
-0.648110 -3.159535 21.180060 209 209 209 0
-0.567458 -3.161550 21.193564 209 209 209 0
-0.485589 -3.156331 21.158581 208 208 208 0
-0.404865 -3.157945 21.169400 209 209 209 0
-0.323597 -3.155074 21.150152 209 209 209 0
-0.242708 -3.155204 21.151024 209 209 209 0
-0.161557 -3.150361 21.118561 209 209 209 0
-0.080696 -3.147132 21.096912 209 209 209 0
0.000000 -3.148236 21.104312 208 208 208 0
0.080780 -3.150411 21.118897 208 208 208 0
0.161397 -3.147235 21.097604 209 209 209 0
0.241645 -3.141381 21.058362 209 209 209 0
0.321971 -3.139219 21.043870 209 209 209 0
0.402547 -3.139866 21.048205 210 210 210 0
0.482890 -3.138785 21.040956 209 209 209 0
0.563163 -3.137625 21.033182 209 209 209 0
0.642522 -3.132297 20.997463 210 210 210 0
0.722465 -3.130680 20.986628 210 210 210 0
0.802350 -3.129166 20.976480 209 209 209 0
0.882086 -3.127396 20.964612 210 210 210 0
0.962796 -3.129085 20.975937 210 210 210 0
1.043062 -3.129187 20.976621 210 210 210 0
1.122234 -3.126223 20.956749 211 211 211 0
1.200382 -3.120994 20.921698 210 210 210 0
1.279378 -3.118483 20.904865 210 210 210 0
1.359574 -3.119023 20.908485 210 210 210 0
1.439914 -3.119813 20.913778 210 210 210 0
1.517650 -3.115176 20.882695 210 210 210 0
1.598024 -3.116148 20.889209 210 210 210 0
1.674228 -3.109280 20.843172 210 210 210 0
1.753138 -3.107836 20.833489 210 210 210 0
1.832864 -3.107899 20.833915 210 210 210 0
1.914657 -3.111317 20.856829 210 210 210 0
1.993955 -3.110570 20.851816 211 211 211 0
2.070338 -3.105507 20.817879 210 210 210 0
2.147599 -3.102087 20.794951 211 211 211 0
2.225276 -3.099492 20.777553 211 211 211 0
2.305952 -3.101107 20.788386 210 210 210 0
2.383537 -3.098598 20.771562 211 211 211 0
2.462301 -3.097734 20.765772 211 211 211 0
2.538880 -3.094260 20.742481 211 211 211 0
2.614484 -3.089845 20.712886 211 211 211 0
2.695314 -3.091683 20.725210 211 211 211 0
2.774627 -3.091727 20.725503 212 212 212 0
2.854341 -3.092203 20.728694 211 211 211 0
2.925465 -3.083599 20.671014 212 212 212 0
3.004389 -3.083452 20.670029 212 212 212 0
3.081079 -3.081079 20.654128 211 211 211 0
3.161096 -3.082069 20.660758 211 211 211 0
3.239481 -3.081457 20.656660 211 211 211 0
3.317248 -3.080301 20.648912 211 211 211 0
3.393093 -3.077457 20.629841 212 212 212 0
3.469592 -3.075321 20.615522 211 211 211 0
3.548417 -3.075295 20.615350 212 212 212 0
3.624570 -3.073005 20.600000 211 211 211 0
3.702094 -3.071950 20.592928 212 212 212 0
3.779170 -3.070575 20.583712 211 211 211 0
3.854687 -3.068016 20.566557 212 212 212 0
3.928210 -3.064004 20.539661 211 211 211 0
4.004984 -3.062635 20.530484 212 212 212 0
4.080031 -3.060024 20.512978 212 212 212 0
4.161560 -3.062280 20.528103 213 213 213 0
4.234310 -3.058113 20.500168 211 211 211 0
4.313299 -3.058521 20.502907 211 211 211 0
4.384131 -3.053234 20.467464 213 213 213 0
4.461495 -3.052602 20.463228 213 213 213 0
4.542768 -3.054620 20.476756 212 212 212 0
4.618404 -3.052844 20.464847 212 212 212 0
4.693041 -3.050476 20.448979 213 213 213 0
4.766995 -3.047751 20.430709 213 213 213 0
4.839914 -3.044462 20.408661 213 213 213 0
4.917053 -3.043890 20.404827 213 213 213 0
4.996057 -3.044472 20.408730 212 212 212 0
5.073697 -3.044218 20.407028 212 212 212 0
5.146837 -3.041313 20.387549 213 213 213 0
5.214949 -3.035567 20.349035 213 213 213 0
5.292008 -3.035122 20.346051 213 213 213 0
5.374185 -3.037583 20.362547 213 213 213 0
5.449003 -3.035873 20.351085 212 212 212 0
5.519427 -3.031798 20.323766 212 212 212 0
5.590012 -3.027923 20.297794 213 213 213 0
5.665976 -3.027028 20.291792 213 213 213 0
5.742803 -3.026613 20.289006 213 213 213 0
5.822114 -3.027499 20.294949 213 213 213 0
5.896374 -3.025771 20.283363 213 213 213 0
5.966679 -3.022084 20.258649 213 213 213 0
6.042724 -3.021362 20.253810 214 214 214 0
6.112659 -3.017642 20.228871 213 213 213 0
-6.699288 -3.263755 22.454458 146 146 146 0
-6.457409 -3.186773 21.924825 200 200 200 0
-6.388198 -3.194099 21.975224 202 202 202 0
-6.292748 -3.188325 21.935503 202 202 202 0
-6.205862 -3.186794 21.924967 202 202 202 0
-6.125940 -3.188846 21.939082 203 203 203 0
-6.025622 -3.180189 21.879528 202 202 202 0
-5.945455 -3.182074 21.892496 202 202 202 0
-5.860573 -3.181454 21.888228 202 202 202 0
-5.781618 -3.184080 21.906293 202 202 202 0
-5.682438 -3.175480 21.847130 203 203 203 0
-5.615989 -3.185188 21.913916 202 202 202 0
-5.514747 -3.175157 21.844908 203 203 203 0
-5.422819 -3.170263 21.811237 204 204 204 0
-5.334526 -3.167375 21.791364 203 203 203 0
-5.267139 -3.177005 21.857617 203 203 203 0
-5.172561 -3.170279 21.811346 203 203 203 0
-5.089532 -3.170528 21.813058 203 203 203 0
-4.999361 -3.166262 21.783709 204 204 204 0
-4.906812 -3.160320 21.742826 204 204 204 0
-4.826232 -3.162014 21.754483 204 204 204 0
-4.742077 -3.161385 21.750152 204 204 204 0
-4.660396 -3.162411 21.757216 204 204 204 0
-4.571557 -3.158530 21.730515 204 204 204 0
-4.483591 -3.155120 21.707049 204 204 204 0
-4.393240 -3.149870 21.670932 204 204 204 0
-4.317138 -3.154832 21.705069 204 204 204 0
-4.224215 -3.147454 21.654312 204 204 204 0
-4.146467 -3.151315 21.680871 205 205 205 0
-4.049434 -3.140377 21.605622 205 205 205 0
-3.966060 -3.139798 21.601635 205 205 205 0
-3.885970 -3.141848 21.615744 204 204 204 0
-3.801961 -3.140750 21.608190 205 205 205 0
-3.723864 -3.144596 21.634647 205 205 205 0
-3.637086 -3.141120 21.610730 205 205 205 0
-3.546992 -3.134551 21.565541 205 205 205 0
-3.461502 -3.131835 21.546855 205 205 205 0
-3.380099 -3.132774 21.553315 205 205 205 0
-3.298045 -3.133142 21.555847 205 205 205 0
-3.216915 -3.134430 21.564708 206 206 206 0
-3.135072 -3.135072 21.569121 205 205 205 0
-3.043329 -3.125581 21.503824 205 205 205 0
-2.959833 -3.124269 21.494795 206 206 206 0
-2.875461 -3.121929 21.478699 206 206 206 0
-2.795254 -3.124108 21.493688 206 206 206 0
-2.711536 -3.122375 21.481767 207 207 207 0
-2.625105 -3.117312 21.446934 206 206 206 0
-2.542809 -3.116991 21.444727 206 206 206 0
-2.459437 -3.115287 21.433001 206 206 206 0
-2.374981 -3.112043 21.410688 206 206 206 0
-2.294113 -3.113439 21.420290 207 207 207 0
-2.210862 -3.111584 21.407526 207 207 207 0
-2.126926 -3.108585 21.386891 207 207 207 0
-2.044450 -3.107565 21.379874 206 206 206 0
-1.960493 -3.104114 21.356134 207 207 207 0
-1.878208 -3.103126 21.349336 207 207 207 0
-1.797114 -3.104106 21.356080 206 206 206 0
-1.716573 -3.106180 21.370349 207 207 207 0
-1.631288 -3.099447 21.324027 207 207 207 0
-1.546280 -3.092560 21.276643 208 208 208 0
-1.466784 -3.096545 21.304058 207 207 207 0
-1.382865 -3.091110 21.266670 208 208 208 0
-1.302854 -3.094277 21.288458 208 208 208 0
-1.221806 -3.095241 21.295089 208 208 208 0
-1.137608 -3.087793 21.243844 208 208 208 0
-1.055535 -3.085410 21.227452 208 208 208 0
-0.973377 -3.082362 21.206479 208 208 208 0
-0.893151 -3.085429 21.227583 208 208 208 0
-0.811681 -3.084386 21.220406 208 208 208 0
-0.729939 -3.081964 21.203743 208 208 208 0
-0.647516 -3.075700 21.160649 208 208 208 0
-0.565828 -3.071640 21.132712 209 209 209 0
-0.485498 -3.074822 21.154610 208 208 208 0
-0.404405 -3.073477 21.145349 209 209 209 0
-0.323926 -3.077301 21.171658 209 209 209 0
-0.242380 -3.070142 21.122406 209 209 209 0
-0.161389 -3.066383 21.096545 209 209 209 0
-0.080716 -3.067193 21.102119 210 210 210 0
0.000000 -3.061942 21.065996 209 209 209 0
0.080664 -3.065231 21.088622 209 209 209 0
0.161310 -3.064897 21.086326 209 209 209 0
0.241767 -3.062377 21.068987 209 209 209 0
0.321505 -3.054297 21.013394 209 209 209 0
0.401961 -3.054907 21.017592 209 209 209 0
0.482438 -3.055441 21.021263 210 210 210 0
0.562718 -3.054752 21.016527 210 210 210 0
0.642358 -3.051199 20.992084 209 209 209 0
0.722017 -3.048515 20.973618 209 209 209 0
0.801810 -3.046880 20.962365 210 210 210 0
0.881634 -3.045643 20.953857 210 210 210 0
0.961968 -3.046231 20.957904 209 209 209 0
1.040957 -3.042797 20.934278 210 210 210 0
1.120336 -3.040913 20.921316 209 209 209 0
1.199833 -3.039578 20.912127 210 210 210 0
1.278931 -3.037462 20.897570 211 211 211 0
1.358649 -3.036979 20.894250 210 210 210 0
1.439625 -3.039208 20.909581 210 210 210 0
1.516874 -3.033748 20.872020 210 210 210 0
1.597289 -3.034849 20.879595 210 210 210 0
1.675400 -3.031675 20.857761 211 211 211 0
1.751932 -3.026064 20.819151 210 210 210 0
1.831455 -3.025882 20.817902 210 210 210 0
1.910879 -3.025558 20.815676 210 210 210 0
1.991856 -3.027620 20.829861 211 211 211 0
2.066742 -3.020623 20.781723 210 210 210 0
2.145374 -3.019415 20.773409 210 210 210 0
2.223741 -3.017935 20.763225 211 211 211 0
2.304134 -3.019210 20.771997 211 211 211 0
2.383239 -3.018769 20.768964 211 211 211 0
2.461473 -3.017289 20.758784 212 212 212 0
2.537413 -3.013178 20.730501 211 211 211 0
2.612253 -3.008049 20.695210 211 211 211 0
2.693672 -3.010575 20.712590 211 211 211 0
2.770366 -3.007826 20.693677 211 211 211 0
2.850220 -3.008565 20.698764 211 211 211 0
2.926452 -3.005545 20.677983 211 211 211 0
3.005075 -3.005075 20.674750 211 211 211 0
3.075462 -2.996604 20.616473 211 211 211 0
3.158591 -3.000662 20.644386 211 211 211 0
3.234727 -2.998039 20.626345 212 212 212 0
3.313283 -2.997733 20.624236 211 211 211 0
3.386891 -2.993067 20.592134 211 211 211 0
3.466898 -2.994139 20.599512 211 211 211 0
3.539155 -2.988620 20.561542 212 212 212 0
3.620896 -2.991175 20.579120 212 212 212 0
3.697305 -2.989310 20.566290 212 212 212 0
3.775981 -2.989318 20.566344 212 212 212 0
3.851189 -2.986637 20.547895 212 212 212 0
3.925880 -2.983669 20.527478 212 212 212 0
4.000776 -2.980971 20.508914 212 212 212 0
4.079610 -2.981253 20.510860 212 212 212 0
4.160261 -2.982829 20.521699 212 212 212 0
4.235178 -2.980311 20.504372 212 212 212 0
4.309446 -2.977435 20.484590 212 212 212 0
4.383162 -2.974289 20.462942 211 211 211 0
4.459105 -2.972737 20.452264 213 213 213 0
4.538897 -2.973760 20.459307 212 212 212 0
4.613192 -2.971208 20.441750 213 213 213 0
4.689200 -2.969827 20.432246 212 212 212 0
4.759562 -2.964973 20.398853 213 213 213 0
4.836183 -2.964112 20.392928 212 212 212 0
4.913280 -2.963566 20.389169 213 213 213 0
4.990452 -2.963081 20.385834 213 213 213 0
5.068293 -2.963002 20.385292 213 213 213 0
5.139399 -2.959048 20.358085 212 212 212 0
5.214901 -2.957705 20.348848 213 213 213 0
5.289346 -2.955811 20.335818 213 213 213 0
5.368648 -2.956647 20.341565 213 213 213 0
5.442822 -2.954675 20.328001 213 213 213 0
5.517676 -2.953123 20.317321 213 213 213 0
5.590433 -2.950507 20.299323 213 213 213 0
5.663842 -2.948301 20.284151 213 213 213 0
5.738440 -2.946767 20.273592 213 213 213 0
5.816780 -2.947168 20.276357 213 213 213 0
5.893586 -2.946793 20.273773 213 213 213 0
5.964737 -2.943637 20.252058 214 214 214 0
6.034969 -2.940113 20.227815 213 213 213 0
6.108187 -2.938115 20.214072 213 213 213 0
-6.685298 -3.171231 22.407569 154 154 154 0
-6.463977 -3.106067 21.947125 201 201 201 0
-6.379293 -3.105709 21.944594 202 202 202 0
-6.293184 -3.104637 21.937024 201 201 201 0
-6.208687 -3.104344 21.934948 202 202 202 0
-6.119373 -3.101600 21.915564 202 202 202 0
-6.012158 -3.089581 21.830641 202 202 202 0
-5.941173 -3.096104 21.876731 202 202 202 0
-5.862118 -3.098548 21.893997 203 203 203 0
-5.775200 -3.096846 21.881974 202 202 202 0
-5.685155 -3.093393 21.857573 203 203 203 0
-5.604404 -3.094969 21.868710 202 202 202 0
-5.514086 -3.091230 21.842291 203 203 203 0
-5.425834 -3.088552 21.823365 203 203 203 0
-5.339091 -3.086662 21.810013 203 203 203 0
-5.249506 -3.083043 21.784443 203 203 203 0
-5.168984 -3.084716 21.796264 203 203 203 0
-5.077781 -3.079965 21.762695 203 203 203 0
-4.987577 -3.075672 21.732360 203 203 203 0
-4.907610 -3.077654 21.746363 204 204 204 0
-4.820491 -3.075141 21.728607 204 204 204 0
-4.735026 -3.073613 21.717812 203 203 203 0
-4.643222 -3.067843 21.677039 204 204 204 0
-4.568791 -3.073550 21.717367 204 204 204 0
-4.476298 -3.067093 21.671741 205 205 205 0
-4.391828 -3.065993 21.663970 204 204 204 0
-4.310013 -3.066740 21.669248 205 205 205 0
-4.228013 -3.067382 21.673780 204 204 204 0
-4.142190 -3.065221 21.658510 204 204 204 0
-4.056467 -3.063046 21.643146 205 205 205 0
-3.969333 -3.059694 21.619461 204 204 204 0
-3.877533 -3.052526 21.568813 205 205 205 0
-3.798916 -3.055650 21.590882 205 205 205 0
-3.721719 -3.060080 21.622188 205 205 205 0
-3.632391 -3.054510 21.582832 205 205 205 0
-3.544399 -3.049832 21.549776 206 206 206 0
-3.455668 -3.044279 21.510541 206 206 206 0
-3.378002 -3.048441 21.539946 205 205 205 0
-3.292870 -3.045905 21.522026 205 205 205 0
-3.209630 -3.045033 21.515868 206 206 206 0
-3.124253 -3.042036 21.494688 206 206 206 0
-3.040363 -3.040363 21.482866 205 205 205 0
-2.958992 -3.041186 21.488684 206 206 206 0
-2.871555 -3.035644 21.449526 206 206 206 0
-2.787826 -3.033811 21.436570 206 206 206 0
-2.711619 -3.040300 21.482427 206 206 206 0
-2.623247 -3.033130 21.431760 206 206 206 0
-2.542913 -3.035090 21.445607 206 206 206 0
-2.455451 -3.028390 21.398268 206 206 206 0
-2.373615 -3.028405 21.398377 206 206 206 0
-2.291061 -3.027474 21.391794 207 207 207 0
-2.207812 -3.025520 21.377992 207 207 207 0
-2.123926 -3.022511 21.356726 207 207 207 0
-2.041933 -3.022062 21.353553 206 206 206 0
-1.957612 -3.017986 21.324753 207 207 207 0
-1.876873 -3.019317 21.334161 207 207 207 0
-1.795601 -3.019874 21.338098 207 207 207 0
-1.713090 -3.018301 21.326982 207 207 207 0
-1.628800 -3.013280 21.291506 207 207 207 0
-1.545368 -3.009401 21.264093 207 207 207 0
-1.463835 -3.008993 21.261215 207 207 207 0
-1.382329 -3.008598 21.258421 207 207 207 0
-1.302131 -3.011179 21.276656 208 208 208 0
-1.219703 -3.008600 21.258433 207 207 207 0
-1.136474 -3.003539 21.222672 208 208 208 0
-1.053229 -2.997652 21.181080 207 207 207 0
-0.972841 -2.999594 21.194796 207 207 207 0
-0.892622 -3.002456 21.215023 208 208 208 0
-0.811083 -3.001008 21.204787 208 208 208 0
-0.728974 -2.996895 21.175725 208 208 208 0
-0.646601 -2.990529 21.130751 208 208 208 0
-0.566003 -2.991729 21.139224 208 208 208 0
-0.484918 -2.990325 21.129306 208 208 208 0
-0.404268 -2.991582 21.138190 209 209 209 0
-0.323105 -2.988717 21.117947 209 209 209 0
-0.242294 -2.988291 21.114931 209 209 209 0
-0.161076 -2.979907 21.055691 209 209 209 0
-0.080604 -2.982334 21.072846 209 209 209 0
0.000000 -2.979542 21.053117 209 209 209 0
0.080562 -2.980798 21.061989 209 209 209 0
0.161310 -2.984238 21.086297 210 210 210 0
0.241447 -2.977843 21.041107 209 209 209 0
0.321632 -2.975095 21.021693 209 209 209 0
0.401851 -2.973699 21.011830 210 210 210 0
0.481941 -2.971969 20.999601 209 209 209 0
0.562141 -2.971316 20.994991 210 210 210 0
0.641757 -2.968124 20.972436 210 210 210 0
0.722502 -2.970288 20.987727 210 210 210 0
0.800712 -2.962633 20.933635 209 209 209 0
0.880283 -2.960951 20.921750 209 209 209 0
0.960512 -2.961578 20.926181 210 210 210 0
1.041089 -2.963099 20.936930 210 210 210 0
1.120923 -2.962439 20.932269 210 210 210 0
1.198494 -2.956286 20.888788 210 210 210 0
1.277890 -2.955121 20.880555 210 210 210 0
1.356199 -2.951726 20.856571 211 211 211 0
1.437450 -2.954759 20.877997 210 210 210 0
1.516791 -2.953751 20.870875 211 211 211 0
1.595490 -2.951656 20.856073 210 210 210 0
1.670391 -2.943070 20.795408 211 211 211 0
1.751413 -2.945559 20.812991 211 211 211 0
1.830367 -2.944503 20.805532 210 210 210 0
1.910845 -2.945886 20.815306 211 211 211 0
1.990522 -2.945973 20.815917 211 211 211 0
2.065964 -2.940026 20.773896 211 211 211 0
2.140299 -2.933002 20.724269 210 210 210 0
2.221058 -2.934970 20.738171 211 211 211 0
2.301838 -2.936828 20.751299 211 211 211 0
2.380789 -2.936306 20.747613 211 211 211 0
2.457845 -2.933557 20.728191 211 211 211 0
2.536682 -2.933038 20.724524 210 210 210 0
2.613753 -2.930572 20.707095 211 211 211 0
2.690447 -2.927839 20.687786 211 211 211 0
2.767913 -2.926079 20.675352 211 211 211 0
2.851456 -2.930663 20.707744 211 211 211 0
2.925348 -2.925348 20.670185 212 212 212 0
3.001643 -2.922653 20.651140 212 212 212 0
3.074884 -2.917198 20.612599 211 211 211 0
3.153888 -2.917346 20.613644 211 211 211 0
3.231791 -2.916494 20.607628 211 211 211 0
3.309307 -2.915342 20.599483 212 212 212 0
3.387313 -2.914665 20.594700 211 211 211 0
3.463906 -2.912830 20.581735 211 211 211 0
3.540881 -2.911391 20.571567 212 212 212 0
3.617304 -2.909571 20.558707 211 211 211 0
3.696753 -2.910210 20.563219 212 212 212 0
3.771800 -2.907429 20.543575 212 212 212 0
3.848339 -2.905889 20.532689 212 212 212 0
3.919730 -2.900600 20.495318 212 212 212 0
3.999259 -2.901423 20.501136 211 211 211 0
4.075310 -2.899740 20.489240 211 211 211 0
4.155259 -2.900841 20.497022 212 212 212 0
4.229431 -2.897944 20.476550 212 212 212 0
4.305737 -2.896587 20.466961 212 212 212 0
4.378856 -2.893172 20.442837 212 212 212 0
4.454388 -2.891445 20.430628 212 212 212 0
4.534558 -2.892736 20.439750 212 212 212 0
4.611484 -2.891948 20.434182 212 212 212 0
4.687768 -2.890791 20.426006 213 213 213 0
4.757176 -2.885500 20.388625 213 213 213 0
4.833043 -2.884236 20.379689 213 213 213 0
4.911022 -2.884251 20.379798 212 212 212 0
4.989733 -2.884689 20.382895 212 212 212 0
5.063157 -2.882105 20.364635 213 213 213 0
5.139920 -2.881470 20.360150 213 213 213 0
5.208477 -2.876323 20.323781 213 213 213 0
5.283670 -2.874938 20.313993 213 213 213 0
5.366009 -2.877425 20.331566 214 214 214 0
5.440328 -2.875602 20.318684 213 213 213 0
5.512013 -2.872458 20.296467 213 213 213 0
5.585477 -2.870315 20.281327 213 213 213 0
5.658164 -2.867837 20.263817 214 214 214 0
5.731116 -2.865558 20.247717 213 213 213 0
5.811739 -2.867125 20.258785 213 213 213 0
5.883897 -2.864529 20.240443 213 213 213 0
5.958410 -2.863132 20.230574 213 213 213 0
6.032332 -2.861491 20.218977 213 213 213 0
6.104666 -2.859147 20.202418 213 213 213 0
-6.635994 -3.062766 22.242311 161 161 161 0
-6.443904 -3.012734 21.878970 201 201 201 0
-6.369491 -3.017127 21.910873 201 201 201 0
-6.287700 -3.018096 21.917908 202 202 202 0
-6.202807 -3.017582 21.914176 202 202 202 0
-6.102118 -3.009264 21.853768 202 202 202 0
-6.025622 -3.012811 21.879528 202 202 202 0
-5.938437 -3.011039 21.866656 203 203 203 0
-5.846449 -3.006745 21.835475 203 203 203 0
-5.767962 -3.009371 21.854549 203 203 203 0
-5.681750 -3.007985 21.844483 203 203 203 0
-5.596949 -3.007316 21.839620 203 203 203 0
-5.504157 -3.002267 21.802958 203 203 203 0
-5.408119 -2.995266 21.752114 203 203 203 0
-5.340274 -3.003904 21.814846 203 203 203 0
-5.243400 -2.996229 21.759105 203 203 203 0
-5.162103 -2.997350 21.767249 203 203 203 0
-5.076843 -2.996170 21.758677 203 203 203 0
-4.988321 -2.992993 21.735604 203 203 203 0
-4.898249 -2.988762 21.704879 203 203 203 0
-4.814952 -2.988591 21.703636 204 204 204 0
-4.735906 -2.991099 21.721851 204 204 204 0
-4.649909 -2.989227 21.708258 204 204 204 0
-4.568125 -2.990045 21.714199 204 204 204 0
-4.476078 -2.984052 21.670677 204 204 204 0
-4.390739 -2.982389 21.658597 204 204 204 0
-4.304236 -2.979856 21.640201 205 205 205 0
-4.227263 -2.983950 21.669936 204 204 204 0
-4.137871 -2.979267 21.635928 204 204 204 0
-4.051371 -2.976517 21.615957 204 204 204 0
-3.957836 -2.968377 21.556842 205 205 205 0
-3.884138 -2.975084 21.605552 205 205 205 0
-3.793032 -2.968460 21.557443 205 205 205 0
-3.717651 -2.974120 21.598550 205 205 205 0
-3.635101 -2.974174 21.598939 205 205 205 0
-3.545512 -2.968336 21.556542 205 205 205 0
-3.454231 -2.960770 21.501596 206 206 206 0
-3.371489 -2.960332 21.498418 206 206 206 0
-3.290913 -2.961822 21.509236 205 205 205 0
-3.208765 -2.961937 21.510070 205 205 205 0
-3.124679 -2.960222 21.497617 205 205 205 0
-3.040579 -2.958402 21.484398 206 206 206 0
-2.958036 -2.958036 21.481742 206 206 206 0
-2.867965 -2.949907 21.422709 206 206 206 0
-2.789498 -2.953586 21.449425 206 206 206 0
-2.708439 -2.954661 21.457230 205 205 205 0
-2.622492 -2.950304 21.425590 206 206 206 0
-2.536807 -2.945969 21.394112 206 206 206 0
-2.455816 -2.946979 21.401449 207 207 207 0
-2.369682 -2.941675 21.362925 207 207 207 0
-2.290776 -2.945283 21.389130 206 206 206 0
-2.208938 -2.945251 21.388896 207 207 207 0
-2.125967 -2.943647 21.377244 207 207 207 0
-2.037523 -2.934033 21.307431 207 207 207 0
-1.954687 -2.932030 21.292884 207 207 207 0
-1.873594 -2.932582 21.296892 208 208 208 0
-1.793281 -2.934461 21.310534 208 208 208 0
-1.711648 -2.934254 21.309037 207 207 207 0
-1.628900 -2.932020 21.292810 207 207 207 0
-1.546190 -2.929623 21.275403 207 207 207 0
-1.462402 -2.924804 21.240409 208 208 208 0
-1.382282 -2.927186 21.257708 208 208 208 0
-1.301247 -2.927805 21.262201 208 208 208 0
-1.217933 -2.923039 21.227586 208 208 208 0
-1.134898 -2.918309 21.193235 208 208 208 0
-1.051204 -2.911026 21.140351 208 208 208 0
-0.971229 -2.913688 21.159683 208 208 208 0
-0.890857 -2.915531 21.173062 208 208 208 0
-0.809864 -2.915510 21.172915 208 208 208 0
-0.728675 -2.914698 21.167016 208 208 208 0
-0.646381 -2.908713 21.123554 209 209 209 0
-0.564932 -2.905365 21.099236 208 208 208 0
-0.484259 -2.905553 21.100606 208 208 208 0
-0.403893 -2.908028 21.118580 208 208 208 0
-0.323094 -2.907846 21.117252 208 208 208 0
-0.241635 -2.899625 21.057554 209 209 209 0
-0.161041 -2.898730 21.051056 209 209 209 0
-0.080521 -2.898742 21.051141 209 209 209 0
0.000000 -2.896027 21.031426 210 210 210 0
0.080494 -2.897780 21.044154 209 209 209 0
0.160904 -2.896264 21.033147 209 209 209 0
0.240805 -2.889655 20.985148 209 209 209 0
0.320995 -2.888952 20.980046 209 209 209 0
0.401070 -2.887705 20.970990 209 209 209 0
0.481220 -2.887317 20.968172 210 210 210 0
0.562073 -2.890662 20.992463 209 209 209 0
0.641932 -2.888694 20.978170 210 210 210 0
0.720885 -2.883538 20.940727 210 210 210 0
0.799878 -2.879559 20.911831 210 210 210 0
0.879690 -2.878985 20.907665 209 209 209 0
0.960258 -2.880773 20.920643 210 210 210 0
1.040019 -2.880052 20.915409 209 209 209 0
1.119125 -2.877750 20.898692 210 210 210 0
1.197312 -2.873548 20.868178 210 210 210 0
1.275834 -2.870627 20.846963 211 211 211 0
1.355521 -2.870515 20.846151 210 210 210 0
1.436579 -2.873158 20.865343 210 210 210 0
1.515313 -2.871120 20.850545 211 211 211 0
1.593390 -2.868102 20.828628 210 210 210 0
1.671537 -2.865492 20.809671 210 210 210 0
1.749592 -2.862969 20.791354 211 211 211 0
1.828254 -2.861615 20.781515 211 211 211 0
1.909451 -2.864176 20.800115 210 210 210 0
1.988220 -2.863037 20.791848 210 210 210 0
2.064349 -2.858330 20.757659 211 211 211 0
2.141712 -2.855617 20.737956 211 211 211 0
2.217359 -2.850890 20.703631 211 211 211 0
2.299261 -2.854254 20.728064 211 211 211 0
2.378897 -2.854676 20.731126 211 211 211 0
2.458320 -2.854823 20.732197 210 210 210 0
2.533941 -2.850683 20.702129 211 211 211 0
2.608835 -2.846002 20.668130 211 211 211 0
2.686503 -2.844533 20.657465 212 212 212 0
2.766754 -2.845804 20.666698 211 211 211 0
2.844919 -2.844919 20.660268 211 211 211 0
2.922248 -2.843268 20.648281 212 212 212 0
2.999409 -2.841546 20.635771 211 211 211 0
3.074876 -2.838347 20.612543 212 212 212 0
3.153674 -2.838306 20.612247 211 211 211 0
3.229517 -2.835674 20.593128 212 212 212 0
3.308847 -2.836155 20.596623 212 212 212 0
3.384587 -2.833608 20.578124 212 212 212 0
3.456375 -2.827943 20.536987 212 212 212 0
3.536458 -2.829167 20.545873 212 212 212 0
3.613643 -2.828068 20.537895 212 212 212 0
3.691978 -2.827898 20.536660 212 212 212 0
3.769675 -2.827256 20.531999 212 212 212 0
3.845355 -2.825159 20.516767 212 212 212 0
3.919207 -2.821829 20.492585 212 212 212 0
3.995226 -2.820160 20.480462 212 212 212 0
4.071189 -2.818515 20.468521 212 212 212 0
4.151635 -2.819978 20.479146 212 212 212 0
4.227550 -2.818366 20.467440 213 213 213 0
4.303545 -2.816866 20.456541 212 212 212 0
4.373104 -2.811281 20.415984 213 213 213 0
4.450577 -2.810891 20.413151 212 212 212 0
4.530567 -2.812076 20.421756 212 212 212 0
4.604620 -2.809599 20.403766 212 212 212 0
4.681825 -2.809095 20.400107 212 212 212 0
4.750054 -2.803311 20.358103 213 213 213 0
4.828180 -2.803459 20.359181 213 213 213 0
4.905148 -2.802942 20.355423 213 213 213 0
4.983560 -2.803252 20.357679 213 213 213 0
5.060804 -2.802907 20.355168 213 213 213 0
5.132026 -2.799287 20.328881 213 213 213 0
5.206729 -2.797646 20.316961 213 213 213 0
5.280366 -2.795488 20.301292 212 212 212 0
5.355514 -2.794181 20.291801 213 213 213 0
5.435455 -2.795377 20.300486 213 213 213 0
5.508223 -2.792902 20.282512 213 213 213 0
5.578810 -2.789405 20.257118 213 213 213 0
5.653814 -2.788182 20.248235 213 213 213 0
5.727326 -2.786266 20.234324 213 213 213 0
5.803026 -2.785452 20.228411 213 213 213 0
5.879796 -2.785167 20.226337 213 213 213 0
5.955403 -2.784344 20.220367 213 213 213 0
6.028926 -2.782581 20.207563 214 214 214 0
6.097972 -2.778823 20.180268 213 213 213 0
-6.625401 -2.972936 22.206806 166 166 166 0
-6.458034 -2.935470 21.926946 201 201 201 0
-6.353389 -2.925903 21.855482 202 202 202 0
-6.281433 -2.931335 21.896063 203 203 203 0
-6.188114 -2.926811 21.862264 202 202 202 0
-6.111925 -2.930375 21.888890 202 202 202 0
-6.025589 -2.929106 21.879407 202 202 202 0
-5.919183 -2.917907 21.795760 203 203 203 0
-5.842105 -2.921052 21.819252 202 202 202 0
-5.760532 -2.922009 21.826397 203 203 203 0
-5.675211 -2.921064 21.819342 203 203 203 0
-5.601947 -2.926390 21.859125 203 203 203 0
-5.510304 -2.922131 21.827307 203 203 203 0
-5.422715 -2.919924 21.810821 203 203 203 0
-5.326660 -2.913017 21.759232 204 204 204 0
-5.233422 -2.907457 21.717698 203 203 203 0
-5.158337 -2.911965 21.751370 203 203 203 0
-5.080871 -2.915254 21.775939 203 203 203 0
-4.985767 -2.908364 21.724474 203 203 203 0
-4.893934 -2.903181 21.685758 204 204 204 0
-4.809478 -2.902271 21.678963 204 204 204 0
-4.732980 -2.906216 21.708428 204 204 204 0
-4.645768 -2.903605 21.688928 204 204 204 0
-4.564362 -2.904594 21.696315 204 204 204 0
-4.470999 -2.897870 21.646086 204 204 204 0
-4.386479 -2.896732 21.637585 204 204 204 0
-4.302221 -2.895726 21.630071 205 205 205 0
-4.215665 -2.893104 21.610485 204 204 204 0
-4.131896 -2.892327 21.604685 205 205 205 0
-4.048288 -2.891634 21.599510 205 205 205 0
-3.956625 -2.885039 21.550248 204 204 204 0
-3.875444 -2.885969 21.557191 204 204 204 0
-3.794304 -2.886971 21.564673 205 205 205 0
-3.712472 -2.887479 21.568467 205 205 205 0
-3.627885 -2.885818 21.556060 205 205 205 0
-3.539785 -2.881221 21.521722 206 206 206 0
-3.452092 -2.876743 21.488277 206 206 206 0
-3.370338 -2.877118 21.491079 205 205 205 0
-3.288594 -2.877520 21.494078 206 206 206 0
-3.201565 -2.873199 21.461806 205 205 205 0
-3.126527 -2.879696 21.510335 206 206 206 0
-3.033770 -2.869783 21.436287 206 206 206 0
-2.950330 -2.868377 21.425783 206 206 206 0
-2.865993 -2.865993 21.407978 205 205 205 0
-2.785857 -2.867794 21.421431 207 207 207 0
-2.697810 -2.861314 21.373025 206 206 206 0
-2.623044 -2.868954 21.430097 206 206 206 0
-2.538805 -2.866393 21.410967 206 206 206 0
-2.453219 -2.862088 21.378811 207 207 207 0
-2.368309 -2.858303 21.350539 207 207 207 0
-2.290267 -2.862834 21.384379 206 206 206 0
-2.204682 -2.857921 21.347680 206 206 206 0
-2.121958 -2.856482 21.336932 207 207 207 0
-2.035227 -2.849318 21.283420 207 207 207 0
-1.953435 -2.848759 21.279245 206 206 206 0
-1.872305 -2.849160 21.282238 207 207 207 0
-1.793268 -2.852927 21.310377 207 207 207 0
-1.709500 -2.849166 21.282289 207 207 207 0
-1.627642 -2.848374 21.276368 207 207 207 0
-1.545460 -2.846899 21.265353 207 207 207 0
-1.460576 -2.840010 21.213891 208 208 208 0
-1.378247 -2.837567 21.195642 208 208 208 0
-1.300742 -2.845374 21.253957 208 208 208 0
-1.218865 -2.844019 21.243838 208 208 208 0
-1.134389 -2.835971 21.183726 207 207 207 0
-1.053874 -2.837352 21.194043 208 208 208 0
-0.970515 -2.830670 21.144128 208 208 208 0
-0.891041 -2.835130 21.177441 208 208 208 0
-0.808409 -2.829431 21.134872 208 208 208 0
-0.727818 -2.830404 21.142137 208 208 208 0
-0.646447 -2.828205 21.125712 209 209 209 0
-0.564469 -2.822345 21.081940 208 208 208 0
-0.483732 -2.821773 21.077666 208 208 208 0
-0.403271 -2.822897 21.086064 209 209 209 0
-0.323090 -2.827037 21.116991 209 209 209 0
-0.241806 -2.821072 21.072436 209 209 209 0
-0.161036 -2.818127 21.050433 210 210 210 0
-0.080421 -2.814732 21.025079 209 209 209 0
0.000000 -2.814576 21.023909 209 209 209 0
0.080431 -2.815082 21.027690 209 209 209 0
0.160760 -2.813301 21.014388 209 209 209 0
0.240765 -2.808927 20.981715 210 210 210 0
0.320714 -2.806247 20.961697 209 209 209 0
0.401044 -2.807305 20.969599 209 209 209 0
0.480820 -2.804786 20.950783 210 210 210 0
0.561083 -2.805413 20.955465 210 210 210 0
0.640644 -2.802816 20.936069 210 210 210 0
0.719644 -2.798617 20.904702 210 210 210 0
0.798876 -2.796066 20.885645 209 209 209 0
0.878835 -2.796293 20.887343 210 210 210 0
0.958683 -2.796158 20.886331 210 210 210 0
1.038878 -2.796980 20.892476 210 210 210 0
1.118134 -2.795335 20.880188 209 209 209 0
1.196492 -2.791814 20.853883 211 211 211 0
1.273754 -2.786337 20.812971 210 210 210 0
1.354495 -2.788666 20.830374 210 210 210 0
1.433802 -2.787948 20.825010 210 210 210 0
1.512980 -2.787068 20.818437 211 211 211 0
1.592181 -2.786317 20.812828 210 210 210 0
1.667610 -2.779351 20.760789 211 211 211 0
1.747285 -2.779772 20.763936 211 211 211 0
1.826772 -2.779870 20.764671 210 210 210 0
1.906737 -2.780659 20.770560 211 211 211 0
1.987066 -2.781893 20.779779 210 210 210 0
2.063738 -2.778109 20.751514 211 211 211 0
2.139372 -2.773260 20.715291 212 212 212 0
2.216861 -2.771077 20.698986 211 211 211 0
2.296938 -2.772166 20.707125 210 210 210 0
2.377645 -2.773919 20.720214 212 212 212 0
2.456597 -2.773578 20.717667 211 211 211 0
2.531673 -2.769018 20.683607 211 211 211 0
2.605461 -2.763368 20.641403 211 211 211 0
2.684362 -2.763314 20.641002 212 212 212 0
2.764910 -2.764910 20.652925 212 212 212 0
2.844340 -2.765330 20.656063 211 211 211 0
2.918490 -2.760734 20.621727 211 211 211 0
2.996452 -2.759890 20.615428 211 211 211 0
3.071348 -2.756338 20.588895 211 211 211 0
3.149878 -2.756144 20.587440 211 211 211 0
3.226520 -2.754346 20.574016 211 211 211 0
3.304380 -2.753650 20.568816 211 211 211 0
3.383091 -2.753679 20.569027 212 212 212 0
3.455784 -2.748919 20.533476 211 211 211 0
3.530394 -2.745862 20.510639 212 212 212 0
3.610723 -2.747290 20.521304 212 212 212 0
3.687266 -2.745836 20.510449 212 212 212 0
3.766372 -2.746313 20.514007 212 212 212 0
3.843233 -2.745166 20.505445 213 213 213 0
3.913354 -2.739348 20.461983 212 212 212 0
3.991944 -2.739569 20.463635 212 212 212 0
4.068592 -2.738475 20.455465 212 212 212 0
4.150246 -2.740729 20.472296 212 212 212 0
4.225251 -2.738589 20.456312 212 212 212 0
4.299017 -2.735738 20.435019 212 212 212 0
4.369224 -2.730765 20.397872 213 213 213 0
4.445625 -2.729770 20.390435 212 212 212 0
4.527287 -2.731984 20.406973 212 212 212 0
4.605030 -2.731797 20.405583 213 213 213 0
4.677593 -2.728596 20.381669 212 212 212 0
4.750626 -2.725769 20.360552 213 213 213 0
4.825574 -2.724114 20.348194 213 213 213 0
4.902308 -2.723504 20.343637 213 213 213 0
4.979969 -2.723421 20.343012 213 213 213 0
5.055184 -2.722022 20.332567 213 213 213 0
5.125509 -2.718073 20.303066 213 213 213 0
5.202226 -2.717581 20.299388 213 213 213 0
5.277540 -2.716381 20.290428 213 213 213 0
5.352158 -2.714863 20.279088 213 213 213 0
5.428527 -2.714263 20.274609 213 213 213 0
5.504888 -2.713677 20.270232 213 213 213 0
5.575758 -2.710438 20.246035 213 213 213 0
5.649610 -2.708717 20.233182 213 213 213 0
5.723987 -2.707291 20.222528 213 213 213 0
5.799861 -2.706602 20.217381 213 213 213 0
5.874720 -2.705463 20.208876 213 213 213 0
5.948156 -2.703707 20.195759 213 213 213 0
6.024419 -2.703265 20.192456 213 213 213 0
6.094766 -2.700213 20.169658 214 214 214 0
-6.613166 -2.882662 22.165798 174 174 174 0
-6.434566 -2.841237 21.847266 201 201 201 0
-6.357966 -2.844353 21.871228 202 202 202 0
-6.280818 -2.847304 21.893920 202 202 202 0
-6.193908 -2.845850 21.882734 202 202 202 0
-6.097556 -2.839958 21.837429 202 202 202 0
-6.011712 -2.838864 21.829021 202 202 202 0
-5.923633 -2.836669 21.812144 202 202 202 0
-5.833051 -2.833196 21.785436 203 203 203 0
-5.754310 -2.835457 21.802824 203 203 203 0
-5.677741 -2.838871 21.829071 203 203 203 0
-5.585374 -2.834369 21.794455 203 203 203 0
-5.510304 -2.838641 21.827307 204 204 204 0
-5.410135 -2.829917 21.760221 203 203 203 0
-5.327212 -2.830082 21.761488 203 203 203 0
-5.234453 -2.824943 21.721974 204 204 204 0
-5.168984 -2.834604 21.796264 203 203 203 0
-5.070793 -2.826344 21.732748 204 204 204 0
-4.962249 -2.811941 21.622001 203 203 203 0
-4.890005 -2.817969 21.668352 204 204 204 0
-4.809756 -2.819512 21.680218 204 204 204 0
-4.727473 -2.819896 21.683168 204 204 204 0
-4.639857 -2.817056 21.661328 204 204 204 0
-4.557181 -2.817167 21.662181 204 204 204 0
-4.467944 -2.813150 21.631295 204 204 204 0
-4.374512 -2.806291 21.578551 205 205 205 0
-4.291479 -2.805967 21.576063 204 204 204 0
-4.210556 -2.807037 21.584291 204 204 204 0
-4.128214 -2.807185 21.585432 205 205 205 0
-4.046955 -2.808091 21.592396 205 205 205 0
-3.955908 -2.802102 21.546342 205 205 205 0
-3.867420 -2.797708 21.512560 205 205 205 0
-3.791658 -2.802530 21.549634 205 205 205 0
-3.704147 -2.798689 21.520099 205 205 205 0
-3.623274 -2.799803 21.528663 205 205 205 0
-3.532896 -2.793453 21.479837 205 205 205 0
-3.453064 -2.795338 21.494330 206 206 206 0
-3.366865 -2.792034 21.468929 205 205 205 0
-3.286056 -2.793148 21.477491 205 205 205 0
-3.205445 -2.794490 21.487815 206 206 206 0
-3.114851 -2.786972 21.430005 206 206 206 0
-3.035980 -2.789819 21.451897 206 206 206 0
-2.947401 -2.783656 21.404507 206 206 206 0
-2.864024 -2.782195 21.393269 206 206 206 0
-2.785714 -2.785714 21.420327 207 207 207 0
-2.697568 -2.779312 21.371106 206 206 206 0
-2.621933 -2.785804 21.421025 207 207 207 0
-2.532158 -2.777205 21.354905 206 206 206 0
-2.448487 -2.774952 21.337581 207 207 207 0
-2.366427 -2.774432 21.333581 207 207 207 0
-2.285504 -2.775255 21.339905 207 207 207 0
-2.203245 -2.774457 21.333768 207 207 207 0
-2.121547 -2.774331 21.332800 207 207 207 0
-2.035556 -2.768356 21.286856 207 207 207 0
-1.952483 -2.766017 21.268873 208 208 208 0
-1.870141 -2.764557 21.257644 208 208 208 0
-1.790135 -2.766573 21.273149 208 208 208 0
-1.709715 -2.768110 21.284967 208 208 208 0
-1.627421 -2.766616 21.273476 207 207 207 0
-1.542170 -2.759673 21.220090 208 208 208 0
-1.460605 -2.758921 21.214307 208 208 208 0
-1.379155 -2.758311 21.209616 207 207 207 0
-1.297009 -2.756145 21.192962 208 208 208 0
-1.215255 -2.754579 21.180923 208 208 208 0
-1.132692 -2.750824 21.152050 208 208 208 0
-1.050607 -2.747742 21.128354 208 208 208 0
-0.969030 -2.745585 21.111762 208 208 208 0
-0.889622 -2.749741 21.143724 208 208 208 0
-0.808611 -2.749277 21.140155 208 208 208 0
-0.726948 -2.746248 21.116866 209 209 209 0
-0.646166 -2.746207 21.116549 209 209 209 0
-0.564242 -2.740606 21.073477 208 208 208 0
-0.483771 -2.741366 21.079327 208 208 208 0
-0.403076 -2.740920 21.075893 209 209 209 0
-0.322290 -2.739463 21.064689 209 209 209 0
-0.241579 -2.737895 21.052634 209 209 209 0
-0.160842 -2.734311 21.025076 209 209 209 0
-0.080413 -2.734046 21.023037 209 209 209 0
0.000000 -2.731733 21.005255 209 209 209 0
0.080331 -2.731269 21.001684 209 209 209 0
0.160587 -2.729973 20.991718 209 209 209 0
0.240753 -2.728534 20.980651 209 209 209 0
0.320326 -2.722772 20.936347 210 210 210 0
0.400531 -2.723610 20.942792 210 210 210 0
0.480591 -2.723349 20.940781 209 209 209 0
0.560701 -2.723406 20.941220 210 210 210 0
0.639914 -2.719636 20.912230 210 210 210 0
0.719753 -2.719066 20.907852 209 209 209 0
0.797670 -2.712078 20.854119 210 210 210 0
0.877862 -2.713391 20.864216 210 210 210 0
0.958037 -2.714439 20.872269 210 210 210 0
1.038343 -2.715667 20.881717 210 210 210 0
1.117668 -2.714337 20.871489 210 210 210 0
1.194774 -2.708155 20.823953 210 210 210 0
1.274419 -2.708140 20.823838 211 211 211 0
1.352118 -2.704235 20.793812 211 211 211 0
1.433468 -2.707662 20.820160 211 211 211 0
1.512200 -2.706041 20.807699 211 211 211 0
1.593442 -2.708851 20.829303 210 210 210 0
1.669291 -2.702661 20.781710 210 210 210 0
1.745886 -2.698188 20.747309 212 212 212 0
1.825201 -2.698123 20.746814 210 210 210 0
1.904492 -2.698030 20.746099 211 211 211 0
1.983678 -2.697802 20.744344 211 211 211 0
2.061451 -2.695744 20.728521 211 211 211 0
2.137490 -2.691654 20.697071 211 211 211 0
2.214750 -2.689339 20.679267 211 211 211 0
2.294651 -2.690281 20.686510 211 211 211 0
2.374782 -2.691420 20.695269 212 212 212 0
2.451930 -2.689213 20.678301 211 211 211 0
2.528497 -2.686528 20.657654 211 211 211 0
2.606055 -2.685026 20.646108 211 211 211 0
2.682401 -2.682401 20.625919 212 212 212 0
2.762881 -2.683942 20.637768 211 211 211 0
2.843294 -2.685333 20.648467 212 212 212 0
2.917125 -2.680601 20.612081 212 212 212 0
2.994971 -2.679711 20.605236 212 212 212 0
3.069262 -2.675767 20.574907 211 211 211 0
3.149037 -2.676682 20.581944 212 212 212 0
3.225569 -2.674862 20.567954 212 212 212 0
3.303133 -2.673965 20.561054 212 212 212 0
3.380941 -2.673302 20.555955 213 213 213 0
3.456556 -2.670975 20.538062 211 211 211 0
3.530644 -2.667597 20.512090 212 212 212 0
3.607539 -2.666442 20.503203 212 212 212 0
3.686471 -2.666809 20.506026 212 212 212 0
3.762935 -2.665412 20.495286 212 212 212 0
3.838188 -2.663233 20.478530 212 212 212 0
3.912559 -2.660540 20.457826 212 212 212 0
3.988870 -2.659247 20.447880 212 212 212 0
4.064599 -2.657622 20.435388 212 212 212 0
4.145677 -2.659491 20.449759 212 212 212 0
4.216398 -2.654769 20.413448 212 212 212 0
4.294343 -2.654685 20.412803 213 213 213 0
4.364134 -2.649653 20.374110 213 213 213 0
4.443161 -2.650307 20.379136 212 212 212 0
4.523903 -2.651943 20.391722 212 212 212 0
4.596063 -2.648579 20.365851 212 212 212 0
4.675727 -2.649579 20.373540 213 213 213 0
4.740986 -2.642517 20.319238 213 213 213 0
4.820339 -2.643411 20.326117 213 213 213 0
4.897743 -2.643226 20.324694 212 212 212 0
4.973275 -2.642052 20.315665 212 212 212 0
5.051697 -2.642426 20.318538 212 212 212 0
5.122841 -2.639039 20.292497 213 213 213 0
5.196894 -2.637230 20.278583 213 213 213 0
5.265140 -2.632570 20.242753 214 214 214 0
5.347814 -2.635154 20.262626 213 213 213 0
5.423527 -2.634285 20.255938 212 212 212 0
5.496993 -2.632363 20.241158 213 213 213 0
5.573341 -2.631855 20.237257 213 213 213 0
5.644616 -2.628999 20.215297 212 212 212 0
5.719582 -2.627916 20.206965 213 213 213 0
5.791411 -2.625440 20.187925 213 213 213 0
5.869063 -2.625634 20.189416 213 213 213 0
5.947537 -2.626185 20.193658 213 213 213 0
6.016610 -2.622625 20.166281 213 213 213 0
6.088455 -2.620348 20.148772 214 214 214 0
-6.931510 -2.895441 22.938727 76 76 76 0
-6.618536 -2.800150 22.183797 179 179 179 0
-6.442349 -2.761007 21.873690 202 202 202 0
-6.362651 -2.762730 21.887343 202 202 202 0
-6.271843 -2.759611 21.862635 202 202 202 0
-6.183960 -2.757712 21.847590 202 202 202 0
-6.089544 -2.752807 21.808734 202 202 202 0
-6.010725 -2.754915 21.825434 203 203 203 0
-5.919009 -2.751089 21.795119 203 203 203 0
-5.825832 -2.746464 21.758475 203 203 203 0
-5.753856 -2.751844 21.801103 203 203 203 0
-5.673957 -2.753538 21.814523 204 204 204 0
-5.579547 -2.748135 21.771719 203 203 203 0
-5.498142 -2.749071 21.779132 203 203 203 0
-5.410243 -2.746739 21.760654 203 203 203 0
-5.327718 -2.747104 21.763552 204 204 204 0
-5.239128 -2.744305 21.741374 203 203 203 0
-5.155916 -2.744278 21.741159 204 204 204 0
-5.069748 -2.742651 21.728268 204 204 204 0
-4.971397 -2.734269 21.661862 203 203 203 0
-4.888301 -2.734134 21.660799 204 204 204 0
-4.800663 -2.731412 21.639229 204 204 204 0
-4.716966 -2.730875 21.634978 205 205 205 0
-4.635433 -2.731594 21.640676 204 204 204 0
-4.551536 -2.730921 21.635345 204 204 204 0
-4.451903 -2.720607 21.553632 204 204 204 0
-4.369382 -2.720559 21.553249 205 205 205 0
-4.296528 -2.726643 21.601449 205 205 205 0
-4.209007 -2.723475 21.576353 205 205 205 0
-4.134513 -2.728779 21.618369 205 205 205 0
-4.049798 -2.727415 21.607564 204 204 204 0
-3.955315 -2.719279 21.543111 205 205 205 0
-3.871342 -2.718176 21.534373 204 204 204 0
-3.786166 -2.716162 21.518418 205 205 205 0
-3.701477 -2.714416 21.504586 205 205 205 0
-3.617256 -2.712942 21.492907 205 205 205 0
-3.536812 -2.714298 21.503648 206 206 206 0
-3.451121 -2.711595 21.482237 205 205 205 0
-3.361474 -2.705576 21.434552 205 205 205 0
-3.279091 -2.705250 21.431966 205 205 205 0
-3.199515 -2.707282 21.448066 205 205 205 0
-3.115738 -2.705772 21.436103 206 206 206 0
-3.032383 -2.704558 21.426482 206 206 206 0
-2.946489 -2.700949 21.397890 206 206 206 0
-2.865025 -2.701309 21.400748 206 206 206 0
-2.778053 -2.696345 21.361420 206 206 206 0
-2.699781 -2.699781 21.388641 206 206 206 0
-2.622417 -2.704367 21.424972 207 207 207 0
-2.535037 -2.698588 21.379189 207 207 207 0
-2.446584 -2.691242 21.320991 207 207 207 0
-2.364627 -2.690782 21.317347 207 207 207 0
-2.283744 -2.691555 21.323471 207 207 207 0
-2.200890 -2.689976 21.310961 207 207 207 0
-2.117038 -2.687009 21.287457 207 207 207 0
-2.036653 -2.688382 21.298331 207 207 207 0
-1.950668 -2.682168 21.249102 206 206 206 0
-1.870823 -2.684225 21.265398 208 208 208 0
-1.789058 -2.683587 21.260342 207 207 207 0
-1.706913 -2.682292 21.250084 208 208 208 0
-1.621940 -2.676201 21.201832 207 207 207 0
-1.541454 -2.677262 21.210235 207 207 207 0
-1.458198 -2.673364 21.179353 207 207 207 0
-1.376152 -2.671354 21.163432 208 208 208 0
-1.297311 -2.675703 21.197885 208 208 208 0
-1.215510 -2.674122 21.185362 208 208 208 0
-1.132466 -2.669384 21.147825 207 207 207 0
-1.050734 -2.667249 21.130906 208 208 208 0
-0.969619 -2.666451 21.124589 208 208 208 0
-0.889126 -2.667379 21.131937 209 209 209 0
-0.807765 -2.665624 21.118034 208 208 208 0
-0.727358 -2.666980 21.128779 208 208 208 0
-0.645967 -2.664614 21.110037 208 208 208 0
-0.563703 -2.657459 21.053350 208 208 208 0
-0.483373 -2.658553 21.062014 209 209 209 0
-0.402742 -2.658100 21.058429 209 209 209 0
-0.321935 -2.655961 21.041480 209 209 209 0
-0.241486 -2.656341 21.044494 209 209 209 0
-0.160666 -2.650984 21.002053 209 209 209 0
-0.080269 -2.648872 20.985320 210 210 210 0
0.000000 -2.650258 20.996298 210 210 210 0
0.080222 -2.647338 20.973165 209 209 209 0
0.160446 -2.647354 20.973294 210 210 210 0
0.240608 -2.646689 20.968026 209 209 209 0
0.320515 -2.644248 20.948690 210 210 210 0
0.400130 -2.640856 20.921814 209 209 209 0
0.480156 -2.640859 20.921839 210 210 210 0
0.560626 -2.642949 20.938397 210 210 210 0
0.639662 -2.638608 20.904003 210 210 210 0
0.719184 -2.637010 20.891343 210 210 210 0
0.797868 -2.632965 20.859301 210 210 210 0
0.878016 -2.634047 20.867871 210 210 210 0
0.957222 -2.632361 20.854510 210 210 210 0
1.036666 -2.631537 20.847986 211 211 211 0
1.117179 -2.633350 20.862346 211 211 211 0
1.195316 -2.629695 20.833392 210 210 210 0
1.273047 -2.625659 20.801421 210 210 210 0
1.351707 -2.623902 20.787496 210 210 210 0
1.431476 -2.624373 20.791230 211 211 211 0
1.510226 -2.623024 20.780544 211 211 211 0
1.590573 -2.624445 20.791801 211 211 211 0
1.665784 -2.617660 20.738048 211 211 211 0
1.743001 -2.614501 20.713022 211 211 211 0
1.823679 -2.616583 20.729518 211 211 211 0
1.903016 -2.616647 20.730024 211 211 211 0
1.980560 -2.614339 20.711737 210 210 210 0
2.060304 -2.615001 20.716981 212 212 212 0
2.136310 -2.611046 20.685647 211 211 211 0
2.211864 -2.606840 20.652328 211 211 211 0
2.291790 -2.607899 20.660715 211 211 211 0
2.373089 -2.610398 20.680516 211 211 211 0
2.450247 -2.608327 20.664108 211 211 211 0
2.526846 -2.605810 20.644168 211 211 211 0
2.604607 -2.604607 20.634637 212 212 212 0
2.679105 -2.600308 20.600575 212 212 212 0
2.758593 -2.600959 20.605737 212 212 212 0
