ply
format ascii 1.0
element vertex 1099
property float x
property float y
property float z
property uchar red
property uchar green
property uchar blue
property uchar alpha
end_header
-2.323949 -4.183107 20.252275 201 201 201 0
-2.239356 -4.169835 20.188020 201 201 201 0
-2.153864 -4.153881 20.110777 202 202 202 0
-2.073185 -4.146370 20.074415 202 202 202 0
-1.993582 -4.140517 20.046077 201 201 201 0
-1.912690 -4.131411 20.001988 202 202 202 0
-1.835060 -4.128886 19.989764 202 202 202 0
-1.757186 -4.125568 19.973700 202 202 202 0
-1.675930 -4.113646 19.915983 202 202 202 0
-1.596090 -4.104233 19.870408 203 203 203 0
-1.514310 -4.088636 19.794899 202 202 202 0
-1.436966 -4.084009 19.772496 203 203 203 0
-1.362927 -4.088780 19.795596 203 203 203 0
-1.284284 -4.079491 19.750624 203 203 203 0
-1.206305 -4.071278 19.710859 203 203 203 0
-1.127693 -4.059696 19.654784 202 202 202 0
-1.049245 -4.047087 19.593738 203 203 203 0
-0.972127 -4.038066 19.550066 204 204 204 0
-0.896624 -4.034810 19.534302 203 203 203 0
-0.821626 -4.033437 19.527653 204 204 204 0
-0.746556 -4.031405 19.517815 203 203 203 0
-0.669880 -4.019281 19.459119 204 204 204 0
-0.593729 -4.007669 19.402898 204 204 204 0
-0.518309 -3.998385 19.357951 204 204 204 0
-0.443393 -3.990536 19.319954 204 204 204 0
-0.368977 -3.984948 19.292898 204 204 204 0
-0.295016 -3.982719 19.282108 205 205 205 0
-0.221059 -3.979065 19.264417 204 204 204 0
-0.146964 -3.968022 19.210953 205 205 205 0
-0.073154 -3.950307 19.125187 205 205 205 0
0.000000 -3.947369 19.110963 205 205 205 0
0.073000 -3.942003 19.084981 205 205 205 0
0.145785 -3.936190 19.056837 205 205 205 0
0.218486 -3.932756 19.040211 205 205 205 0
0.290735 -3.924919 19.002272 206 206 206 0
0.362589 -3.915959 18.958892 205 205 205 0
0.434116 -3.907044 18.915728 205 205 205 0
0.505209 -3.897328 18.868688 206 206 206 0
0.576391 -3.890638 18.836303 206 206 206 0
0.647973 -3.887836 18.822733 206 206 206 0
0.719524 -3.885429 18.811080 206 206 206 0
0.789799 -3.877194 18.771214 206 206 206 0
0.860091 -3.870409 18.738362 207 207 207 0
0.928031 -3.854896 18.663259 206 206 206 0
0.997751 -3.848468 18.632137 206 206 206 0
1.067027 -3.841297 18.597420 206 206 206 0
1.138452 -3.842275 18.602156 207 207 207 0
1.208192 -3.837788 18.580429 207 207 207 0
1.276858 -3.830573 18.545499 207 207 207 0
1.345573 -3.824259 18.514930 207 207 207 0
1.410834 -3.809252 18.442276 207 207 207 0
1.479396 -3.804162 18.417633 208 208 208 0
1.548482 -3.800819 18.401447 208 208 208 0
1.615730 -3.793452 18.365782 208 208 208 0
1.685519 -3.792418 18.360775 207 207 207 0
1.752266 -3.784895 18.324355 208 208 208 0
1.818022 -3.775892 18.280764 207 207 207 0
1.883562 -3.767124 18.238316 207 207 207 0
1.948820 -3.758438 18.196262 208 208 208 0
2.014460 -3.751064 18.160561 209 209 209 0
2.083688 -3.750638 18.158501 208 208 208 0
2.149861 -3.744919 18.130811 208 208 208 0
2.215916 -3.739358 18.103888 208 208 208 0
2.281608 -3.733541 18.075724 209 209 209 0
2.343731 -3.722397 18.021771 209 209 209 0
2.407425 -3.714313 17.982633 208 208 208 0
2.472619 -3.708928 17.956562 209 209 209 0
2.534909 -3.699597 17.911389 209 209 209 0
3.120284 -4.434088 21.467384 208 208 208 0
3.886040 -5.380671 26.050212 209 209 209 0
3.984496 -5.379070 26.042461 208 208 208 0
4.083887 -5.378778 26.041048 209 209 209 0
4.175777 -5.368856 25.993009 208 208 208 0
4.277158 -5.371314 26.004911 209 209 209 0
4.381627 -5.377451 26.034621 209 209 209 0
4.475933 -5.371119 26.003967 208 208 208 0
4.572027 -5.367162 25.984806 210 210 210 0
4.670433 -5.366030 25.979327 209 209 209 0
4.763615 -5.359067 25.945615 209 209 209 0
4.866688 -5.363289 25.966058 208 208 208 0
4.956366 -5.352876 25.915641 209 209 209 0
5.061621 -5.359364 25.947053 209 209 209 0
5.148973 -5.347010 25.887243 209 209 209 0
5.246841 -5.345838 25.881569 210 210 210 0
5.362598 -5.362598 25.962710 209 209 209 0
5.443563 -5.344589 25.875523 209 209 209 0
5.548064 -5.349919 25.901327 210 210 210 0
5.638638 -5.341867 25.862344 208 208 208 0
5.737378 -5.341697 25.861519 209 209 209 0
5.843239 -5.348049 25.892274 209 209 209 0
5.949526 -5.354573 25.923861 210 210 210 0
6.025463 -5.334017 25.824336 208 208 208 0
6.120239 -5.330531 25.807460 209 209 209 0
6.225077 -5.335780 25.832873 209 209 209 0
6.319429 -5.332018 25.814661 209 209 209 0
6.426902 -5.339273 25.849783 209 209 209 0
6.512829 -5.328679 25.798492 209 209 209 0
6.609988 -5.327453 25.792558 209 209 209 0
6.707883 -5.326848 25.789632 210 210 210 0
6.808280 -5.328219 25.796266 209 209 209 0
6.905828 -5.327353 25.792073 209 209 209 0
6.996121 -5.320993 25.761284 209 209 209 0
7.091681 -5.318761 25.750475 209 209 209 0
7.193466 -5.321194 25.762255 208 208 208 0
7.283994 -5.315347 25.733948 209 209 209 0
7.381998 -5.315038 25.732454 209 209 209 0
7.477069 -5.312655 25.720913 209 209 209 0
7.572052 -5.310270 25.709371 209 209 209 0
7.667179 -5.308047 25.698605 209 209 209 0
7.769377 -5.310714 25.711516 208 208 208 0
-6.826001 -4.522226 22.307192 193 193 193 0
-6.710907 -4.502254 22.208676 193 193 193 0
-6.634241 -4.507881 22.236436 193 193 193 0
-6.509854 -4.480808 22.102890 194 194 194 0
-6.406151 -4.467447 22.036982 194 194 194 0
-6.324525 -4.469331 22.046275 194 194 194 0
-6.240250 -4.469368 22.046457 194 194 194 0
-6.128533 -4.449483 21.948369 195 195 195 0
-6.020984 -4.432113 21.862686 194 194 194 0
-5.937604 -4.432296 21.863587 196 196 196 0
-5.836755 -4.419257 21.799272 195 195 195 0
-5.748837 -4.415774 21.782087 195 195 195 0
-5.661480 -4.412624 21.766551 195 195 195 0
-5.569464 -4.405696 21.732374 195 195 195 0
-5.464811 -4.388409 21.647103 196 196 196 0
-5.363804 -4.373564 21.573873 195 195 195 0
-5.274803 -4.368196 21.547398 196 196 196 0
-5.184074 -4.361205 21.512912 197 197 197 0
-5.098028 -4.357992 21.497060 196 196 196 0
-5.011739 -4.354462 21.479649 197 197 197 0
-4.915022 -4.341603 21.416219 197 197 197 0
-4.809774 -4.320644 21.312835 197 197 197 0
-4.713456 -4.307123 21.246137 197 197 197 0
-4.629280 -4.304419 21.232796 197 197 197 0
-4.551639 -4.307801 21.249480 197 197 197 0
-4.460497 -4.298297 21.202598 198 198 198 0
-4.372334 -4.291365 21.168403 198 198 198 0
-4.273383 -4.273383 21.079705 197 197 197 0
-4.181795 -4.262214 21.024611 199 199 199 0
-4.100735 -4.261548 21.021326 198 198 198 0
-4.013134 -4.253922 20.983705 198 198 198 0
-3.927565 -4.248182 20.955393 198 198 198 0
-3.835851 -4.235419 20.892437 198 198 198 0
-3.750143 -4.228885 20.860205 199 199 199 0
-3.655303 -4.211544 20.774667 199 199 199 0
-3.570879 -4.205701 20.745845 199 199 199 0
-3.490668 -4.204668 20.740748 199 199 199 0
-3.406085 -4.198198 20.708831 199 199 199 0
-3.324841 -4.195632 20.696176 200 200 200 0
-3.236534 -4.183812 20.637868 200 200 200 0
-3.141805 -4.162892 20.534673 200 200 200 0
-3.059617 -4.157941 20.510251 200 200 200 0
-2.979950 -4.156247 20.501895 200 200 200 0
-2.899550 -4.153410 20.487903 200 200 200 0
-2.815740 -4.145395 20.448368 200 200 200 0
-2.728413 -4.131596 20.380301 201 201 201 0
-2.641521 -4.117666 20.311583 201 201 201 0
-2.560734 -4.112694 20.287058 201 201 201 0
-2.480454 -4.108252 20.265146 201 201 201 0
-2.397861 -4.099569 20.222318 201 201 201 0
-2.317250 -4.093808 20.193897 202 202 202 0
-2.237190 -4.088657 20.168490 202 202 202 0
-2.155823 -4.080665 20.129065 202 202 202 0
-2.070954 -4.065206 20.052811 201 201 201 0
-1.989256 -4.055022 20.002575 202 202 202 0
-1.911236 -4.051821 19.986784 202 202 202 0
-1.834072 -4.050242 19.978994 202 202 202 0
-1.754819 -4.043713 19.946788 202 202 202 0
-1.674863 -4.034897 19.903304 203 203 203 0
-1.593349 -4.021310 19.836281 202 202 202 0
-1.514718 -4.014002 19.800230 202 202 202 0
-1.436968 -4.008383 19.772516 203 203 203 0
-1.359010 -4.001530 19.738710 202 202 202 0
-1.282229 -3.997537 19.719016 202 202 202 0
-1.205217 -3.992280 19.693084 203 203 203 0
-1.126797 -3.981351 19.639170 203 203 203 0
-1.048285 -3.968508 19.575818 203 203 203 0
-0.972263 -3.963843 19.552810 204 204 204 0
-0.895047 -3.953124 19.499932 204 204 204 0
-0.820157 -3.951664 19.492731 204 204 204 0
-0.745755 -3.952500 19.496853 203 203 203 0
-0.669000 -3.939664 19.433538 204 204 204 0
-0.592706 -3.926676 19.369473 204 204 204 0
-0.517571 -3.918753 19.330390 205 205 205 0
-0.442884 -3.912139 19.297763 205 205 205 0
-0.368633 -3.907510 19.274930 205 205 205 0
-0.294891 -3.907302 19.273902 205 205 205 0
-0.220748 -3.899876 19.237273 205 205 205 0
-0.146798 -3.890134 19.189219 205 205 205 0
-0.073140 -3.876407 19.121503 205 205 205 0
0.000000 -3.870157 19.090674 205 205 205 0
0.072937 -3.865642 19.068403 205 205 205 0
0.145707 -3.861242 19.046700 205 205 205 0
0.218268 -3.856066 19.021167 206 206 206 0
0.290555 -3.849855 18.990529 206 206 206 0
0.362602 -3.843579 18.959572 206 206 206 0
0.433600 -3.830134 18.893251 205 205 205 0
0.505033 -3.823822 18.862115 206 206 206 0
0.575911 -3.815410 18.820620 206 206 206 0
0.647470 -3.812877 18.808124 207 207 207 0
0.719045 -3.810940 18.798569 206 206 206 0
0.789421 -3.803572 18.762223 207 207 207 0
0.859332 -3.795384 18.721837 207 207 207 0
0.927458 -3.781173 18.651735 206 206 206 0
0.997101 -3.774738 18.619994 206 206 206 0
1.067215 -3.770825 18.600689 206 206 206 0
1.136992 -3.766285 18.578295 206 206 206 0
1.206496 -3.761428 18.554337 207 207 207 0
1.276104 -3.757416 18.534547 207 207 207 0
1.344656 -3.750883 18.502321 207 207 207 0
1.410325 -3.737361 18.435619 207 207 207 0
1.478316 -3.730988 18.404181 207 207 207 0
1.546503 -3.725667 18.377936 208 208 208 0
1.614992 -3.721503 18.357397 208 208 208 0
1.683019 -3.716667 18.333542 208 208 208 0
1.750319 -3.710677 18.303992 208 208 208 0
1.817187 -3.704266 18.272369 208 208 208 0
1.881568 -3.693448 18.219004 208 208 208 0
1.948421 -3.688082 18.192537 208 208 208 0
2.013491 -3.679828 18.151823 208 208 208 0
2.082093 -3.678365 18.144605 208 208 208 0
2.150097 -3.675972 18.132799 209 209 209 0
2.214408 -3.667613 18.091569 209 209 209 0
2.279583 -3.661149 18.059681 208 208 208 0
2.342881 -3.652138 18.015235 209 209 209 0
2.405778 -3.643035 17.970330 209 209 209 0
2.470693 -3.637409 17.942578 209 209 209 0
2.534096 -3.629922 17.905644 209 209 209 0
3.125512 -4.359267 21.503351 210 210 210 0
3.894225 -5.292152 26.105080 209 209 209 0
3.990688 -5.287662 26.082931 210 210 210 0
4.082120 -5.276886 26.029777 208 208 208 0
4.182155 -5.277481 26.032711 209 209 209 0
4.276047 -5.270476 25.998156 208 208 208 0
4.379453 -5.275250 26.021703 208 208 208 0
4.486061 -5.283583 26.062808 209 209 209 0
4.574700 -5.270850 26.000000 210 210 210 0
4.666903 -5.262678 25.959687 209 209 209 0
4.770603 -5.267540 25.983674 209 209 209 0
4.870141 -5.267703 25.984478 208 208 208 0
4.968109 -5.266196 25.977042 209 209 209 0
5.051310 -5.249401 25.894196 210 210 210 0
5.156168 -5.255325 25.923417 209 209 209 0
5.257412 -5.257412 25.933714 209 209 209 0
5.356457 -5.257263 25.932980 208 208 208 0
5.456435 -5.258019 25.936710 209 209 209 0
5.548628 -5.251380 25.903961 209 209 209 0
5.641366 -5.245481 25.874859 209 209 209 0
5.739631 -5.244835 25.871674 210 210 210 0
5.845458 -5.251005 25.902106 209 209 209 0
5.944928 -5.251353 25.903827 210 210 210 0
6.028379 -5.237772 25.836834 209 209 209 0
6.131551 -5.241487 25.855159 209 209 209 0
6.230512 -5.241542 25.855431 209 209 209 0
6.328899 -5.241119 25.853344 210 210 210 0
6.415859 -5.231393 25.805367 208 208 208 0
6.520800 -5.236400 25.830064 209 209 209 0
6.615460 -5.233125 25.813910 210 210 210 0
6.709734 -5.229646 25.796748 209 209 209 0
6.809920 -5.230808 25.802481 210 210 210 0
6.910540 -5.232266 25.809672 209 209 209 0
6.994174 -5.221003 25.754115 208 208 208 0
7.099650 -5.226131 25.779411 209 209 209 0
7.195522 -5.224146 25.769621 210 210 210 0
7.292000 -5.222648 25.762232 209 209 209 0
7.385323 -5.218962 25.744047 209 209 209 0
7.480650 -5.216769 25.733232 210 210 210 0
7.577543 -5.215712 25.728014 209 209 209 0
7.676423 -5.216031 25.729589 209 209 209 0
7.775011 -5.216147 25.730160 209 209 209 0
-6.811936 -4.427759 22.261230 193 193 193 0
-6.711685 -4.417818 22.211251 193 193 193 0
-6.589059 -4.392706 22.084996 194 194 194 0
-6.488557 -4.381883 22.030583 193 193 193 0
-6.400917 -4.379575 22.018979 194 194 194 0
-6.329888 -4.388722 22.064967 194 194 194 0
-6.240716 -4.385368 22.048105 194 194 194 0
-6.141278 -4.374609 21.994013 195 195 195 0
-6.033508 -4.357534 21.908163 195 195 195 0
-5.919394 -4.335331 21.796536 195 195 195 0
-5.822368 -4.325188 21.745540 195 195 195 0
-5.747566 -4.331499 21.777271 195 195 195 0
-5.663611 -4.330997 21.774745 195 195 195 0
-5.558034 -4.313698 21.687771 196 196 196 0
-5.447866 -4.292258 21.579981 196 196 196 0
-5.358258 -4.286606 21.551566 196 196 196 0
-5.272576 -4.283968 21.538302 196 196 196 0
-5.178402 -4.274237 21.489375 196 196 196 0
-5.101222 -4.278445 21.510530 196 196 196 0
-5.004215 -4.265888 21.447400 196 196 196 0
-4.915612 -4.260197 21.418789 197 197 197 0
-4.803133 -4.233270 21.283407 197 197 197 0
-4.718044 -4.229971 21.266821 196 196 196 0
-4.627461 -4.221543 21.224451 198 198 198 0
-4.552294 -4.227130 21.252540 198 198 198 0
-4.456078 -4.213019 21.181593 198 198 198 0
-4.367003 -4.205263 21.142597 197 197 197 0
-4.268353 -4.187818 21.054893 197 197 197 0
-4.183038 -4.183038 21.030858 198 198 198 0
-4.089187 -4.169368 20.962130 198 198 198 0
-4.004153 -4.164319 20.936749 198 198 198 0
-3.924426 -4.164697 20.938646 198 198 198 0
-3.840150 -4.160162 20.915847 199 199 199 0
-3.746491 -4.145054 20.839891 199 199 199 0
-3.650396 -4.126534 20.746778 199 199 199 0
-3.570156 -4.125513 20.741646 199 199 199 0
-3.490889 -4.125596 20.742059 199 199 199 0
-3.407641 -4.120869 20.718294 199 199 199 0
-3.319303 -4.109613 20.661703 199 199 199 0
-3.228637 -4.094856 20.587512 199 199 199 0
-3.138488 -4.080035 20.512995 200 200 200 0
-3.057413 -4.076550 20.495477 200 200 200 0
-2.974911 -4.070931 20.467226 200 200 200 0
-2.892931 -4.065740 20.441128 200 200 200 0
-2.814845 -4.065887 20.441864 200 200 200 0
-2.727451 -4.052212 20.373113 200 200 200 0
-2.640299 -4.038104 20.302182 201 201 201 0
-2.560329 -4.034458 20.283850 201 201 201 0
-2.477160 -4.025384 20.238232 201 201 201 0
-2.399708 -4.025317 20.237894 201 201 201 0
-2.316403 -4.015099 20.186521 201 201 201 0
-2.235751 -4.008932 20.155516 201 201 201 0
-2.150890 -3.994510 20.083008 201 201 201 0
-2.069300 -3.985319 20.036796 202 202 202 0
-1.989575 -3.979150 20.005781 202 202 202 0
-1.909917 -3.972626 19.972984 202 202 202 0
-1.832733 -3.970922 19.964415 202 202 202 0
-1.753315 -3.964017 19.929701 202 202 202 0
-1.673387 -3.955279 19.885768 202 202 202 0
-1.590044 -3.937253 19.795137 203 203 203 0
-1.512884 -3.933499 19.776267 202 202 202 0
-1.435287 -3.928154 19.749390 202 202 202 0
-1.358307 -3.923997 19.728490 203 203 203 0
-1.281249 -3.919116 19.703951 203 203 203 0
-1.204352 -3.914144 19.678953 203 203 203 0
-1.126919 -3.906652 19.641285 203 203 203 0
-1.047769 -3.891713 19.566180 203 203 203 0
-0.970470 -3.881880 19.516743 204 204 204 0
-0.894848 -3.877677 19.495609 203 203 203 0
-0.820541 -3.878921 19.501864 203 203 203 0
-0.744807 -3.872998 19.472084 204 204 204 0
-0.668993 -3.865292 19.433343 204 204 204 0
-0.592480 -3.851123 19.362105 204 204 204 0
-0.517356 -3.843216 19.322352 205 205 205 0
-0.442462 -3.834673 19.279402 204 204 204 0
-0.368248 -3.829777 19.254788 204 204 204 0
-0.294598 -3.829775 19.254777 204 204 204 0
-0.220649 -3.824581 19.228662 204 204 204 0
-0.146635 -3.812519 19.168017 205 205 205 0
-0.073154 -3.803989 19.125131 205 205 205 0
0.000000 -3.796274 19.086346 205 205 205 0
0.072901 -3.790868 19.059165 206 206 206 0
0.145557 -3.784473 19.027013 205 205 205 0
0.218072 -3.779921 19.004127 206 206 206 0
0.290174 -3.772258 18.965601 206 206 206 0
0.362084 -3.765673 18.932496 205 205 205 0
0.433153 -3.753994 18.873773 206 206 206 0
0.504550 -3.748084 18.844061 205 205 205 0
0.575152 -3.738487 18.795813 206 206 206 0
0.646846 -3.737331 18.789999 206 206 206 0
0.718317 -3.735249 18.779530 206 206 206 0
0.788012 -3.725149 18.728751 206 206 206 0
0.858627 -3.720716 18.706466 207 207 207 0
0.927941 -3.711765 18.661464 206 206 206 0
0.996325 -3.700635 18.605505 206 206 206 0
1.066464 -3.697076 18.587611 206 206 206 0
1.136455 -3.693480 18.569531 207 207 207 0
1.206065 -3.689139 18.547706 207 207 207 0
1.274412 -3.681634 18.509973 207 207 207 0
1.343316 -3.676444 18.483883 207 207 207 0
1.409822 -3.665537 18.429043 207 207 207 0
1.477168 -3.657750 18.389895 207 207 207 0
1.544647 -3.650984 18.355875 207 207 207 0
1.613125 -3.647066 18.336178 207 207 207 0
1.682894 -3.646271 18.332181 208 208 208 0
1.749954 -3.639903 18.300168 208 208 208 0
1.815115 -3.630230 18.251536 207 207 207 0
1.881315 -3.623273 18.216556 208 208 208 0
1.945853 -3.613726 18.168559 208 208 208 0
2.012967 -3.609458 18.147097 208 208 208 0
2.079526 -3.604512 18.122233 208 208 208 0
2.146823 -3.601122 18.105187 209 209 209 0
2.211757 -3.594106 18.069913 209 209 209 0
2.276869 -3.587794 18.038180 209 209 209 0
2.340813 -3.580067 17.999332 209 209 209 0
2.404530 -3.572445 17.961011 209 209 209 0
2.469518 -3.567082 17.934047 208 208 208 0
2.532265 -3.558860 17.892708 209 209 209 0
3.127274 -4.279428 21.515473 209 209 209 0
3.889143 -5.185524 26.071010 209 209 209 0
3.995907 -5.194680 26.117042 208 208 208 0
4.086271 -5.182588 26.056250 208 208 208 0
4.176190 -5.170521 25.995582 209 209 209 0
4.275453 -5.170315 25.994544 210 210 210 0
4.383815 -5.180872 26.047621 208 208 208 0
4.475741 -5.171967 26.002850 209 209 209 0
4.586152 -5.184346 26.065086 210 210 210 0
4.665926 -5.162301 25.954253 209 209 209 0
4.771369 -5.168983 25.987848 209 209 209 0
4.874961 -5.173428 26.010195 209 209 209 0
4.971971 -5.170849 25.997231 209 209 209 0
5.064232 -5.163531 25.960435 210 210 210 0
5.152107 -5.152107 25.903000 209 209 209 0
5.263053 -5.163750 25.961537 208 208 208 0
5.358471 -5.160009 25.942728 210 210 210 0
5.459717 -5.161915 25.952311 209 209 209 0
5.546597 -5.150411 25.894475 209 209 209 0
5.646205 -5.150924 25.897053 210 210 210 0
5.752451 -5.157370 25.929461 209 209 209 0
5.849288 -5.155305 25.919080 209 209 209 0
5.947345 -5.154366 25.914358 209 209 209 0
6.035465 -5.144986 25.867201 208 208 208 0
6.129740 -5.141072 25.847522 209 209 209 0
6.233954 -5.145486 25.869714 210 210 210 0
6.328977 -5.142294 25.853663 209 209 209 0
6.417162 -5.133729 25.810604 210 210 210 0
6.519372 -5.136475 25.824407 210 210 210 0
6.615823 -5.134669 25.815328 210 210 210 0
6.710141 -5.131284 25.798311 209 209 209 0
6.805852 -5.129048 25.787068 209 209 209 0
6.905789 -5.130014 25.791928 209 209 209 0
7.001876 -5.128134 25.782475 208 208 208 0
7.099507 -5.127422 25.778893 209 209 209 0
7.199876 -5.128679 25.785212 209 209 209 0
7.288713 -5.121798 25.750620 209 209 209 0
7.381273 -5.117683 25.729929 209 209 209 0
7.487829 -5.123251 25.757924 209 209 209 0
7.582441 -5.120610 25.744643 209 209 209 0
7.677382 -5.118255 25.732803 209 209 209 0
7.775779 -5.118234 25.732700 209 209 209 0
-6.810403 -4.341632 22.256220 193 193 193 0
-6.711061 -4.332457 22.209186 194 194 194 0
-6.594547 -4.311819 22.103393 193 193 193 0
-6.491920 -4.299843 22.041999 195 195 195 0
-6.396465 -4.292365 22.003664 194 194 194 0
-6.320331 -4.297825 22.031656 194 194 194 0
-6.235010 -4.297102 22.027947 194 194 194 0
-6.124762 -4.278943 21.934863 194 194 194 0
-6.012385 -4.258773 21.831463 195 195 195 0
-5.920965 -4.253088 21.802320 194 194 194 0
-5.814304 -4.236136 21.715420 194 194 194 0
-5.734654 -4.238657 21.728347 196 196 196 0
-5.658033 -4.243525 21.753301 196 196 196 0
-5.556851 -4.229842 21.683156 196 196 196 0
-5.450064 -4.211413 21.588687 196 196 196 0
-5.342237 -4.191601 21.487127 196 196 196 0
-5.261432 -4.192703 21.492776 196 196 196 0
-5.177783 -4.191539 21.486807 197 197 197 0
-5.091672 -4.188311 21.470261 197 197 197 0
-5.004867 -4.184397 21.450197 196 196 196 0
-4.893983 -4.159885 21.324543 197 197 197 0
-4.812081 -4.159595 21.323056 197 197 197 0
-4.708683 -4.140393 21.224623 197 197 197 0
-4.629280 -4.141988 21.232796 197 197 197 0
-4.546259 -4.140343 21.224366 197 197 197 0
-4.453580 -4.129683 21.169721 198 198 198 0
-4.364216 -4.121760 21.129104 198 198 198 0
-4.261987 -4.101158 21.023491 198 198 198 0
-4.175995 -4.095687 20.995449 198 198 198 0
-4.089466 -4.089466 20.963556 198 198 198 0
-4.006159 -4.086282 20.947234 198 198 198 0
-3.927554 -4.087862 20.955337 198 198 198 0
-3.834542 -4.074201 20.885304 198 198 198 0
-3.740534 -4.058877 20.806752 198 198 198 0
-3.649454 -4.046134 20.741429 199 199 199 0
-3.565186 -4.040544 20.712774 199 199 199 0
-3.486709 -4.041413 20.717228 199 199 199 0
-3.405376 -4.038935 20.704523 199 199 199 0
-3.315416 -4.025863 20.637511 200 200 200 0
-3.226410 -4.013339 20.573313 200 200 200 0
-3.140073 -4.003593 20.523351 200 200 200 0
-3.055560 -3.995733 20.483060 200 200 200 0
-2.971379 -3.987904 20.442925 200 200 200 0
-2.893874 -3.988854 20.447797 201 201 201 0
-2.814010 -3.986514 20.435802 200 200 200 0
-2.724385 -3.969818 20.350216 201 201 201 0
-2.637751 -3.956626 20.282591 201 201 201 0
-2.554039 -3.947152 20.234022 201 201 201 0
-2.473352 -3.941905 20.207125 201 201 201 0
-2.395953 -3.941728 20.206220 201 201 201 0
-2.314598 -3.934817 20.170790 201 201 201 0
-2.234328 -3.929336 20.142693 201 201 201 0
-2.151206 -3.918267 20.085953 202 202 202 0
-2.066446 -3.903287 20.009163 201 201 201 0
-1.987329 -3.898223 19.983201 201 201 201 0
-1.908278 -3.892887 19.955846 202 202 202 0
-1.832366 -3.893777 19.960410 202 202 202 0
-1.751637 -3.884064 19.910620 203 203 203 0
-1.672113 -3.876262 19.870626 202 202 202 0
-1.590802 -3.863376 19.804568 203 203 203 0
-1.511094 -3.853291 19.752867 203 203 203 0
-1.434017 -3.849202 19.731910 203 203 203 0
-1.357462 -3.846142 19.716223 203 203 203 0
-1.281454 -3.844361 19.707093 203 203 203 0
-1.203265 -3.835406 19.661188 203 203 203 0
-1.125233 -3.825793 19.611911 203 203 203 0
-1.047481 -3.815823 19.560800 204 204 204 0
-0.970230 -3.806289 19.511925 204 204 204 0
-0.893832 -3.798786 19.473463 203 203 203 0
-0.818808 -3.796293 19.460684 204 204 204 0
-0.744260 -3.795727 19.457783 204 204 204 0
-0.668637 -3.788944 19.423013 203 203 203 0
-0.592231 -3.775470 19.353940 204 204 204 0
-0.516688 -3.764443 19.297412 204 204 204 0
-0.441923 -3.756344 19.255898 205 205 205 0
-0.367946 -3.753048 19.239003 205 205 205 0
-0.294241 -3.751576 19.231453 205 205 205 0
-0.220308 -3.745237 19.198958 205 205 205 0
-0.146567 -3.737462 19.159105 205 205 205 0
-0.073054 -3.725741 19.099019 205 205 205 0
0.000000 -3.716638 19.052354 205 205 205 0
0.072867 -3.716216 19.050191 205 205 205 0
0.145471 -3.709510 19.015813 205 205 205 0
0.217935 -3.704892 18.992140 206 206 206 0
0.290040 -3.698016 18.956893 206 206 206 0
0.361939 -3.691780 18.924925 206 206 206 0
0.432746 -3.678338 18.856018 206 206 206 0
0.504200 -3.673459 18.831008 206 206 206 0
0.575068 -3.666060 18.793078 206 206 206 0
0.646113 -3.661307 18.768713 207 207 207 0
0.717608 -3.659800 18.760991 206 206 206 0
0.787576 -3.651487 18.718374 206 206 206 0
0.856896 -3.641807 18.668755 206 206 206 0
0.927937 -3.640370 18.661384 206 206 206 0
0.995998 -3.628278 18.599400 207 207 207 0
1.065130 -3.621441 18.564353 206 206 206 0
1.134936 -3.617608 18.544702 207 207 207 0
1.204478 -3.613434 18.523305 207 207 207 0
1.273400 -3.607968 18.495285 207 207 207 0
1.342243 -3.602864 18.469122 207 207 207 0
1.408417 -3.591463 18.410679 207 207 207 0
1.475588 -3.583570 18.370217 207 207 207 0
1.543208 -3.577437 18.338776 208 208 208 0
1.611180 -3.572617 18.314067 208 208 208 0
1.680664 -3.571411 18.307888 207 207 207 0
1.748313 -3.566559 18.283013 208 208 208 0
1.813323 -3.556902 18.233513 208 208 208 0
1.879182 -3.549567 18.195909 208 208 208 0
1.944853 -3.542411 18.159225 208 208 208 0
2.009558 -3.534051 18.116371 208 208 208 0
2.077014 -3.530924 18.100343 208 208 208 0
2.146253 -3.530932 18.100382 208 208 208 0
2.211159 -3.524034 18.065023 208 208 208 0
2.277436 -3.519674 18.042669 209 209 209 0
2.339311 -3.508967 17.987784 209 209 209 0
2.401977 -3.500023 17.941936 208 208 208 0
2.467594 -3.495758 17.920072 209 209 209 0
2.530885 -3.488517 17.882952 208 208 208 0
3.139754 -4.213880 21.601333 208 208 208 0
3.889738 -5.086580 26.074996 210 210 210 0
3.994295 -5.092726 26.106504 209 209 209 0
4.098233 -5.097802 26.132526 210 210 210 0
4.188238 -5.085718 26.070577 209 209 209 0
4.287214 -5.084835 26.066051 209 209 209 0
4.385350 -5.083019 26.056742 209 209 209 0
4.479371 -5.076620 26.023941 208 208 208 0
4.576757 -5.074231 26.011693 209 209 209 0
4.676688 -5.074704 26.014118 209 209 209 0
4.776688 -5.075231 26.016818 209 209 209 0
4.882252 -5.081528 26.049098 209 209 209 0
4.978708 -5.078282 26.032460 209 209 209 0
5.063717 -5.063717 25.957798 209 209 209 0
5.156047 -5.056893 25.922812 208 208 208 0
5.266581 -5.067842 25.978942 209 209 209 0
5.363999 -5.065999 25.969492 209 209 209 0
5.456964 -5.060094 25.939225 208 208 208 0
5.556430 -5.060321 25.940385 208 208 208 0
5.648211 -5.053662 25.906253 209 209 209 0
5.752813 -5.058508 25.931094 209 209 209 0
5.851717 -5.058264 25.929843 209 209 209 0
5.951245 -5.058558 25.931349 208 208 208 0
6.038535 -5.048611 25.880360 209 209 209 0
6.137758 -5.048801 25.881334 209 209 209 0
6.238338 -5.050083 25.887905 208 208 208 0
6.336297 -5.049236 25.883565 209 209 209 0
6.436290 -5.050012 25.887542 209 209 209 0
6.520738 -5.038752 25.829820 208 208 208 0
6.618032 -5.037607 25.823948 210 210 210 0
6.720426 -5.040319 25.837853 208 208 208 0
6.818533 -5.039785 25.835116 210 210 210 0
6.911477 -5.035505 25.813174 209 209 209 0
7.007196 -5.033338 25.802067 210 210 210 0
7.109241 -5.035712 25.814236 209 209 209 0
7.201669 -5.031303 25.791634 209 209 209 0
7.293183 -5.026383 25.766412 209 209 209 0
7.389388 -5.024784 25.758216 209 209 209 0
7.486846 -5.024068 25.754543 209 209 209 0
7.588212 -5.025959 25.764237 210 210 210 0
7.680661 -5.021971 25.743794 210 210 210 0
7.774613 -5.019054 25.728842 209 209 209 0
-6.820287 -4.262679 22.288519 193 193 193 0
-6.714047 -4.249397 22.219067 193 193 193 0
-6.600325 -4.230978 22.122759 193 193 193 0
-6.472944 -4.203211 21.977572 194 194 194 0
-6.385229 -4.200808 21.965011 194 194 194 0
-6.301954 -4.201303 21.967597 194 194 194 0
-6.227981 -4.208095 22.003114 194 194 194 0
-6.118612 -4.190830 21.912838 194 194 194 0
-6.012830 -4.175576 21.833080 195 195 195 0
-5.902207 -4.156484 21.733249 195 195 195 0
-5.808906 -4.149219 21.695261 195 195 195 0
-5.733406 -4.154642 21.723618 195 195 195 0
-5.651094 -4.155216 21.726621 195 195 195 0
-5.554872 -4.145427 21.675434 195 195 195 0
-5.444824 -4.124867 21.567930 196 196 196 0
-5.347296 -4.113305 21.507476 197 197 197 0
-5.245686 -4.098192 21.428457 196 196 196 0
-5.171948 -4.104720 21.462591 196 196 196 0
-5.085414 -4.101140 21.443869 197 197 197 0
-4.990359 -4.090458 21.388017 197 197 197 0
-4.901001 -4.084167 21.355123 196 196 196 0
-4.800784 -4.068461 21.273001 197 197 197 0
-4.704909 -4.055956 21.207615 197 197 197 0
-4.624014 -4.056153 21.208641 197 197 197 0
-4.535740 -4.049767 21.175255 197 197 197 0
-4.457307 -4.052098 21.187438 198 198 198 0
-4.353179 -4.030722 21.075669 198 198 198 0
-4.265718 -4.024262 21.041895 198 198 198 0
-4.170331 -4.009934 20.966974 198 198 198 0
-4.087482 -4.007335 20.953388 198 198 198 0
-4.005435 -4.005435 20.943449 198 198 198 0
-3.913459 -3.993326 20.880135 198 198 198 0
-3.826969 -3.986426 20.844058 199 199 199 0
-3.740119 -3.978850 20.804446 198 198 198 0
-3.647351 -3.964512 20.729477 199 199 199 0
-3.562736 -3.958595 20.698538 199 199 199 0
-3.481666 -3.956438 20.687258 199 199 199 0
-3.400670 -3.954268 20.675909 199 199 199 0
-3.316176 -3.947828 20.642238 199 199 199 0
-3.224513 -3.932333 20.561221 200 200 200 0
-3.137701 -3.922126 20.507847 200 200 200 0
-3.052970 -3.914064 20.465692 200 200 200 0
-2.967755 -3.904941 20.417992 200 200 200 0
-2.885983 -3.899977 20.392034 200 200 200 0
-2.810743 -3.903810 20.412077 201 201 201 0
-2.722659 -3.889513 20.337325 200 200 200 0
-2.636779 -3.877616 20.275115 201 201 201 0
-2.552795 -3.867871 20.224161 201 201 201 0
-2.471430 -3.861609 20.191418 201 201 201 0
-2.394407 -3.861946 20.193182 201 201 201 0
-2.314187 -3.856978 20.167204 201 201 201 0
-2.232444 -3.849041 20.125706 201 201 201 0
-2.151292 -3.841593 20.086761 202 202 202 0
-2.065953 -3.825839 20.004385 201 201 201 0
-1.984605 -3.816548 19.955804 202 202 202 0
-1.908188 -3.816377 19.954912 202 202 202 0
-1.830098 -3.812704 19.935709 203 203 203 0
-1.751893 -3.808464 19.913535 202 202 202 0
-1.670277 -3.796085 19.848811 202 202 202 0
-1.590802 -3.787624 19.804568 202 202 202 0
-1.511774 -3.779435 19.761750 203 203 203 0
-1.432286 -3.769175 19.708103 203 203 203 0
-1.356573 -3.768258 19.703309 203 203 203 0
-1.279983 -3.764655 19.684469 204 204 204 0
-1.202002 -3.756257 19.640562 203 203 203 0
-1.124415 -3.748050 19.597647 203 203 203 0
-1.045332 -3.733330 19.520678 204 204 204 0
-0.968865 -3.726404 19.484468 203 203 203 0
-0.893993 -3.724973 19.476981 204 204 204 0
-0.818261 -3.719368 19.447676 204 204 204 0
-0.743220 -3.716102 19.430600 204 204 204 0
-0.667471 -3.708170 19.389123 204 204 204 0
-0.592220 -3.701373 19.353583 205 205 205 0
-0.516815 -3.691535 19.302143 204 204 204 0
-0.441925 -3.682708 19.255990 204 204 204 0
-0.367619 -3.676194 19.221928 205 205 205 0
-0.294246 -3.678080 19.231792 205 205 205 0
-0.220271 -3.671182 19.195721 204 204 204 0
-0.146644 -3.666107 19.169187 205 205 205 0
-0.073038 -3.651914 19.094975 205 205 205 0
0.000000 -3.643854 19.052834 205 205 205 0
0.072709 -3.635447 19.008874 205 205 205 0
0.145332 -3.633305 18.997674 206 206 206 0
0.217815 -3.630246 18.981678 206 206 206 0
0.289795 -3.622438 18.940851 206 206 206 0
0.361838 -3.618380 18.919632 206 206 206 0
0.432796 -3.606632 18.858206 206 206 206 0
0.503814 -3.598675 18.816600 206 206 206 0
0.574613 -3.591329 18.778193 206 206 206 0
0.645818 -3.587877 18.760142 206 206 206 0
0.717185 -3.585926 18.749941 206 206 206 0
0.787656 -3.580255 18.720286 206 206 206 0
0.857303 -3.572097 18.677633 207 207 207 0
0.926457 -3.563298 18.631623 206 206 206 0
0.995543 -3.555511 18.590907 207 207 207 0
1.065102 -3.550340 18.563871 207 207 207 0
1.134893 -3.546542 18.544009 208 208 208 0
1.204441 -3.542475 18.522745 206 206 206 0
1.273113 -3.536424 18.491107 207 207 207 0
1.342062 -3.531743 18.466631 207 207 207 0
1.407238 -3.518094 18.395264 207 207 207 0
1.474977 -3.511850 18.362614 207 207 207 0
1.542301 -3.505229 18.327996 207 207 207 0
1.610271 -3.500588 18.303729 208 208 208 0
1.679853 -3.499694 18.299056 207 207 207 0
1.746618 -3.493235 18.265284 207 207 207 0
1.812701 -3.485963 18.227259 208 208 208 0
1.880285 -3.482010 18.206586 208 208 208 0
1.942294 -3.468382 18.135333 209 209 209 0
2.009390 -3.464466 18.114857 208 208 208 0
2.076738 -3.461230 18.097932 209 209 209 0
2.143321 -3.456969 18.075654 208 208 208 0
2.210084 -3.453256 18.056240 209 209 209 0
2.275250 -3.447348 18.025348 209 209 209 0
2.337485 -3.437477 17.973738 208 208 208 0
2.400314 -3.429020 17.929515 209 209 209 0
2.463843 -3.422004 17.892833 209 209 209 0
2.528570 -3.416987 17.866599 208 208 208 0
3.149200 -4.143684 21.666321 209 209 209 0
3.900722 -5.000926 26.148630 208 208 208 0
3.989593 -4.986991 26.075771 209 209 209 0
4.085238 -4.981998 26.049661 208 208 208 0
4.189251 -4.987204 26.076882 208 208 208 0
4.282281 -4.979397 26.036061 208 208 208 0
4.393958 -4.993134 26.107890 209 209 209 0
4.487216 -4.985795 26.069518 209 209 209 0
4.585234 -4.983950 26.059869 210 210 210 0
4.677959 -4.976552 26.021186 210 210 210 0
4.777707 -4.976778 26.022370 209 209 209 0
4.882638 -4.982283 26.051154 209 209 209 0
4.979191 -4.979191 26.034984 209 209 209 0
5.068121 -4.968746 25.980372 208 208 208 0
5.162396 -4.963842 25.954732 209 209 209 0
5.264713 -4.966711 25.969728 209 209 209 0
5.371239 -4.973369 26.004545 210 210 210 0
5.465626 -4.968751 25.980396 209 209 209 0
5.555549 -4.960311 25.936268 209 209 209 0
5.654161 -4.959790 25.933544 208 208 208 0
5.752750 -4.959267 25.930810 209 209 209 0
5.852563 -4.959799 25.933589 210 210 210 0
5.945140 -4.954284 25.904751 209 209 209 0
6.036657 -4.948079 25.872311 209 209 209 0
6.139768 -4.951426 25.889807 209 209 209 0
6.241679 -4.953713 25.901770 209 209 209 0
6.339130 -4.952445 25.895137 208 208 208 0
6.439526 -4.953482 25.900558 209 209 209 0
6.531474 -4.948086 25.872346 209 209 209 0
6.627843 -4.946152 25.862231 209 209 209 0
6.725588 -4.945285 25.857701 209 209 209 0
6.816152 -4.939240 25.826093 209 209 209 0
6.907720 -4.934086 25.799141 209 209 209 0
7.008416 -4.935504 25.806558 209 209 209 0
7.113243 -4.939752 25.828769 209 209 209 0
7.208574 -4.937379 25.816363 209 209 209 0
7.305519 -4.936161 25.809994 209 209 209 0
7.395644 -4.930429 25.780022 209 209 209 0
7.492217 -4.929090 25.773022 209 209 209 0
7.592697 -4.930323 25.779465 209 209 209 0
7.683119 -4.925076 25.752034 209 209 209 0
7.791519 -4.931341 25.784791 210 210 210 0
-6.809713 -4.170949 22.253964 193 193 193 0
-6.692993 -4.151350 22.149395 193 193 193 0
-6.592422 -4.141393 22.096270 194 194 194 0
-6.470979 -4.117896 21.970899 194 194 194 0
-6.394861 -4.123003 21.998146 195 195 195 0
-6.292355 -4.111005 21.934134 194 194 194 0
-6.206697 -4.109840 21.927917 194 194 194 0
-6.111246 -4.102069 21.886457 194 194 194 0
-6.018482 -4.095911 21.853603 195 195 195 0
-5.900633 -4.072268 21.727452 195 195 195 0
-5.812888 -4.069022 21.710134 195 195 195 0
-5.731607 -4.070272 21.716802 196 196 196 0
-5.645232 -4.067887 21.704081 195 195 195 0
-5.551840 -4.060301 21.663603 196 196 196 0
-5.442516 -4.040656 21.558788 196 196 196 0
-5.336920 -4.023216 21.465741 197 197 197 0
-5.245411 -4.016018 21.427335 196 196 196 0
-5.160706 -4.013882 21.415939 196 196 196 0
-5.080916 -4.015563 21.424904 197 197 197 0
-4.995412 -4.012708 21.409672 197 197 197 0
-4.896693 -3.998966 21.336351 197 197 197 0
-4.804104 -3.989849 21.287708 196 196 196 0
-4.708337 -3.977733 21.223064 198 198 198 0
-4.612863 -3.965443 21.157495 197 197 197 0
-4.537023 -3.969895 21.181248 198 198 198 0
-4.457011 -3.970791 21.186028 198 198 198 0
-4.358119 -3.954589 21.099583 198 198 198 0
-4.254086 -3.933023 20.984516 198 198 198 0
-4.166984 -3.926582 20.950148 198 198 198 0
-4.085668 -3.925445 20.944086 199 199 199 0
-3.997145 -3.917203 20.900107 198 198 198 0
-3.920328 -3.920328 20.916783 199 199 199 0
-3.823454 -3.903109 20.824911 198 198 198 0
-3.735856 -3.894829 20.780731 198 198 198 0
-3.647713 -3.885607 20.731529 199 199 199 0
-3.558221 -3.874507 20.672309 199 199 199 0
-3.481164 -3.876751 20.684280 199 199 199 0
-3.396774 -3.870743 20.652221 200 200 200 0
-3.308218 -3.859587 20.592702 200 200 200 0
-3.224273 -3.853400 20.559689 200 200 200 0
-3.131502 -3.836090 20.467336 201 201 201 0
-3.049580 -3.831523 20.442967 201 201 201 0
-2.967792 -3.826890 20.418246 200 200 200 0
-2.889156 -3.826180 20.414458 200 200 200 0
-2.809144 -3.823556 20.400461 200 200 200 0
-2.724206 -3.813888 20.348876 201 201 201 0
-2.633724 -3.795661 20.251626 201 201 201 0
-2.551747 -3.788957 20.215857 201 201 201 0
-2.468820 -3.780381 20.170099 201 201 201 0
-2.391186 -3.779617 20.166024 201 201 201 0
-2.311046 -3.774709 20.139838 201 201 201 0
-2.231983 -3.771282 20.121553 202 202 202 0
-2.147840 -3.758720 20.054529 201 201 201 0
-2.064073 -3.745910 19.986183 201 201 201 0
-1.983200 -3.737570 19.941682 202 202 202 0
-1.905615 -3.735006 19.928003 203 203 203 0
-1.827922 -3.732007 19.912002 202 202 202 0
-1.749896 -3.728039 19.890832 202 202 202 0
-1.667971 -3.715027 19.821408 202 202 202 0
-1.587842 -3.704965 19.767719 203 203 203 0
-1.510111 -3.699771 19.740008 202 202 202 0
-1.430994 -3.690459 19.690323 203 203 203 0
-1.354494 -3.687234 19.673120 203 203 203 0
-1.279517 -3.688018 19.677303 204 204 204 0
-1.201541 -3.679720 19.633028 203 203 203 0
-1.123907 -3.671429 19.588792 203 203 203 0
-1.046103 -3.661360 19.535069 204 204 204 0
-0.968329 -3.649857 19.473692 203 203 203 0
-0.892739 -3.645351 19.449651 203 203 203 0
-0.817321 -3.640795 19.425342 204 204 204 0
-0.741956 -3.635584 19.397543 204 204 204 0
-0.667193 -3.632495 19.381059 204 204 204 0
-0.591262 -3.621480 19.322288 204 204 204 0
-0.516081 -3.612565 19.274723 204 204 204 0
-0.441346 -3.604325 19.230757 204 204 204 0
-0.367384 -3.600362 19.209615 204 204 204 0
-0.293502 -3.595395 19.183115 204 204 204 0
-0.219989 -3.593148 19.171126 206 206 206 0
-0.146375 -3.586179 19.133943 205 205 205 0
-0.072930 -3.573547 19.066544 204 204 204 0
0.000000 -3.566824 19.030676 205 205 205 0
0.072685 -3.561575 19.002669 206 206 206 0
0.145187 -3.557090 18.978739 205 205 205 0
0.217529 -3.552981 18.956817 205 205 205 0
0.289860 -3.550786 18.945105 205 205 205 0
0.361514 -3.542836 18.902687 206 206 206 0
0.432266 -3.530171 18.835112 206 206 206 0
0.503219 -3.522533 18.794363 206 206 206 0
0.574082 -3.516251 18.760841 206 206 206 0
0.645337 -3.513500 18.746165 206 206 206 0
0.716259 -3.509671 18.725737 206 206 206 0
0.787299 -3.507059 18.711799 207 207 207 0
0.856460 -3.497211 18.659255 206 206 206 0
0.925552 -3.488617 18.613404 206 206 206 0
0.994292 -3.480023 18.567548 207 207 207 0
1.063612 -3.474467 18.537905 207 207 207 0
1.133405 -3.471054 18.519698 207 207 207 0
1.203415 -3.468666 18.506957 206 206 206 0
1.272090 -3.462912 18.476253 208 208 208 0
1.340130 -3.456124 18.440040 207 207 207 0
1.406487 -3.445894 18.385455 207 207 207 0
1.474428 -3.440333 18.355785 208 208 208 0
1.540820 -3.431827 18.310402 208 208 208 0
1.608929 -3.427717 18.288474 208 208 208 0
1.677745 -3.425395 18.276085 208 208 208 0
1.745077 -3.420352 18.249176 208 208 208 0
1.811183 -3.413383 18.211993 208 208 208 0
1.876996 -3.406400 18.174739 208 208 208 0
1.941463 -3.397561 18.127574 208 208 208 0
2.007152 -3.391395 18.094677 208 208 208 0
2.075031 -3.389218 18.083063 209 209 209 0
2.143196 -3.387633 18.074606 208 208 208 0
2.207590 -3.380372 18.035862 208 208 208 0
2.272893 -3.374901 18.006677 208 208 208 0
2.335634 -3.366060 17.959505 209 209 209 0
2.399055 -3.358677 17.920111 209 209 209 0
2.463494 -3.353089 17.890296 209 209 209 0
2.525383 -3.344426 17.844074 209 209 209 0
3.161390 -4.076530 21.750191 209 209 209 0
3.898325 -4.897896 26.132563 209 209 209 0
3.996159 -4.895294 26.118684 209 209 209 0
4.092980 -4.891611 26.099029 208 208 208 0
4.194065 -4.893076 26.106849 208 208 208 0
4.287159 -4.885367 26.065717 209 209 209 0
4.389714 -4.888545 26.082671 208 208 208 0
4.495365 -4.894952 26.116860 210 210 210 0
4.587536 -4.886723 26.072952 210 210 210 0
4.679020 -4.878127 26.027087 209 209 209 0
4.782272 -4.881903 26.047236 209 209 209 0
4.882886 -4.882886 26.052478 209 209 209 0
4.978944 -4.879365 26.033694 210 210 210 0
5.070270 -4.871436 25.991389 209 209 209 0
5.169145 -4.870925 25.988664 209 209 209 0
5.267345 -4.869810 25.982712 209 209 209 0
5.368076 -4.871032 25.989235 209 209 209 0
5.470985 -4.874150 26.005870 210 210 210 0
5.555791 -4.861317 25.937401 209 209 209 0
5.662730 -4.867961 25.972845 208 208 208 0
5.760856 -4.866930 25.967348 208 208 208 0
5.870881 -4.875817 26.014761 209 209 209 0
5.951930 -4.860742 25.934334 209 209 209 0
6.040943 -4.852561 25.890682 210 210 210 0
6.143871 -4.855640 25.907109 209 209 209 0
6.247680 -4.859307 25.926673 209 209 209 0
6.334707 -4.850010 25.877070 210 210 210 0
6.439910 -4.854701 25.902101 210 210 210 0
6.535068 -4.851793 25.886582 209 209 209 0
6.633600 -4.851439 25.884695 210 210 210 0
6.726414 -4.846975 25.860878 209 209 209 0
6.826730 -4.847968 25.866174 209 209 209 0
6.923307 -4.846315 25.857356 209 209 209 0
7.013129 -4.840047 25.823914 209 209 209 0
7.113353 -4.841032 25.829168 209 209 209 0
7.213666 -4.842050 25.834599 209 209 209 0
7.306879 -4.838339 25.814800 210 210 210 0
7.397811 -4.833237 25.787577 210 210 210 0
7.495949 -4.832914 25.785857 209 209 209 0
7.596257 -4.833982 25.791554 209 209 209 0
7.700474 -4.837477 25.810204 209 209 209 0
7.787365 -4.830138 25.771044 209 209 209 0
-6.799052 -4.079431 22.219123 193 193 193 0
-6.696250 -4.068607 22.160171 194 194 194 0
-6.586261 -4.053084 22.075618 193 193 193 0
-6.468011 -4.032007 21.960822 194 194 194 0
-6.384879 -4.032555 21.963807 194 194 194 0
-6.297361 -4.030311 21.951587 194 194 194 0
-6.200709 -4.022082 21.906763 194 194 194 0
-6.102813 -4.012808 21.856254 195 195 195 0
-6.005235 -4.003490 21.805500 194 194 194 0
-5.901511 -3.989754 21.730684 195 195 195 0
-5.805398 -3.980845 21.682160 195 195 195 0
-5.725661 -3.983069 21.694274 195 195 195 0
-5.639263 -3.980656 21.681134 195 195 195 0
-5.536338 -3.966332 21.603115 196 196 196 0
-5.441031 -3.957114 21.552907 196 196 196 0
-5.344573 -3.946761 21.496522 196 196 196 0
-5.248805 -3.936604 21.441196 196 196 196 0
-5.161118 -3.932281 21.417651 196 196 196 0
-5.076109 -3.929891 21.404633 196 196 196 0
-4.983286 -3.921274 21.357704 197 197 197 0
-4.896890 -3.917512 21.337213 197 197 197 0
-4.794000 -3.900203 21.242936 198 198 198 0
-4.702074 -3.891372 21.194836 197 197 197 0
-4.612534 -3.884239 21.155986 198 198 198 0
-4.526894 -3.880195 21.133960 198 198 198 0
-4.444706 -3.879016 21.127538 198 198 198 0
-4.345037 -3.862255 21.036248 198 198 198 0
-4.256675 -3.855102 20.997288 198 198 198 0
-4.163259 -3.843008 20.931419 198 198 198 0
-4.084427 -3.844167 20.937726 198 198 198 0
-3.998494 -3.838554 20.907158 198 198 198 0
-3.916799 -3.836865 20.897956 198 198 198 0
-3.822489 -3.822489 20.819655 199 199 199 0
-3.735097 -3.814567 20.776510 198 198 198 0
-3.639233 -3.797460 20.683334 199 199 199 0
-3.555578 -3.792617 20.656954 199 199 199 0
-3.475740 -3.791717 20.652053 200 200 200 0
-3.393025 -3.787562 20.629424 199 199 199 0
-3.309617 -3.782419 20.601413 200 200 200 0
-3.218453 -3.767945 20.522578 200 200 200 0
-3.131347 -3.757617 20.466321 199 199 199 0
-3.048603 -3.752127 20.436420 199 199 199 0
-2.964265 -3.744335 20.393980 200 200 200 0
-2.884402 -3.741926 20.380863 200 200 200 0
-2.807520 -3.743359 20.388668 201 201 201 0
-2.715835 -3.724573 20.286346 201 201 201 0
-2.633724 -3.718199 20.251626 201 201 201 0
-2.550988 -3.710528 20.209850 201 201 201 0
-2.466629 -3.699944 20.152199 201 201 201 0
-2.388170 -3.697812 20.140588 201 201 201 0
-2.310472 -3.696755 20.134832 202 202 202 0
-2.230139 -3.691265 20.104931 201 201 201 0
-2.146917 -3.680428 20.045906 201 201 201 0
-2.061151 -3.664268 19.957888 202 202 202 0
-1.982865 -3.660673 19.938306 203 203 203 0
-1.902938 -3.653641 19.900004 202 202 202 0
-1.826837 -3.653674 19.900186 202 202 202 0
-1.747787 -3.647556 19.866862 202 202 202 0
-1.668012 -3.639299 19.821888 203 203 203 0
-1.587088 -3.627631 19.758337 203 203 203 0
-1.508572 -3.620573 19.719897 203 203 203 0
-1.431425 -3.616232 19.696255 203 203 203 0
-1.354543 -3.612116 19.673832 203 203 203 0
-1.278245 -3.609163 19.657751 203 203 203 0
-1.200190 -3.600570 19.610950 203 203 203 0
-1.122624 -3.592396 19.566427 203 203 203 0
-1.043936 -3.579208 19.494599 204 204 204 0
-0.968184 -3.574833 19.470766 204 204 204 0
-0.891998 -3.567991 19.433502 204 204 204 0
-0.816852 -3.564443 19.414178 203 203 203 0
-0.741453 -3.558975 19.384394 203 203 203 0
-0.667159 -3.558183 19.380084 204 204 204 0
-0.591293 -3.547756 19.323292 204 204 204 0
-0.515674 -3.536050 19.259532 204 204 204 0
-0.440981 -3.527851 19.214874 205 205 205 0
-0.366992 -3.523120 19.189108 205 205 205 0
-0.293638 -3.523654 19.192016 205 205 205 0
-0.219931 -3.518892 19.166077 205 205 205 0
-0.146267 -3.510401 19.119830 205 205 205 0
-0.072930 -3.500659 19.066768 206 206 206 0
0.000000 -3.491795 19.018491 205 205 205 0
0.072625 -3.485988 18.986864 206 206 206 0
0.145172 -3.484123 18.976706 206 206 206 0
0.217412 -3.478586 18.946546 205 205 205 0
0.289495 -3.473937 18.921225 205 205 205 0
0.361130 -3.466851 18.882632 206 206 206 0
0.432092 -3.456738 18.827550 206 206 206 0
0.503288 -3.451115 18.796921 206 206 206 0
0.573700 -3.442198 18.748353 206 206 206 0
0.644735 -3.438586 18.728679 206 206 206 0
0.716294 -3.438212 18.726647 207 207 207 0
0.786434 -3.431714 18.691253 206 206 206 0
0.855622 -3.422488 18.641003 206 206 206 0
0.924958 -3.415230 18.601472 206 206 206 0
0.993648 -3.406792 18.555512 206 206 206 0
1.062723 -3.400713 18.522403 207 207 207 0
1.132365 -3.397096 18.502702 207 207 207 0
1.202618 -3.395627 18.494700 207 207 207 0
1.270494 -3.387985 18.453075 207 207 207 0
1.340657 -3.386924 18.447299 208 208 208 0
1.405133 -3.372319 18.367752 208 208 208 0
1.472133 -3.364876 18.327211 207 207 207 0
1.539427 -3.358750 18.293843 208 208 208 0
1.608478 -3.356823 18.283352 208 208 208 0
1.677046 -3.354092 18.268476 207 207 207 0
1.744425 -3.349296 18.242355 207 207 207 0
1.809126 -3.339925 18.191312 208 208 208 0
1.876479 -3.335962 18.169728 208 208 208 0
1.939658 -3.325129 18.110723 208 208 208 0
2.005266 -3.319061 18.077673 208 208 208 0
2.072187 -3.315499 18.058271 208 208 208 0
2.140341 -3.314076 18.050524 209 209 209 0
2.207935 -3.311902 18.038681 209 209 209 0
2.272155 -3.304952 18.000830 208 208 208 0
2.335750 -3.297530 17.960403 209 209 209 0
2.396752 -3.286974 17.902907 209 209 209 0
2.461677 -3.282236 17.877103 209 209 209 0
2.527376 -3.278758 17.858161 209 209 209 0
3.165295 -3.998267 21.777053 209 209 209 0
3.898478 -4.798127 26.133591 209 209 209 0
3.999613 -4.799536 26.141264 209 209 209 0
4.098418 -4.798148 26.133705 208 208 208 0
4.195024 -4.794313 26.112815 209 209 209 0
4.293300 -4.792521 26.103053 208 208 208 0
4.390447 -4.789578 26.087027 208 208 208 0
4.489259 -4.788543 26.081389 208 208 208 0
4.590300 -4.789878 26.088661 209 209 209 0
4.680317 -4.779899 26.034306 208 208 208 0
4.784931 -4.784931 26.061714 208 208 208 0
4.881324 -4.781705 26.044145 210 210 210 0
4.982296 -4.783004 26.051220 209 209 209 0
5.080328 -4.781485 26.042948 209 209 209 0
5.173864 -4.775874 26.012387 210 210 210 0
5.274259 -4.776687 26.016814 208 208 208 0
5.379753 -4.782003 26.045766 209 209 209 0
5.474690 -4.777911 26.023482 208 208 208 0
5.568784 -4.773243 25.998057 209 209 209 0
5.661344 -4.767447 25.966488 209 209 209 0
5.760107 -4.766985 25.963970 210 210 210 0
5.855018 -4.763404 25.944468 210 210 210 0
5.949945 -4.759956 25.925686 209 209 209 0
6.046399 -4.757822 25.914065 209 209 209 0
6.150989 -4.762056 25.937125 209 209 209 0
6.246286 -4.759075 25.920886 209 209 209 0
6.338672 -4.754004 25.893270 209 209 209 0
6.445535 -4.759779 25.924724 209 209 209 0
6.536306 -4.753677 25.891489 209 209 209 0
6.636019 -4.754163 25.894134 209 209 209 0
6.732909 -4.752641 25.885847 209 209 209 0
6.830691 -4.751785 25.881181 210 210 210 0
6.920459 -4.745458 25.846720 209 209 209 0
7.016754 -4.743721 25.837259 209 209 209 0
7.118852 -4.745901 25.849137 209 209 209 0
7.210929 -4.741433 25.824798 209 209 209 0
7.309654 -4.741397 25.824604 209 209 209 0
7.405445 -4.739485 25.814188 209 209 209 0
7.502024 -4.738120 25.806756 209 209 209 0
7.600336 -4.737872 25.805403 208 208 208 0
7.691669 -4.733335 25.780690 209 209 209 0
7.797311 -4.737607 25.803957 209 209 209 0
-6.784929 -3.986146 22.172972 193 193 193 0
-6.672705 -3.969837 22.082253 194 194 194 0
-6.585701 -3.968307 22.073742 194 194 194 0
-6.467404 -3.947636 21.958759 194 194 194 0
-6.378835 -3.944806 21.943015 195 195 195 0
-6.282744 -3.937186 21.900634 195 195 195 0
-6.210731 -3.944654 21.942169 194 194 194 0
-6.115440 -3.937338 21.901479 195 195 195 0
-5.990475 -3.910449 21.751907 195 195 195 0
-5.898896 -3.904903 21.721057 196 196 196 0
-5.805767 -3.898158 21.683536 195 195 195 0
-5.707722 -3.887869 21.626305 196 196 196 0
-5.627495 -3.889592 21.635888 195 195 195 0
-5.546594 -3.890895 21.643135 195 195 195 0
-5.434915 -3.870319 21.528681 196 196 196 0
-5.337481 -3.859409 21.467999 197 197 197 0
-5.241639 -3.849328 21.411922 196 196 196 0
-5.149985 -3.842052 21.371449 197 197 197 0
-5.068966 -3.842604 21.374516 197 197 197 0
-4.977724 -3.835295 21.333863 197 197 197 0
-4.894055 -3.833677 21.324859 197 197 197 0
-4.786072 -3.812633 21.207806 197 197 197 0
-4.693751 -3.803557 21.157319 197 197 197 0
-4.615058 -3.805399 21.167564 197 197 197 0
-4.527366 -3.799754 21.136163 198 198 198 0
-4.438065 -3.792528 21.095971 198 198 198 0
-4.341989 -3.779138 21.021490 198 198 198 0
-4.249306 -3.768252 20.960936 199 199 199 0
-4.155452 -3.755889 20.892165 198 198 198 0
