ply
format ascii 1.0
element vertex 1098
property float x
property float y
property float z
property uchar red
property uchar green
property uchar blue
property uchar alpha
end_header
0.240901 -1.525707 20.993558 210 210 210 0
0.321422 -1.526752 21.007945 209 209 209 0
0.402140 -1.528133 21.026948 209 209 209 0
0.483784 -1.531984 21.079928 209 209 209 0
0.565704 -1.535483 21.128083 209 209 209 0
0.647170 -1.537029 21.149353 210 210 210 0
0.729109 -1.539230 21.179638 209 209 209 0
0.811436 -1.541729 21.214019 210 210 210 0
0.894227 -1.544574 21.253164 210 210 210 0
0.977742 -1.548091 21.301560 210 210 210 0
1.061384 -1.551254 21.345078 209 209 209 0
1.145959 -1.555230 21.399797 208 208 208 0
1.230815 -1.559032 21.452106 208 208 208 0
1.316866 -1.563779 21.517421 209 209 209 0
1.402391 -1.567378 21.566946 208 208 208 0
1.488321 -1.571006 21.616867 209 209 209 0
1.576064 -1.576064 21.686474 208 208 208 0
1.663277 -1.580113 21.742186 207 207 207 0
1.752957 -1.586008 21.823300 207 207 207 0
1.843347 -1.591982 21.905491 207 207 207 0
1.931418 -1.595519 21.954168 208 208 208 0
2.026845 -1.604586 22.078923 206 206 206 0
2.119664 -1.610944 22.166418 206 206 206 0
2.212523 -1.616844 22.247592 205 205 205 0
2.308866 -1.624757 22.356484 205 205 205 0
2.409498 -1.635017 22.497650 204 204 204 0
2.506236 -1.642017 22.593972 203 203 203 0
2.608913 -1.652311 22.735621 202 202 202 0
2.715528 -1.664356 22.901354 201 201 201 0
2.822939 -1.676120 23.063226 200 200 200 0
2.928254 -1.685964 23.198684 198 198 198 0
3.049879 -1.704344 23.451588 197 197 197 0
3.170367 -1.721056 23.681547 195 195 195 0
3.299685 -1.741500 23.962851 191 191 191 0
3.446146 -1.769642 24.350086 187 187 187 0
3.601111 -1.800555 24.775445 166 166 166 0
3.711042 -1.807944 24.877107 87 87 87 0
-5.527676 -1.686410 24.493969 80 80 80 0
-5.300032 -1.644838 23.890161 110 110 110 0
-5.115189 -1.615323 23.461479 135 135 135 0
-4.956699 -1.593225 23.140518 141 141 141 0
-4.824641 -1.578973 22.933526 154 154 154 0
-4.704902 -1.568301 22.778514 157 157 157 0
-4.595939 -1.560885 22.670805 161 161 161 0
-4.486938 -1.553171 22.558764 170 170 170 0
-4.367802 -1.541577 22.390372 171 171 171 0
-4.257131 -1.532567 22.259510 172 172 172 0
-4.136296 -1.519456 22.069074 177 177 177 0
-4.032424 -1.512159 21.963096 181 181 181 0
-3.937964 -1.508156 21.904956 181 181 181 0
-3.847475 -1.505534 21.866868 182 182 182 0
-3.750191 -1.500076 21.787603 183 183 183 0
-3.658634 -1.496714 21.738767 187 187 187 0
-3.551027 -1.486477 21.590074 189 189 189 0
-3.457700 -1.481871 21.523186 190 190 190 0
-3.362212 -1.476093 21.439258 191 191 191 0
-3.278470 -1.475311 21.427906 191 191 191 0
-3.190524 -1.472549 21.387790 191 191 191 0
-3.103316 -1.469992 21.350646 195 195 195 0
-3.009162 -1.463917 21.262409 197 197 197 0
-2.916636 -1.458318 21.181089 197 197 197 0
-2.826958 -1.453864 21.116400 197 197 197 0
-2.745837 -1.453678 21.113703 197 197 197 0
-2.664264 -1.453235 21.107262 197 197 197 0
-2.580566 -1.451568 21.083054 197 197 197 0
-2.494282 -1.448293 21.035478 199 199 199 0
-2.406724 -1.444035 20.973633 201 201 201 0
-2.320778 -1.440483 20.922049 202 202 202 0
-2.239138 -1.439446 20.906987 203 203 203 0
-2.161234 -1.440823 20.926985 203 203 203 0
-2.078752 -1.439136 20.902481 203 203 203 0
-1.998263 -1.438749 20.896866 203 203 203 0
-1.913253 -1.434939 20.841532 204 204 204 0
-1.830528 -1.432587 20.807368 204 204 204 0
-1.750698 -1.432390 20.804497 204 204 204 0
-1.672358 -1.433450 20.819895 204 204 204 0
-1.591548 -1.432393 20.804547 205 205 205 0
-1.512073 -1.432490 20.805952 205 205 205 0
-1.429171 -1.429171 20.757754 206 206 206 0
-1.348773 -1.428113 20.742376 206 206 206 0
-1.269067 -1.427700 20.736385 206 206 206 0
-1.190355 -1.428426 20.746935 206 206 206 0
-1.111936 -1.429632 20.764449 207 207 207 0
-1.031760 -1.428590 20.749312 207 207 207 0
-0.951752 -1.427628 20.735340 208 208 208 0
-0.872475 -1.427686 20.736176 208 208 208 0
-0.793559 -1.428406 20.746640 209 209 209 0
-0.715011 -1.430022 20.770104 208 208 208 0
-0.635656 -1.430226 20.773065 209 209 209 0
-0.556200 -1.430228 20.773099 208 208 208 0
-0.476675 -1.430025 20.770146 209 209 209 0
-0.397602 -1.431369 20.789673 209 209 209 0
-0.318325 -1.432463 20.805560 209 209 209 0
-0.239222 -1.435330 20.847210 209 209 209 0
-0.159546 -1.435916 20.855720 209 209 209 0
-0.079812 -1.436622 20.865966 210 210 210 0
0.000000 -1.436892 20.869893 209 209 209 0
0.079918 -1.438527 20.893634 209 209 209 0
0.160110 -1.440987 20.929363 211 211 211 0
0.240175 -1.441050 20.930278 210 210 210 0
0.320568 -1.442555 20.952137 210 210 210 0
0.401255 -1.444516 20.980629 211 211 211 0
0.482392 -1.447177 21.019269 210 210 210 0
0.564070 -1.450466 21.067038 210 210 210 0
0.645337 -1.452009 21.089452 210 210 210 0
0.726830 -1.453659 21.113427 210 210 210 0
0.809507 -1.457113 21.163582 210 210 210 0
0.892914 -1.461133 21.221969 210 210 210 0
0.975705 -1.463557 21.257189 210 210 210 0
1.058656 -1.465832 21.290218 210 210 210 0
1.141991 -1.468274 21.325691 210 210 210 0
1.227104 -1.472525 21.387436 209 209 209 0
1.312844 -1.476949 21.451696 209 209 209 0
1.399524 -1.481849 21.522857 209 209 209 0
1.484379 -1.484379 21.559614 209 209 209 0
1.572075 -1.489334 21.631573 209 209 209 0
1.659491 -1.493542 21.692690 209 209 209 0
1.748838 -1.499004 21.772032 207 207 207 0
1.839381 -1.504948 21.858363 207 207 207 0
1.927488 -1.508469 21.909495 207 207 207 0
2.021444 -1.516083 22.020085 207 207 207 0
2.113142 -1.521462 22.098214 207 207 207 0
2.205038 -1.526565 22.172332 205 205 205 0
2.302254 -1.534836 22.292458 205 205 205 0
2.401091 -1.543559 22.419155 205 205 205 0
2.498998 -1.551102 22.528715 204 204 204 0
2.596642 -1.557985 22.628692 203 203 203 0
2.703304 -1.569660 22.798259 201 201 201 0
2.811489 -1.581463 22.969684 201 201 201 0
2.915874 -1.590477 23.100604 200 200 200 0
3.030386 -1.604322 23.301700 197 197 197 0
3.151963 -1.621009 23.544073 197 197 197 0
3.273499 -1.636749 23.772686 193 193 193 0
3.415298 -1.661496 24.132117 191 191 191 0
3.573214 -1.692575 24.583519 182 182 182 0
3.715671 -1.714925 24.908133 130 130 130 0
-5.462492 -1.573938 24.205125 94 94 94 0
-5.253864 -1.539926 23.682057 123 123 123 0
-5.089592 -1.517949 23.344076 136 136 136 0
-4.934776 -1.498057 23.038170 150 150 150 0
-4.796624 -1.482593 22.800351 156 156 156 0
-4.683390 -1.474401 22.674365 159 159 159 0
-4.574827 -1.467397 22.566663 167 167 167 0
-4.464855 -1.459664 22.447740 170 170 170 0
-4.357512 -1.452504 22.337624 171 171 171 0
-4.235872 -1.440196 22.148349 173 173 173 0
-4.123885 -1.430736 22.002856 180 180 180 0
-4.019206 -1.423469 21.891102 181 181 181 0
-3.919939 -1.417850 21.804696 182 182 182 0
-3.832924 -1.416515 21.784166 182 182 182 0
-3.743279 -1.414128 21.747444 186 186 186 0
-3.645362 -1.408435 21.659907 190 190 190 0
-3.545495 -1.401707 21.556435 190 190 190 0
-3.443978 -1.393991 21.437772 190 190 190 0
-3.352692 -1.390141 21.378558 191 191 191 0
-3.270100 -1.389793 21.373203 191 191 191 0
-3.182101 -1.387070 21.331330 195 195 195 0
-3.096382 -1.385223 21.302937 196 196 196 0
-3.002356 -1.379461 21.214313 196 196 196 0
-2.910518 -1.374411 21.136656 197 197 197 0
-2.823667 -1.371496 21.091820 197 197 197 0
-2.739258 -1.369629 21.063114 197 197 197 0
-2.660771 -1.370700 21.079585 197 197 197 0
-2.571302 -1.366004 21.007372 199 199 199 0
-2.491238 -1.366163 21.009809 201 201 201 0
-2.401511 -1.360856 20.928200 202 202 202 0
-2.317490 -1.358529 20.892409 202 202 202 0
-2.236057 -1.357606 20.878215 203 203 203 0
-2.155855 -1.357390 20.874895 203 203 203 0
-2.076347 -1.357611 20.878299 203 203 203 0
-1.993856 -1.355822 20.850780 203 203 203 0
-1.913227 -1.355202 20.841251 203 203 203 0
-1.827901 -1.351057 20.777503 203 203 203 0
-1.746426 -1.349511 20.753724 204 204 204 0
-1.669041 -1.351128 20.778598 205 205 205 0
-1.587959 -1.349765 20.757630 206 206 206 0
-1.506624 -1.348032 20.730984 207 207 207 0
-1.425829 -1.346616 20.709206 207 207 207 0
-1.345703 -1.345703 20.695169 207 207 207 0
-1.267476 -1.346693 20.710392 207 207 207 0
-1.187924 -1.346314 20.704557 208 208 208 0
-1.109656 -1.347439 20.721864 209 209 209 0
-1.030156 -1.347127 20.717062 209 209 209 0
-0.950038 -1.345887 20.697987 209 209 209 0
-0.870962 -1.346032 20.700224 209 209 209 0
-0.792195 -1.346731 20.710968 209 209 209 0
-0.713788 -1.348266 20.734585 209 209 209 0
-0.634581 -1.348484 20.737933 209 209 209 0
-0.555188 -1.348315 20.735331 209 209 209 0
-0.475970 -1.348581 20.739423 210 210 210 0
-0.396823 -1.349197 20.748895 210 210 210 0
-0.317795 -1.350631 20.770942 210 210 210 0
-0.238594 -1.352035 20.792541 210 210 210 0
-0.159222 -1.353386 20.813321 209 209 209 0
-0.079607 -1.353317 20.812257 209 209 209 0
0.000000 -1.355090 20.839525 210 210 210 0
0.079808 -1.356735 20.864816 210 210 210 0
0.159828 -1.358536 20.892513 211 211 211 0
0.239908 -1.359481 20.907052 210 210 210 0
0.320213 -1.360904 20.928942 210 210 210 0
0.400393 -1.361338 20.935608 211 211 211 0
0.481300 -1.363684 20.971694 210 210 210 0
0.562874 -1.366980 21.022380 210 210 210 0
0.644115 -1.368743 21.049495 210 210 210 0
0.724889 -1.369234 21.057039 210 210 210 0
0.807810 -1.373277 21.119221 210 210 210 0
0.890509 -1.376241 21.164799 211 211 211 0
0.974134 -1.380023 21.222967 210 210 210 0
1.056862 -1.382050 21.254137 210 210 210 0
1.139940 -1.384212 21.287388 210 210 210 0
1.224411 -1.387666 21.340503 210 210 210 0
1.308744 -1.390540 21.384704 209 209 209 0
1.395298 -1.395298 21.457874 209 209 209 0
1.480985 -1.398708 21.510311 209 209 209 0
1.567897 -1.402855 21.574094 210 210 210 0
1.655772 -1.407406 21.644078 210 210 210 0
1.744464 -1.412185 21.717573 209 209 209 0
1.833404 -1.416721 21.787327 208 208 208 0
1.923066 -1.421397 21.859237 207 207 207 0
2.015073 -1.427343 21.950683 207 207 207 0
2.107193 -1.432891 22.036008 208 208 208 0
2.201540 -1.439469 22.137156 207 207 207 0
2.295517 -1.445326 22.227232 205 205 205 0
2.391088 -1.451732 22.325753 205 205 205 0
2.492050 -1.460857 22.466085 205 205 205 0
2.589938 -1.467631 22.570265 204 204 204 0
2.691311 -1.475880 22.697119 201 201 201 0
2.799446 -1.487206 22.871293 201 201 201 0
2.905022 -1.496527 23.014636 201 201 201 0
3.014292 -1.507146 23.177950 199 199 199 0
3.133846 -1.522154 23.408749 198 198 198 0
3.253540 -1.536394 23.627742 196 196 196 0
3.389418 -1.557300 23.949250 193 193 193 0
3.538987 -1.583231 24.348034 188 188 188 0
3.699797 -1.612732 24.801720 167 167 167 0
3.822517 -1.624570 24.983772 86 86 86 0
-5.582145 -1.488572 24.323074 76 76 76 0
-5.403756 -1.465425 23.944861 108 108 108 0
-5.214437 -1.438465 23.504337 131 131 131 0
-5.047476 -1.416835 23.150904 140 140 140 0
-4.910840 -1.403097 22.926425 153 153 153 0
-4.776280 -1.389463 22.703647 156 156 156 0
-4.661900 -1.381304 22.570323 162 162 162 0
-4.549279 -1.373367 22.440644 170 170 170 0
-4.455230 -1.370840 22.399345 170 170 170 0
-4.343027 -1.362518 22.263370 172 172 172 0
-4.219460 -1.350227 22.062537 178 178 178 0
-4.112197 -1.342758 21.940494 180 180 180 0
-4.009470 -1.336490 21.838070 181 181 181 0
-3.911568 -1.331598 21.758133 182 182 182 0
-3.822181 -1.329454 21.723108 185 185 185 0
-3.729372 -1.325999 21.666649 189 189 189 0
-3.635022 -1.321826 21.598469 189 189 189 0
-3.533066 -1.314629 21.480870 189 189 189 0
-3.439981 -1.310469 21.412894 190 190 190 0
-3.343316 -1.304709 21.318768 191 191 191 0
-3.257171 -1.302868 21.288696 193 193 193 0
-3.173512 -1.301954 21.273752 195 195 195 0
-3.091569 -1.301713 21.269828 196 196 196 0
-2.993678 -1.294563 21.152997 196 196 196 0
-2.905509 -1.291338 21.100287 197 197 197 0
-2.813580 -1.286208 21.016468 197 197 197 0
-2.737154 -1.288073 21.046939 197 197 197 0
-2.651910 -1.285775 21.009388 199 199 199 0
-2.568029 -1.284014 20.980628 200 200 200 0
-2.483489 -1.281801 20.944455 202 202 202 0
-2.395907 -1.277817 20.879360 202 202 202 0
-2.312316 -1.275761 20.845764 202 202 202 0
-2.231039 -1.274879 20.831361 202 202 202 0
-2.150442 -1.274336 20.822479 202 202 202 0
-2.071188 -1.274577 20.826422 203 203 203 0
-1.989489 -1.273273 20.805111 203 203 203 0
-1.905194 -1.270129 20.753749 204 204 204 0
-1.824224 -1.269025 20.735709 204 204 204 0
-1.741809 -1.266770 20.698858 206 206 206 0
-1.664058 -1.267854 20.716566 206 206 206 0
-1.584583 -1.267666 20.713501 207 207 207 0
-1.505118 -1.267468 20.710258 207 207 207 0
-1.423988 -1.265767 20.682470 207 207 207 0
-1.343351 -1.264331 20.658998 208 208 208 0
-1.264144 -1.264144 20.655953 208 208 208 0
-1.186484 -1.265583 20.679466 207 207 207 0
-1.107829 -1.266090 20.687746 208 208 208 0
-1.027937 -1.265153 20.672431 209 209 209 0
-0.948450 -1.264600 20.663407 209 209 209 0
-0.870263 -1.265836 20.683602 209 209 209 0
-0.790675 -1.265080 20.671239 209 209 209 0
-0.712250 -1.266222 20.689901 210 210 210 0
-0.632870 -1.265739 20.682014 209 209 209 0
-0.553881 -1.266013 20.686486 209 209 209 0
-0.474782 -1.266087 20.687689 210 210 210 0
-0.395953 -1.267050 20.703431 211 211 211 0
-0.317231 -1.268923 20.734042 210 210 210 0
-0.238149 -1.270131 20.753766 210 210 210 0
-0.158813 -1.270506 20.759898 210 210 210 0
-0.079417 -1.270680 20.762739 210 210 210 0
0.000000 -1.272563 20.793512 210 210 210 0
0.079545 -1.272715 20.795989 210 210 210 0
0.159487 -1.275893 20.847920 211 211 211 0
0.239447 -1.277051 20.866840 210 210 210 0
0.319626 -1.278502 20.890563 210 210 210 0
0.399877 -1.279607 20.908615 210 210 210 0
0.480652 -1.281739 20.943445 211 211 211 0
0.561348 -1.283082 20.965388 211 211 211 0
0.643108 -1.286217 21.016614 210 210 210 0
0.724516 -1.288029 21.046228 211 211 211 0
0.805802 -1.289283 21.066724 210 210 210 0
0.888716 -1.292678 21.122191 211 211 211 0
0.971772 -1.295696 21.171497 211 211 211 0
1.054445 -1.297778 21.205528 210 210 210 0
1.137790 -1.300331 21.247244 211 211 211 0
1.221133 -1.302542 21.283371 211 211 211 0
1.306705 -1.306705 21.351395 210 210 210 0
1.391548 -1.309692 21.400194 209 209 209 0
1.478296 -1.314041 21.471257 210 210 210 0
1.563895 -1.316964 21.519023 210 210 210 0
1.651869 -1.321495 21.593056 209 209 209 0
1.740384 -1.326007 21.666775 209 209 209 0
1.828610 -1.329898 21.730359 209 209 209 0
1.918411 -1.334547 21.806319 208 208 208 0
2.008881 -1.339254 21.883238 207 207 207 0
2.103517 -1.346251 21.997559 207 207 207 0
2.194584 -1.350513 22.067209 208 208 208 0
2.286398 -1.354902 22.138929 206 206 206 0
2.385320 -1.363040 22.271897 205 205 205 0
2.484613 -1.370821 22.399035 205 205 205 0
2.582479 -1.377322 22.505266 204 204 204 0
2.681054 -1.383770 22.610620 203 203 203 0
2.788908 -1.394454 22.785195 201 201 201 0
2.895083 -1.403677 22.935893 202 202 202 0
3.001165 -1.412313 23.077012 201 201 201 0
3.121083 -1.426781 23.313413 198 198 198 0
3.239405 -1.439735 23.525088 197 197 197 0
3.366070 -1.455598 23.784281 193 193 193 0
3.508256 -1.477160 24.136607 191 191 191 0
3.667067 -1.504438 24.582319 181 181 181 0
3.811911 -1.524764 24.914450 127 127 127 0
-5.530381 -1.382595 24.097521 91 91 91 0
-5.348092 -1.359684 23.698203 121 121 121 0
-5.172132 -1.337620 23.313643 136 136 136 0
-5.035288 -1.325076 23.095005 148 148 148 0
-4.892931 -1.310607 22.842815 154 154 154 0
-4.756622 -1.297260 22.610205 158 158 158 0
-4.642522 -1.289590 22.476507 167 167 167 0
-4.537714 -1.284259 22.383592 170 170 170 0
-4.435997 -1.279615 22.302650 171 171 171 0
-4.330169 -1.273579 22.197458 175 175 175 0
-4.217987 -1.265396 22.054835 180 180 180 0
-4.104068 -1.256347 21.897122 180 180 180 0
-3.996910 -1.249034 21.769660 181 181 181 0
-3.897359 -1.243838 21.679094 182 182 182 0
-3.810268 -1.242479 21.655404 187 187 187 0
-3.721703 -1.240568 21.622097 188 188 188 0
-3.628628 -1.237032 21.560476 189 189 189 0
-3.529860 -1.231347 21.461380 190 190 190 0
-3.428449 -1.224446 21.341106 190 190 190 0
-3.335649 -1.220359 21.269882 192 192 192 0
-3.250793 -1.219047 21.247015 196 196 196 0
-3.169187 -1.218918 21.244756 196 196 196 0
-3.084677 -1.217636 21.222407 196 196 196 0
-2.992077 -1.213004 21.141683 197 197 197 0
-2.902049 -1.209187 21.075156 197 197 197 0
-2.809769 -1.204187 20.988001 197 197 197 0
-2.729883 -1.204360 20.991028 199 199 199 0
-2.646345 -1.202884 20.965302 201 201 201 0
-2.562762 -1.201295 20.937602 201 201 201 0
-2.481013 -1.200490 20.923577 201 201 201 0
-2.396246 -1.198123 20.882319 202 202 202 0
-2.306412 -1.192972 20.792540 202 202 202 0
-2.227255 -1.193172 20.796030 203 203 203 0
-2.146664 -1.192591 20.785902 203 203 203 0
-2.068160 -1.193169 20.795974 203 203 203 0
-1.984832 -1.190899 20.756412 204 204 204 0
-1.902866 -1.189291 20.728383 205 205 205 0
-1.819335 -1.186523 20.680138 206 206 206 0
-1.741045 -1.187076 20.689781 206 206 206 0
-1.660635 -1.186168 20.673954 206 206 206 0
-1.583439 -1.187579 20.698547 207 207 207 0
-1.503196 -1.186733 20.683806 207 207 207 0
-1.422004 -1.185003 20.653646 207 207 207 0
-1.341752 -1.183898 20.634396 207 207 207 0
-1.262617 -1.183703 20.630992 208 208 208 0
-1.183978 -1.183978 20.635782 208 208 208 0
-1.105426 -1.184385 20.642871 208 208 208 0
-1.026106 -1.183969 20.635622 208 208 208 0
-0.947493 -1.184366 20.642542 209 209 209 0
-0.867779 -1.183336 20.624586 209 209 209 0
-0.789409 -1.184113 20.638134 210 210 210 0
-0.711194 -1.185323 20.659220 210 210 210 0
-0.632066 -1.185124 20.655753 209 209 209 0
-0.553186 -1.185398 20.660523 210 210 210 0
-0.474224 -1.185560 20.663357 210 210 210 0
-0.395458 -1.186373 20.677529 210 210 210 0
-0.316573 -1.187148 20.691032 211 211 211 0
-0.237767 -1.188835 20.720430 211 211 211 0
-0.158660 -1.189951 20.739888 211 211 211 0
-0.079313 -1.189695 20.735417 211 211 211 0
0.000000 -1.190472 20.748962 210 210 210 0
0.079456 -1.191843 20.772869 210 210 210 0
0.159152 -1.193637 20.804139 210 210 210 0
0.239065 -1.195327 20.833589 211 211 211 0
0.319021 -1.196328 20.851034 211 211 211 0
0.399439 -1.198317 20.885691 211 211 211 0
0.479742 -1.199356 20.903806 211 211 211 0
0.560783 -1.201677 20.944264 211 211 211 0
0.641512 -1.202835 20.964448 211 211 211 0
0.722709 -1.204515 20.993718 212 212 212 0
0.803916 -1.205874 21.017403 210 210 210 0
0.886846 -1.209335 21.077736 210 210 210 0
0.969889 -1.212361 21.130471 210 210 210 0
1.053032 -1.215037 21.177113 211 211 211 0
1.136513 -1.217693 21.223406 211 211 211 0
1.218590 -1.218590 21.239034 210 210 210 0
1.304463 -1.222934 21.314753 211 211 211 0
1.389447 -1.225983 21.367897 210 210 210 0
1.474291 -1.228576 21.413085 209 209 209 0
1.560399 -1.231894 21.470912 209 209 209 0
1.648351 -1.236263 21.547067 210 210 210 0
1.736924 -1.240660 21.623704 210 210 210 0
1.824016 -1.243647 21.675768 210 210 210 0
1.912445 -1.247247 21.738511 209 209 209 0
2.004592 -1.252870 21.836516 209 209 209 0
2.097783 -1.258670 21.937602 208 208 208 0
2.190243 -1.263601 22.023555 208 208 208 0
2.280982 -1.267212 22.086486 208 208 208 0
2.377036 -1.273412 22.194549 206 206 206 0
2.476978 -1.281196 22.330207 205 205 205 0
2.573134 -1.286567 22.423824 204 204 204 0
2.674894 -1.294303 22.558664 205 205 205 0
2.778414 -1.302382 22.699464 203 203 203 0
2.884073 -1.310942 22.848669 202 202 202 0
2.991976 -1.319989 23.006350 202 202 202 0
3.105134 -1.330772 23.194276 199 199 199 0
3.224204 -1.343418 23.414701 198 198 198 0
3.344635 -1.355933 23.632824 196 196 196 0
3.487862 -1.376788 23.996300 192 192 192 0
3.636562 -1.398678 24.377822 188 188 188 0
3.796663 -1.423749 24.814793 163 163 163 0
3.914768 -1.432232 24.962653 83 83 83 0
-5.684160 -1.304561 24.361556 75 75 75 0
-5.502513 -1.283920 23.976092 105 105 105 0
-5.315280 -1.261253 23.552806 131 131 131 0
-5.156296 -1.244623 23.242263 139 139 139 0
-5.016248 -1.232061 23.007674 153 153 153 0
-4.861939 -1.215485 22.698126 155 155 155 0
-4.747850 -1.208544 22.568510 161 161 161 0
-4.622661 -1.198468 22.380347 168 168 168 0
-4.517388 -1.193272 22.283331 170 170 170 0
-4.418183 -1.189511 22.213089 172 172 172 0
-4.314530 -1.184381 22.117286 179 179 179 0
-4.201489 -1.176417 21.968570 181 181 181 0
-4.094451 -1.169843 21.845813 180 180 180 0
-3.988898 -1.163429 21.726025 181 181 181 0
-3.893589 -1.159793 21.658124 185 185 185 0
-3.799471 -1.156361 21.594036 188 188 188 0
-3.714334 -1.155571 21.579282 189 189 189 0
-3.620624 -1.152017 21.512918 189 189 189 0
-3.527052 -1.148342 21.444304 190 190 190 0
-3.423202 -1.141067 21.308445 191 191 191 0
-3.330890 -1.137377 21.239535 195 195 195 0
-3.242581 -1.134903 21.193340 195 195 195 0
-3.161117 -1.134760 21.190664 196 196 196 0
-3.075621 -1.133124 21.160105 196 196 196 0
-2.988321 -1.130716 21.115149 196 196 196 0
-2.892430 -1.124834 21.005300 197 197 197 0
-2.803540 -1.121416 20.941475 199 199 199 0
-2.720184 -1.120076 20.916444 200 200 200 0
-2.642421 -1.121027 20.934210 201 201 201 0
-2.558593 -1.119384 20.903534 201 201 201 0
-2.478239 -1.119205 20.900184 201 201 201 0
-2.389325 -1.115018 20.822003 202 202 202 0
-2.304487 -1.112511 20.775184 202 202 202 0
-2.221930 -1.110965 20.746314 202 202 202 0
-2.142992 -1.111181 20.750341 203 203 203 0
-2.063434 -1.111080 20.748455 205 205 205 0
-1.981431 -1.109601 20.720844 205 205 205 0
-1.899541 -1.108065 20.692164 206 206 206 0
-1.816371 -1.105617 20.646448 206 206 206 0
-1.736975 -1.105348 20.641411 206 206 206 0
-1.659408 -1.106272 20.658672 206 206 206 0
-1.578913 -1.105239 20.639390 207 207 207 0
-1.501730 -1.106538 20.663639 207 207 207 0
-1.420764 -1.105039 20.635644 207 207 207 0
-1.339918 -1.103462 20.606195 207 207 207 0
-1.261008 -1.103382 20.604705 208 208 208 0
-1.181302 -1.102549 20.589144 208 208 208 0
-1.103356 -1.103356 20.604222 208 208 208 0
-1.024335 -1.103130 20.600000 209 209 209 0
-0.945179 -1.102709 20.592142 209 209 209 0
-0.866515 -1.102838 20.594544 210 210 210 0
-0.787950 -1.103130 20.600000 209 209 209 0
-0.709254 -1.103283 20.602864 209 209 209 0
-0.630836 -1.103963 20.615556 210 210 210 0
-0.552207 -1.104413 20.623966 210 210 210 0
-0.473833 -1.105610 20.646316 210 210 210 0
-0.394943 -1.105841 20.650630 210 210 210 0
-0.316136 -1.106476 20.662484 211 211 211 0
-0.237170 -1.106795 20.668434 210 210 210 0
-0.158340 -1.108379 20.698016 211 211 211 0
-0.079171 -1.108401 20.698431 211 211 211 0
0.000000 -1.108752 20.704989 211 211 211 0
0.079267 -1.109737 20.723385 211 211 211 0
0.158891 -1.112238 20.770075 211 211 211 0
0.238596 -1.113447 20.792660 211 211 211 0
0.318822 -1.115877 20.838044 211 211 211 0
0.398400 -1.115519 20.831360 211 211 211 0
0.478898 -1.117429 20.867026 211 211 211 0
0.559835 -1.119670 20.908869 212 212 212 0
0.640200 -1.120350 20.921576 212 212 212 0
0.721810 -1.122816 20.967610 211 211 211 0
0.802901 -1.124062 20.990884 211 211 211 0
0.885048 -1.126424 21.035001 211 211 211 0
0.968250 -1.129625 21.094766 211 211 211 0
1.050337 -1.131132 21.122908 211 211 211 0
1.134050 -1.134050 21.177397 211 211 211 0
1.216655 -1.135545 21.205314 211 211 211 0
1.301593 -1.138894 21.267864 211 211 211 0
1.387063 -1.142287 21.331222 211 211 211 0
1.471275 -1.144325 21.369285 210 210 210 0
1.557502 -1.147633 21.431053 210 210 210 0
1.643912 -1.150738 21.489045 209 209 209 0
1.733660 -1.155774 21.583073 210 210 210 0
1.821438 -1.159097 21.645137 210 210 210 0
1.908036 -1.161413 21.688391 210 210 210 0
1.998849 -1.165995 21.773954 208 208 208 0
2.091736 -1.171372 21.874359 208 208 208 0
2.183057 -1.175492 21.951297 208 208 208 0
2.277592 -1.180973 22.053659 207 207 207 0
2.369614 -1.184807 22.125248 207 207 207 0
2.468245 -1.191567 22.251477 206 206 206 0
2.567852 -1.198331 22.377793 205 205 205 0
2.666730 -1.204330 22.489818 205 205 205 0
2.767432 -1.210751 22.609736 204 204 204 0
2.875557 -1.219933 22.781201 202 202 202 0
2.981000 -1.227470 22.921951 202 202 202 0
3.091896 -1.236758 23.095395 201 201 201 0
3.211682 -1.248987 23.323761 198 198 198 0
3.331008 -1.260381 23.536533 197 197 197 0
3.460828 -1.275042 23.810304 194 194 194 0
3.601790 -1.292950 24.144730 190 190 190 0
3.769820 -1.319437 24.639348 181 181 181 0
3.900747 -1.331962 24.873246 113 113 113 0
-5.634480 -1.200791 24.148635 86 86 86 0
-5.439746 -1.178612 23.702596 117 117 117 0
-5.267965 -1.160738 23.343146 134 134 134 0
-5.138014 -1.151624 23.159858 146 146 146 0
-5.004775 -1.141440 22.955050 153 153 153 0
-4.853703 -1.126752 22.659678 157 157 157 0
-4.728790 -1.117714 22.477908 166 166 166 0
-4.608713 -1.109505 22.312821 169 169 169 0
-4.502885 -1.104481 22.211787 169 169 169 0
-4.410050 -1.102512 22.172195 175 175 175 0
-4.301606 -1.096488 22.051035 179 179 179 0
-4.194398 -1.090544 21.931495 180 180 180 0
-4.080472 -1.082574 21.771224 181 181 181 0
-3.978817 -1.077596 21.671118 183 183 183 0
-3.880180 -1.073241 21.583533 188 188 188 0
-3.792646 -1.071835 21.555247 188 188 188 0
-3.702120 -1.069501 21.508320 189 189 189 0
-3.611594 -1.067062 21.459261 188 188 188 0
-3.519049 -1.063899 21.395648 190 190 190 0
-3.417530 -1.057807 21.273138 195 195 195 0
-3.324274 -1.054038 21.197349 195 195 195 0
-3.236561 -1.051882 21.153994 195 195 195 0
-3.154986 -1.051662 21.149562 195 195 195 0
-3.073195 -1.051356 21.143409 196 196 196 0
-2.983247 -1.048168 21.079290 196 196 196 0
-2.890532 -1.043803 20.991517 198 198 198 0
-2.798982 -1.039622 20.907427 201 201 201 0
-2.717976 -1.039226 20.899466 201 201 201 0
-2.634497 -1.037832 20.871435 200 200 200 0
-2.554229 -1.037656 20.867885 201 201 201 0
-2.469896 -1.035763 20.829818 201 201 201 0
-2.388316 -1.034937 20.813209 202 202 202 0
-2.301994 -1.031929 20.752711 202 202 202 0
-2.219833 -1.030637 20.726733 202 202 202 0
-2.139011 -1.029894 20.711796 205 205 205 0
-2.059775 -1.029887 20.711660 205 205 205 0
-1.978586 -1.028865 20.691099 206 206 206 0
-1.898752 -1.028491 20.683570 206 206 206 0
-1.815488 -1.026145 20.636407 206 206 206 0
-1.734335 -1.024834 20.610037 206 206 206 0
-1.655503 -1.024835 20.610055 207 207 207 0
-1.577322 -1.025259 20.618591 207 207 207 0
-1.496771 -1.024106 20.595404 207 207 207 0
-1.418877 -1.024744 20.608230 208 208 208 0
-1.337862 -1.023071 20.574578 207 207 207 0
-1.258604 -1.022616 20.565425 208 208 208 0
-1.179305 -1.022064 20.554336 208 208 208 0
-1.101798 -1.023098 20.575118 209 209 209 0
-1.022970 -1.022970 20.572552 209 209 209 0
-0.944693 -1.023417 20.581541 209 209 209 0
-0.865845 -1.023271 20.578603 209 209 209 0
-0.786979 -1.023073 20.574617 209 209 209 0
-0.708482 -1.023363 20.580459 210 210 210 0
-0.630207 -1.024087 20.595015 210 210 210 0
-0.551565 -1.024335 20.600000 211 211 211 0
-0.472770 -1.024335 20.600000 211 211 211 0
-0.394581 -1.025909 20.631662 210 210 210 0
-0.315333 -1.024832 20.609993 211 211 211 0
-0.236783 -1.026061 20.634713 211 211 211 0
-0.158093 -1.027602 20.665709 211 211 211 0
-0.079017 -1.027221 20.658047 210 210 210 0
0.000000 -1.028122 20.676150 212 212 212 0
0.079167 -1.029175 20.697330 212 212 212 0
0.158569 -1.030702 20.728037 212 212 212 0
0.238122 -1.031861 20.751357 211 211 211 0
0.317835 -1.032965 20.773551 211 211 211 0
0.397655 -1.033904 20.792441 211 211 211 0
0.478220 -1.036142 20.837455 212 212 212 0
0.558647 -1.037487 20.864487 211 211 211 0
0.639459 -1.039121 20.897348 211 211 211 0
0.720415 -1.040600 20.927100 212 212 212 0
0.801742 -1.042265 20.960574 211 211 211 0
0.883575 -1.044225 21.000000 211 211 211 0
0.966020 -1.046521 21.046176 210 210 210 0
1.048576 -1.048576 21.087506 211 211 211 0
1.131889 -1.051040 21.137058 211 211 211 0
1.214704 -1.052744 21.171320 211 211 211 0
1.299597 -1.055923 21.235249 211 211 211 0
1.383932 -1.058301 21.283077 211 211 211 0
1.469815 -1.061533 21.348080 211 211 211 0
1.554695 -1.063738 21.392426 210 210 210 0
1.640493 -1.066320 21.444353 209 209 209 0
1.729346 -1.070547 21.529358 210 210 210 0
1.818132 -1.074351 21.605847 211 211 211 0
1.904688 -1.076563 21.650333 210 210 210 0
1.994922 -1.080583 21.731182 209 209 209 0
2.087343 -1.085418 21.828419 208 208 208 0
2.179941 -1.089971 21.919975 208 208 208 0
2.271295 -1.093587 21.992694 208 208 208 0
2.364978 -1.098025 22.081958 208 208 208 0
2.460224 -1.102859 22.179165 207 207 207 0
2.562747 -1.110524 22.333308 206 206 206 0
2.658996 -1.115063 22.424590 205 205 205 0
2.759059 -1.120868 22.541333 205 205 205 0
2.865844 -1.128969 22.704248 203 203 203 0
2.970379 -1.135733 22.840285 202 202 202 0
3.081515 -1.144563 23.017853 202 202 202 0
3.197950 -1.154815 23.224037 199 199 199 0
3.316852 -1.165381 23.436513 198 198 198 0
3.440456 -1.176998 23.670149 196 196 196 0
3.584464 -1.194821 24.028584 193 193 193 0
3.738039 -1.214863 24.431624 187 187 187 0
3.895449 -1.235142 24.839465 150 150 150 0
-5.596703 -1.100991 23.986728 94 94 94 0
-5.415979 -1.083196 23.599036 125 125 125 0
-5.256411 -1.069101 23.291952 136 136 136 0
-5.103701 -1.055938 23.005188 151 151 151 0
-4.971854 -1.046706 22.804052 155 155 155 0
-4.834006 -1.035859 22.567723 161 161 161 0
-4.713853 -1.028477 22.406907 168 168 168 0
-4.595271 -1.021171 22.247742 169 169 169 0
-4.495167 -1.017774 22.173717 170 170 170 0
-4.391720 -1.013474 22.080040 178 178 178 0
-4.296397 -1.010917 22.024335 179 179 179 0
-4.184930 -1.004383 21.881987 180 180 180 0
-4.073447 -0.997579 21.733746 181 181 181 0
-3.964779 -0.991195 21.594657 185 185 185 0
-3.871240 -0.988402 21.533807 188 188 188 0
-3.782859 -0.986833 21.499627 188 188 188 0
-3.696461 -0.985723 21.475443 188 188 188 0
-3.602499 -0.982500 21.405223 189 189 189 0
-3.510183 -0.979586 21.341743 192 192 192 0
-3.408175 -0.973764 21.214907 194 194 194 0
-3.316433 -0.970663 21.147348 195 195 195 0
-3.229533 -0.968860 21.108058 195 195 195 0
-3.150027 -0.969239 21.116321 195 195 195 0
-3.065975 -0.968203 21.093742 196 196 196 0
-2.977736 -0.965752 21.040351 197 197 197 0
-2.883809 -0.961270 20.942698 200 200 200 0
-2.800482 -0.960165 20.918636 200 200 200 0
-2.711798 -0.957105 20.851968 201 201 201 0
-2.631436 -0.956886 20.847189 201 201 201 0
-2.553069 -0.957401 20.858408 201 201 201 0
-2.467392 -0.955119 20.808701 202 202 202 0
-2.382785 -0.953114 20.765008 201 201 201 0
-2.297026 -0.950493 20.707916 203 203 203 0
-2.215723 -0.949596 20.688360 204 204 204 0
-2.135032 -0.948903 20.673273 205 205 205 0
-2.057569 -0.949647 20.689483 205 205 205 0
-1.974920 -0.947962 20.652759 205 205 205 0
-1.895326 -0.947663 20.646247 206 206 206 0
-1.812554 -0.945680 20.603059 206 206 206 0
-1.731765 -0.944599 20.579498 206 206 206 0
-1.654505 -0.945431 20.597636 207 207 207 0
-1.574589 -0.944753 20.582857 207 207 207 0
-1.494746 -0.944050 20.567544 207 207 207 0
-1.415168 -0.943445 20.554367 208 208 208 0
-1.335246 -0.942526 20.534342 207 207 207 0
-1.255238 -0.941429 20.510427 209 209 209 0
-1.178088 -0.942470 20.533119 209 209 209 0
-1.099797 -0.942683 20.537753 209 209 209 0
-1.021444 -0.942871 20.541853 208 208 208 0
-0.943117 -0.943117 20.547220 209 209 209 0
-0.863437 -0.941932 20.521385 209 209 209 0
-0.785726 -0.942871 20.541862 210 210 210 0
-0.707467 -0.943290 20.550975 210 210 210 0
-0.629224 -0.943835 20.562863 210 210 210 0
-0.551034 -0.944630 20.580174 210 210 210 0
-0.472396 -0.944791 20.583684 210 210 210 0
-0.393308 -0.943940 20.565140 211 211 211 0
-0.315015 -0.945046 20.589238 210 210 210 0
-0.236646 -0.946582 20.622709 211 211 211 0
-0.157852 -0.947110 20.634213 211 211 211 0
-0.078960 -0.947521 20.643162 212 212 212 0
0.000000 -0.947874 20.650844 212 212 212 0
0.079095 -0.949142 20.678474 212 212 212 0
0.158380 -0.950278 20.703214 212 212 212 0
0.237804 -0.951218 20.723703 212 212 212 0
0.317482 -0.952446 20.750447 212 212 212 0
0.396831 -0.952393 20.749312 211 211 211 0
0.477170 -0.954340 20.791718 211 211 211 0
0.557855 -0.956323 20.834917 211 211 211 0
0.638549 -0.957824 20.867625 211 211 211 0
0.719692 -0.959590 20.906094 212 212 212 0
0.800345 -0.960414 20.924055 212 212 212 0
0.882114 -0.962306 20.965278 211 211 211 0
0.963558 -0.963558 20.992544 211 211 211 0
1.045773 -0.965329 21.031140 212 212 212 0
1.129887 -0.968475 21.099672 211 211 211 0
1.213114 -0.970491 21.143601 212 212 212 0
1.297270 -0.972953 21.197230 210 210 210 0
1.381766 -0.975364 21.249762 211 211 211 0
1.466680 -0.977787 21.302541 211 211 211 0
1.551297 -0.979766 21.345672 210 210 210 0
1.637968 -0.982781 21.411343 210 210 210 0
1.727135 -0.986934 21.501840 210 210 210 0
1.814286 -0.989611 21.560146 210 210 210 0
1.901403 -0.992036 21.612991 210 210 210 0
1.989690 -0.994845 21.674185 209 209 209 0
2.081702 -0.999217 21.769435 208 208 208 0
2.174182 -1.003469 21.862060 208 208 208 0
2.266165 -1.007185 21.943021 207 207 207 0
2.359136 -1.011058 22.027413 208 208 208 0
2.455781 -1.016185 22.139111 207 207 207 0
2.552580 -1.021032 22.244706 206 206 206 0
2.651376 -1.026339 22.360333 206 206 206 0
2.752152 -1.032057 22.484906 205 205 205 0
2.856660 -1.038786 22.631495 204 204 204 0
2.961666 -1.045294 22.773286 202 202 202 0
3.069374 -1.052357 22.927163 202 202 202 0
3.183002 -1.061001 23.115479 201 201 201 0
3.301435 -1.070736 23.327578 198 198 198 0
3.424199 -1.081326 23.558301 197 197 197 0
3.565146 -1.096968 23.899085 193 193 193 0
3.710482 -1.113145 24.251517 190 190 190 0
3.880854 -1.135860 24.746397 172 172 172 0
4.007313 -1.144947 24.944372 91 91 91 0
-5.731198 -1.016825 24.166974 77 77 77 0
-5.557348 -1.002145 23.818056 106 106 106 0
-5.376100 -0.985618 23.425270 129 129 129 0
-5.230986 -0.975268 23.179287 141 141 141 0
-5.092932 -0.965901 22.956647 153 153 153 0
-4.962314 -0.957640 22.760298 155 155 155 0
-4.829149 -0.948583 22.545045 165 165 165 0
-4.694681 -0.938936 22.315774 169 169 169 0
-4.588061 -0.934605 22.212833 169 169 169 0
-4.474486 -0.928667 22.071702 175 175 175 0
-4.380865 -0.926721 22.025463 179 179 179 0
-4.286003 -0.924432 21.971055 180 180 180 0
-4.180364 -0.919680 21.858113 179 179 179 0
-4.063472 -0.912208 21.680521 183 183 183 0
-3.956138 -0.906615 21.547592 187 187 187 0
-3.864351 -0.904423 21.495486 188 188 188 0
-3.770739 -0.901698 21.430741 189 189 189 0
-3.685225 -0.900833 21.410167 188 188 188 0
-3.599060 -0.899765 21.384789 190 190 190 0
-3.508281 -0.897467 21.330176 193 193 193 0
-3.403491 -0.891391 21.185754 194 194 194 0
-3.311960 -0.888575 21.118825 195 195 195 0
-3.224918 -0.886852 21.077896 195 195 195 0
-3.140556 -0.885798 21.052829 196 196 196 0
-3.061519 -0.886229 21.063079 197 197 197 0
-2.966877 -0.882045 20.963628 199 199 199 0
-2.885068 -0.881548 20.951836 200 200 200 0
-2.795371 -0.878545 20.880455 201 201 201 0
-2.708881 -0.876403 20.829535 201 201 201 0
-2.625958 -0.875319 20.803789 201 201 201 0
-2.546290 -0.875287 20.803025 201 201 201 0
-2.463145 -0.874019 20.772886 202 202 202 0
-2.381071 -0.873059 20.750075 203 203 203 0
-2.295806 -0.870823 20.696924 204 204 204 0
-2.213752 -0.869688 20.669954 205 205 205 0
-2.130934 -0.868158 20.633590 205 205 205 0
-2.054741 -0.869314 20.661046 205 205 205 0
-1.973086 -0.868158 20.633579 205 205 205 0
-1.890681 -0.866562 20.595656 206 206 206 0
-1.810113 -0.865706 20.575312 206 206 206 0
-1.730777 -0.865389 20.567764 207 207 207 0
-1.649545 -0.864047 20.535885 206 206 206 0
-1.571503 -0.864327 20.542522 207 207 207 0
-1.492050 -0.863818 20.530445 207 207 207 0
-1.412919 -0.863450 20.521692 209 209 209 0
-1.334604 -0.863567 20.524472 208 208 208 0
-1.255191 -0.862944 20.509655 209 209 209 0
-1.176052 -0.862438 20.497634 209 209 209 0
-1.097707 -0.862484 20.498729 210 210 210 0
-1.020259 -0.863296 20.518019 210 210 210 0
-0.940578 -0.862196 20.491886 210 210 210 0
-0.862896 -0.862896 20.508513 210 210 210 0
-0.784175 -0.862592 20.501298 210 210 210 0
-0.705959 -0.862839 20.507161 211 211 211 0
-0.628024 -0.863533 20.523651 211 211 211 0
-0.549888 -0.864110 20.537381 210 210 210 0
-0.471273 -0.864001 20.534793 210 210 210 0
-0.393078 -0.864771 20.553089 210 210 210 0
-0.314543 -0.864994 20.558394 211 211 211 0
-0.236137 -0.865837 20.578415 211 211 211 0
-0.157553 -0.866544 20.595216 212 212 212 0
-0.078881 -0.867689 20.622430 211 211 211 0
0.000000 -0.868049 20.630998 211 211 211 0
0.078986 -0.868845 20.649909 212 212 212 0
0.158118 -0.869647 20.668981 212 212 212 0
0.237619 -0.871270 20.707550 212 212 212 0
0.316972 -0.871674 20.717146 211 211 211 0
0.396525 -0.872355 20.733326 212 212 212 0
0.476397 -0.873395 20.758040 212 212 212 0
0.557160 -0.875537 20.808950 212 212 212 0
0.637617 -0.876723 20.837156 212 212 212 0
0.719104 -0.878905 20.888999 212 212 212 0
0.799322 -0.879255 20.897316 212 212 212 0
0.880723 -0.880723 20.932224 212 212 212 0
0.962349 -0.882154 20.966216 212 212 212 0
1.044453 -0.883768 21.004584 211 211 211 0
1.128033 -0.886311 21.065036 211 211 211 0
1.209962 -0.887305 21.088654 211 211 211 0
1.294664 -0.890081 21.154637 211 211 211 0
1.379419 -0.892565 21.213677 211 211 211 0
1.464188 -0.894781 21.266344 212 212 212 0
1.548332 -0.896403 21.304880 211 211 211 0
1.634516 -0.898984 21.366222 210 210 210 0
1.722492 -0.902257 21.444028 210 210 210 0
1.811273 -0.905637 21.524339 210 210 210 0
1.897396 -0.907450 21.567443 210 210 210 0
1.986039 -0.910268 21.634410 210 210 210 0
2.076975 -0.913869 21.720005 210 210 210 0
2.169163 -0.917723 21.811589 208 208 208 0
2.261410 -0.921315 21.896975 208 208 208 0
2.356000 -0.925571 21.998132 209 209 209 0
2.451231 -0.929777 22.098095 208 208 208 0
2.547387 -0.934042 22.199450 206 206 206 0
2.644651 -0.938425 22.303617 206 206 206 0
2.745513 -0.943770 22.430663 205 205 205 0
2.848453 -0.949484 22.566471 205 205 205 0
2.952690 -0.955282 22.704265 203 203 203 0
3.060962 -0.962017 22.864326 202 202 202 0
3.175219 -0.970206 23.058964 202 202 202 0
3.290563 -0.978275 23.250752 199 199 199 0
3.412331 -0.987780 23.476646 198 198 198 0
3.543570 -0.999468 23.754447 195 195 195 0
3.687355 -1.014023 24.100359 192 192 192 0
3.852922 -1.033711 24.568291 183 183 183 0
3.998690 -1.047276 24.890694 125 125 125 0
-5.772829 -0.931102 24.342523 87 87 87 0
-5.522047 -0.905254 23.666760 116 116 116 0
-5.337830 -0.889638 23.258520 133 133 133 0
-5.216366 -0.884130 23.114505 147 147 147 0
-5.068751 -0.873923 22.847648 153 153 153 0
-4.946959 -0.867888 22.689873 158 158 158 0
-4.813348 -0.859526 22.471279 167 167 167 0
-4.684480 -0.851724 22.267285 168 168 168 0
-4.562843 -0.844971 22.090742 170 170 170 0
-4.468541 -0.843121 22.042376 178 178 178 0
-4.370988 -0.840575 21.975809 179 179 179 0
-4.267271 -0.836720 21.875029 180 180 180 0
-4.173400 -0.834680 21.821702 180 180 180 0
-4.062485 -0.829079 21.675256 185 185 185 0
-3.949398 -0.822791 21.510881 187 187 187 0
-3.858985 -0.821061 21.465638 187 187 187 0
-3.770847 -0.819749 21.431353 189 189 189 0
-3.678575 -0.817461 21.371532 189 189 189 0
-3.593159 -0.816627 21.349729 193 193 193 0
-3.496427 -0.813123 21.258108 194 194 194 0
-3.400265 -0.809587 21.165670 195 195 195 0
-3.308081 -0.806849 21.094090 195 195 195 0
-3.218285 -0.804571 21.034541 195 195 195 0
-3.137485 -0.804483 21.032246 196 196 196 0
-3.055442 -0.804064 21.021272 199 199 199 0
-2.966052 -0.801636 20.957793 200 200 200 0
-2.873884 -0.798301 20.870615 201 201 201 0
-2.788790 -0.796797 20.831297 201 201 201 0
-2.704402 -0.795412 20.795093 201 201 201 0
-2.622225 -0.794614 20.774216 201 201 201 0
-2.541546 -0.794233 20.764262 201 201 201 0
-2.458780 -0.793155 20.736078 202 202 202 0
-2.375791 -0.791930 20.704060 203 203 203 0
-2.291873 -0.790301 20.661461 204 204 204 0
-2.210419 -0.789435 20.638830 205 205 205 0
-2.129396 -0.788665 20.618699 206 206 206 0
-2.051836 -0.789168 20.631831 205 205 205 0
-1.971089 -0.788436 20.612695 205 205 205 0
-1.889161 -0.787150 20.579097 205 205 205 0
-1.807509 -0.785874 20.545715 205 205 205 0
-1.725556 -0.784343 20.505712 207 207 207 0
-1.648337 -0.784922 20.520850 207 207 207 0
-1.570242 -0.785121 20.526033 208 208 208 0
-1.489915 -0.784166 20.501069 209 209 209 0
-1.411180 -0.783989 20.496439 209 209 209 0
-1.330451 -0.782618 20.460614 209 209 209 0
-1.253116 -0.783197 20.475749 209 209 209 0
-1.174622 -0.783081 20.472708 210 210 210 0
-1.097110 -0.783650 20.487581 210 210 210 0
-1.019309 -0.784084 20.498933 210 210 210 0
-0.940151 -0.783459 20.482598 210 210 210 0
-0.861770 -0.783427 20.481762 210 210 210 0
-0.783231 -0.783231 20.476637 211 211 211 0
-0.705313 -0.783681 20.488403 210 210 210 0
-0.627483 -0.784354 20.505988 211 211 211 0
-0.549218 -0.784597 20.512346 211 211 211 0
-0.470980 -0.784966 20.521993 212 212 212 0
-0.392229 -0.784458 20.508706 211 211 211 0
-0.314231 -0.785577 20.537956 211 211 211 0
-0.235846 -0.786154 20.553044 211 211 211 0
-0.157288 -0.786441 20.560536 212 212 212 0
-0.078742 -0.787417 20.586058 212 212 212 0
0.000000 -0.788154 20.605345 212 212 212 0
0.078873 -0.788732 20.620441 212 212 212 0
0.157901 -0.789505 20.640656 212 212 212 0
0.237400 -0.791335 20.688492 212 212 212 0
0.316550 -0.791374 20.689528 212 212 212 0
0.395770 -0.791541 20.693881 212 212 212 0
0.475792 -0.792987 20.731681 212 212 212 0
0.555685 -0.793835 20.753861 213 213 213 0
0.636849 -0.796061 20.812049 212 212 212 0
0.717467 -0.797185 20.841441 212 212 212 0
0.798423 -0.798423 20.873798 212 212 212 0
0.879983 -0.799985 20.914639 212 212 212 0
0.960653 -0.800544 20.929266 213 213 213 0
1.043681 -0.802832 20.989069 211 211 211 0
1.126323 -0.804516 21.033101 212 212 212 0
1.209405 -0.806270 21.078952 212 212 212 0
1.293265 -0.808291 21.131786 211 211 211 0
1.377593 -0.810349 21.185590 211 211 211 0
1.461894 -0.812163 21.233023 212 212 212 0
1.547384 -0.814413 21.291836 211 211 211 0
1.632319 -0.816160 21.337505 211 211 211 0
1.718325 -0.818250 21.392152 210 210 210 0
1.808165 -0.821893 21.487408 211 211 211 0
1.894406 -0.823655 21.533462 211 211 211 0
1.984601 -0.826917 21.618752 211 211 211 0
2.073315 -0.829326 21.681726 210 210 210 0
2.166156 -0.833137 21.781359 209 209 209 0
2.257715 -0.836191 21.861197 209 209 209 0
2.349517 -0.839113 21.937599 209 209 209 0
2.445604 -0.843312 22.047365 208 208 208 0
2.542972 -0.847657 22.160974 208 208 208 0
2.638428 -0.851106 22.251134 206 206 206 0
2.738056 -0.855642 22.369739 206 206 206 0
2.842381 -0.861328 22.518371 205 205 205 0
2.945693 -0.866380 22.650468 203 203 203 0
3.051444 -0.871841 22.793234 202 202 202 0
3.166337 -0.879538 22.994460 203 203 203 0
3.280090 -0.886511 23.176756 201 201 201 0
3.401659 -0.895173 23.403228 199 199 199 0
3.527617 -0.904517 23.647510 196 196 196 0
3.667335 -0.916834 23.969509 192 192 192 0
3.826901 -0.933390 24.402365 188 188 188 0
3.988218 -0.949576 24.825512 156 156 156 0
4.118214 -0.957724 25.038540 78 78 78 0
-5.688265 -0.825716 23.985938 97 97 97 0
-5.484935 -0.809253 23.507706 126 126 126 0
-5.333314 -0.799997 23.238841 136 136 136 0
-5.201716 -0.793482 23.049588 151 151 151 0
-5.057687 -0.784813 22.797777 153 153 153 0
-4.935696 -0.779320 22.638213 162 162 162 0
-4.802910 -0.771896 22.422549 167 167 167 0
-4.668710 -0.763971 22.192322 168 168 168 0
-4.557391 -0.759565 22.064348 172 172 172 0
-4.451973 -0.755995 21.960652 178 178 178 0
-4.353398 -0.753473 21.887369 179 179 179 0
-4.266598 -0.752929 21.871579 179 179 179 0
-4.161124 -0.749002 21.757512 182 182 182 0
-4.052797 -0.744391 21.623566 187 187 187 0
-3.949692 -0.740567 21.512484 188 188 188 0
-3.852434 -0.737700 21.429199 187 187 187 0
-3.759880 -0.735629 21.369024 188 188 188 0
-3.673859 -0.734772 21.344133 190 190 190 0
-3.580853 -0.732447 21.276604 193 193 193 0
-3.492184 -0.730922 21.232311 195 195 195 0
-3.398273 -0.728201 21.153270 195 195 195 0
-3.299032 -0.724178 21.036391 194 194 194 0
-3.213716 -0.723086 21.004679 195 195 195 0
-3.130412 -0.722403 20.984829 197 197 197 0
-3.047912 -0.721874 20.969467 200 200 200 0
-2.965890 -0.721433 20.956650 200 200 200 0
-2.870827 -0.717707 20.848414 200 200 200 0
-2.786679 -0.716575 20.815528 200 200 200 0
-2.699872 -0.714672 20.760260 201 201 201 0
-2.618923 -0.714252 20.748054 201 201 201 0
-2.536717 -0.713452 20.724813 202 202 202 0
-2.457774 -0.713547 20.727590 204 204 204 0
-2.371447 -0.711434 20.666207 203 203 203 0
-2.289846 -0.710642 20.643188 205 205 205 0
-2.207721 -0.709625 20.613644 205 205 205 0
-2.126835 -0.708945 20.593904 205 205 205 0
-2.046666 -0.708461 20.579850 205 205 205 0
-1.965058 -0.707421 20.549628 206 206 206 0
-1.888114 -0.708043 20.567691 206 206 206 0
-1.805444 -0.706478 20.522234 206 206 206 0
-1.725130 -0.705735 20.500656 207 207 207 0
-1.646702 -0.705729 20.500486 208 208 208 0
-1.567359 -0.705312 20.488354 208 208 208 0
-1.489547 -0.705575 20.496006 208 208 208 0
-1.411519 -0.705759 20.501359 209 209 209 0
-1.331080 -0.704689 20.470275 209 209 209 0
-1.251794 -0.704134 20.454157 210 210 210 0
-1.173104 -0.703863 20.446262 209 209 209 0
-1.095747 -0.704409 20.462127 210 210 210 0
-1.017800 -0.704631 20.468572 210 210 210 0
-0.938929 -0.704196 20.455959 210 210 210 0
-0.860645 -0.704164 20.455021 211 211 211 0
-0.782368 -0.704131 20.454068 211 211 211 0
-0.704650 -0.704650 20.469139 210 210 210 0
-0.626684 -0.705020 20.479870 211 211 211 0
-0.548683 -0.705449 20.492347 211 211 211 0
-0.470633 -0.705949 20.506868 212 212 212 0
-0.391738 -0.705129 20.483039 212 212 212 0
-0.313946 -0.706379 20.519367 212 212 212 0
-0.235460 -0.706380 20.519382 211 211 211 0
-0.157132 -0.707093 20.540115 212 212 212 0
-0.078605 -0.707441 20.550205 212 212 212 0
0.000000 -0.708710 20.587068 212 212 212 0
0.078757 -0.708815 20.590125 212 212 212 0
0.157743 -0.709843 20.619987 212 212 212 0
0.236873 -0.710618 20.642503 212 212 212 0
0.316221 -0.711496 20.668010 213 213 213 0
0.395378 -0.711681 20.673367 213 213 213 0
0.475262 -0.712893 20.708580 212 212 212 0
0.555538 -0.714263 20.748374 212 212 212 0
0.635974 -0.715471 20.783470 212 212 212 0
0.716361 -0.716361 20.809334 212 212 212 0
0.797006 -0.717305 20.836753 212 212 212 0
0.878716 -0.718950 20.884518 212 212 212 0
0.959849 -0.719887 20.911750 212 212 212 0
1.042126 -0.721472 20.957788 213 213 213 0
1.124607 -0.722962 21.001070 212 212 212 0
1.206556 -0.723933 21.029290 212 212 212 0
1.290294 -0.725790 21.083230 212 212 212 0
1.375249 -0.728073 21.149542 211 211 211 0
1.460382 -0.730191 21.211064 212 212 212 0
1.544845 -0.731769 21.256894 211 211 211 0
1.629012 -0.733055 21.294277 211 211 211 0
1.715603 -0.735258 21.358269 211 211 211 0
1.803709 -0.737881 21.434448 211 211 211 0
1.892505 -0.740546 21.511855 210 210 210 0
1.979761 -0.742410 21.566019 210 210 210 0
2.069867 -0.745152 21.645665 210 210 210 0
2.162174 -0.748445 21.741321 210 210 210 0
2.252476 -0.750825 21.810466 208 208 208 0
2.344520 -0.753596 21.890942 208 208 208 0
2.441242 -0.757627 22.008045 208 208 208 0
2.538514 -0.761554 22.122129 208 208 208 0
2.631723 -0.764049 22.194584 207 207 207 0
2.733073 -0.768677 22.329031 206 206 206 0
2.835966 -0.773445 22.467547 206 206 206 0
2.939829 -0.778190 22.605376 204 204 204 0
3.045398 -0.783102 22.748072 203 203 203 0
3.156875 -0.789219 22.925748 203 203 203 0
3.270316 -0.795482 23.107688 201 201 201 0
3.387057 -0.802198 23.302765 198 198 198 0
3.515000 -0.811154 23.562932 198 198 198 0
3.646889 -0.820550 23.835875 194 194 194 0
3.799343 -0.834002 24.226643 190 190 190 0
3.970295 -0.850778 24.713946 176 176 176 0
4.109977 -0.860228 24.988459 95 95 95 0
-5.832691 -0.740659 24.204547 74 74 74 0
-5.667360 -0.731272 23.897786 104 104 104 0
-5.456629 -0.715623 23.386388 130 130 130 0
-5.300870 -0.706783 23.097472 141 141 141 0
-5.162748 -0.700034 22.876914 152 152 152 0
-5.046846 -0.696117 22.748911 154 154 154 0
-4.919437 -0.690447 22.563637 165 165 165 0
-4.782146 -0.683164 22.325612 167 167 167 0
-4.667353 -0.678888 22.185873 168 168 168 0
-4.552895 -0.674503 22.042581 174 174 174 0
-4.449254 -0.671585 21.947238 178 178 178 0
-4.356803 -0.670277 21.904491 179 179 179 0
-4.256490 -0.667685 21.819761 179 179 179 0
-4.150582 -0.664093 21.702389 185 185 185 0
-4.048110 -0.660916 21.598559 187 187 187 0
-3.939186 -0.656531 21.455263 187 187 187 0
-3.838344 -0.653335 21.350825 187 187 187 0
-3.753648 -0.652808 21.333605 189 189 189 0
-3.667419 -0.651986 21.306718 193 193 193 0
-3.575410 -0.650074 21.244264 194 194 194 0
-3.489315 -0.649175 21.214864 194 194 194 0
-3.382247 -0.644238 21.053516 194 194 194 0
-3.297496 -0.643414 21.026598 195 195 195 0
-3.208558 -0.641712 20.970965 196 196 196 0
-3.123284 -0.640674 20.937047 199 199 199 0
-3.041278 -0.640269 20.923824 199 199 199 0
-2.958548 -0.639686 20.904774 199 199 199 0
-2.872366 -0.638303 20.859590 199 199 199 0
-2.787336 -0.637105 20.820436 200 200 200 0
-2.694492 -0.633998 20.718895 201 201 201 0
-2.613878 -0.633667 20.708084 202 202 202 0
-2.534675 -0.633669 20.708132 203 203 203 0
