ply
format ascii 1.0
element vertex 1101
property float x
property float y
property float z
property uchar red
property uchar green
property uchar blue
property uchar alpha
end_header
-4.968504 -6.359685 25.979104 206 206 206 0
-4.874248 -6.366365 26.006391 206 206 206 0
-4.774340 -6.365787 26.004030 206 206 206 0
-4.691869 -6.388928 26.098563 205 205 205 0
-4.586827 -6.381672 26.068922 205 205 205 0
-4.480380 -6.372096 26.029805 206 206 206 0
-4.393137 -6.390018 26.103015 206 206 206 0
-4.292766 -6.389232 26.099806 206 206 206 0
-4.205180 -6.407893 26.176033 205 205 205 0
-4.103331 -6.405199 26.165028 206 206 206 0
-3.995436 -6.392697 26.113958 206 206 206 0
-3.912877 -6.421131 26.230112 206 206 206 0
-3.811469 -6.419316 26.222694 206 206 206 0
-3.715615 -6.427010 26.254126 206 206 206 0
-3.618224 -6.432399 26.276140 205 205 205 0
-3.514506 -6.426525 26.252145 207 207 207 0
-3.428814 -6.454238 26.365353 206 206 206 0
-3.323988 -6.446522 26.333831 206 206 206 0
-3.222980 -6.445959 26.331532 206 206 206 0
-3.128250 -6.458324 26.382041 206 206 206 0
-3.037689 -6.480404 26.472239 207 207 207 0
-2.929976 -6.466153 26.414025 206 206 206 0
-2.833671 -6.476961 26.458176 206 206 206 0
-2.726367 -6.462500 26.399102 207 207 207 0
-2.637375 -6.492000 26.519610 207 207 207 0
-2.530025 -6.476863 26.457775 206 206 206 0
-2.437758 -6.500689 26.555102 208 208 208 0
-2.343747 -6.521731 26.641060 207 207 207 0
-2.239632 -6.515294 26.614765 207 207 207 0
-2.133447 -6.501933 26.560184 208 208 208 0
-2.039423 -6.526154 26.659127 206 206 206 0
-1.938219 -6.528738 26.669683 207 207 207 0
-1.843728 -6.555479 26.778916 207 207 207 0
-1.738808 -6.546101 26.740608 207 207 207 0
-1.636294 -6.545175 26.736824 206 206 206 0
-1.534795 -6.548458 26.750235 207 207 207 0
-1.432056 -6.546540 26.742402 208 208 208 0
-1.333060 -6.562756 26.808643 207 207 207 0
-1.227668 -6.547565 26.746590 206 206 206 0
-1.128343 -6.564903 26.817416 207 207 207 0
-1.028342 -6.581389 26.884759 207 207 207 0
-0.926865 -6.591039 26.924179 207 207 207 0
-0.823730 -6.589837 26.919268 207 207 207 0
-0.721345 -6.595156 26.940996 208 208 208 0
-0.617965 -6.591626 26.926577 208 208 208 0
-0.517284 -6.621229 27.047504 207 207 207 0
-0.412693 -6.603092 26.973416 181 181 181 0
-0.248729 -5.306210 21.675692 110 110 110 0
-0.134853 -4.315282 17.627788 107 107 107 0
-0.074150 -4.745594 19.385594 93 93 93 0
0.000000 -4.690954 19.162392 98 98 98 0
0.066570 -4.260459 17.403838 91 91 91 0
0.128699 -4.118354 16.823343 108 108 108 0
0.277623 -5.922619 24.193704 94 94 94 0
0.306358 -4.901723 20.023380 122 122 122 0
0.401214 -5.135542 20.978522 96 96 96 0
0.585170 -6.241811 25.497592 99 99 99 0
0.606617 -5.546208 22.656080 134 134 134 0
0.690575 -5.524597 22.567798 203 203 203 0
0.777516 -5.529003 22.585798 206 206 206 0
0.868123 -5.555987 22.696023 205 205 205 0
0.959435 -5.582167 22.802970 206 206 206 0
1.049782 -5.598839 22.871074 206 206 206 0
1.140076 -5.612683 22.927628 205 205 205 0
1.231958 -5.631806 23.005742 205 205 205 0
1.325353 -5.654838 23.099827 206 206 206 0
1.421260 -5.685038 23.223196 206 206 206 0
1.513607 -5.698285 23.277309 205 205 205 0
1.605904 -5.709880 23.324673 205 205 205 0
1.701527 -5.731461 23.412829 205 205 205 0
1.799818 -5.759418 23.527033 205 205 205 0
1.893468 -5.770570 23.572591 205 205 205 0
1.989789 -5.788478 23.645742 204 204 204 0
2.088661 -5.811925 23.741525 205 205 205 0
2.188116 -5.834977 23.835690 204 204 204 0
2.286424 -5.853246 23.910320 204 204 204 0
2.385557 -5.872140 23.987501 204 204 204 0
2.490536 -5.903492 24.115571 204 204 204 0
2.590598 -5.921366 24.188588 203 203 203 0
2.686958 -5.929839 24.223198 204 204 204 0
2.794915 -5.962485 24.356557 204 204 204 0
2.899548 -5.986163 24.453282 203 203 203 0
3.003699 -6.007398 24.540025 203 203 203 0
3.106902 -6.025507 24.613999 203 203 203 0
3.212399 -6.046868 24.701258 204 204 204 0
3.321464 -6.073534 24.810188 203 203 203 0
3.424066 -6.087229 24.866133 203 203 203 0
3.535124 -6.114810 24.978798 202 202 202 0
3.643790 -6.136909 25.069074 202 202 202 0
3.761305 -6.172397 25.214041 202 202 202 0
3.861249 -6.177998 25.236921 202 202 202 0
3.975813 -6.206147 25.351908 203 203 203 0
4.094095 -6.238621 25.484564 202 202 202 0
4.202374 -6.254697 25.550232 202 202 202 0
4.314995 -6.276357 25.638713 201 201 201 0
4.431242 -6.302211 25.744325 202 202 202 0
4.550212 -6.330729 25.860823 201 201 201 0
4.662223 -6.348559 25.933654 201 201 201 0
4.783514 -6.378018 26.053996 201 201 201 0
4.903048 -6.403982 26.160056 201 201 201 0
5.019516 -6.424980 26.245833 201 201 201 0
5.139740 -6.449869 26.347505 201 201 201 0
5.265347 -6.480427 26.472335 200 200 200 0
5.384815 -6.502418 26.562164 200 200 200 0
5.508519 -6.528616 26.669182 200 200 200 0
5.634892 -6.556965 26.784987 200 200 200 0
5.759145 -6.581880 26.886764 200 200 200 0
5.884742 -6.607429 26.991132 200 200 200 0
6.011592 -6.633481 27.097554 200 200 200 0
6.144044 -6.664725 27.225186 200 200 200 0
6.271353 -6.689443 27.326158 199 199 199 0
6.400340 -6.715111 27.431008 199 199 199 0
6.534476 -6.745265 27.554189 199 199 199 0
6.658759 -6.764454 27.632572 199 199 199 0
6.796275 -6.796275 27.762560 198 198 198 0
6.937095 -6.830370 27.901839 198 198 198 0
7.067629 -6.853459 27.996155 199 199 199 0
7.203293 -6.880757 28.107669 197 197 197 0
7.348832 -6.916548 28.253871 198 198 198 0
7.481465 -6.939330 28.346935 198 198 198 0
7.627020 -6.973275 28.485602 198 198 198 0
7.766139 -7.000463 28.596663 197 197 197 0
7.906805 -7.028271 28.710256 197 197 197 0
8.052308 -7.059558 28.838062 198 198 198 0
8.200436 -7.092269 28.971687 196 196 196 0
8.342045 -7.118545 29.079023 197 197 197 0
8.497386 -7.155693 29.230773 197 197 197 0
8.641752 -7.182755 29.341320 196 196 196 0
8.793533 -7.215206 29.473882 196 196 196 0
8.948001 -7.249013 29.611982 196 196 196 0
-7.767435 -6.116855 25.383775 204 204 204 0
-7.656388 -6.105727 25.337595 203 203 203 0
-7.577531 -6.120314 25.398127 204 204 204 0
-7.449481 -6.095030 25.293203 203 203 203 0
-7.394082 -6.129305 25.435438 203 203 203 0
-7.321014 -6.149652 25.519876 204 204 204 0
-7.208117 -6.136640 25.465878 204 204 204 0
-7.110960 -6.136856 25.466775 203 203 203 0
-6.999479 -6.124545 25.415684 204 204 204 0
-6.883442 -6.107843 25.346377 204 204 204 0
-6.808553 -6.127698 25.428769 205 205 205 0
-6.737690 -6.151804 25.528806 204 204 204 0
-6.665471 -6.175363 25.626571 204 204 204 0
-6.560662 -6.168981 25.600087 204 204 204 0
-6.464881 -6.171023 25.608559 204 204 204 0
-6.396315 -6.199505 25.726756 205 205 205 0
-6.272388 -6.174382 25.622501 205 205 205 0
-6.192593 -6.192593 25.698074 205 205 205 0
-6.112547 -6.211137 25.775025 205 205 205 0
-6.023208 -6.220690 25.814671 204 204 204 0
-5.912574 -6.208202 25.762848 204 204 204 0
-5.807369 -6.201089 25.733327 205 205 205 0
-5.728770 -6.222630 25.822718 205 205 205 0
-5.636629 -6.229959 25.853133 205 205 205 0
-5.530982 -6.222355 25.821580 205 205 205 0
-5.449107 -6.241704 25.901875 205 205 205 0
-5.330784 -6.219248 25.808687 205 205 205 0
-5.235947 -6.223861 25.827829 206 206 206 0
-5.143792 -6.231902 25.861196 206 206 206 0
-5.057833 -6.247912 25.927635 205 205 205 0
-4.962079 -6.252220 25.945514 206 206 206 0
-4.860460 -6.249163 25.932829 206 206 206 0
-4.768066 -6.258087 25.969860 206 206 206 0
-4.680782 -6.274239 26.036889 206 206 206 0
-4.596605 -6.295350 26.124494 205 205 205 0
-4.471628 -6.260280 25.978959 205 205 205 0
-4.392542 -6.289321 26.099477 206 206 206 0
-4.294577 -6.292054 26.110817 206 206 206 0
-4.208624 -6.312935 26.197470 207 207 207 0
-4.090687 -6.285690 26.084407 206 206 206 0
-4.013408 -6.321118 26.231425 207 207 207 0
-3.910137 -6.316376 26.211747 206 206 206 0
-3.818657 -6.330932 26.272152 207 207 207 0
-3.710005 -6.317036 26.214486 206 206 206 0
-3.612118 -6.321207 26.231794 206 206 206 0
-3.524700 -6.344460 26.328292 206 206 206 0
-3.417260 -6.331981 26.276505 205 205 205 0
-3.325143 -6.348001 26.342985 206 206 206 0
-3.230665 -6.360371 26.394321 206 206 206 0
-3.128172 -6.357253 26.381378 206 206 206 0
-3.029355 -6.361645 26.399608 206 206 206 0
-2.932802 -6.371259 26.439504 206 206 206 0
-2.834702 -6.378080 26.467808 207 207 207 0
-2.733206 -6.377480 26.465318 207 207 207 0
-2.628590 -6.369275 26.431270 207 207 207 0
-2.539057 -6.398423 26.552228 206 206 206 0
-2.437624 -6.398763 26.553640 206 206 206 0
-2.335560 -6.397405 26.548002 206 206 206 0
-2.237289 -6.406781 26.586911 207 207 207 0
-2.137283 -6.411849 26.607942 207 207 207 0
-2.036017 -6.413454 26.614602 207 207 207 0
-1.936917 -6.422409 26.651763 208 208 208 0
-1.833700 -6.417951 26.633264 207 207 207 0
-1.734471 -6.427744 26.673905 208 208 208 0
-1.633405 -6.431531 26.689620 207 207 207 0
-1.536355 -6.452691 26.777430 208 208 208 0
-1.436307 -6.463380 26.821787 207 207 207 0
-1.330517 -6.447889 26.757500 207 207 207 0
-1.229621 -6.455511 26.789133 207 207 207 0
-1.127920 -6.459908 26.807378 207 207 207 0
-1.027843 -6.475409 26.871705 209 209 209 0
-0.926335 -6.484346 26.908792 207 207 207 0
-0.821487 -6.469212 26.845989 207 207 207 0
-0.721034 -6.489308 26.929384 208 208 208 0
-0.617985 -6.488846 26.927467 208 208 208 0
-0.515922 -6.500620 26.976327 207 207 207 0
-0.411509 -6.481270 26.896028 171 171 171 0
-0.248729 -5.223300 21.675692 92 92 92 0
-0.181058 -5.703329 23.667720 107 107 107 0
-0.074785 -4.711434 19.551546 109 109 109 0
0.000000 -4.451120 18.471294 100 100 100 0
0.084079 -5.296987 21.981480 108 108 108 0
0.161699 -5.093512 21.137097 107 107 107 0
0.209001 -4.389021 18.213596 120 120 120 0
0.269386 -4.242836 17.606956 99 99 99 0
0.360627 -4.543897 18.856300 115 115 115 0
0.534644 -5.613759 23.296024 112 112 112 0
0.604907 -5.444160 22.592217 146 146 146 0
0.688901 -5.425098 22.513115 203 203 203 0
0.776812 -5.437681 22.565331 205 205 205 0
0.865660 -5.453656 22.631624 206 206 206 0
0.955904 -5.474721 22.719041 206 206 206 0
1.046800 -5.495699 22.806095 206 206 206 0
1.136194 -5.506170 22.849547 206 206 206 0
1.228594 -5.528672 22.942927 205 205 205 0
1.320819 -5.547441 23.020817 206 206 206 0
1.415486 -5.573477 23.128862 205 205 205 0
1.508383 -5.589889 23.196966 206 206 206 0
1.601006 -5.603521 23.253535 205 205 205 0
1.697593 -5.628860 23.358689 205 205 205 0
1.795020 -5.654313 23.464312 205 205 205 0
1.891594 -5.674783 23.549260 205 205 205 0
1.985470 -5.685663 23.594411 205 205 205 0
2.082903 -5.705342 23.676076 204 204 204 0
2.181362 -5.726076 23.762118 205 205 205 0
2.279525 -5.744402 23.838167 205 205 205 0
2.378398 -5.763042 23.915518 204 204 204 0
2.481696 -5.790623 24.029976 205 205 205 0
2.583568 -5.813028 24.122949 204 204 204 0
2.683671 -5.830044 24.193562 204 204 204 0
2.784833 -5.848149 24.268696 203 203 203 0
2.889490 -5.872190 24.368460 203 203 203 0
2.992694 -5.891866 24.450113 203 203 203 0
3.096655 -5.911796 24.532819 203 203 203 0
3.203632 -5.936141 24.633845 203 203 203 0
3.310543 -5.958978 24.728614 202 202 202 0
3.416047 -5.978082 24.807894 203 203 203 0
3.522666 -5.998053 24.890769 203 203 203 0
3.634598 -6.025782 25.005838 203 203 203 0
3.744387 -6.048625 25.100631 202 202 202 0
3.850618 -6.064723 25.167438 202 202 202 0
3.966367 -6.094661 25.291674 202 202 202 0
4.077962 -6.116944 25.384142 203 203 203 0
4.189577 -6.138218 25.472426 202 202 202 0
4.300296 -6.157242 25.551372 202 202 202 0
4.416845 -6.183584 25.660685 202 202 202 0
4.533501 -6.208925 25.765846 202 202 202 0
4.649134 -6.231818 25.860849 202 202 202 0
4.766215 -6.255657 25.959778 201 201 201 0
4.886756 -6.282972 26.073130 202 202 202 0
5.007368 -6.309284 26.182317 201 201 201 0
5.122581 -6.327894 26.259546 201 201 201 0
5.247887 -6.358018 26.384552 201 201 201 0
5.369930 -6.383125 26.488743 200 200 200 0
5.490781 -6.405911 26.583302 201 201 201 0
5.614885 -6.431595 26.689887 200 200 200 0
5.744035 -6.462039 26.816221 200 200 200 0
5.865776 -6.483226 26.904143 200 200 200 0
5.992862 -6.509488 27.013124 200 200 200 0
6.121550 -6.536571 27.125513 200 200 200 0
6.247004 -6.559354 27.220062 199 199 199 0
6.378306 -6.587431 27.336573 200 200 200 0
6.511786 -6.616815 27.458513 200 200 200 0
6.644372 -6.644372 27.572868 199 199 199 0
6.776856 -6.670968 27.683237 199 199 199 0
6.911411 -6.698752 27.798534 199 199 199 0
7.044647 -6.724436 27.905117 199 199 199 0
7.179706 -6.751067 28.015630 198 198 198 0
7.323580 -6.785081 28.156785 198 198 198 0
7.458428 -6.809869 28.259648 198 198 198 0
7.598856 -6.838971 28.380416 197 197 197 0
7.745515 -6.872781 28.520722 198 198 198 0
7.883099 -6.897711 28.624178 197 197 197 0
8.024103 -6.924911 28.737051 197 197 197 0
8.178291 -6.962599 28.893451 197 197 197 0
8.317384 -6.986602 28.993059 197 197 197 0
8.466990 -7.018689 29.126214 197 197 197 0
8.623214 -7.055357 29.278378 197 197 197 0
8.767263 -7.081251 29.385832 196 196 196 0
8.916038 -7.110258 29.506207 196 196 196 0
-7.722084 -5.984615 25.235570 203 203 203 0
-7.650695 -6.004343 25.318756 203 203 203 0
-7.556703 -6.006610 25.328315 203 203 203 0
-7.470154 -6.014929 25.363394 203 203 203 0
-7.401408 -6.037991 25.460639 204 204 204 0
-7.281286 -6.019196 25.381389 204 204 204 0
-7.184905 -6.019785 25.383872 203 203 203 0
-7.102380 -6.032159 25.436048 203 203 203 0
-7.009129 -6.035639 25.450724 204 204 204 0
-6.942787 -6.062715 25.564896 203 203 203 0
-6.824590 -6.044637 25.488665 205 205 205 0
-6.727506 -6.045005 25.490219 204 204 204 0
-6.667192 -6.078910 25.633186 204 204 204 0
-6.578622 -6.087680 25.670168 204 204 204 0
-6.471289 -6.079090 25.633944 205 205 205 0
-6.372082 -6.077986 25.629289 204 204 204 0
-6.286422 -6.089971 25.679829 205 205 205 0
-6.182796 -6.084657 25.657418 205 205 205 0
-6.085491 -6.085491 25.660938 205 205 205 0
-6.025811 -6.124595 25.825828 205 205 205 0
-5.900123 -6.096794 25.708598 205 205 205 0
-5.811325 -6.106816 25.750858 205 205 205 0
-5.714911 -6.109043 25.760247 205 205 205 0
-5.632054 -6.126094 25.832146 205 205 205 0
-5.542426 -6.136257 25.875003 205 205 205 0
-5.426428 -6.117064 25.794070 205 205 205 0
-5.328513 -6.117923 25.797692 206 206 206 0
-5.255553 -6.148005 25.924543 205 205 205 0
-5.152982 -6.143940 25.907399 206 206 206 0
-5.078420 -6.173766 26.033169 205 205 205 0
-4.970134 -6.162966 25.987628 205 205 205 0
-4.871862 -6.164397 25.993662 205 205 205 0
-4.773242 -6.165437 25.998049 206 206 206 0
-4.680782 -6.174648 26.036889 205 205 205 0
-4.568796 -6.157942 25.966443 205 205 205 0
-4.480077 -6.172550 26.028043 205 205 205 0
-4.390200 -6.186191 26.085564 206 206 206 0
-4.298319 -6.197576 26.133572 205 205 205 0
-4.202207 -6.203258 26.157527 206 206 206 0
-4.100465 -6.200703 26.146754 206 206 206 0
-4.012552 -6.219455 26.225828 206 206 206 0
-3.912485 -6.219849 26.227488 206 206 206 0
-3.808451 -6.213788 26.201931 207 207 207 0
-3.730291 -6.250758 26.357823 206 206 206 0
-3.610046 -6.217301 26.216747 207 207 207 0
-3.514297 -6.225327 26.250587 206 206 206 0
-3.422574 -6.241164 26.317370 206 206 206 0
-3.326405 -6.249609 26.352981 206 206 206 0
-3.232682 -6.263321 26.410800 206 206 206 0
-3.132160 -6.264321 26.415014 207 207 207 0
-3.040440 -6.283575 26.496206 207 207 207 0
-2.931954 -6.268315 26.431856 206 206 206 0
-2.838127 -6.284423 26.499783 206 206 206 0
-2.741860 -6.296122 26.549112 208 208 208 0
-2.630762 -6.273356 26.453114 208 208 208 0
-2.536766 -6.291179 26.528270 206 206 206 0
-2.435693 -6.292207 26.532604 206 206 206 0
-2.337501 -6.301088 26.570055 208 208 208 0
-2.236096 -6.301725 26.572739 207 207 207 0
-2.134495 -6.301843 26.573236 207 207 207 0
-2.039500 -6.322449 26.660129 206 206 206 0
-1.938687 -6.326241 26.676115 208 208 208 0
-1.844348 -6.352753 26.787909 208 208 208 0
-1.740270 -6.346866 26.763086 207 207 207 0
-1.634257 -6.332746 26.703548 207 207 207 0
-1.534948 -6.344453 26.752911 207 207 207 0
-1.437415 -6.365693 26.842475 208 208 208 0
-1.333127 -6.357992 26.810003 208 208 208 0
-1.232714 -6.369021 26.856508 207 207 207 0
-1.128543 -6.360877 26.822168 208 208 208 0
-1.027827 -6.372527 26.871294 207 207 207 0
-0.926715 -6.384034 26.919814 207 207 207 0
-0.821993 -6.370449 26.862530 208 208 208 0
-0.721681 -6.392034 26.953548 209 209 209 0
-0.617959 -6.385575 26.926312 208 208 208 0
-0.515463 -6.391745 26.952329 205 205 205 0
-0.410242 -6.358750 26.813197 156 156 156 0
-0.247711 -5.119357 21.587002 98 98 98 0
-0.175950 -5.454450 23.000000 111 111 111 0
-0.088079 -5.460918 23.027273 107 107 107 0
0.000000 -5.108664 21.541909 107 107 107 0
0.061113 -3.789008 15.977264 105 105 105 0
0.183828 -5.698666 24.029797 99 99 99 0
0.250956 -5.186430 21.869831 108 108 108 0
0.319757 -4.956240 20.899180 98 98 98 0
0.360627 -4.471772 18.856300 97 97 97 0
0.457301 -4.725443 19.925965 98 98 98 0
0.599616 -5.310882 22.394611 149 149 149 0
0.687990 -5.331919 22.483319 202 202 202 0
0.773262 -5.326916 22.462220 207 207 207 0
0.864031 -5.356990 22.589038 205 205 205 0
0.953853 -5.376265 22.670313 206 206 206 0
1.043834 -5.393142 22.741480 206 206 206 0
1.134349 -5.409971 22.812443 206 206 206 0
1.224050 -5.420795 22.858084 205 205 205 0
1.318485 -5.449737 22.980125 205 205 205 0
1.409114 -5.460316 23.024734 206 206 206 0
1.502651 -5.480258 23.108826 205 205 205 0
1.596414 -5.498761 23.186846 205 205 205 0
1.691217 -5.518709 23.270964 205 205 205 0
1.788089 -5.543077 23.373715 205 205 205 0
1.886033 -5.568287 23.480020 205 205 205 0
1.977384 -5.572628 23.498327 205 205 205 0
2.077672 -5.600682 23.616623 204 204 204 0
2.175828 -5.620889 23.701831 205 205 205 0
2.275910 -5.644257 23.800369 205 205 205 0
2.370993 -5.653907 23.841059 205 205 205 0
2.474114 -5.681299 23.956562 204 204 204 0
2.574153 -5.699910 24.035039 204 204 204 0
2.672700 -5.714048 24.094656 204 204 204 0
2.778390 -5.742006 24.212550 203 203 203 0
2.882827 -5.765654 24.312266 203 203 203 0
2.985880 -5.785142 24.394442 204 204 204 0
3.086714 -5.799280 24.454059 204 204 204 0
3.193681 -5.823771 24.557331 203 203 203 0
3.300150 -5.845979 24.650978 203 203 203 0
3.406413 -5.866600 24.737929 203 203 203 0
3.511337 -5.883862 24.810718 204 204 204 0
3.623931 -5.912729 24.932443 203 203 203 0
3.731238 -5.931711 25.012486 202 202 202 0
3.843250 -5.957038 25.119281 202 202 202 0
3.952781 -5.977376 25.205042 202 202 202 0
4.063307 -5.998215 25.292915 203 203 203 0
4.179832 -6.026734 25.413173 202 202 202 0
4.291841 -6.047594 25.501133 202 202 202 0
4.404444 -6.068345 25.588634 202 202 202 0
4.521564 -6.094282 25.698005 202 202 202 0
4.634374 -6.113429 25.778744 202 202 202 0
4.752386 -6.138499 25.884457 201 201 201 0
4.872347 -6.165011 25.996251 202 202 202 0
4.991858 -6.189904 26.101219 201 201 201 0
5.107370 -6.208959 26.181570 201 201 201 0
5.231051 -6.237023 26.299906 201 201 201 0
5.354366 -6.263598 26.411968 201 201 201 0
5.472787 -6.283570 26.496183 200 200 200 0
5.595172 -6.307284 26.596182 200 200 200 0
5.725004 -6.338397 26.727375 201 201 201 0
5.845795 -6.358584 26.812499 200 200 200 0
5.968020 -6.379608 26.901151 200 200 200 0
6.102598 -6.412899 27.041531 200 200 200 0
6.231740 -6.439464 27.153549 200 200 200 0
6.353809 -6.457970 27.231584 200 200 200 0
6.489706 -6.489706 27.365406 199 199 199 0
6.618166 -6.513116 27.464120 200 200 200 0
6.754297 -6.543225 27.591082 198 198 198 0
6.886996 -6.569135 27.700336 199 199 199 0
7.023390 -6.597730 27.820916 199 199 199 0
7.158215 -6.624019 27.931771 198 198 198 0
7.299225 -6.655176 28.063149 198 198 198 0
7.435489 -6.681164 28.172735 199 199 199 0
7.573131 -6.707631 28.284337 198 198 198 0
7.715859 -6.737792 28.411521 197 197 197 0
7.857374 -6.766072 28.530769 197 197 197 0
8.000024 -6.794541 28.650815 198 198 198 0
8.148217 -6.826885 28.787201 197 197 197 0
8.292827 -6.855404 28.907459 197 197 197 0
8.436389 -6.882317 29.020945 197 197 197 0
8.590649 -6.917146 29.167810 196 196 196 0
8.730591 -6.939701 29.262917 196 196 196 0
8.884779 -6.972865 29.402760 196 196 196 0
-7.759587 -5.916685 25.358128 203 203 203 0
-7.648312 -5.905658 25.310868 204 204 204 0
-7.558547 -5.911172 25.334497 203 203 203 0
-7.472600 -5.919852 25.371699 204 204 204 0
-7.384282 -5.926858 25.401725 203 203 203 0
-7.264072 -5.908112 25.321384 204 204 204 0
-7.214143 -5.946793 25.487168 203 203 203 0
-7.133258 -5.960668 25.546633 205 205 205 0
-7.047063 -5.970428 25.588463 204 204 204 0
-6.874124 -5.905937 25.312064 204 204 204 0
-6.809682 -5.934152 25.432988 204 204 204 0
-6.736997 -5.955896 25.526179 206 206 206 0
-6.657690 -5.972339 25.596654 205 205 205 0
-6.578774 -5.989630 25.670759 204 204 204 0
-6.483050 -5.991910 25.680531 204 204 204 0
-6.402825 -6.008805 25.752940 205 205 205 0
-6.281647 -5.987195 25.660324 204 204 204 0
-6.198613 -6.001832 25.723056 205 205 205 0
-6.109288 -6.010751 25.761281 204 204 204 0
-6.003563 -6.003563 25.730473 204 204 204 0
-5.915572 -6.014164 25.775911 205 205 205 0
-5.813007 -6.010058 25.758310 205 205 205 0
-5.718986 -6.014796 25.778617 204 204 204 0
-5.624150 -6.018827 25.795895 204 204 204 0
-5.546530 -6.041756 25.894163 205 205 205 0
-5.445068 -6.039075 25.882674 206 206 206 0
-5.346833 -6.039942 25.886388 205 205 205 0
-5.261697 -6.055915 25.954849 205 205 205 0
-5.161160 -6.054437 25.948515 206 206 206 0
-5.072388 -6.066974 26.002247 205 205 205 0
-4.950623 -6.039760 25.885611 206 206 206 0
-4.863749 -6.054872 25.950377 205 205 205 0
-4.776098 -6.069625 26.013607 205 205 205 0
-4.690231 -6.087321 26.089450 206 206 206 0
-4.560627 -6.047787 25.920015 206 206 206 0
-4.480160 -6.073106 26.028527 206 206 206 0
-4.397916 -6.097111 26.131409 207 207 207 0
-4.285804 -6.079862 26.057483 205 205 205 0
-4.200412 -6.100599 26.146358 207 207 207 0
-4.124772 -6.136855 26.301748 207 207 207 0
-3.987950 -6.081623 26.065030 206 206 206 0
-3.901598 -6.102500 26.154506 207 207 207 0
-3.818494 -6.129687 26.271026 206 206 206 0
-3.718220 -6.130038 26.272530 206 206 206 0
-3.625273 -6.142824 26.327329 206 206 206 0
-3.519651 -6.134249 26.290579 206 206 206 0
-3.424038 -6.143128 26.328631 207 207 207 0
-3.335418 -6.165470 26.424387 207 207 207 0
-3.226559 -6.150627 26.360773 207 207 207 0
-3.126700 -6.152538 26.368962 206 206 206 0
-3.024964 -6.150761 26.361346 207 207 207 0
-2.931954 -6.167213 26.431856 207 207 207 0
-2.836176 -6.178811 26.481566 207 207 207 0
-2.744906 -6.201453 26.578606 207 207 207 0
-2.631580 -6.174091 26.461333 207 207 207 0
-2.533003 -6.180527 26.488920 207 207 207 0
-2.435429 -6.190050 26.529732 207 207 207 0
-2.333731 -6.189461 26.527209 207 207 207 0
-2.230306 -6.184030 26.503932 207 207 207 0
-2.136229 -6.205236 26.594819 207 207 207 0
-2.038953 -6.218807 26.652983 207 207 207 0
-1.938027 -6.222085 26.667031 208 208 208 0
-1.839953 -6.235395 26.724076 207 207 207 0
-1.736174 -6.229800 26.700096 208 208 208 0
-1.641492 -6.258188 26.821765 208 208 208 0
-1.536225 -6.247316 26.775166 207 207 207 0
-1.438155 -6.266247 26.856302 206 206 206 0
-1.332512 -6.252556 26.797624 207 207 207 0
-1.228742 -6.246106 26.769981 208 208 208 0
-1.128348 -6.257202 26.817540 207 207 207 0
-1.029393 -6.279295 26.912228 207 207 207 0
-0.927828 -6.288614 26.952167 207 207 207 0
-0.823832 -6.281721 26.922621 207 207 207 0
-0.720463 -6.278321 26.908051 208 208 208 0
-0.619650 -6.299775 27.000000 209 209 209 0
-0.515885 -6.293796 26.974374 203 203 203 0
-0.405322 -6.181154 26.491604 131 131 131 0
-0.226261 -4.600645 19.717753 95 95 95 0
-0.153082 -4.669003 20.010727 118 118 118 0
-0.085198 -5.197058 22.273900 103 103 103 0
0.000000 -4.409001 18.896395 104 104 104 0
0.090207 -5.502616 23.583483 108 108 108 0
0.151521 -4.621399 19.806704 121 121 121 0
0.261222 -5.311518 22.764463 114 114 114 0
0.330198 -5.035516 21.581554 91 91 91 0
0.412907 -5.037462 21.589892 100 100 100 0
0.500141 -5.084767 21.792638 120 120 120 0
0.599342 -5.222838 22.384391 138 138 138 0
0.686255 -5.232692 22.426623 203 203 203 0
0.773162 -5.240321 22.459319 206 206 206 0
0.860451 -5.248749 22.495440 206 206 206 0
0.950424 -5.270533 22.588804 206 206 206 0
1.040788 -5.290672 22.675121 205 205 205 0
1.129972 -5.302175 22.724419 206 206 206 0
1.221809 -5.323596 22.816227 206 206 206 0
1.313195 -5.340327 22.887931 205 205 205 0
1.406350 -5.361710 22.979579 205 205 205 0
1.500150 -5.382891 23.070356 206 206 206 0
1.589226 -5.385710 23.082437 206 206 206 0
1.687320 -5.417184 23.217331 206 206 206 0
1.782952 -5.438004 23.306562 205 205 205 0
1.879387 -5.459172 23.397289 204 204 204 0
1.972022 -5.467879 23.434606 204 204 204 0
2.072358 -5.496254 23.556215 205 205 205 0
2.171401 -5.518977 23.653604 205 205 205 0
2.268776 -5.535814 23.725766 205 205 205 0
2.367227 -5.553878 23.803184 205 205 205 0
2.465416 -5.570014 23.872341 205 205 205 0
2.568479 -5.595616 23.982067 204 204 204 0
2.667876 -5.611739 24.051171 204 204 204 0
2.768986 -5.630272 24.130601 204 204 204 0
2.873188 -5.653693 24.230977 204 204 204 0
2.979075 -5.678862 24.338848 204 204 204 0
3.076609 -5.687065 24.374006 203 203 203 0
3.185613 -5.715364 24.495293 203 203 203 0
3.292054 -5.737580 24.590509 203 203 203 0
3.395822 -5.754031 24.661016 203 203 203 0
3.501732 -5.773126 24.742854 203 203 203 0
3.610093 -5.795150 24.837243 204 204 204 0
3.722144 -5.821816 24.951529 203 203 203 0
3.831615 -5.843213 25.043237 202 202 202 0
3.940212 -5.862267 25.124899 203 203 203 0
4.052474 -5.885736 25.225484 203 203 203 0
4.166364 -5.910424 25.331292 202 202 202 0
4.276703 -5.929065 25.411187 202 202 202 0
4.390929 -5.952148 25.510118 202 202 202 0
4.509749 -5.980319 25.630856 202 202 202 0
4.622729 -5.999712 25.713970 202 202 202 0
4.738259 -6.021538 25.807513 202 202 202 0
4.856444 -6.045778 25.911401 201 201 201 0
4.978919 -6.074281 26.033561 201 201 201 0
5.091511 -6.089846 26.100273 202 202 202 0
5.214088 -6.116527 26.214622 201 201 201 0
5.339058 -6.144954 26.336458 200 200 200 0
5.455958 -6.163211 26.414707 201 201 201 0
5.579877 -6.188590 26.523478 200 200 200 0
5.707488 -6.217085 26.645602 200 200 200 0
5.828286 -6.237289 26.732193 201 201 201 0
5.953714 -6.261665 26.836664 201 201 201 0
6.080758 -6.286885 26.944755 201 201 201 0
6.211198 -6.314718 27.064043 200 200 200 0
6.336130 -6.336130 27.155814 200 200 200 0
6.470982 -6.366611 27.286450 200 200 200 0
6.600910 -6.391358 27.392511 199 199 199 0
6.730040 -6.414570 27.491995 199 199 199 0
6.865189 -6.442715 27.612624 199 199 199 0
7.002278 -6.471802 27.737287 198 198 198 0
7.136806 -6.497689 27.848234 199 199 199 0
7.272341 -6.523717 27.959787 198 198 198 0
7.413610 -6.554061 28.089834 199 199 199 0
7.549907 -6.579204 28.197597 199 199 199 0
7.688620 -6.605716 28.311221 198 198 198 0
7.835589 -6.638485 28.451668 198 198 198 0
7.973317 -6.662634 28.555167 198 198 198 0
8.120600 -6.694008 28.689629 198 198 198 0
8.264289 -6.721621 28.807978 197 197 197 0
8.399751 -6.741905 28.894911 197 197 197 0
8.562119 -6.782977 29.070941 197 197 197 0
8.707808 -6.809952 29.186552 197 197 197 0
8.853680 -6.836386 29.299843 196 196 196 0
-7.757019 -5.817764 25.349734 204 204 204 0
-7.650760 -5.810704 25.318972 203 203 203 0
-7.560445 -5.815727 25.340859 204 204 204 0
-7.464567 -5.816546 25.344425 204 204 204 0
-7.349857 -5.802519 25.283307 204 204 204 0
-7.309504 -5.847603 25.479753 204 204 204 0
-7.206604 -5.843192 25.460534 203 203 203 0
-7.102370 -5.837564 25.436010 204 204 204 0
-7.003885 -5.836571 25.431682 204 204 204 0
-6.927745 -5.854432 25.509509 205 205 205 0
-6.848331 -5.869998 25.577334 204 204 204 0
-6.771666 -5.888405 25.657539 203 203 203 0
-6.654373 -5.871506 25.583902 204 204 204 0
-6.566431 -5.880386 25.622596 205 205 205 0
-6.466927 -5.879025 25.616666 205 205 205 0
-6.352034 -5.863416 25.548652 204 204 204 0
-6.275830 -5.883591 25.636562 205 205 205 0
-6.217155 -5.921100 25.800000 205 205 205 0
-6.098937 -5.902197 25.717635 205 205 205 0
-6.015394 -5.916781 25.781181 205 205 205 0
-5.941319 -5.941319 25.888099 205 205 205 0
-5.802972 -5.901328 25.713847 206 206 206 0
-5.724998 -5.922412 25.805716 204 204 204 0
-5.626504 -5.922636 25.806692 205 205 205 0
-5.530219 -5.925234 25.818014 205 205 205 0
-5.427925 -5.921372 25.801187 205 205 205 0
-5.345534 -5.939482 25.880095 205 205 205 0
-5.256992 -5.951312 25.931642 205 205 205 0
-5.160235 -5.954118 25.943868 204 204 204 0
-5.067605 -5.961889 25.977728 205 205 205 0
-4.969951 -5.963942 25.986674 206 206 206 0
-4.876042 -5.970663 26.015962 206 206 206 0
-4.780502 -5.975627 26.037591 206 206 206 0
-4.675494 -5.968716 26.007476 206 206 206 0
-4.582528 -5.977211 26.044491 206 206 206 0
-4.482355 -5.976474 26.041279 205 205 205 0
-4.388129 -5.983813 26.073257 206 206 206 0
-4.307153 -6.009981 26.187282 207 207 207 0
-4.219398 -6.027711 26.264536 206 206 206 0
-4.122017 -6.032220 26.284183 207 207 207 0
-4.003374 -6.005061 26.165844 206 206 206 0
-3.914133 -6.021744 26.238535 206 206 206 0
-3.810253 -6.016189 26.214330 206 206 206 0
-3.717661 -6.028640 26.268582 206 206 206 0
-3.610432 -6.017386 26.219548 207 207 207 0
-3.522079 -6.037849 26.308712 206 206 206 0
-3.429335 -6.051768 26.369359 205 205 205 0
-3.327638 -6.050250 26.362747 207 207 207 0
-3.232865 -6.061621 26.412292 207 207 207 0
-3.121362 -6.041345 26.323945 207 207 207 0
-3.027838 -6.055676 26.386388 206 206 206 0
-2.935985 -6.074452 26.468202 208 208 208 0
-2.845052 -6.096541 26.564447 208 208 208 0
-2.732585 -6.072412 26.459310 207 207 207 0
-2.631716 -6.073190 26.462700 206 206 206 0
-2.537621 -6.090289 26.537209 206 206 206 0
-2.435698 -6.089245 26.532657 207 207 207 0
-2.341747 -6.108906 26.618329 208 208 208 0
-2.231505 -6.085922 26.518180 207 207 207 0
-2.136740 -6.104970 26.601177 207 207 207 0
-2.040956 -6.122869 26.679167 208 208 208 0
-1.943704 -6.138013 26.745154 208 208 208 0
-1.841771 -6.139238 26.750492 208 208 208 0
-1.734231 -6.120816 26.670223 207 207 207 0
-1.635104 -6.131638 26.717379 207 207 207 0
-1.534603 -6.138412 26.746893 207 207 207 0
-1.439241 -6.168177 26.876590 207 207 207 0
-1.331344 -6.144665 26.774140 207 207 207 0
-1.232051 -6.160255 26.842071 208 208 208 0
-1.130198 -6.164714 26.861501 207 207 207 0
-1.028206 -6.169238 26.881213 208 208 208 0
-0.928236 -6.188241 26.964013 209 209 209 0
-0.824598 -6.184482 26.947635 207 207 207 0
-0.719369 -6.166021 26.867195 208 208 208 0
-0.618360 -6.183601 26.943793 207 207 207 0
-0.515821 -6.189856 26.971050 200 200 200 0
-0.406688 -6.100323 26.580930 120 120 120 0
-0.189990 -3.799794 16.556836 97 97 97 0
-0.130581 -3.917425 17.069391 90 90 90 0
-0.099125 -5.947523 25.915131 96 96 96 0
0.000000 -4.815187 20.981206 90 90 90 0
0.071675 -4.300519 18.738645 98 98 98 0
0.141472 -4.244147 18.493017 100 100 100 0
0.237439 -4.748771 20.691812 105 105 105 0
0.252182 -3.782727 16.482470 103 103 103 0
0.340723 -4.088675 17.815576 96 96 96 0
0.431195 -4.311948 18.788443 111 111 111 0
0.598991 -5.134212 22.371293 143 143 143 0
0.684715 -5.135360 22.376294 202 202 202 0
0.770853 -5.139022 22.392254 205 205 205 0
0.858428 -5.150568 22.442564 206 206 206 0
0.947902 -5.170377 22.528875 206 206 206 0
1.037724 -5.188621 22.608371 206 206 206 0
1.129480 -5.212983 22.714523 206 206 206 0
1.218151 -5.220646 22.747913 206 206 206 0
1.309852 -5.239407 22.829662 206 206 206 0
1.403065 -5.261493 22.925895 206 206 206 0
1.496054 -5.280191 23.007367 206 206 206 0
1.585722 -5.285739 23.031543 206 206 206 0
1.681264 -5.309254 23.134006 205 205 205 0
1.778961 -5.336882 23.254388 205 205 205 0
1.875420 -5.358343 23.347900 205 205 205 0
1.969763 -5.372081 23.407762 205 205 205 0
2.064941 -5.386802 23.471904 204 204 204 0
2.164037 -5.410093 23.573389 205 205 205 0
2.261867 -5.428480 23.653506 204 204 204 0
2.356404 -5.437856 23.694360 205 205 205 0
2.459879 -5.466398 23.818726 205 205 205 0
2.560020 -5.485756 23.903077 204 204 204 0
2.661858 -5.507292 23.996914 204 204 204 0
2.759742 -5.519483 24.050036 203 203 203 0
2.865152 -5.545455 24.163202 205 205 205 0
2.970910 -5.570457 24.272144 204 204 204 0
3.069715 -5.581300 24.319390 204 204 204 0
3.174064 -5.601289 24.406486 203 203 203 0
3.279611 -5.622190 24.497562 204 204 204 0
3.384964 -5.641606 24.582161 204 204 204 0
3.493778 -5.665586 24.686650 203 203 203 0
3.601627 -5.686779 24.778994 203 203 203 0
3.712250 -5.711154 24.885203 202 202 202 0
3.820823 -5.731235 24.972699 203 203 203 0
3.929039 -5.749813 25.053651 203 203 203 0
4.038716 -5.769594 25.139843 203 203 203 0
4.157885 -5.801700 25.279737 203 203 203 0
4.264998 -5.815906 25.341638 202 202 202 0
4.378886 -5.838514 25.440149 202 202 202 0
4.495417 -5.863587 25.549399 202 202 202 0
4.609608 -5.884606 25.640984 202 202 202 0
4.722626 -5.903282 25.722363 202 202 202 0
4.841749 -5.928672 25.832994 202 202 202 0
4.962784 -5.955340 25.949195 201 201 201 0
5.076027 -5.971797 26.020900 201 201 201 0
5.198573 -5.998353 26.136617 201 201 201 0
5.320884 -6.023642 26.246807 201 201 201 0
5.440007 -6.044452 26.337482 201 201 201 0
5.558340 -6.063643 26.421103 201 201 201 0
5.685001 -6.091073 26.540621 200 200 200 0
5.811718 -6.117598 26.656199 200 200 200 0
5.932788 -6.137367 26.742339 200 200 200 0
6.061807 -6.164549 26.860782 200 200 200 0
6.191280 -6.191280 26.977256 200 200 200 0
6.316461 -6.212913 27.071515 200 200 200 0
6.449839 -6.241779 27.197296 200 200 200 0
6.582350 -6.268905 27.315490 200 200 200 0
6.712379 -6.292855 27.419847 199 199 199 0
6.841287 -6.315034 27.516487 199 199 199 0
6.981423 -6.346748 27.654674 199 199 199 0
7.113841 -6.370604 27.758622 199 199 199 0
7.250912 -6.397863 27.877400 198 198 198 0
7.386545 -6.423083 27.987288 198 198 198 0
7.528392 -6.452907 28.117243 199 199 199 0
7.662954 -6.475736 28.216714 198 198 198 0
7.809674 -6.508062 28.357566 197 197 197 0
7.943736 -6.529098 28.449230 197 197 197 0
8.089751 -6.559257 28.580642 197 197 197 0
8.236385 -6.589108 28.710711 197 197 197 0
8.374192 -6.611204 28.806990 197 197 197 0
8.525681 -6.643388 28.947224 197 197 197 0
8.676955 -6.674581 29.083141 197 197 197 0
8.819219 -6.698141 29.185799 197 197 197 0
-7.787802 -5.743504 25.450333 204 204 204 0
-7.657569 -5.718944 25.341503 204 204 204 0
-7.589943 -5.741111 25.439729 204 204 204 0
-7.461809 -5.717490 25.335060 204 204 204 0
-7.403440 -5.747407 25.467629 204 204 204 0
-7.286625 -5.732145 25.400000 203 203 203 0
-7.224058 -5.759722 25.522198 205 205 205 0
-7.109939 -5.746389 25.463118 204 204 204 0
-7.049157 -5.776392 25.596067 204 204 204 0
-6.920763 -5.751057 25.483801 204 204 204 0
-6.829837 -5.756577 25.508261 204 204 204 0
-6.749041 -5.770919 25.571813 204 204 204 0
-6.655943 -5.775010 25.589940 205 205 205 0
-6.567107 -5.782974 25.625233 204 204 204 0
-6.468803 -5.782718 25.624095 204 204 204 0
-6.365641 -5.778044 25.603384 204 204 204 0
-6.275948 -5.785639 25.637041 205 205 205 0
-6.183356 -5.790762 25.659739 204 204 204 0
-6.120800 -5.824633 25.809826 205 205 205 0
-6.013932 -5.816754 25.774916 206 206 206 0
-5.914928 -5.816346 25.773108 204 204 204 0
-5.826454 -5.826454 25.817899 205 205 205 0
-5.729362 -5.828144 25.825387 205 205 205 0
-5.630228 -5.827780 25.823774 205 205 205 0
-5.535355 -5.831892 25.841993 204 204 204 0
-5.470558 -5.868417 26.003841 206 206 206 0
-5.355261 -5.851119 25.927192 205 205 205 0
-5.253068 -5.847755 25.912285 206 206 206 0
-5.172712 -5.869039 26.006599 205 205 205 0
-5.086720 -5.884637 26.075715 206 206 206 0
-4.961616 -5.854707 25.943092 205 205 205 0
-4.865312 -5.858232 25.958713 206 206 206 0
-4.787126 -5.884176 26.073674 205 205 205 0
-4.676386 -5.870356 26.012436 206 206 206 0
-4.582274 -5.877264 26.043044 206 206 206 0
-4.511011 -5.914436 26.207760 206 206 206 0
-4.394999 -5.893294 26.114074 206 206 206 0
-4.289465 -5.885545 26.079739 206 206 206 0
-4.202469 -5.903468 26.159160 206 206 206 0
-4.125587 -5.936821 26.306950 207 207 207 0
-4.012028 -5.917741 26.222402 206 206 206 0
-3.915122 -5.922877 26.245162 207 207 207 0
-3.816826 -5.926124 26.259551 206 206 206 0
-3.721046 -5.933560 26.292499 206 206 206 0
-3.609955 -5.916315 26.216084 207 207 207 0
-3.525923 -5.943699 26.337429 207 207 207 0
-3.423001 -5.939914 26.320656 207 207 207 0
-3.327259 -5.948736 26.359748 207 207 207 0
-3.224951 -5.946003 26.347635 205 205 205 0
-3.136545 -5.969553 26.451991 207 207 207 0
-3.024517 -5.948217 26.357446 207 207 207 0
-2.930673 -5.962403 26.420307 207 207 207 0
-2.842818 -5.990223 26.543584 207 207 207 0
-2.732211 -5.970387 26.455688 207 207 207 0
-2.634690 -5.978720 26.492609 207 207 207 0
-2.532005 -5.975531 26.478480 208 208 208 0
-2.436829 -5.990538 26.544978 207 207 207 0
-2.346567 -6.019453 26.673107 208 208 208 0
-2.237269 -5.999948 26.586676 206 206 206 0
-2.140433 -6.013598 26.647160 208 208 208 0
-2.040642 -6.019893 26.675054 209 209 209 0
-1.938882 -6.020740 26.678809 207 207 207 0
-1.843830 -6.043663 26.780385 207 207 207 0
-1.737710 -6.030875 26.723718 207 207 207 0
-1.633246 -6.022596 26.687034 208 208 208 0
-1.538911 -6.053048 26.821971 208 208 208 0
-1.437886 -6.059663 26.851281 208 208 208 0
-1.328331 -6.028580 26.713550 207 207 207 0
-1.233040 -6.062445 26.863611 209 209 209 0
-1.129315 -6.057232 26.840512 207 207 207 0
-1.028347 -6.067248 26.884890 209 209 209 0
-0.927745 -6.081882 26.949740 208 208 208 0
-0.826350 -6.094332 27.004906 208 208 208 0
-0.722414 -6.088917 26.980909 208 208 208 0
-0.618196 -6.078932 26.936666 209 209 209 0
-0.514446 -6.070459 26.899123 193 193 193 0
-0.302206 -4.457538 19.752025 118 118 118 0
-0.295321 -5.807976 25.736017 89 89 89 0
-0.173681 -5.123581 22.703361 106 106 106 0
-0.090673 -5.349679 23.705233 103 103 103 0
0.000000 -5.534880 24.525888 119 119 119 0
0.078004 -4.602255 20.393288 103 103 103 0
0.169677 -5.005486 22.180062 123 123 123 0
0.268796 -5.286316 23.424466 110 110 110 0
0.253760 -3.742962 16.585632 104 104 104 0
0.401680 -4.739827 21.002891 110 110 110 0
0.499984 -4.916509 21.785795 107 107 107 0
0.598658 -5.045834 22.358854 139 139 139 0
0.683505 -5.040847 22.336754 201 201 201 0
0.769145 -5.042171 22.342619 206 206 206 0
0.856251 -5.051880 22.385642 206 206 206 0
0.945858 -5.073240 22.480292 206 206 206 0
1.035686 -5.092123 22.563967 206 206 206 0
1.125607 -5.108526 22.636650 206 206 206 0
1.215199 -5.121194 22.692786 206 206 206 0
1.307001 -5.140872 22.779980 206 206 206 0
1.399667 -5.161271 22.870371 206 206 206 0
1.491057 -5.174845 22.930518 206 206 206 0
1.583543 -5.190502 22.999898 206 206 206 0
1.678430 -5.211966 23.095009 205 205 205 0
1.773658 -5.232292 23.185078 205 205 205 0
1.869439 -5.252233 23.273437 205 205 205 0
1.962450 -5.262934 23.320856 205 205 205 0
2.060211 -5.284889 23.418141 205 205 205 0
2.159111 -5.307814 23.519725 205 205 205 0
2.256903 -5.326292 23.601602 205 205 205 0
2.352844 -5.339145 23.658559 205 205 205 0
2.452349 -5.358836 23.745812 205 205 205 0
2.553790 -5.381200 23.844908 205 205 205 0
2.658786 -5.409254 23.969220 206 206 206 0
2.752367 -5.412989 23.985770 205 205 205 0
2.856456 -5.436481 24.089870 205 205 205 0
2.962069 -5.461314 24.199906 204 204 204 0
3.062011 -5.474504 24.258355 204 204 204 0
3.165729 -5.493471 24.342402 204 204 204 0
3.271260 -5.514411 24.435186 203 203 203 0
3.378305 -5.536667 24.533808 204 204 204 0
3.483812 -5.555268 24.616232 204 204 204 0
3.590276 -5.574376 24.700902 204 204 204 0
3.701837 -5.600215 24.815398 203 203 203 0
3.811636 -5.622163 24.912652 204 204 204 0
3.917121 -5.636833 24.977657 204 204 204 0
4.029392 -5.660337 25.081808 203 203 203 0
4.145382 -5.687850 25.203721 203 203 203 0
4.254762 -5.705250 25.280823 203 203 203 0
4.362206 -5.719337 25.343245 203 203 203 0
4.480698 -5.746983 25.465749 202 202 202 0
4.595010 -5.768204 25.559782 202 202 202 0
4.706209 -5.784715 25.632947 203 203 203 0
4.826198 -5.811136 25.750020 202 202 202 0
4.944778 -5.834839 25.855051 202 202 202 0
5.060643 -5.854469 25.942037 202 202 202 0
5.177437 -5.874400 26.030354 202 202 202 0
5.302093 -5.902330 26.154116 202 202 202 0
5.422936 -5.925060 26.254836 201 201 201 0
5.540373 -5.943310 26.335702 202 202 202 0
5.667447 -5.971060 26.458668 201 201 201 0
5.794019 -5.997318 26.575022 200 200 200 0
5.912738 -6.014682 26.651964 201 201 201 0
6.043570 -6.043570 26.779970 200 200 200 0
6.170541 -6.067699 26.886891 200 200 200 0
6.295471 -6.089062 26.981555 200 200 200 0
6.424932 -6.114048 27.092271 200 200 200 0
6.561487 -6.144884 27.228910 200 200 200 0
6.690463 -6.167771 27.330325 200 200 200 0
6.819429 -6.189943 27.428573 199 199 199 0
6.959123 -6.221034 27.566342 199 199 199 0
7.084631 -6.238705 27.644643 199 199 199 0
7.223548 -6.267490 27.772195 199 199 199 0
7.366166 -6.298606 27.910074 198 198 198 0
7.494958 -6.317179 27.992375 198 198 198 0
7.634264 -6.343966 28.111072 199 199 199 0
7.781800 -6.376753 28.256354 198 198 198 0
7.918358 -6.399769 28.358342 198 198 198 0
8.062128 -6.427913 28.483053 198 198 198 0
8.212920 -6.460831 28.628916 198 198 198 0
8.349807 -6.482087 28.723108 198 198 198 0
8.495656 -6.509658 28.845279 197 197 197 0
8.648185 -6.541576 28.986710 197 197 197 0
8.788070 -6.563242 29.082715 197 197 197 0
-7.738588 -5.610476 25.289502 204 204 204 0
-7.656866 -5.621497 25.339179 203 203 203 0
-7.578090 -5.634990 25.400000 204 204 204 0
-7.477752 -5.632592 25.389193 203 203 203 0
-7.393202 -5.642181 25.432412 204 204 204 0
-7.291491 -5.638753 25.416963 204 204 204 0
-7.218412 -5.657674 25.502250 204 204 204 0
-7.120229 -5.657169 25.499971 204 204 204 0
-7.037354 -5.668980 25.553210 204 204 204 0
-6.950072 -5.677523 25.591722 204 204 204 0
-6.840825 -5.668112 25.549299 205 205 205 0
-6.770493 -5.691139 25.653093 205 205 205 0
-6.682302 -5.699610 25.691278 205 205 205 0
-6.583127 -5.698826 25.687746 205 205 205 0
-6.512285 -5.722917 25.796334 205 205 205 0
-6.386749 -5.698945 25.688280 204 204 204 0
-6.292933 -5.702971 25.706426 205 205 205 0
-6.205109 -5.712640 25.750010 205 205 205 0
-6.098347 -5.704905 25.715145 205 205 205 0
-6.024125 -5.727857 25.818601 204 204 204 0
-5.914981 -5.717815 25.773336 204 204 204 0
-5.817048 -5.718454 25.776217 204 204 204 0
-5.729362 -5.729362 25.825387 205 205 205 0
-5.636895 -5.735788 25.854353 206 206 206 0
-5.528397 -5.725839 25.809508 205 205 205 0
-5.453697 -5.751172 25.923695 206 206 206 0
-5.350461 -5.746791 25.903949 205 205 205 0
-5.256610 -5.752516 25.929756 205 205 205 0
-5.159824 -5.755188 25.941801 206 206 206 0
-5.075422 -5.772049 26.017801 206 206 206 0
-4.968297 -5.763225 25.978026 206 206 206 0
-4.871914 -5.766755 25.993937 207 207 207 0
-4.784550 -5.781332 26.059642 206 206 206 0
-4.677136 -5.771785 26.016609 206 206 206 0
-4.591530 -5.789320 26.095651 206 206 206 0
-4.479952 -5.774160 26.027315 206 206 206 0
-4.390293 -5.787204 26.086114 206 206 206 0
-4.300047 -5.800064 26.144078 206 206 206 0
-4.207982 -5.811022 26.193474 206 206 206 0
-4.111092 -5.815691 26.214518 206 206 206 0
-3.995615 -5.793642 26.115130 206 206 206 0
-3.909018 -5.813411 26.204241 207 207 207 0
-3.824549 -5.837470 26.312689 207 207 207 0
-3.714955 -5.823442 26.249459 207 207 207 0
-3.614321 -5.823072 26.247789 207 207 207 0
-3.518254 -5.830249 26.280141 206 206 206 0
-3.425731 -5.843894 26.341647 206 206 206 0
-3.326614 -5.846776 26.354634 207 207 207 0
-3.231632 -5.857333 26.402224 206 206 206 0
-3.124075 -5.845044 26.346828 206 206 206 0
-3.033332 -5.864442 26.434268 207 207 207 0
-2.937572 -5.875144 26.482506 208 208 208 0
-2.840724 -5.884357 26.524035 207 207 207 0
-2.740949 -5.887964 26.540295 207 207 207 0
-2.632436 -5.872356 26.469941 208 208 208 0
-2.538762 -5.889927 26.549143 207 207 207 0
-2.438718 -5.893568 26.565555 208 208 208 0
-2.350490 -5.927323 26.717708 207 207 207 0
-2.234953 -5.892149 26.559155 208 208 208 0
-2.138778 -5.907102 26.626558 208 208 208 0
-2.037487 -5.908711 26.633813 207 207 207 0
-1.941311 -5.926106 26.712222 208 208 208 0
-1.839188 -5.926273 26.712973 206 206 206 0
-1.741018 -5.939944 26.774598 207 207 207 0
-1.637878 -5.937309 26.762720 207 207 207 0
-1.536564 -5.941382 26.781077 208 208 208 0
-1.436365 -5.950653 26.822868 207 207 207 0
-1.337173 -5.965849 26.891364 209 209 209 0
-1.231228 -5.950936 26.824143 208 208 208 0
-1.127996 -5.947616 26.809177 208 208 208 0
-1.029924 -5.973559 26.926118 207 207 207 0
-0.931337 -6.001951 27.054096 207 207 207 0
-0.823533 -5.970614 26.912840 209 209 209 0
-0.719977 -5.965521 26.889883 207 207 207 0
-0.620318 -5.996404 27.029093 208 208 208 0
-0.513882 -5.961032 26.869651 182 182 182 0
-0.326307 -4.731453 21.327261 111 111 111 0
-0.262463 -5.074278 22.872562 106 106 106 0
-0.183027 -5.307778 23.925075 106 106 106 0
-0.079645 -4.619387 20.822119 111 111 111 0
0.000000 -4.404605 19.853980 109 109 109 0
0.070965 -4.115975 18.552962 99 99 99 0
0.188173 -5.457006 24.597726 105 105 105 0
0.241838 -4.675530 21.075186 113 113 113 0
0.295079 -4.278647 19.286218 96 96 96 0
0.400490 -4.645689 20.940678 105 105 105 0
0.440963 -4.262643 19.214079 110 110 110 0
0.598739 -4.960981 22.361872 130 130 130 0
0.680002 -4.930016 22.222295 202 202 202 0
0.768622 -4.953341 22.327431 207 207 207 0
0.853564 -4.950674 22.315409 206 206 206 0
0.942889 -4.971599 22.409732 207 207 207 0
1.033829 -4.996839 22.523503 207 207 207 0
1.122061 -5.006117 22.565326 207 207 207 0
1.211932 -5.020861 22.631781 206 206 206 0
1.302639 -5.036870 22.703943 207 207 207 0
1.395290 -5.057926 22.798854 205 205 205 0
1.488703 -5.079105 22.894319 205 205 205 0
1.581279 -5.095232 22.967012 206 206 206 0
1.671666 -5.102981 23.001942 206 206 206 0
1.770138 -5.133400 23.139057 205 205 205 0
1.864491 -5.149546 23.211836 205 205 205 0
1.958902 -5.164378 23.278694 205 205 205 0
2.052695 -5.176360 23.332704 205 205 205 0
2.152128 -5.200975 23.443657 205 205 205 0
2.250822 -5.221907 23.538008 205 205 205 0
2.344060 -5.229057 23.570237 205 205 205 0
2.444234 -5.250578 23.667243 205 205 205 0
2.548091 -5.278188 23.791696 205 205 205 0
2.647003 -5.294005 23.862995 205 205 205 0
2.746170 -5.309262 23.931764 204 204 204 0
2.843252 -5.319632 23.978510 205 205 205 0
2.950436 -5.347666 24.104872 204 204 204 0
3.051085 -5.362513 24.171798 204 204 204 0
3.155355 -5.382664 24.262630 204 204 204 0
3.262213 -5.405952 24.367601 204 204 204 0
3.369016 -5.427860 24.466350 204 204 204 0
3.473381 -5.444759 24.542526 204 204 204 0
3.580471 -5.464929 24.633443 203 203 203 0
3.688455 -5.485395 24.725692 204 204 204 0
3.799582 -5.509394 24.833870 204 204 204 0
3.907597 -5.527820 24.916925 203 203 203 0
4.014824 -5.544280 24.991121 203 203 203 0
4.131296 -5.572446 25.118081 203 203 203 0
4.240882 -5.590254 25.198350 203 203 203 0
4.351133 -5.608127 25.278913 202 202 202 0
4.464171 -5.628737 25.371815 202 202 202 0
4.581241 -5.653446 25.483192 202 202 202 0
4.693557 -5.671382 25.564037 202 202 202 0
4.809961 -5.693424 25.663392 202 202 202 0
4.930613 -5.719511 25.780983 202 202 202 0
5.052239 -5.745684 25.898958 202 202 202 0
5.161568 -5.757134 25.950570 202 202 202 0
5.285471 -5.784101 26.072124 202 202 202 0
5.407968 -5.808559 26.182369 201 201 201 0
5.524244 -5.825566 26.259031 201 201 201 0
5.652416 -5.854288 26.388495 201 201 201 0
5.776652 -5.877997 26.495365 200 200 200 0
5.895373 -5.895373 26.573691 200 200 200 0
6.025139 -5.923018 26.698300 200 200 200 0
6.155575 -5.950389 26.821677 201 201 201 0
6.278643 -5.969858 26.909432 201 201 201 0
6.407757 -5.994353 27.019848 200 200 200 0
6.538253 -6.019344 27.132497 200 200 200 0
6.667304 -6.042244 27.235719 200 200 200 0
6.796239 -6.064337 27.335302 200 200 200 0
6.934198 -6.093689 27.467609 199 199 199 0
7.068351 -6.118871 27.581117 199 199 199 0
7.197015 -6.138631 27.670185 199 199 199 0
7.339992 -6.169848 27.810900 199 199 199 0
7.474037 -6.192773 27.914237 198 198 198 0
7.611722 -6.218026 28.028066 198 198 198 0
7.751162 -6.243992 28.145107 198 198 198 0
7.891265 -6.269772 28.261312 199 199 199 0
8.031768 -6.295170 28.375793 198 198 198 0
8.178745 -6.324896 28.509786 198 198 198 0
8.316565 -6.346853 28.608756 198 198 198 0
8.463206 -6.374883 28.735103 198 198 198 0
8.615207 -6.406180 28.876177 197 197 197 0
8.765170 -6.435188 29.006933 197 197 197 0
-7.736990 -5.512606 25.284283 203 203 203 0
-7.667828 -5.532484 25.375456 203 203 203 0
-7.595382 -5.550471 25.457958 204 204 204 0
-7.493468 -5.547113 25.442552 204 204 204 0
-7.374079 -5.530559 25.366630 204 204 204 0
-7.300383 -5.548291 25.447957 204 204 204 0
-7.216928 -5.558985 25.497006 205 205 205 0
-7.124965 -5.563329 25.516931 204 204 204 0
-7.019947 -5.557458 25.490003 205 205 205 0
-6.956668 -5.584931 25.616010 203 203 203 0
-6.862634 -5.588145 25.630753 204 204 204 0
