ply
format ascii 1.0
element vertex 1100
property float x
property float y
property float z
property uchar red
property uchar green
property uchar blue
property uchar alpha
end_header
1.813811 -1.419504 20.617345 213 213 213 0
1.894049 -1.420537 20.632343 213 213 213 0
1.974657 -1.421753 20.650007 213 213 213 0
2.053155 -1.421415 20.645103 213 213 213 0
2.133947 -1.422632 20.662768 213 213 213 0
2.213312 -1.422843 20.665844 213 213 213 0
2.293135 -1.423325 20.672841 213 213 213 0
2.373371 -1.424023 20.682971 213 213 213 0
2.453802 -1.424788 20.694093 213 213 213 0
2.533152 -1.424898 20.695686 213 213 213 0
2.611806 -1.424622 20.691672 213 213 213 0
2.694538 -1.426520 20.719246 213 213 213 0
2.774001 -1.426629 20.720831 214 214 214 0
2.856994 -1.428497 20.747956 214 214 214 0
2.936917 -1.428770 20.751930 214 214 214 0
3.015939 -1.428603 20.749493 213 213 213 0
3.095239 -1.428572 20.749049 214 214 214 0
3.177423 -1.429840 20.767468 214 214 214 0
3.259481 -1.430992 20.784195 214 214 214 0
3.340663 -1.431713 20.794666 213 213 213 0
3.417133 -1.430428 20.776005 214 214 214 0
3.499203 -1.431492 20.791461 214 214 214 0
3.582017 -1.432807 20.810554 214 214 214 0
3.664354 -1.433878 20.826109 214 214 214 0
3.747130 -1.435071 20.843444 213 213 213 0
3.824588 -1.434221 20.831090 213 213 213 0
3.905110 -1.434530 20.835588 213 213 213 0
3.987927 -1.435654 20.851904 213 213 213 0
4.072262 -1.437269 20.875366 214 214 214 0
4.152861 -1.437529 20.879140 214 214 214 0
4.233753 -1.437879 20.884220 214 214 214 0
4.314885 -1.438295 20.890270 215 215 215 0
4.396197 -1.438755 20.896955 214 214 214 0
4.480576 -1.440185 20.917723 214 214 214 0
4.561970 -1.440622 20.924067 214 214 214 0
4.641470 -1.440456 20.921658 214 214 214 0
4.723103 -1.440947 20.928781 215 215 215 0
4.804596 -1.441379 20.935059 214 214 214 0
4.886549 -1.441933 20.943102 213 213 213 0
4.972479 -1.443623 20.967652 214 214 214 0
5.053054 -1.443730 20.969202 214 214 214 0
5.136401 -1.444613 20.982029 213 213 213 0
5.217984 -1.444980 20.987366 214 214 214 0
5.301124 -1.445761 20.998709 214 214 214 0
5.381775 -1.445850 21.000000 214 214 214 0
5.464250 -1.446419 21.008266 214 214 214 0
5.549053 -1.447579 21.025114 214 214 214 0
5.629191 -1.447506 21.024057 214 214 214 0
5.704707 -1.446264 21.006009 200 200 200 0
5.749873 -1.437468 20.878260 89 89 89 0
-7.383107 -1.568910 24.127800 164 164 164 0
-7.227431 -1.555270 23.918032 170 170 170 0
-7.073282 -1.541613 23.707999 171 171 171 0
-6.988414 -1.542897 23.727744 174 174 174 0
-6.868678 -1.536415 23.628063 180 180 180 0
-6.736533 -1.526948 23.482470 179 179 179 0
-6.612532 -1.519095 23.361708 181 181 181 0
-6.493623 -1.512214 23.255880 183 183 183 0
-6.387825 -1.508236 23.194716 187 187 187 0
-6.302126 -1.508960 23.205840 188 188 188 0
-6.196325 -1.504822 23.142205 188 188 188 0
-6.084312 -1.499033 23.053186 188 188 188 0
-5.974659 -1.493665 22.970623 191 191 191 0
-5.868312 -1.488975 22.898497 194 194 194 0
-5.757042 -1.482874 22.804681 194 194 194 0
-5.680045 -1.485550 22.845830 194 194 194 0
-5.569027 -1.479273 22.749292 194 194 194 0
-5.482412 -1.479381 22.750960 197 197 197 0
-5.390802 -1.478123 22.731614 199 199 199 0
-5.287468 -1.473557 22.661385 199 199 199 0
-5.198316 -1.472856 22.650612 199 199 199 0
-5.095238 -1.468119 22.577767 200 200 200 0
-4.992394 -1.463288 22.503464 190 190 190 0
-4.783183 -1.426563 21.938692 90 90 90 0
-7.298662 -2.215665 34.074052 67 67 67 0
-7.222666 -2.273802 34.968122 91 91 91 0
-4.085047 -1.310298 20.150680 197 197 197 0
-3.973226 -1.298939 19.975996 210 210 210 0
-3.898175 -1.299392 19.982956 210 210 210 0
-3.826189 -1.300904 20.006217 209 209 209 0
-3.747570 -1.300177 19.995037 210 210 210 0
-3.675836 -1.301859 20.020895 210 210 210 0
-3.598275 -1.301504 20.015435 210 210 210 0
-3.521120 -1.301283 20.012048 210 210 210 0
-3.450728 -1.303608 20.047801 211 211 211 0
-3.370916 -1.302399 20.029209 211 211 211 0
-3.296925 -1.303435 20.045142 211 211 211 0
-3.224425 -1.305124 20.071115 210 210 210 0
-3.147852 -1.305207 20.072384 211 211 211 0
-3.075111 -1.306922 20.098766 210 210 210 0
-2.996824 -1.306308 20.089317 211 211 211 0
-2.920425 -1.306506 20.092362 211 211 211 0
-2.844593 -1.306975 20.099582 210 210 210 0
-2.768941 -1.307556 20.108505 210 210 210 0
-2.692920 -1.307990 20.115180 211 211 211 0
-2.617016 -1.308508 20.123150 210 210 210 0
-2.545589 -1.311364 20.167078 210 210 210 0
-2.465750 -1.309930 20.145018 211 211 211 0
-2.390729 -1.311045 20.162170 211 211 211 0
-2.312055 -1.310165 20.148630 211 211 211 0
-2.237432 -1.311598 20.170670 211 211 211 0
-2.162272 -1.312808 20.189277 211 211 211 0
-2.081856 -1.310799 20.158378 211 211 211 0
-2.007140 -1.312361 20.182400 211 211 211 0
-1.931473 -1.313402 20.198408 211 211 211 0
-1.856083 -1.314725 20.218769 211 211 211 0
-1.778053 -1.314213 20.210885 211 211 211 0
-1.703586 -1.316408 20.244640 211 211 211 0
-1.626668 -1.316826 20.251080 212 212 212 0
-1.548820 -1.316497 20.246012 212 212 212 0
-1.471383 -1.316500 20.246065 212 212 212 0
-1.394573 -1.317097 20.255233 212 212 212 0
-1.319406 -1.319406 20.290749 212 212 212 0
-1.240371 -1.317895 20.267507 211 211 211 0
-1.164111 -1.319326 20.289524 212 212 212 0
-1.086477 -1.319294 20.289022 212 212 212 0
-1.010130 -1.320940 20.314338 212 212 212 0
-0.931642 -1.319826 20.297213 212 212 212 0
-0.855461 -1.322076 20.331804 212 212 212 0
-0.777499 -1.321748 20.326773 212 212 212 0
-0.700307 -1.322802 20.342983 212 212 212 0
-0.622601 -1.323026 20.346425 211 211 211 0
-0.545350 -1.324420 20.367865 212 212 212 0
-0.467381 -1.324247 20.365200 212 212 212 0
-0.389557 -1.324495 20.369010 213 213 213 0
-0.311787 -1.325095 20.378242 212 212 212 0
-0.233867 -1.325245 20.380552 213 213 213 0
-0.156188 -1.327594 20.416677 212 212 212 0
-0.078042 -1.326721 20.403245 212 212 212 0
0.000000 -1.326889 20.405830 212 212 212 0
0.078110 -1.327877 20.421016 212 212 212 0
0.156188 -1.327600 20.416759 213 213 213 0
0.234533 -1.329022 20.438627 212 212 212 0
0.313050 -1.330464 20.460806 212 212 212 0
0.390938 -1.329191 20.441227 213 213 213 0
0.469528 -1.330329 20.458731 212 212 212 0
0.547953 -1.330744 20.465106 212 212 212 0
0.626815 -1.331981 20.484136 213 213 213 0
0.705224 -1.332090 20.485807 213 213 213 0
0.784002 -1.332804 20.496795 213 213 213 0
0.862591 -1.333095 20.501268 213 213 213 0
0.940527 -1.332413 20.490774 212 212 212 0
1.020305 -1.334246 20.518964 212 212 212 0
1.099407 -1.334994 20.530478 212 212 212 0
1.179565 -1.336840 20.558860 213 213 213 0
1.256452 -1.334981 20.530267 213 213 213 0
1.335810 -1.335810 20.543019 213 213 213 0
1.415262 -1.336637 20.555737 213 213 213 0
1.494808 -1.337460 20.568396 213 213 213 0
1.574521 -1.338343 20.581975 214 214 214 0
1.654695 -1.339515 20.600000 213 213 213 0
1.733490 -1.339515 20.600000 213 213 213 0
1.812930 -1.339992 20.607333 213 213 213 0
1.892474 -1.340503 20.615190 213 213 213 0
1.973204 -1.341778 20.634809 214 214 214 0
2.052454 -1.341989 20.638052 214 214 214 0
2.132779 -1.342861 20.651459 213 213 213 0
2.209445 -1.341449 20.629743 213 213 213 0
2.291024 -1.343014 20.653808 214 214 214 0
2.371809 -1.344025 20.669362 213 213 213 0
2.452595 -1.344971 20.683909 213 213 213 0
2.530999 -1.344593 20.678093 213 213 213 0
2.610172 -1.344634 20.678728 213 213 213 0
2.692141 -1.346070 20.700812 213 213 213 0
2.772849 -1.346812 20.712222 214 214 214 0
2.853916 -1.347682 20.725604 214 214 214 0
2.933644 -1.347891 20.728805 214 214 214 0
3.012444 -1.347672 20.725447 214 214 214 0
3.093242 -1.348336 20.735656 213 213 213 0
3.174223 -1.349045 20.746555 213 213 213 0
3.258449 -1.351064 20.777611 213 213 213 0
3.339541 -1.351719 20.787680 214 214 214 0
3.416701 -1.350789 20.773375 214 214 214 0
3.497097 -1.351151 20.778947 214 214 214 0
3.581534 -1.353024 20.807749 214 214 214 0
3.661687 -1.353232 20.810950 214 214 214 0
3.743831 -1.354152 20.825093 214 214 214 0
3.819114 -1.352603 20.801272 213 213 213 0
3.902513 -1.353933 20.821731 214 214 214 0
3.984039 -1.354573 20.831575 214 214 214 0
4.067421 -1.355807 20.850551 215 215 215 0
4.151469 -1.357211 20.872140 214 214 214 0
4.231993 -1.357432 20.875537 214 214 214 0
4.309564 -1.356715 20.864509 214 214 214 0
4.392515 -1.357687 20.879455 214 214 214 0
4.474950 -1.358467 20.891457 213 213 213 0
4.557018 -1.359111 20.901357 214 214 214 0
4.640365 -1.360107 20.916677 214 214 214 0
4.720033 -1.360010 20.915179 215 215 215 0
4.801865 -1.360528 20.923160 214 214 214 0
4.884199 -1.361170 20.933027 214 214 214 0
4.966037 -1.361655 20.940489 214 214 214 0
5.048992 -1.362427 20.952349 214 214 214 0
5.133540 -1.363597 20.970342 214 214 214 0
5.214772 -1.363863 20.974448 214 214 214 0
5.297471 -1.364500 20.984237 214 214 214 0
5.379189 -1.364869 20.989910 214 214 214 0
5.464237 -1.366059 21.008216 214 214 214 0
5.545084 -1.366180 21.010077 215 215 215 0
5.626154 -1.366352 21.012712 214 214 214 0
5.700273 -1.364854 20.989683 202 202 202 0
5.742430 -1.355852 20.851236 94 94 94 0
-7.370957 -1.474191 24.088094 167 167 167 0
-7.207716 -1.459790 23.852786 171 171 171 0
-7.073874 -1.451051 23.709984 171 171 171 0
-6.971285 -1.448579 23.669587 177 177 177 0
-6.860495 -1.444315 23.599913 179 179 179 0
-6.734277 -1.436646 23.474605 180 180 180 0
-6.611083 -1.429423 23.356591 180 180 180 0
-6.483826 -1.421112 23.220792 186 186 186 0
-6.376387 -1.416975 23.153186 188 188 188 0
-6.264332 -1.411680 23.066675 187 187 187 0
-6.179124 -1.412371 23.077961 187 187 187 0
-6.079511 -1.409742 23.034993 190 190 190 0
-5.967012 -1.404003 22.941222 192 192 192 0
-5.864765 -1.400541 22.884653 193 193 193 0
-5.754246 -1.394969 22.793605 194 194 194 0
-5.672051 -1.396197 22.813679 194 194 194 0
-5.577613 -1.394403 22.784365 194 194 194 0
-5.484197 -1.392812 22.758366 198 198 198 0
-5.373604 -1.386737 22.659093 198 198 198 0
-5.275008 -1.383609 22.607985 199 199 199 0
-5.187066 -1.383217 22.601593 198 198 198 0
-5.089569 -1.380222 22.552649 200 200 200 0
-4.979711 -1.373713 22.446297 189 189 189 0
-4.798721 -1.347009 22.009958 86 86 86 0
-7.494973 -2.141421 34.990536 69 69 69 0
-4.235150 -1.254859 20.504234 87 87 87 0
-4.069777 -1.228612 20.075360 199 199 199 0
-3.969691 -1.221443 19.958224 210 210 210 0
-3.895776 -1.222204 19.970658 210 210 210 0
-3.821038 -1.222732 19.979284 210 210 210 0
-3.750954 -1.224801 20.013091 210 210 210 0
-3.671865 -1.223955 19.999267 210 210 210 0
-3.602941 -1.226533 20.041390 210 210 210 0
-3.519544 -1.224189 20.003090 210 210 210 0
-3.446722 -1.225501 20.024530 211 211 211 0
-3.369800 -1.225382 20.022581 210 210 210 0
-3.295899 -1.226381 20.038904 210 210 210 0
-3.222291 -1.227539 20.057833 211 211 211 0
-3.148455 -1.228665 20.076233 211 211 211 0
-3.071736 -1.228695 20.076709 210 210 210 0
-2.993131 -1.227951 20.064559 210 210 210 0
-2.918322 -1.228767 20.077896 211 211 211 0
-2.840398 -1.228280 20.069937 210 210 210 0
-2.766606 -1.229603 20.091550 211 211 211 0
-2.692325 -1.230777 20.110740 210 210 210 0
-2.614177 -1.230201 20.101326 210 210 210 0
-2.541377 -1.232183 20.133703 211 211 211 0
-2.464629 -1.232314 20.135856 210 210 210 0
-2.384949 -1.230942 20.113426 211 211 211 0
-2.309627 -1.231801 20.127472 211 211 211 0
-2.235380 -1.233313 20.152176 211 211 211 0
-2.162272 -1.235584 20.189277 211 211 211 0
-2.081643 -1.233566 20.156310 211 211 211 0
-2.006595 -1.234828 20.176924 211 211 211 0
-1.930573 -1.235567 20.189003 211 211 211 0
-1.853511 -1.235674 20.190755 211 211 211 0
-1.778926 -1.237514 20.220817 211 211 211 0
-1.699616 -1.236084 20.197453 212 212 212 0
-1.624289 -1.237554 20.221468 211 211 211 0
-1.547845 -1.238276 20.233264 212 212 212 0
-1.469842 -1.237762 20.224870 212 212 212 0
-1.394232 -1.239317 20.250285 211 211 211 0
-1.317074 -1.239599 20.254888 212 212 212 0
-1.238195 -1.238195 20.231938 212 212 212 0
-1.163213 -1.240761 20.273872 211 211 211 0
-1.085359 -1.240410 20.268138 211 211 211 0
-1.009076 -1.241940 20.293138 212 212 212 0
-0.932046 -1.242728 20.306008 212 212 212 0
-0.854708 -1.243212 20.313914 212 212 212 0
-0.776030 -1.241649 20.288375 212 212 212 0
-0.699208 -1.243036 20.311050 213 213 213 0
-0.621935 -1.243871 20.324684 212 212 212 0
-0.544854 -1.245382 20.349371 211 211 211 0
-0.466816 -1.244843 20.340571 212 212 212 0
-0.388912 -1.244520 20.335289 213 213 213 0
-0.311398 -1.245592 20.352804 212 212 212 0
-0.233789 -1.246875 20.373778 212 212 212 0
-0.155889 -1.247114 20.377688 212 212 212 0
-0.078033 -1.248535 20.400901 212 212 212 0
0.000000 -1.247812 20.389087 212 212 212 0
0.078047 -1.248748 20.404386 212 212 212 0
0.156140 -1.249123 20.410513 213 213 213 0
0.234396 -1.250110 20.426642 212 212 212 0
0.312679 -1.250714 20.436510 212 212 212 0
0.391040 -1.251329 20.446548 212 212 212 0
0.469273 -1.251395 20.447633 213 213 213 0
0.547440 -1.251293 20.445957 212 212 212 0
0.626298 -1.252597 20.467267 212 212 212 0
0.704927 -1.253203 20.477171 213 213 213 0
0.783308 -1.253292 20.478633 212 212 212 0
0.861724 -1.253416 20.480657 213 213 213 0
0.940539 -1.254053 20.491055 213 213 213 0
1.019513 -1.254785 20.503020 213 213 213 0
1.098084 -1.254953 20.505763 213 213 213 0
1.177762 -1.256280 20.527445 213 213 213 0
1.257633 -1.257633 20.549560 213 213 213 0
1.335574 -1.257011 20.539395 213 213 213 0
1.414932 -1.257718 20.550943 213 213 213 0
1.494093 -1.258183 20.558551 214 214 214 0
1.573419 -1.258735 20.567563 213 213 213 0
1.653246 -1.259616 20.581962 213 213 213 0
1.731718 -1.259431 20.578941 213 213 213 0
1.812525 -1.260887 20.602728 213 213 213 0
1.891810 -1.261207 20.607955 213 213 213 0
1.971011 -1.261447 20.611882 213 213 213 0
2.050566 -1.261887 20.619069 214 214 214 0
2.129834 -1.262124 20.622941 213 213 213 0
2.210585 -1.263191 20.640380 213 213 213 0
2.289084 -1.262943 20.636319 213 213 213 0
2.371090 -1.264581 20.663094 213 213 213 0
2.449619 -1.264319 20.658813 213 213 213 0
2.529328 -1.264664 20.664447 213 213 213 0
2.609321 -1.265125 20.671982 214 214 214 0
2.689986 -1.265876 20.684245 213 213 213 0
2.770855 -1.266676 20.697327 213 213 213 0
2.853286 -1.268127 20.721030 213 213 213 0
2.930948 -1.267437 20.709753 213 213 213 0
3.010498 -1.267578 20.712058 214 214 214 0
3.090912 -1.268066 20.720038 214 214 214 0
3.172035 -1.268814 20.732252 214 214 214 0
3.257354 -1.271162 20.770629 213 213 213 0
3.334659 -1.270346 20.757291 214 214 214 0
3.414509 -1.270515 20.760047 214 214 214 0
3.494863 -1.270859 20.765672 214 214 214 0
3.578653 -1.272410 20.791010 214 214 214 0
3.658538 -1.272535 20.793056 213 213 213 0
3.741795 -1.273803 20.813769 214 214 214 0
3.816300 -1.272100 20.785945 214 214 214 0
3.900506 -1.273635 20.811022 213 213 213 0
3.980739 -1.273836 20.814321 214 214 214 0
4.065482 -1.275445 20.840611 214 214 214 0
4.147421 -1.276129 20.851789 214 214 214 0
4.225909 -1.275746 20.845527 214 214 214 0
4.305653 -1.275749 20.845575 214 214 214 0
4.390645 -1.277279 20.870565 215 215 215 0
4.473696 -1.278199 20.885600 214 214 214 0
4.555389 -1.278706 20.893883 213 213 213 0
4.635417 -1.278736 20.894374 214 214 214 0
4.715507 -1.278782 20.895125 215 215 215 0
4.799024 -1.279740 20.910778 214 214 214 0
4.881170 -1.280307 20.920048 214 214 214 0
4.965351 -1.281381 20.937596 214 214 214 0
5.045928 -1.281506 20.939635 214 214 214 0
5.128227 -1.282057 20.948639 214 214 214 0
5.210438 -1.282569 20.957016 214 214 214 0
5.294120 -1.283423 20.970963 215 215 215 0
5.376445 -1.283927 20.979203 214 214 214 0
5.462100 -1.285200 21.000000 213 213 213 0
5.540941 -1.284856 20.994376 214 214 214 0
5.622750 -1.285200 21.000000 214 214 214 0
5.700103 -1.284530 20.989058 204 204 204 0
5.736533 -1.274785 20.829823 98 98 98 0
-7.359907 -1.379983 24.051984 168 168 168 0
-7.202943 -1.367647 23.836991 169 169 169 0
-7.059092 -1.357518 23.660438 172 172 172 0
-6.943793 -1.352687 23.576242 178 178 178 0
-6.862333 -1.354408 23.606238 179 179 179 0
-6.722802 -1.344560 23.434605 181 181 181 0
-6.628042 -1.343522 23.416506 183 183 183 0
-6.467096 -1.328855 23.160877 186 186 186 0
-6.356929 -1.324360 23.082532 186 186 186 0
-6.272612 -1.325200 23.097162 187 187 187 0
-6.176364 -1.323507 23.067653 188 188 188 0
-6.077791 -1.321259 23.028476 192 192 192 0
-5.973536 -1.317692 22.966305 193 193 193 0
-5.838806 -1.307195 22.783362 193 193 193 0
-5.745388 -1.305770 22.758517 193 193 193 0
-5.656703 -1.305393 22.751949 193 193 193 0
-5.586529 -1.309343 22.820789 197 197 197 0
-5.462641 -1.300629 22.668911 199 199 199 0
-5.368132 -1.298742 22.636022 198 198 198 0
-5.265560 -1.294810 22.567492 199 199 199 0
-5.170400 -1.292600 22.528978 198 198 198 0
-5.083011 -1.292291 22.523590 199 199 199 0
-4.976993 -1.287153 22.434044 188 188 188 0
-4.845134 -1.275035 22.222837 86 86 86 0
-4.336234 -1.182609 20.611925 68 68 68 0
-7.226574 -2.007382 34.987042 95 95 95 0
-4.068187 -1.151374 20.067517 200 200 200 0
-3.970775 -1.145416 19.963677 211 211 211 0
-3.899297 -1.146852 19.988705 210 210 210 0
-3.819588 -1.145876 19.971700 210 210 210 0
-3.745130 -1.146468 19.982018 210 210 210 0
-3.667962 -1.146238 19.978008 210 210 210 0
-3.595560 -1.147519 20.000333 210 210 210 0
-3.517293 -1.146943 19.990297 210 210 210 0
-3.444663 -1.148221 20.012564 210 210 210 0
-3.365725 -1.147406 19.998364 210 210 210 0
-3.292144 -1.148422 20.016073 211 211 211 0
-3.220687 -1.150246 20.047852 211 211 211 0
-3.143503 -1.150062 20.044655 211 211 211 0
-3.069989 -1.151246 20.065290 211 211 211 0
-2.993336 -1.151283 20.065936 210 210 210 0
-2.916233 -1.151145 20.063525 211 211 211 0
-2.840398 -1.151513 20.069937 211 211 211 0
-2.766583 -1.152743 20.091381 211 211 211 0
-2.689736 -1.152744 20.091399 211 211 211 0
-2.615195 -1.153763 20.109154 210 210 210 0
-2.539397 -1.154271 20.118019 211 211 211 0
-2.461404 -1.153783 20.109506 211 211 211 0
-2.387140 -1.155068 20.131903 210 210 210 0
-2.310062 -1.155031 20.131260 211 211 211 0
-2.233492 -1.155255 20.135158 211 211 211 0
-2.160162 -1.157230 20.169582 212 212 212 0
-2.081483 -1.156379 20.154758 211 211 211 0
-2.004075 -1.156197 20.151579 211 211 211 0
-1.928160 -1.156896 20.163760 211 211 211 0
-1.854873 -1.159296 20.205589 211 211 211 0
-1.775545 -1.157964 20.182376 211 211 211 0
-1.699830 -1.158975 20.200000 212 212 212 0
-1.622565 -1.158975 20.200000 211 211 211 0
-1.547106 -1.160329 20.223606 212 212 212 0
-1.470864 -1.161209 20.238929 211 211 211 0
-1.393172 -1.160977 20.234891 211 211 211 0
-1.315909 -1.161096 20.236973 211 211 211 0
-1.238700 -1.161281 20.240197 212 212 212 0
-1.162422 -1.162422 20.260087 211 211 211 0
-1.084730 -1.162210 20.256392 211 211 211 0
-1.008677 -1.163858 20.285113 212 212 212 0
-0.931718 -1.164647 20.298858 212 212 212 0
-0.853342 -1.163648 20.281445 212 212 212 0
-0.776014 -1.164020 20.287936 212 212 212 0
-0.698860 -1.164767 20.300946 212 212 212 0
-0.621658 -1.165609 20.315631 211 211 211 0
-0.544537 -1.166865 20.337523 212 212 212 0
-0.466765 -1.166912 20.338333 212 212 212 0
-0.388944 -1.166833 20.336960 212 212 212 0
-0.311262 -1.167232 20.343911 212 212 212 0
-0.233610 -1.168050 20.358167 212 212 212 0
-0.155920 -1.169401 20.381716 213 213 213 0
-0.077995 -1.169919 20.390748 213 213 213 0
0.000000 -1.169293 20.379826 212 212 212 0
0.077967 -1.169503 20.383487 212 212 212 0
0.155951 -1.169634 20.385776 212 212 212 0
0.234167 -1.170837 20.406742 213 213 213 0
0.312576 -1.172160 20.429800 212 212 212 0
0.390844 -1.172532 20.436294 212 212 212 0
0.469156 -1.172890 20.442530 212 212 212 0
0.547311 -1.172809 20.441112 212 212 212 0
0.625753 -1.173286 20.449432 213 213 213 0
0.704269 -1.173781 20.458064 213 213 213 0
0.783003 -1.174504 20.470656 213 213 213 0
0.861387 -1.174618 20.472647 213 213 213 0
0.940243 -1.175304 20.484593 212 212 212 0
1.018809 -1.175549 20.488866 213 213 213 0
1.098280 -1.176729 20.509430 213 213 213 0
1.176936 -1.176936 20.513050 212 212 212 0
1.256555 -1.178020 20.531938 213 213 213 0
1.333776 -1.176861 20.511746 213 213 213 0
1.413549 -1.177958 20.530851 213 213 213 0
1.493578 -1.179140 20.551467 212 212 212 0
1.572488 -1.179366 20.555394 213 213 213 0
1.652853 -1.180609 20.577066 214 214 214 0
1.729946 -1.179508 20.557882 214 214 214 0
1.810109 -1.180506 20.575270 213 213 213 0
1.888875 -1.180547 20.575985 214 214 214 0
1.970253 -1.182152 20.603952 213 213 213 0
2.048955 -1.182089 20.602862 213 213 213 0
2.128600 -1.182556 20.610993 214 214 214 0
2.207695 -1.182694 20.613402 213 213 213 0
2.288273 -1.183589 20.629009 213 213 213 0
2.367515 -1.183757 20.631935 213 213 213 0
2.448504 -1.184760 20.649416 213 213 213 0
2.528436 -1.185204 20.657158 213 213 213 0
2.607718 -1.185326 20.659280 213 213 213 0
2.689015 -1.186330 20.676781 213 213 213 0
2.768791 -1.186625 20.681909 213 213 213 0
2.849100 -1.187125 20.690633 214 214 214 0
2.929882 -1.187790 20.702222 213 213 213 0
3.009244 -1.187860 20.703436 213 213 213 0
3.089233 -1.188167 20.708785 214 214 214 0
3.171798 -1.189424 20.730705 213 213 213 0
3.251877 -1.189711 20.735704 214 214 214 0
3.332752 -1.190269 20.745424 214 214 214 0
3.412667 -1.190465 20.748848 213 213 213 0
3.491833 -1.190398 20.747671 214 214 214 0
3.576222 -1.192074 20.776888 213 213 213 0
3.655483 -1.192005 20.775695 213 213 213 0
3.738835 -1.193245 20.797299 214 214 214 0
3.816858 -1.192768 20.788985 214 214 214 0
3.898740 -1.193492 20.801599 214 214 214 0
3.977813 -1.193344 20.799022 214 214 214 0
4.063278 -1.195082 20.829313 214 214 214 0
4.142490 -1.194949 20.827000 214 214 214 0
4.223738 -1.195397 20.834814 214 214 214 0
4.303817 -1.195505 20.836686 214 214 214 0
4.383577 -1.195521 20.836966 214 214 214 0
4.472144 -1.197896 20.878357 213 213 213 0
4.550614 -1.197530 20.871982 214 214 214 0
4.634891 -1.198679 20.892005 214 214 214 0
4.711438 -1.197823 20.877093 214 214 214 0
4.794659 -1.198665 20.891761 214 214 214 0
4.877752 -1.199447 20.905398 214 214 214 0
4.962922 -1.200707 20.927352 215 215 215 0
5.042380 -1.200567 20.924911 215 215 215 0
5.124249 -1.200996 20.932391 214 214 214 0
5.206637 -1.201532 20.941726 214 214 214 0
5.289519 -1.202163 20.952738 214 214 214 0
5.371145 -1.202495 20.958520 215 215 215 0
5.454573 -1.203215 20.971060 214 214 214 0
5.536487 -1.203584 20.977501 214 214 214 0
5.617521 -1.203755 20.980471 214 214 214 0
5.694698 -1.203105 20.969156 206 206 206 0
5.733646 -1.194510 20.819340 103 103 103 0
-7.323881 -1.281679 23.934252 169 169 169 0
-7.207716 -1.277317 23.852786 170 170 170 0
-7.048710 -1.265153 23.625640 174 174 174 0
-6.922447 -1.258627 23.503766 179 179 179 0
-6.842863 -1.260527 23.539259 180 180 180 0
-6.726350 -1.255585 23.446971 180 180 180 0
-6.603243 -1.249262 23.328891 184 184 184 0
-6.471494 -1.241109 23.176630 187 187 187 0
-6.359076 -1.236487 23.090326 186 186 186 0
-6.261208 -1.234604 23.055172 187 187 187 0
-6.168609 -1.233722 23.038689 189 189 189 0
-6.069569 -1.231507 22.997326 192 192 192 0
-5.948242 -1.224638 22.869058 193 193 193 0
-5.846102 -1.221573 22.811829 193 193 193 0
-5.752014 -1.220124 22.784767 193 193 193 0
-5.650370 -1.217003 22.726476 194 194 194 0
-5.564322 -1.217195 22.730074 198 198 198 0
-5.472422 -1.216094 22.709500 198 198 198 0
-5.372603 -1.213168 22.654871 199 199 199 0
-5.267904 -1.209027 22.577537 198 198 198 0
-5.175608 -1.207642 22.551669 199 199 199 0
-5.083599 -1.206278 22.526193 200 200 200 0
-4.972621 -1.200288 22.414340 188 188 188 0
-4.763963 -1.170096 21.850536 79 79 79 0
-7.437012 -1.859253 34.719942 69 69 69 0
-7.271828 -1.851011 34.566029 75 75 75 0
-7.226658 -1.873578 34.987449 107 107 107 0
-4.059373 -1.072287 20.024038 202 202 202 0
-3.968376 -1.068409 19.951612 210 210 210 0
-3.884303 -1.066279 19.911846 210 210 210 0
-3.813603 -1.067809 19.940407 211 211 211 0
-3.744214 -1.069775 19.977130 210 210 210 0
-3.670841 -1.070662 19.993690 210 210 210 0
-3.589930 -1.069341 19.969016 210 210 210 0
-3.519824 -1.071251 20.004686 210 210 210 0
-3.442473 -1.070992 19.999845 210 210 210 0
-3.363638 -1.070249 19.985967 210 210 210 0
-3.292144 -1.071861 20.016073 211 211 211 0
-3.215403 -1.071801 20.014960 210 210 210 0
-3.142063 -1.072900 20.035474 211 211 211 0
-3.069313 -1.074260 20.060868 210 210 210 0
-2.987806 -1.072546 20.028866 211 211 211 0
-2.914218 -1.073659 20.049663 211 211 211 0
-2.837080 -1.073490 20.046491 210 210 210 0
-2.764278 -1.074997 20.074639 211 211 211 0
-2.688755 -1.075502 20.084071 211 211 211 0
-2.609776 -1.074614 20.067481 210 210 210 0
-2.537763 -1.076627 20.105077 211 211 211 0
-2.458898 -1.075768 20.089033 211 211 211 0
-2.384764 -1.076990 20.111859 210 210 210 0
-2.310809 -1.078377 20.137766 211 211 211 0
-2.233844 -1.078408 20.138329 211 211 211 0
-2.159060 -1.079530 20.159288 211 211 211 0
-2.079632 -1.078328 20.136836 211 211 211 0
-2.003596 -1.078860 20.146770 212 212 212 0
-1.926844 -1.079033 20.150006 211 211 211 0
-1.851941 -1.080299 20.173647 211 211 211 0
-1.773347 -1.079429 20.157397 212 212 212 0
-1.697403 -1.080165 20.171153 211 211 211 0
-1.622565 -1.081710 20.200000 211 211 211 0
-1.545300 -1.081710 20.200000 211 211 211 0
-1.469841 -1.083041 20.224848 211 211 211 0
-1.391993 -1.082661 20.217760 211 211 211 0
-1.315295 -1.083184 20.227522 211 211 211 0
-1.238773 -1.083926 20.241390 211 211 211 0
-1.162143 -1.084666 20.255208 212 212 212 0
-1.083479 -1.083479 20.233043 212 212 212 0
-1.008260 -1.085818 20.276717 212 212 212 0
-0.930988 -1.086152 20.282954 212 212 212 0
-0.853305 -1.086024 20.280565 212 212 212 0
-0.775659 -1.085923 20.278676 211 211 211 0
-0.698527 -1.086598 20.291273 212 212 212 0
-0.621301 -1.087276 20.303940 212 212 212 0
-0.543660 -1.087320 20.304762 212 212 212 0
-0.466715 -1.089002 20.336178 212 212 212 0
-0.388770 -1.088557 20.327858 212 212 212 0
-0.311154 -1.089040 20.336881 213 213 213 0
-0.233402 -1.089209 20.340033 212 212 212 0
-0.155816 -1.090709 20.368045 212 212 212 0
-0.077948 -1.091273 20.378582 212 212 212 0
0.000000 -1.090724 20.368338 212 212 212 0
0.077898 -1.090567 20.365403 212 212 212 0
0.155934 -1.091535 20.383475 212 212 212 0
0.233942 -1.091732 20.387146 212 212 212 0
0.312405 -1.093416 20.418603 213 213 213 0
0.390428 -1.093198 20.414535 212 212 212 0
0.468773 -1.093805 20.425860 212 212 212 0
0.546833 -1.093665 20.423251 213 213 213 0
0.625375 -1.094407 20.437107 213 213 213 0
0.704137 -1.095324 20.454229 213 213 213 0
0.782496 -1.095494 20.457408 213 213 213 0
0.860927 -1.095726 20.461730 213 213 213 0
0.939391 -1.095957 20.466045 213 213 213 0
1.018034 -1.096344 20.473279 214 214 214 0
1.097692 -1.097692 20.498458 213 213 213 0
1.176202 -1.097788 20.500250 213 213 213 0
1.255528 -1.098587 20.515159 213 213 213 0
1.334114 -1.098682 20.516933 213 213 213 0
1.412287 -1.098445 20.512520 213 213 213 0
1.491336 -1.098879 20.520622 213 213 213 0
1.570928 -1.099650 20.535008 212 212 212 0
1.651263 -1.100842 20.557270 214 214 214 0
1.730001 -1.100910 20.558542 213 213 213 0
1.807872 -1.100444 20.549834 213 213 213 0
1.888224 -1.101464 20.568891 213 213 213 0
1.968956 -1.102615 20.590387 214 214 214 0
2.048049 -1.102795 20.593753 213 213 213 0
2.128040 -1.103428 20.605569 213 213 213 0
2.205409 -1.102704 20.592052 213 213 213 0
2.287613 -1.104365 20.623059 213 213 213 0
2.367491 -1.104829 20.631731 213 213 213 0
2.447463 -1.105306 20.640632 213 213 213 0
2.526513 -1.105349 20.641443 214 214 214 0
2.605704 -1.105450 20.643327 213 213 213 0
2.687455 -1.106599 20.664786 213 213 213 0
2.766802 -1.106721 20.667055 214 214 214 0
2.848819 -1.107874 20.688594 213 213 213 0
2.927381 -1.107658 20.684549 214 214 214 0
3.006425 -1.107630 20.684037 214 214 214 0
3.085220 -1.107515 20.681887 213 213 213 0
3.169412 -1.109294 20.715109 214 214 214 0
3.252245 -1.110523 20.738049 214 214 214 0
3.331516 -1.110505 20.737729 214 214 214 0
3.410585 -1.110423 20.736190 213 213 213 0
3.489781 -1.110385 20.735480 214 214 214 0
3.571925 -1.111266 20.751926 213 213 213 0
3.655242 -1.112465 20.774323 214 214 214 0
3.734877 -1.112517 20.775288 213 213 213 0
3.813748 -1.112343 20.772048 214 214 214 0
3.895250 -1.112928 20.782978 214 214 214 0
3.976023 -1.113286 20.789661 214 214 214 0
4.059699 -1.114427 20.810965 214 214 214 0
4.140327 -1.114703 20.816122 214 214 214 0
4.221768 -1.115184 20.825100 215 215 215 0
4.298332 -1.114382 20.810131 213 213 213 0
4.383008 -1.115675 20.834263 214 214 214 0
4.468505 -1.117126 20.861366 214 214 214 0
4.548814 -1.117253 20.863726 214 214 214 0
4.630025 -1.117592 20.870069 214 214 214 0
4.710517 -1.117750 20.873012 214 214 214 0
4.791468 -1.118009 20.877858 214 214 214 0
4.876119 -1.119109 20.898401 214 214 214 0
4.961043 -1.120235 20.919430 214 214 214 0
5.039112 -1.119803 20.911348 214 214 214 0
5.120304 -1.120067 20.916275 214 214 214 0
5.199332 -1.119856 20.912345 214 214 214 0
5.284483 -1.120951 20.932792 214 214 214 0
5.368693 -1.121817 20.948955 214 214 214 0
5.449160 -1.121886 20.950251 214 214 214 0
5.533652 -1.122770 20.966760 214 214 214 0
5.617443 -1.123489 20.980180 214 214 214 0
5.689023 -1.121779 20.948257 208 208 208 0
5.737382 -1.115602 20.832904 114 114 114 0
-7.304683 -1.187011 23.871513 170 170 170 0
-7.140268 -1.174981 23.629580 170 170 170 0
-7.017950 -1.169658 23.522541 176 176 176 0
-6.932340 -1.170395 23.537356 179 179 179 0
-6.843004 -1.170514 23.539744 179 179 179 0
-6.733650 -1.167166 23.472419 180 180 180 0
-6.579206 -1.155806 23.243971 186 186 186 0
-6.456192 -1.149733 23.121826 186 186 186 0
-6.352396 -1.146960 23.066070 187 187 187 0
-6.252357 -1.144798 23.022580 188 188 188 0
-6.175240 -1.146830 23.063453 191 191 191 0
-6.069548 -1.143538 22.997247 193 193 193 0
-5.941246 -1.135826 22.842159 193 193 193 0
-5.849871 -1.135050 22.826539 194 194 194 0
-5.731644 -1.128960 22.704077 194 194 194 0
-5.646733 -1.129347 22.711847 195 195 195 0
-5.561417 -1.129663 22.718207 197 197 197 0
-5.465513 -1.127804 22.680831 198 198 198 0
-5.348634 -1.121488 22.553803 198 198 198 0
-5.265572 -1.122171 22.567542 198 198 198 0
-5.156056 -1.117146 22.466477 199 199 199 0
-5.070373 -1.117201 22.467590 201 201 201 0
-4.966458 -1.113172 22.386557 186 186 186 0
-7.616654 -1.737132 34.934773 76 76 76 0
-7.435284 -1.726048 34.711875 76 76 76 0
-7.225016 -1.707731 34.343508 72 72 72 0
-4.150484 -0.999191 20.094329 108 108 108 0
-4.055118 -0.994652 20.003049 202 202 202 0
-3.962318 -0.990580 19.921158 210 210 210 0
-3.887279 -0.990875 19.927099 210 210 210 0
-3.810622 -0.990762 19.924823 210 210 210 0
-3.739007 -0.991982 19.949353 210 210 210 0
-3.663083 -0.992085 19.951435 210 210 210 0
-3.589950 -0.992965 19.969127 210 210 210 0
-3.515260 -0.993443 19.978744 210 210 210 0
-3.437243 -0.992981 19.969457 211 211 211 0
-3.364390 -0.994024 19.990433 210 210 210 0
-3.290331 -0.994751 20.005053 211 211 211 0
-3.215837 -0.995378 20.017656 211 211 211 0
-3.138908 -0.995263 20.015352 210 210 210 0
-3.063137 -0.995520 20.020505 211 211 211 0
-2.988531 -0.996177 20.033728 210 210 210 0
-2.912087 -0.996240 20.034998 211 211 211 0
-2.835006 -0.996083 20.031842 211 211 211 0
-2.764715 -0.998369 20.077815 211 211 211 0
-2.687605 -0.998253 20.075484 211 211 211 0
-2.608505 -0.997370 20.057710 212 212 212 0
-2.536484 -0.999221 20.094945 210 210 210 0
-2.457530 -0.998372 20.077860 211 211 211 0
-2.382521 -0.999122 20.092950 211 211 211 0
-2.308151 -1.000199 20.114608 211 211 211 0
-2.233759 -1.001340 20.137564 211 211 211 0
-2.157751 -1.001813 20.147072 211 211 211 0
-2.077852 -1.000447 20.119607 212 212 212 0
-2.003753 -1.001876 20.148345 211 211 211 0
-1.926792 -1.001932 20.149462 212 212 212 0
-1.850928 -1.002586 20.162615 212 212 212 0
-1.773938 -1.002660 20.164112 212 212 212 0
-1.695847 -1.002092 20.152671 211 211 211 0
-1.620296 -1.003040 20.171746 212 212 212 0
-1.543512 -1.003283 20.176631 212 212 212 0
-1.468035 -1.004445 20.200000 212 212 212 0
-1.391179 -1.004741 20.205945 212 212 212 0
-1.315365 -1.005867 20.228601 211 211 211 0
-1.236827 -1.004922 20.209594 211 211 211 0
-1.160385 -1.005667 20.224582 212 212 212 0
-1.083523 -1.006128 20.233849 212 212 212 0
-1.006683 -1.006683 20.245002 212 212 212 0
-0.929471 -1.006927 20.249908 212 212 212 0
-0.853022 -1.008117 20.273853 212 212 212 0
-0.775646 -1.008340 20.278324 212 212 212 0
-0.697759 -1.007875 20.268971 212 212 212 0
-0.621568 -1.010048 20.312672 212 212 212 0
-0.543608 -1.009558 20.302832 213 213 213 0
-0.465963 -1.009586 20.303387 213 213 213 0
-0.388498 -1.010096 20.313636 212 212 212 0
-0.310737 -1.009895 20.309611 213 213 213 0
-0.233289 -1.010918 20.330169 212 212 212 0
-0.155587 -1.011312 20.338109 212 212 212 0
-0.077857 -1.012145 20.354850 212 212 212 0
0.000000 -1.011940 20.350730 213 213 213 0
0.077898 -1.012672 20.365450 213 213 213 0
0.155844 -1.012984 20.371718 213 213 213 0
0.233866 -1.013419 20.380465 212 212 212 0
0.312125 -1.014405 20.400298 212 212 212 0
0.390209 -1.014545 20.403109 213 213 213 0
0.468347 -1.014751 20.407256 213 213 213 0
0.546597 -1.015109 20.414466 212 212 212 0
0.624902 -1.015466 20.421643 213 213 213 0
0.703257 -1.015816 20.428672 213 213 213 0
0.782036 -1.016647 20.445381 212 212 212 0
0.860777 -1.017282 20.458154 213 213 213 0
0.938998 -1.017248 20.457474 212 212 212 0
1.017800 -1.017800 20.468580 213 213 213 0
1.095963 -1.017680 20.466162 213 213 213 0
1.175545 -1.018806 20.488800 213 213 213 0
1.254256 -1.019083 20.494387 213 213 213 0
1.331780 -1.018420 20.481045 213 213 213 0
1.410769 -1.018889 20.490472 213 213 213 0
1.490226 -1.019628 20.505349 214 214 214 0
1.570408 -1.020765 20.528210 213 213 213 0
1.649788 -1.021297 20.538910 213 213 213 0
1.728102 -1.021151 20.535969 214 214 214 0
1.807511 -1.021636 20.545730 213 213 213 0
1.887178 -1.022221 20.557495 213 213 213 0
1.966138 -1.022392 20.560919 213 213 213 0
2.046683 -1.023342 20.580024 214 214 214 0
2.126279 -1.023764 20.588519 213 213 213 0
2.206260 -1.024335 20.600000 213 213 213 0
2.284169 -1.023938 20.592016 214 214 214 0
2.364784 -1.024740 20.608143 214 214 214 0
2.444987 -1.025317 20.619752 213 213 213 0
2.525689 -1.026061 20.634712 214 214 214 0
2.603519 -1.025629 20.626018 213 213 213 0
2.684345 -1.026367 20.640867 214 214 214 0
2.763685 -1.026512 20.643774 214 214 214 0
2.846463 -1.027890 20.671484 213 213 213 0
2.926168 -1.028113 20.675977 214 214 214 0
3.004661 -1.027910 20.671901 214 214 214 0
3.086915 -1.028972 20.693248 214 214 214 0
3.166376 -1.029072 20.695268 214 214 214 0
3.247668 -1.029748 20.708869 214 214 214 0
3.328990 -1.030402 20.722007 213 213 213 0
3.406870 -1.029984 20.713606 214 214 214 0
3.488126 -1.030583 20.725646 214 214 214 0
3.569770 -1.031267 20.739407 214 214 214 0
3.651610 -1.031977 20.753680 214 214 214 0
3.733173 -1.032580 20.765810 213 213 213 0
3.812279 -1.032492 20.764047 214 214 214 0
3.894222 -1.033161 20.777494 214 214 214 0
3.972785 -1.032924 20.772732 214 214 214 0
4.057807 -1.034343 20.801266 214 214 214 0
4.137279 -1.034320 20.800800 214 214 214 0
4.219799 -1.035045 20.815385 214 214 214 0
4.295707 -1.034152 20.797420 214 214 214 0
4.379219 -1.035088 20.816254 214 214 214 0
4.464203 -1.036333 20.841285 214 214 214 0
4.546293 -1.036874 20.852163 215 215 215 0
4.625275 -1.036700 20.848661 215 215 215 0
4.704956 -1.036685 20.848369 214 214 214 0
4.787327 -1.037254 20.859812 214 214 214 0
4.871486 -1.038186 20.878544 214 214 214 0
4.954135 -1.038770 20.890302 214 214 214 0
5.036246 -1.039225 20.899456 213 213 213 0
5.116384 -1.039266 20.900263 214 214 214 0
5.196571 -1.039314 20.901241 214 214 214 0
5.281085 -1.040214 20.919329 214 214 214 0
5.364082 -1.040792 20.930961 214 214 214 0
5.449299 -1.041778 20.950783 214 214 214 0
5.527139 -1.041345 20.942083 214 214 214 0
5.609422 -1.041750 20.950223 215 215 215 0
5.685857 -1.041072 20.936601 208 208 208 0
5.736013 -1.035669 20.827935 117 117 117 0
-7.320574 -1.098086 23.923445 170 170 170 0
-7.154785 -1.086803 23.677620 170 170 170 0
-7.034580 -1.082243 23.578282 176 176 176 0
-6.939339 -1.081455 23.561120 179 179 179 0
-6.829948 -1.078413 23.494832 179 179 179 0
-6.720676 -1.075308 23.427194 180 180 180 0
-6.575674 -1.066325 23.231492 186 186 186 0
-6.453613 -1.060868 23.112591 187 187 187 0
-6.333208 -1.055535 22.996397 187 187 187 0
-6.246327 -1.055717 23.000377 188 188 188 0
-6.147503 -1.053858 22.959861 191 191 191 0
-6.066885 -1.055111 22.987157 192 192 192 0
-5.949333 -1.049882 22.873253 193 193 193 0
-5.830051 -1.044188 22.749201 193 193 193 0
-5.733390 -1.042435 22.710993 194 194 194 0
-5.634559 -1.040226 22.662880 196 196 196 0
-5.546296 -1.039930 22.656437 198 198 198 0
-5.460829 -1.040158 22.661394 197 197 197 0
-5.362421 -1.037888 22.611939 198 198 198 0
-5.253753 -1.033525 22.516887 198 198 198 0
-5.164717 -1.032943 22.504211 199 199 199 0
-5.069308 -1.031046 22.462870 202 202 202 0
-4.947365 -1.023593 22.300496 185 185 185 0
-4.777922 -1.005878 21.914560 74 74 74 0
-7.416124 -1.589169 34.622429 69 69 69 0
-4.163855 -0.925301 20.159064 112 112 112 0
-4.055976 -0.918334 20.007279 203 203 203 0
-3.961425 -0.914175 19.916668 210 210 210 0
-3.884189 -0.913927 19.911259 210 210 210 0
-3.811952 -0.914868 19.931775 211 211 211 0
-3.735916 -0.914918 19.932859 211 211 211 0
-3.654481 -0.913620 19.904581 210 210 210 0
-3.587529 -0.915965 19.955663 211 211 211 0
-3.509888 -0.915623 19.948212 210 210 210 0
-3.439245 -0.917132 19.981092 210 210 210 0
-3.360615 -0.916531 19.968006 210 210 210 0
-3.285396 -0.916855 19.975046 210 210 210 0
-3.210627 -0.917322 19.985226 210 210 210 0
-3.135501 -0.917708 19.993629 210 210 210 0
-3.063884 -0.919165 20.025386 210 210 210 0
-2.987244 -0.919152 20.025100 210 210 210 0
-2.910052 -0.918964 20.021001 211 211 211 0
-2.834915 -0.919432 20.031197 210 210 210 0
-2.759568 -0.919856 20.040439 210 210 210 0
-2.684205 -0.920299 20.050081 210 210 210 0
-2.609290 -0.920926 20.063747 211 211 211 0
-2.534149 -0.921509 20.076442 211 211 211 0
-2.458085 -0.921782 20.082397 211 211 211 0
-2.381917 -0.922033 20.087855 211 211 211 0
-2.307490 -0.922996 20.108846 211 211 211 0
-2.229958 -0.922741 20.103298 211 211 211 0
-2.154075 -0.923175 20.112749 211 211 211 0
-2.075207 -0.922314 20.093987 211 211 211 0
-2.000867 -0.923477 20.119329 211 211 211 0
-1.924827 -0.923917 20.128914 211 211 211 0
-1.849539 -0.924769 20.147480 212 212 212 0
-1.772292 -0.924674 20.145401 211 211 211 0
-1.695768 -0.924964 20.151727 211 211 211 0
-1.620049 -0.925742 20.168681 212 212 212 0
-1.542668 -0.925601 20.165594 212 212 212 0
-1.466363 -0.926124 20.176988 212 212 212 0
-1.388959 -0.925973 20.173702 212 212 212 0
-1.314129 -0.927621 20.209598 211 211 211 0
-1.236240 -0.927180 20.200000 212 212 212 0
-1.159970 -0.927976 20.217336 212 212 212 0
-1.082312 -0.927696 20.211244 212 212 212 0
-1.006435 -0.929017 20.240025 211 211 211 0
-0.929723 -0.929723 20.255406 212 212 212 0
-0.851715 -0.929144 20.242785 212 212 212 0
-0.774991 -0.929990 20.261214 212 212 212 0
-0.697694 -0.930259 20.267070 212 212 212 0
-0.620422 -0.930633 20.275230 212 212 212 0
-0.543299 -0.931369 20.291270 212 212 212 0
-0.465963 -0.931926 20.303400 212 212 212 0
-0.387886 -0.930927 20.281623 212 212 212 0
-0.310638 -0.931915 20.303151 212 212 212 0
-0.233101 -0.932406 20.313845 212 212 212 0
-0.155488 -0.932929 20.325252 212 212 212 0
-0.077812 -0.933739 20.342904 213 213 213 0
0.000000 -0.933308 20.333513 213 213 213 0
0.077840 -0.934078 20.350289 213 213 213 0
0.155759 -0.934556 20.360695 212 212 212 0
0.233701 -0.934803 20.366089 213 213 213 0
0.311907 -0.935720 20.386064 213 213 213 0
0.389862 -0.935669 20.384941 212 212 212 0
0.467851 -0.935701 20.385653 212 212 212 0
0.545623 -0.935353 20.378071 212 212 212 0
0.624486 -0.936729 20.408032 212 212 212 0
0.703458 -0.937944 20.434508 213 213 213 0
0.781845 -0.938214 20.440392 212 212 212 0
0.860487 -0.938713 20.451273 212 212 212 0
0.937834 -0.937834 20.432107 213 213 213 0
1.016533 -0.938338 20.443090 214 214 214 0
1.095536 -0.939031 20.458190 213 213 213 0
1.175431 -0.940345 20.486822 213 213 213 0
1.253301 -0.939975 20.478768 212 212 212 0
1.331827 -0.940113 20.481770 213 213 213 0
1.409771 -0.939847 20.475979 213 213 213 0
1.490034 -0.941074 20.502708 213 213 213 0
1.569292 -0.941575 20.513626 213 213 213 0
1.649402 -0.942516 20.534111 213 213 213 0
1.727741 -0.942404 20.531687 213 213 213 0
1.805682 -0.942095 20.524943 213 213 213 0
1.885898 -0.942949 20.543556 213 213 213 0
1.965985 -0.943673 20.559322 213 213 213 0
2.045770 -0.944202 20.570845 213 213 213 0
2.125735 -0.944771 20.583246 213 213 213 0
2.204207 -0.944660 20.580828 213 213 213 0
2.283102 -0.944732 20.582390 213 213 213 0
2.361151 -0.944461 20.576482 214 214 214 0
2.443539 -0.945886 20.607538 214 214 214 0
2.522911 -0.946092 20.612016 213 213 213 0
2.602888 -0.946505 20.621018 214 214 214 0
2.682620 -0.946807 20.627608 213 213 213 0
2.762776 -0.947237 20.636980 214 214 214 0
2.843852 -0.947951 20.652517 213 213 213 0
2.922078 -0.947701 20.647083 214 214 214 0
3.001055 -0.947702 20.647096 214 214 214 0
3.084407 -0.949048 20.676434 213 213 213 0
3.163519 -0.949056 20.676594 214 214 214 0
3.247011 -0.950345 20.704678 214 214 214 0
3.325920 -0.950263 20.702892 214 214 214 0
3.405867 -0.950475 20.707506 214 214 214 0
3.485166 -0.950500 20.708058 214 214 214 0
3.567109 -0.951229 20.723943 214 214 214 0
3.647722 -0.951580 20.731583 214 214 214 0
3.730695 -0.952518 20.752022 213 213 213 0
3.807561 -0.951890 20.738348 215 215 215 0
3.890145 -0.952689 20.755743 214 214 214 0
3.970042 -0.952810 20.758391 214 214 214 0
4.053983 -0.953878 20.781666 213 213 213 0
4.134484 -0.954112 20.786749 214 214 214 0
4.215230 -0.954392 20.792848 214 214 214 0
4.294857 -0.954413 20.793306 214 214 214 0
4.375985 -0.954760 20.800879 214 214 214 0
4.460128 -0.955742 20.822258 214 214 214 0
4.541947 -0.956199 20.832229 214 214 214 0
4.622889 -0.956460 20.837902 214 214 214 0
4.701201 -0.956176 20.831732 214 214 214 0
4.784155 -0.956831 20.845993 214 214 214 0
4.867057 -0.957454 20.859560 214 214 214 0
4.953077 -0.958660 20.885840 214 214 214 0
5.033073 -0.958681 20.886286 215 215 215 0
5.115558 -0.959167 20.896887 214 214 214 0
5.194005 -0.958893 20.890920 214 214 214 0
5.276504 -0.959364 20.901185 214 214 214 0
5.360625 -0.960112 20.917472 214 214 214 0
5.441511 -0.960267 20.920842 214 214 214 0
5.523233 -0.960562 20.927281 214 214 214 0
5.606410 -0.961099 20.938974 214 214 214 0
5.682350 -0.960397 20.923686 209 209 209 0
5.740058 -0.956676 20.842621 129 129 129 0
-7.292064 -1.002659 23.830274 169 169 169 0
-7.157221 -0.996575 23.685682 171 171 171 0
-7.021940 -0.990274 23.535915 177 177 177 0
-6.909347 -0.987050 23.459289 179 179 179 0
-6.818369 -0.986869 23.455001 180 180 180 0
-6.718506 -0.985381 23.419628 182 182 182 0
-6.584180 -0.978729 23.261545 187 187 187 0
-6.451612 -0.972161 23.105423 187 187 187 0
-6.353765 -0.970714 23.071041 187 187 187 0
-6.255560 -0.969171 23.034372 188 188 188 0
-6.141330 -0.965066 22.936807 192 192 192 0
-6.058943 -0.965918 22.957063 192 192 192 0
-5.936764 -0.960359 22.824930 193 193 193 0
-5.833920 -0.957808 22.764296 193 193 193 0
-5.725300 -0.954217 22.678947 195 195 195 0
-5.634175 -0.953476 22.661338 197 197 197 0
-5.553047 -0.954430 22.684016 197 197 197 0
-5.450410 -0.951659 22.618156 198 198 198 0
-5.361888 -0.951303 22.609692 198 198 198 0
-5.243539 -0.945556 22.473114 198 198 198 0
-5.158396 -0.945706 22.476672 200 200 200 0
-5.066623 -0.944625 22.450972 201 201 201 0
-4.942421 -0.937356 22.278213 181 181 181 0
-7.625125 -1.471515 34.973625 83 83 83 0
-6.174608 -1.234922 29.350486 69 69 69 0
-7.225966 -1.471956 34.984102 117 117 117 0
-4.048195 -0.840191 19.968899 205 205 205 0
-3.960611 -0.837822 19.912575 210 210 210 0
-3.887298 -0.838437 19.927198 210 210 210 0
-3.807283 -0.837602 19.907362 209 209 209 0
-3.732863 -0.837990 19.916571 210 210 210 0
-3.656658 -0.837984 19.916437 210 210 210 0
-3.589003 -0.839980 19.963862 210 210 210 0
-3.510750 -0.839527 19.953110 211 211 211 0
-3.433765 -0.839365 19.949254 210 210 210 0
-3.360329 -0.840082 19.966305 210 210 210 0
-3.282512 -0.839712 19.957515 210 210 210 0
-3.209214 -0.840508 19.976433 211 211 211 0
-3.135342 -0.841189 19.992618 211 211 211 0
-3.063907 -0.842574 20.025534 210 210 210 0
-2.983358 -0.841460 19.999051 211 211 211 0
-2.907187 -0.841554 20.001283 211 211 211 0
-2.830114 -0.841385 19.997271 211 211 211 0
-2.761038 -0.843651 20.051113 211 211 211 0
-2.681689 -0.842817 20.031293 211 211 211 0
-2.606501 -0.843280 20.042303 211 211 211 0
-2.530878 -0.843626 20.050528 211 211 211 0
-2.456180 -0.844312 20.066829 211 211 211 0
-2.379850 -0.844463 20.070419 211 211 211 0
-2.306645 -0.845770 20.101480 211 211 211 0
-2.230738 -0.846142 20.110327 211 211 211 0
-2.153242 -0.845916 20.104963 212 212 212 0
-2.076615 -0.846028 20.107622 211 211 211 0
-1.999936 -0.846127 20.109962 211 211 211 0
-1.924196 -0.846646 20.122310 211 211 211 0
-1.848063 -0.847029 20.131401 212 212 212 0
-1.771366 -0.847175 20.134878 211 211 211 0
-1.695776 -0.847888 20.151828 212 212 212 0
-1.617862 -0.847452 20.141455 211 211 211 0
-1.542287 -0.848258 20.160616 211 211 211 0
-1.465532 -0.848466 20.165555 212 212 212 0
-1.389693 -0.849257 20.184351 212 212 212 0
-1.313081 -0.849641 20.193481 211 211 211 0
-1.236240 -0.849915 20.200000 212 212 212 0
-1.158779 -0.849771 20.196576 211 211 211 0
-1.081735 -0.849934 20.200459 212 212 212 0
-1.005951 -0.851190 20.230295 212 212 212 0
-0.928120 -0.850776 20.220475 212 212 212 0
-0.851299 -0.851299 20.232897 212 212 212 0
-0.774474 -0.851922 20.247692 212 212 212 0
-0.697156 -0.852080 20.251448 212 212 212 0
-0.620302 -0.852916 20.271321 212 212 212 0
-0.543045 -0.853357 20.281796 212 212 212 0
-0.465508 -0.853432 20.283582 212 212 212 0
-0.387794 -0.853147 20.276816 212 212 212 0
-0.310402 -0.853605 20.287708 213 213 213 0
-0.232934 -0.854092 20.299275 212 212 212 0
-0.155293 -0.854109 20.299674 213 213 213 0
-0.077730 -0.855031 20.321595 212 212 212 0
0.000000 -0.855333 20.328759 212 212 212 0
0.077732 -0.855048 20.321986 212 212 212 0
0.155546 -0.855503 20.332809 213 213 213 0
0.233594 -0.856513 20.356815 213 213 213 0
0.311730 -0.857259 20.374537 212 212 212 0
0.389813 -0.857589 20.382385 213 213 213 0
0.467502 -0.857087 20.370462 213 213 213 0
0.545276 -0.856862 20.365100 213 213 213 0
0.624141 -0.858194 20.396775 213 213 213 0
0.702647 -0.858791 20.410964 213 213 213 0
0.781468 -0.859614 20.430527 213 213 213 0
0.859229 -0.859229 20.421356 213 213 213 0
0.936934 -0.858856 20.412502 213 213 213 0
1.016011 -0.859701 20.432596 212 212 212 0
1.095071 -0.860413 20.449512 213 213 213 0
1.173527 -0.860586 20.453622 213 213 213 0
1.252251 -0.860923 20.461622 213 213 213 0
1.330691 -0.861035 20.464297 213 213 213 0
1.409848 -0.861574 20.477089 213 213 213 0
1.488845 -0.861963 20.486339 213 213 213 0
1.568049 -0.862427 20.497377 213 213 213 0
1.647411 -0.862929 20.509313 213 213 213 0
1.727088 -0.863544 20.523922 213 213 213 0
1.804887 -0.863207 20.515905 213 213 213 0
1.885224 -0.864061 20.536207 213 213 213 0
1.963699 -0.864028 20.535419 214 214 214 0
2.044137 -0.864827 20.554417 213 213 213 0
2.122765 -0.864830 20.554494 213 213 213 0
2.201847 -0.865011 20.558794 214 214 214 0
2.281753 -0.865493 20.570236 214 214 214 0
2.361156 -0.865757 20.576522 213 213 213 0
2.441873 -0.866471 20.593492 214 214 214 0
2.520879 -0.866552 20.595415 213 213 213 0
2.602031 -0.867344 20.614226 214 214 214 0
2.679937 -0.867038 20.606973 214 214 214 0
2.761694 -0.867961 20.628902 213 213 213 0
2.841417 -0.868211 20.634840 214 214 214 0
2.920702 -0.868317 20.637359 214 214 214 0
3.000884 -0.868677 20.645914 214 214 214 0
3.079866 -0.868680 20.645991 213 213 213 0
3.163168 -0.869871 20.674297 214 214 214 0
3.243175 -0.870120 20.680214 214 214 214 0
3.324447 -0.870688 20.693725 214 214 214 0
3.400947 -0.870010 20.677594 214 214 214 0
3.481668 -0.870417 20.687274 213 213 213 0
3.564562 -0.871337 20.709146 214 214 214 0
3.646475 -0.871983 20.724498 214 214 214 0
3.728750 -0.872686 20.741204 214 214 214 0
3.806434 -0.872308 20.732214 214 214 214 0
3.885780 -0.872318 20.732455 213 213 213 0
3.966787 -0.872693 20.741367 214 214 214 0
4.051013 -0.873748 20.766437 214 214 214 0
4.133306 -0.874353 20.780824 214 214 214 0
4.213898 -0.874583 20.786276 214 214 214 0
4.290770 -0.874046 20.773519 214 214 214 0
4.374823 -0.874965 20.795358 214 214 214 0
4.457506 -0.875582 20.810021 214 214 214 0
