ply
format ascii 1.0
element vertex 1127
property float x
property float y
property float z
property uchar red
property uchar green
property uchar blue
property uchar alpha
end_header
-4.317705 1.631133 25.084707 186 186 186 0
-4.205447 1.624832 24.987803 187 187 187 0
-4.093455 1.618343 24.888007 187 187 187 0
-3.992987 1.616209 24.855196 189 189 189 0
-3.885265 1.610964 24.774526 191 191 191 0
-3.787872 1.609846 24.757335 192 192 192 0
-3.685785 1.606624 24.707794 193 193 193 0
-3.578677 1.600987 24.621101 194 194 194 0
-3.466907 1.592903 24.496783 194 194 194 0
-3.367049 1.589996 24.452065 192 192 192 0
-3.240918 1.574160 24.208538 117 117 117 0
-3.109919 1.554959 23.913253 169 169 169 0
-2.997159 1.543991 23.744575 204 204 204 0
-2.904934 1.543246 23.733119 204 204 204 0
-2.808099 1.539925 23.682051 205 205 205 0
-2.718255 1.540345 23.688499 205 205 205 0
-2.627488 1.540252 23.687070 205 205 205 0
-2.538604 1.541296 23.703123 204 204 204 0
-2.446861 1.540616 23.692676 205 205 205 0
-2.354737 1.539636 23.677601 205 205 205 0
-2.260045 1.536830 23.634455 205 205 205 0
-2.169797 1.536940 23.636137 205 205 205 0
-2.080090 1.537458 23.644100 206 206 206 0
-1.989207 1.537115 23.638829 205 205 205 0
-1.899293 1.537523 23.645102 206 206 206 0
-1.807238 1.536153 23.624030 205 205 205 0
-1.715760 1.535154 23.608671 206 206 206 0
-1.625514 1.535207 23.609495 206 206 206 0
-1.536384 1.536384 23.627588 206 206 206 0
-1.444518 1.534800 23.603230 206 206 206 0
-1.353394 1.533846 23.588561 206 206 206 0
-1.262302 1.532796 23.572407 206 206 206 0
-1.173734 1.534883 23.604509 206 206 206 0
-1.082728 1.533865 23.588844 207 207 207 0
-0.992373 1.533668 23.585814 206 206 206 0
-0.901288 1.532189 23.563076 206 206 206 0
-0.810817 1.531543 23.553139 206 206 206 0
-0.720377 1.530801 23.541730 206 206 206 0
-0.630816 1.531982 23.559886 206 206 206 0
-0.540815 1.532309 23.564915 207 207 207 0
-0.449949 1.529827 23.526746 206 206 206 0
-0.359490 1.527831 23.496059 207 207 207 0
-0.269780 1.528756 23.510278 207 207 207 0
-0.179891 1.529074 23.515170 207 207 207 0
-0.089927 1.528757 23.510290 207 207 207 0
0.000000 1.528311 23.503439 207 207 207 0
0.089802 1.526636 23.477674 207 207 207 0
0.179544 1.526122 23.469767 208 208 208 0
0.269456 1.526915 23.481967 207 207 207 0
0.359113 1.526231 23.471445 207 207 207 0
0.448642 1.525384 23.458429 207 207 207 0
0.538491 1.525724 23.463650 207 207 207 0
0.628197 1.525621 23.462069 207 207 207 0
0.717509 1.524706 23.447993 207 207 207 0
0.807070 1.524466 23.444308 208 208 208 0
0.896835 1.524620 23.446679 207 207 207 0
0.985809 1.523524 23.429815 208 208 208 0
1.074218 1.521808 23.403435 208 208 208 0
1.163917 1.522046 23.407084 208 208 208 0
1.253070 1.521585 23.400000 208 208 208 0
1.343725 1.522889 23.420048 208 208 208 0
1.432080 1.521585 23.400000 208 208 208 0
1.520313 1.520313 23.380441 208 208 208 0
1.610219 1.520762 23.387344 208 208 208 0
1.700021 1.521071 23.392099 209 209 209 0
1.788504 1.520228 23.379136 209 209 209 0
1.876821 1.519331 23.365338 209 209 209 0
1.963874 1.517539 23.337782 209 209 209 0
2.053334 1.517682 23.339975 208 208 208 0
2.143166 1.518076 23.346030 208 208 208 0
2.232235 1.517920 23.343635 208 208 208 0
2.321352 1.517807 23.341897 209 209 209 0
2.407303 1.515709 23.309635 208 208 208 0
2.495984 1.515419 23.305173 209 209 209 0
2.585210 1.515468 23.305924 209 209 209 0
2.675688 1.516223 23.317546 209 209 209 0
2.763812 1.515639 23.308558 208 208 208 0
2.851361 1.514786 23.295434 208 208 208 0
2.937025 1.513013 23.268170 210 210 210 0
3.027111 1.513556 23.276519 209 209 209 0
3.115401 1.513195 23.270966 209 209 209 0
3.205742 1.513823 23.280628 209 209 209 0
3.292774 1.512896 23.266374 209 209 209 0
3.378989 1.511653 23.247261 209 209 209 0
3.465216 1.510479 23.229199 209 209 209 0
3.556992 1.511722 23.248314 210 210 210 0
3.645173 1.511413 23.243574 210 210 210 0
3.732348 1.510712 23.232789 209 209 209 0
3.816058 1.508674 23.201446 210 210 210 0
3.905193 1.508824 23.203760 209 209 209 0
3.995330 1.509347 23.211791 210 210 210 0
4.084776 1.509591 23.215552 210 210 210 0
4.171750 1.508931 23.205395 210 210 210 0
4.256145 1.507385 23.181619 210 210 210 0
4.344267 1.507195 23.178698 210 210 210 0
4.432199 1.506948 23.174899 209 209 209 0
4.523774 1.507925 23.189923 210 210 210 0
4.604989 1.505477 23.152285 210 210 210 0
4.691496 1.504820 23.142169 210 210 210 0
4.780172 1.504869 23.142931 210 210 210 0
4.869914 1.505246 23.148730 210 210 210 0
4.957062 1.504822 23.142212 210 210 210 0
5.044475 1.504493 23.137142 210 210 210 0
5.128468 1.503172 23.116829 210 210 210 0
5.215662 1.502818 23.111387 210 210 210 0
5.304505 1.502943 23.113313 210 210 210 0
5.393373 1.503071 23.115281 210 210 210 0
5.478322 1.502120 23.100661 210 210 210 0
5.562951 1.501114 23.085177 210 210 210 0
5.649659 1.500691 23.078674 210 210 210 0
5.738241 1.500771 23.079903 210 210 210 0
5.824101 1.500147 23.070316 211 211 211 0
5.913575 1.500459 23.075115 210 210 210 0
5.996384 1.499096 23.054150 210 210 210 0
6.081427 1.498323 23.042254 210 210 210 0
6.171620 1.498822 23.049936 210 210 210 0
6.258496 1.498513 23.045183 210 210 210 0
6.344397 1.497983 23.037027 210 210 210 0
6.426229 1.496519 23.014518 211 211 211 0
6.514113 1.496485 23.014000 210 210 210 0
6.599703 1.495933 23.005500 211 211 211 0
6.690916 1.496652 23.016566 211 211 211 0
6.773648 1.495481 22.998550 211 211 211 0
6.860896 1.495323 22.996131 211 211 211 0
6.947164 1.494959 22.990531 211 211 211 0
-6.232163 1.901338 27.615654 84 84 84 0
-6.011085 1.865509 27.095266 114 114 114 0
-5.835219 1.842701 26.763988 133 133 133 0
-5.684400 1.827129 26.537816 144 144 144 0
-5.512677 1.804149 26.204050 153 153 153 0
-5.383514 1.794505 26.063976 157 157 157 0
-5.257542 1.785580 25.934353 166 166 166 0
-5.127511 1.774908 25.779342 168 168 168 0
-5.002643 1.765639 25.644714 170 170 170 0
-4.873311 1.754392 25.481364 175 175 175 0
-4.752030 1.745644 25.354301 178 178 178 0
-4.634196 1.737824 25.240719 178 178 178 0
-4.524342 1.732727 25.166692 181 181 181 0
-4.421836 1.730284 25.131210 185 185 185 0
-4.312250 1.724900 25.053016 185 185 185 0
-4.197198 1.717036 24.938788 186 186 186 0
-4.086851 1.710775 24.847856 188 188 188 0
-3.980043 1.705733 24.774623 191 191 191 0
-3.878500 1.702756 24.731391 192 192 192 0
-3.781224 1.701551 24.713883 192 192 192 0
-3.675158 1.696227 24.636558 193 193 193 0
-3.572216 1.692102 24.576647 193 193 193 0
-3.469308 1.687772 24.513747 195 195 195 0
-3.356701 1.678350 24.376911 193 193 193 0
-3.217658 1.654796 24.034793 114 114 114 0
-3.096986 1.639581 23.813812 174 174 174 0
-2.989954 1.630884 23.687498 204 204 204 0
-2.898106 1.630185 23.677337 204 204 204 0
-2.808385 1.630675 23.684460 205 205 205 0
-2.713187 1.627912 23.644327 205 205 205 0
-2.623760 1.628541 23.653461 205 205 205 0
-2.535066 1.629685 23.670081 205 205 205 0
-2.442708 1.628472 23.652466 205 205 205 0
-2.349798 1.626783 23.627937 205 205 205 0
-2.260874 1.627829 23.643128 205 205 205 0
-2.168633 1.626475 23.623456 205 205 205 0
-2.078101 1.626340 23.621493 206 206 206 0
-1.986269 1.625129 23.603909 205 205 205 0
-1.896827 1.625852 23.614404 206 206 206 0
-1.804019 1.623617 23.581952 206 206 206 0
-1.713548 1.623361 23.578235 205 205 205 0
-1.624320 1.624320 23.592163 206 206 206 0
-1.534602 1.624873 23.600192 206 206 206 0
-1.443475 1.623909 23.586194 206 206 206 0
-1.352124 1.622548 23.566425 206 206 206 0
-1.260857 1.621102 23.545424 206 206 206 0
-1.170033 1.620046 23.530079 207 207 207 0
-1.080925 1.621388 23.549566 206 206 206 0
-0.991769 1.622894 23.571450 206 206 206 0
-0.899795 1.619632 23.524065 206 206 206 0
-0.809442 1.618884 23.513200 207 207 207 0
-0.719207 1.618217 23.503509 207 207 207 0
-0.629756 1.619372 23.520288 206 206 206 0
-0.539798 1.619393 23.520596 206 206 206 0
-0.449690 1.618882 23.513180 207 207 207 0
-0.359252 1.616636 23.480548 207 207 207 0
-0.269398 1.616387 23.476939 206 206 206 0
-0.179618 1.616560 23.479446 207 207 207 0
-0.089783 1.616088 23.472600 207 207 207 0
0.000000 1.615863 23.469329 207 207 207 0
0.089722 1.614989 23.456633 207 207 207 0
0.179450 1.615052 23.457545 207 207 207 0
0.269086 1.614514 23.449737 208 208 208 0
0.359087 1.615891 23.469736 207 207 207 0
0.448232 1.613634 23.436953 207 207 207 0
0.537761 1.613283 23.431850 207 207 207 0
0.626875 1.611963 23.412686 207 207 207 0
0.716568 1.612277 23.417243 207 207 207 0
0.805663 1.611326 23.403432 208 208 208 0
0.894881 1.610785 23.395572 208 208 208 0
0.984555 1.611090 23.400000 208 208 208 0
1.073087 1.609630 23.378798 208 208 208 0
1.163317 1.610746 23.395008 207 207 207 0
1.251599 1.609198 23.372524 207 207 207 0
1.341152 1.609382 23.375198 208 208 208 0
1.431191 1.610090 23.385474 208 208 208 0
1.518025 1.607320 23.345249 208 208 208 0
1.608120 1.608120 23.356867 208 208 208 0
1.697269 1.607939 23.354235 208 208 208 0
1.785016 1.606514 23.333539 208 208 208 0
1.876118 1.608101 23.356585 209 209 209 0
1.961796 1.605106 23.313084 209 209 209 0
2.050560 1.604786 23.308444 208 208 208 0
2.139802 1.604851 23.309390 209 209 209 0
2.228811 1.604744 23.307829 209 209 209 0
2.317793 1.604626 23.306112 208 208 208 0
2.405402 1.603601 23.291231 209 209 209 0
2.493615 1.603039 23.283058 208 208 208 0
2.580559 1.601726 23.263994 208 208 208 0
2.671163 1.602698 23.278109 210 210 210 0
2.763149 1.604409 23.302967 209 209 209 0
2.846736 1.601289 23.257651 209 209 209 0
2.934280 1.600516 23.246426 209 209 209 0
3.022849 1.600332 23.243743 209 209 209 0
3.112262 1.600592 23.247525 209 209 209 0
3.201608 1.600804 23.250600 209 209 209 0
3.286197 1.598691 23.219907 209 209 209 0
3.372754 1.597620 23.204364 209 209 209 0
3.461920 1.597809 23.207105 210 210 210 0
3.551662 1.598248 23.213478 209 209 209 0
3.642154 1.598994 23.224318 210 210 210 0
3.725727 1.596740 23.191578 210 210 210 0
3.811101 1.595345 23.171309 210 210 210 0
3.900629 1.595712 23.176642 210 210 210 0
3.990409 1.596164 23.183205 209 209 209 0
4.078167 1.595805 23.177991 210 210 210 0
4.166804 1.595797 23.177882 210 210 210 0
4.249176 1.593441 23.143660 210 210 210 0
4.339636 1.594152 23.153987 210 210 210 0
4.427664 1.593959 23.151185 210 210 210 0
4.516736 1.594142 23.153841 211 211 211 0
4.601216 1.592729 23.133312 210 210 210 0
4.686951 1.591795 23.119751 210 210 210 0
4.772095 1.590698 23.103823 210 210 210 0
4.863407 1.591661 23.117800 210 210 210 0
4.950654 1.591282 23.112298 211 211 211 0
5.039811 1.591519 23.115748 210 210 210 0
5.120791 1.589211 23.082221 210 210 210 0
5.209192 1.589245 23.082717 210 210 210 0
5.295288 1.588586 23.073151 211 211 211 0
5.388340 1.590002 23.093710 210 210 210 0
5.472527 1.588798 23.076225 210 210 210 0
5.558350 1.588100 23.066087 211 211 211 0
5.642521 1.586959 23.049514 211 211 211 0
5.732638 1.587500 23.057368 210 210 210 0
5.820330 1.587363 23.055377 210 210 210 0
5.903333 1.585970 23.035152 211 211 211 0
5.988252 1.585125 23.022882 210 210 210 0
6.076180 1.585091 23.022376 211 211 211 0
6.163499 1.584900 23.019606 210 210 210 0
6.251334 1.584845 23.018814 211 211 211 0
6.336752 1.584188 23.009266 211 211 211 0
6.424396 1.584098 23.007954 211 211 211 0
6.509371 1.583361 22.997249 211 211 211 0
6.592353 1.582165 22.979879 211 211 211 0
6.681152 1.582378 22.982977 211 211 211 0
6.769788 1.582548 22.985443 210 210 210 0
6.850460 1.580875 22.961154 210 210 210 0
6.935219 1.580177 22.951003 211 211 211 0
-6.189460 1.993216 27.426433 94 94 94 0
-6.006371 1.967604 27.074019 123 123 123 0
-5.817304 1.939101 26.681822 136 136 136 0
-5.664031 1.921725 26.442724 149 149 149 0
-5.499263 1.899745 26.140288 153 153 153 0
-5.366578 1.888240 25.981981 160 160 160 0
-5.244375 1.880059 25.869403 166 166 166 0
-5.126937 1.873304 25.776456 167 167 167 0
-4.991412 1.859546 25.587143 174 174 174 0
-4.867418 1.849619 25.450554 177 177 177 0
-4.739052 1.837592 25.285060 177 177 177 0
-4.622856 1.829880 25.178952 178 178 178 0
-4.513682 1.824680 25.107395 183 183 183 0
-4.411530 1.822154 25.072637 185 185 185 0
-4.305674 1.817951 25.014812 186 186 186 0
-4.190509 1.809538 24.899046 186 186 186 0
-4.079635 1.802629 24.803983 189 189 189 0
-3.971729 1.796734 24.722867 192 192 192 0
-3.874819 1.795648 24.707920 192 192 192 0
-3.772065 1.791731 24.654018 192 192 192 0
-3.668823 1.787375 24.594086 193 193 193 0
-3.566724 1.783362 24.538868 194 194 194 0
-3.458198 1.775832 24.435247 197 197 197 0
-3.349555 1.767821 24.325016 192 192 192 0
-3.224748 1.750578 24.087756 111 111 111 0
-3.096140 1.730196 23.807303 176 176 176 0
-2.986094 1.719266 23.656916 204 204 204 0
-2.896371 1.719720 23.663161 204 204 204 0
-2.803692 1.718392 23.644882 205 205 205 0
-2.711055 1.717002 23.625754 205 205 205 0
-2.620267 1.716727 23.621972 205 205 205 0
-2.529365 1.716355 23.616853 205 205 205 0
-2.441062 1.717784 23.636522 205 205 205 0
-2.350858 1.717935 23.638591 205 205 205 0
-2.255538 1.714209 23.587326 205 205 205 0
-2.164728 1.713743 23.580918 205 205 205 0
-2.075101 1.714214 23.587391 206 206 206 0
-1.985809 1.715017 23.598439 206 206 206 0
-1.893005 1.712719 23.566819 205 205 205 0
-1.802633 1.712501 23.563827 206 206 206 0
-1.710338 1.710338 23.534058 206 206 206 0
-1.620146 1.710154 23.531527 206 206 206 0
-1.531437 1.711607 23.551518 205 205 205 0
-1.442389 1.712837 23.568453 205 205 205 0
-1.350199 1.710252 23.532882 206 206 206 0
-1.259611 1.709472 23.522148 206 206 206 0
-1.168709 1.708113 23.503444 206 206 206 0
-1.079972 1.709955 23.528795 207 207 207 0
-0.989191 1.708603 23.510190 206 206 206 0
-0.899725 1.709478 23.522223 206 206 206 0
-0.808283 1.706376 23.479545 206 206 206 0
-0.718607 1.706691 23.483876 206 206 206 0
-0.628826 1.706814 23.485574 207 207 207 0
-0.538888 1.706477 23.480938 207 207 207 0
-0.448900 1.705818 23.471869 207 207 207 0
-0.358838 1.704481 23.453469 206 206 206 0
-0.269034 1.703884 23.445257 207 207 207 0
-0.179420 1.704491 23.453610 207 207 207 0
-0.089770 1.705626 23.469228 208 208 208 0
0.000000 1.704312 23.451148 207 207 207 0
0.089566 1.701761 23.416039 207 207 207 0
0.179191 1.702318 23.423715 207 207 207 0
0.268629 1.701316 23.409915 207 207 207 0
0.358218 1.701534 23.412926 207 207 207 0
0.447639 1.701028 23.405955 207 207 207 0
0.536508 1.698943 23.377273 208 208 208 0
0.626115 1.699455 23.384316 207 207 207 0
0.715330 1.698908 23.376783 207 207 207 0
0.805316 1.700112 23.393358 207 207 207 0
0.893861 1.698335 23.368907 208 208 208 0
0.983322 1.698465 23.370697 208 208 208 0
1.071706 1.696868 23.348718 208 208 208 0
1.161286 1.697264 23.354162 208 208 208 0
1.250457 1.697049 23.351213 208 208 208 0
1.339988 1.697318 23.354911 207 207 207 0
1.428426 1.696256 23.340301 208 208 208 0
1.516560 1.694979 23.322727 208 208 208 0
1.604587 1.693730 23.305544 208 208 208 0
1.693328 1.693328 23.300012 208 208 208 0
1.783359 1.694191 23.311876 208 208 208 0
1.871913 1.693636 23.304239 208 208 208 0
1.960605 1.693250 23.298928 209 209 209 0
2.047735 1.691607 23.276324 209 209 209 0
2.136393 1.691311 23.272252 209 209 209 0
2.226348 1.692024 23.282066 209 209 209 0
2.316245 1.692640 23.290545 209 209 209 0
2.402397 1.690576 23.262136 209 209 209 0
2.489641 1.689399 23.245944 209 209 209 0
2.576312 1.687928 23.225710 209 209 209 0
2.667696 1.689541 23.247899 209 209 209 0
2.756869 1.689694 23.250003 209 209 209 0
2.843593 1.688383 23.231968 208 208 208 0
2.929736 1.686818 23.210427 209 209 209 0
3.018677 1.686908 23.211668 209 209 209 0
3.106838 1.686569 23.207003 209 209 209 0
3.197624 1.687635 23.221672 209 209 209 0
3.285120 1.686953 23.212294 209 209 209 0
3.368514 1.684257 23.175193 209 209 209 0
3.455936 1.683661 23.166991 209 209 209 0
3.547542 1.685083 23.186550 209 209 209 0
3.636610 1.685258 23.188968 210 210 210 0
3.721806 1.683674 23.167174 210 210 210 0
3.809423 1.683234 23.161108 209 209 209 0
3.894405 1.681675 23.139659 210 210 210 0
3.984593 1.682384 23.149416 210 210 210 0
4.072625 1.682171 23.146489 210 210 210 0
4.160421 1.681872 23.142377 209 209 209 0
4.243481 1.679711 23.112641 209 209 209 0
4.330427 1.679145 23.104853 210 210 210 0
4.421932 1.680334 23.121214 210 210 210 0
4.511370 1.680707 23.126337 209 209 209 0
4.597734 1.679941 23.115807 210 210 210 0
4.682634 1.678680 23.098455 210 210 210 0
4.766881 1.677236 23.078581 210 210 210 0
4.856344 1.677646 23.084227 210 210 210 0
4.944765 1.677688 23.084802 210 210 210 0
5.031220 1.677073 23.076344 210 210 210 0
5.115249 1.675685 23.057243 210 210 210 0
5.198041 1.673946 23.033306 211 211 211 0
5.290731 1.675398 23.053293 210 210 210 0
5.377146 1.674849 23.045735 211 211 211 0
5.463282 1.674232 23.037241 211 211 211 0
5.548166 1.673256 23.023823 211 211 211 0
5.635909 1.673161 23.022506 210 210 210 0
5.724352 1.673272 23.024042 211 211 211 0
5.812024 1.673158 23.022474 210 210 210 0
5.897702 1.672483 23.013177 211 211 211 0
5.982378 1.671547 23.000300 210 210 210 0
6.067913 1.670874 22.991049 211 211 211 0
6.152815 1.670050 22.979702 211 211 211 0
6.242550 1.670541 22.986467 211 211 211 0
6.333088 1.671232 22.995962 210 210 210 0
6.414862 1.669622 22.973810 211 211 211 0
6.497567 1.668294 22.955545 211 211 211 0
6.586770 1.668648 22.960418 211 211 211 0
6.672742 1.668185 22.954048 211 211 211 0
6.762137 1.668579 22.959468 211 211 211 0
6.845496 1.667493 22.944514 211 211 211 0
6.928357 1.666314 22.928294 211 211 211 0
-6.156938 2.087098 27.282321 99 99 99 0
-5.976228 2.060768 26.938145 127 127 127 0
-5.811122 2.038990 26.653466 138 138 138 0
-5.634029 2.012153 26.302656 152 152 152 0
-5.491669 1.996971 26.104190 154 154 154 0
-5.345497 1.979814 25.879919 163 163 163 0
-5.225797 1.971999 25.777762 166 166 166 0
-5.108172 1.964682 25.682112 168 168 168 0
-4.989271 1.956577 25.576170 175 175 175 0
-4.861846 1.944738 25.421415 177 177 177 0
-4.734272 1.932356 25.259553 177 177 177 0
-4.606537 1.919391 25.090072 181 181 181 0
-4.511806 1.919917 25.096958 184 184 184 0
-4.401692 1.913779 25.016718 184 184 184 0
-4.295700 1.909200 24.956861 185 185 185 0
-4.184139 1.901881 24.861195 188 188 188 0
-4.068877 1.892501 24.738573 190 190 190 0
-3.966423 1.888773 24.689844 192 192 192 0
-3.866255 1.885978 24.653309 192 192 192 0
-3.766664 1.883332 24.618716 192 192 192 0
-3.663119 1.878522 24.555850 194 194 194 0
-3.559360 1.873347 24.488201 195 195 195 0
-3.457210 1.868762 24.428264 197 197 197 0
-3.350803 1.861557 24.334084 191 191 191 0
-3.209101 1.833772 23.970876 112 112 112 0
-3.092980 1.819400 23.783007 180 180 180 0
-2.981758 1.807126 23.622561 204 204 204 0
-2.889274 1.805796 23.605183 205 205 205 0
-2.798234 1.805312 23.598850 205 205 205 0
-2.707341 1.804894 23.593383 205 205 205 0
-2.615440 1.803752 23.578453 205 205 205 0
-2.527142 1.805102 23.596101 205 205 205 0
-2.436089 1.804510 23.588372 205 205 205 0
-2.346285 1.804835 23.592614 205 205 205 0
-2.254016 1.803213 23.571407 205 205 205 0
-2.162641 1.802201 23.558183 205 205 205 0
-2.072315 1.802013 23.555722 205 205 205 0
-1.982377 1.802161 23.557656 206 206 206 0
-1.890529 1.800503 23.535992 205 205 205 0
-1.800069 1.800069 23.530319 205 205 205 0
-1.709733 1.799719 23.525736 206 206 206 0
-1.618739 1.798599 23.511096 206 206 206 0
-1.529580 1.799506 23.522959 206 206 206 0
-1.439433 1.799291 23.520143 206 206 206 0
-1.348118 1.797490 23.496608 206 206 206 0
-1.256574 1.795106 23.465439 206 206 206 0
-1.167161 1.795632 23.472313 206 206 206 0
-1.078119 1.796864 23.488422 206 206 206 0
-0.987471 1.795403 23.469316 207 207 207 0
-0.899346 1.798691 23.512303 207 207 207 0
-0.807745 1.794990 23.463918 206 206 206 0
-0.717536 1.793841 23.448901 207 207 207 0
-0.628391 1.795402 23.469313 207 207 207 0
-0.538462 1.794873 23.462391 207 207 207 0
-0.448196 1.792784 23.435085 207 207 207 0
-0.358420 1.792099 23.426136 207 207 207 0
-0.268953 1.793017 23.438129 207 207 207 0
-0.179082 1.790821 23.409424 207 207 207 0
-0.089616 1.792320 23.429019 206 206 206 0
0.000000 1.791900 23.423532 207 207 207 0
0.089505 1.790100 23.400000 207 207 207 0
0.178846 1.788461 23.378571 207 207 207 0
0.268350 1.789002 23.385646 207 207 207 0
0.357737 1.788686 23.381514 207 207 207 0
0.447192 1.788769 23.382606 207 207 207 0
0.536486 1.788285 23.376275 207 207 207 0
0.625273 1.786493 23.352855 207 207 207 0
0.714615 1.786539 23.353446 208 208 208 0
0.803935 1.786521 23.353222 207 207 207 0
0.892813 1.785626 23.341515 208 208 208 0
0.981886 1.785248 23.336576 208 208 208 0
1.070397 1.783995 23.320200 208 208 208 0
1.159031 1.783125 23.308819 208 208 208 0
1.248356 1.783366 23.311969 209 209 209 0
1.337721 1.783628 23.315401 208 208 208 0
1.426965 1.783707 23.316427 208 208 208 0
1.514060 1.781247 23.284279 208 208 208 0
1.603341 1.781490 23.287455 208 208 208 0
1.691524 1.780552 23.275186 208 208 208 0
1.781025 1.781025 23.281371 209 209 209 0
1.869263 1.780251 23.271250 208 208 208 0
1.957803 1.779821 23.265633 209 209 209 0
2.042425 1.776022 23.215971 209 209 209 0
2.133772 1.778144 23.243707 209 209 209 0
2.224207 1.779365 23.259678 209 209 209 0
2.314844 1.780649 23.276463 208 208 208 0
2.399791 1.777623 23.236904 209 209 209 0
2.486417 1.776012 23.215845 209 209 209 0
2.574377 1.775432 23.208265 209 209 209 0
2.664789 1.776526 23.222559 209 209 209 0
2.752990 1.776123 23.217292 208 208 208 0
2.840332 1.775208 23.205330 209 209 209 0
2.924720 1.772558 23.170688 209 209 209 0
3.013115 1.772420 23.168894 209 209 209 0
3.105162 1.774378 23.194488 209 209 209 0
3.192109 1.773394 23.181623 209 209 209 0
3.279934 1.772937 23.175651 209 209 209 0
3.365147 1.771130 23.152029 210 210 210 0
3.452197 1.770357 23.141926 209 209 209 0
3.541177 1.770588 23.144945 210 210 210 0
3.630833 1.771138 23.152131 209 209 209 0
3.716799 1.769904 23.136005 210 210 210 0
3.802510 1.768610 23.119079 209 209 209 0
3.889668 1.768031 23.111513 209 209 209 0
3.980222 1.768988 23.124021 210 210 210 0
4.067507 1.768481 23.117403 210 210 210 0
4.153876 1.767607 23.105974 210 210 210 0
4.240131 1.766721 23.094397 210 210 210 0
4.325817 1.765640 23.080259 210 210 210 0
4.414683 1.765873 23.083308 210 210 210 0
4.504494 1.766468 23.091087 210 210 210 0
4.589157 1.765061 23.072687 210 210 210 0
4.675946 1.764508 23.065461 210 210 210 0
4.761721 1.763600 23.053600 211 211 211 0
4.850342 1.763761 23.055695 210 210 210 0
4.937997 1.763571 23.053209 210 210 210 0
5.023526 1.762641 23.041055 210 210 210 0
5.110018 1.762075 23.033663 210 210 210 0
5.195749 1.761271 23.023147 210 210 210 0
5.282522 1.760841 23.017527 210 210 210 0
5.371188 1.761045 23.020199 211 211 211 0
5.457647 1.760531 23.013479 211 211 211 0
5.545790 1.760568 23.013964 210 210 210 0
5.628032 1.758760 22.990329 210 210 210 0
5.714386 1.758273 22.983957 211 211 211 0
5.801677 1.758084 22.981490 211 211 211 0
5.892182 1.758860 22.991639 211 211 211 0
5.975044 1.757366 22.972101 211 211 211 0
6.058016 1.755947 22.953550 211 211 211 0
6.144024 1.755435 22.946867 211 211 211 0
6.233459 1.755904 22.952994 211 211 211 0
6.321877 1.756077 22.955253 211 211 211 0
6.404891 1.754765 22.938102 211 211 211 0
6.490110 1.754084 22.929199 211 211 211 0
6.575991 1.753597 22.922843 211 211 211 0
6.662667 1.753333 22.919390 211 211 211 0
6.752963 1.754016 22.928318 211 211 211 0
6.835211 1.752618 22.910042 212 212 212 0
6.914945 1.750619 22.883909 211 211 211 0
-6.410426 2.243649 27.932141 76 76 76 0
-6.161602 2.193112 27.302988 107 107 107 0
-5.973776 2.162919 26.927096 130 130 130 0
-5.798488 2.136285 26.595519 142 142 142 0
-5.631896 2.111961 26.292698 151 151 151 0
-5.485578 2.094494 26.075238 157 157 157 0
-5.335676 2.074985 25.832372 165 165 165 0
-5.213648 2.065785 25.717834 166 166 166 0
-5.101273 2.060129 25.647424 170 170 170 0
-4.981808 2.051333 25.537912 175 175 175 0
-4.850884 2.037371 25.364099 176 176 176 0
-4.721723 2.023595 25.192597 178 178 178 0
-4.604980 2.014679 25.081591 183 183 183 0
-4.504441 2.012623 25.055994 184 184 184 0
-4.398089 2.007823 24.996241 184 184 184 0
-4.292220 2.003036 24.936645 186 186 186 0
-4.179760 1.994886 24.835177 189 189 189 0
-4.060816 1.983189 24.689566 191 191 191 0
-3.955023 1.977512 24.618882 192 192 192 0
-3.859584 1.976860 24.610768 192 192 192 0
-3.763640 1.975911 24.598955 193 193 193 0
-3.661413 1.971530 24.544412 194 194 194 0
-3.556337 1.965344 24.467406 196 196 196 0
-3.454125 1.960450 24.406468 197 197 197 0
-3.339528 1.948058 24.252202 190 190 190 0
-3.199060 1.919436 23.895871 102 102 102 0
-3.086291 1.906239 23.731574 184 184 184 0
-2.979822 1.896250 23.607225 204 204 204 0
-2.886240 1.894095 23.580393 205 205 205 0
-2.795547 1.893758 23.576195 205 205 205 0
-2.703178 1.892224 23.557103 204 204 204 0
-2.611696 1.891228 23.544697 204 204 204 0
-2.524684 1.893513 23.573145 206 206 206 0
-2.433547 1.892759 23.563757 205 205 205 0
-2.341649 1.891332 23.545996 206 206 206 0
-2.250655 1.890550 23.536260 205 205 205 0
-2.159360 1.889440 23.522438 205 205 205 0
-2.069592 1.889627 23.524774 205 205 205 0
-1.979906 1.889911 23.528299 205 205 205 0
-1.891337 1.891337 23.546057 206 206 206 0
-1.797291 1.887156 23.494002 206 206 206 0
-1.707532 1.887272 23.495446 206 206 206 0
-1.616976 1.886472 23.485495 206 206 206 0
-1.528500 1.888147 23.506347 206 206 206 0
-1.438297 1.887765 23.501583 206 206 206 0
-1.345579 1.883811 23.452366 206 206 206 0
-1.256075 1.884113 23.456122 206 206 206 0
-1.166169 1.883812 23.452370 206 206 206 0
-1.076993 1.884737 23.463893 207 207 207 0
-0.986316 1.882967 23.441857 207 207 207 0
-0.896867 1.883422 23.447514 207 207 207 0
-0.806510 1.881856 23.428026 206 206 206 0
-0.716503 1.880820 23.415122 206 206 206 0
-0.626842 1.880525 23.411457 207 207 207 0
-0.537665 1.881827 23.427660 207 207 207 0
-0.447731 1.880471 23.410785 207 207 207 0
-0.357893 1.878940 23.391724 206 206 206 0
-0.268457 1.879199 23.394951 207 207 207 0
-0.178908 1.878535 23.386678 207 207 207 0
-0.089484 1.879159 23.394442 207 207 207 0
0.000000 1.877651 23.375668 207 207 207 0
0.089409 1.877597 23.374996 207 207 207 0
0.178640 1.875722 23.351658 207 207 207 0
0.267958 1.875706 23.351454 207 207 207 0
0.357236 1.875489 23.348762 208 208 208 0
0.446785 1.876496 23.361300 207 207 207 0
0.535974 1.875910 23.353997 207 207 207 0
0.624526 1.873577 23.324951 208 208 208 0
0.713091 1.871865 23.303642 208 208 208 0
0.802876 1.873377 23.322471 207 207 207 0
0.891958 1.873112 23.319160 207 207 207 0
0.981077 1.872965 23.317336 208 208 208 0
1.069176 1.871058 23.293592 208 208 208 0
1.157577 1.869932 23.279580 207 207 207 0
1.246334 1.869500 23.274203 208 208 208 0
1.336162 1.870627 23.288235 209 209 209 0
1.425555 1.871041 23.293384 208 208 208 0
1.511586 1.867253 23.246221 208 208 208 0
1.600690 1.867472 23.248953 208 208 208 0
1.689234 1.867048 23.243679 209 209 209 0
1.779106 1.868061 23.256290 208 208 208 0
1.868420 1.868420 23.260751 209 209 209 0
1.955638 1.866746 23.239909 209 209 209 0
2.041804 1.864256 23.208909 209 209 209 0
2.130917 1.864552 23.212598 209 209 209 0
2.219792 1.864625 23.213513 208 208 208 0
2.310108 1.865857 23.228840 208 208 208 0
2.395999 1.863555 23.200189 209 209 209 0
2.483118 1.862339 23.185042 209 209 209 0
2.570870 1.861664 23.176647 209 209 209 0
2.661310 1.862917 23.192241 209 209 209 0
2.750374 1.863157 23.195230 209 209 209 0
2.836864 1.861692 23.176993 209 209 209 0
2.922634 1.859858 23.154162 209 209 209 0
3.009262 1.858662 23.139271 209 209 209 0
3.098552 1.859131 23.145114 209 209 209 0
3.189938 1.860797 23.165852 210 210 210 0
3.274415 1.858452 23.136655 209 209 209 0
3.360991 1.857390 23.123431 210 210 210 0
3.448059 1.856647 23.114190 210 210 210 0
3.536330 1.856573 23.113270 209 209 209 0
3.625686 1.857059 23.119313 209 209 209 0
3.713360 1.856680 23.114597 209 209 209 0
3.798401 1.855033 23.094091 210 210 210 0
3.885735 1.854555 23.088144 210 210 210 0
3.973902 1.854487 23.087301 210 210 210 0
4.061080 1.853971 23.080876 210 210 210 0
4.149667 1.854106 23.082557 210 210 210 0
4.234233 1.852477 23.062269 210 210 210 0
4.320790 1.851767 23.053433 210 210 210 0
4.409349 1.851926 23.055418 210 210 210 0
4.495670 1.851158 23.045855 210 210 210 0
4.584348 1.851372 23.048509 210 210 210 0
4.671009 1.850777 23.041108 210 210 210 0
4.754911 1.849132 23.020630 210 210 210 0
4.844382 1.849673 23.027366 210 210 210 0
4.930324 1.848872 23.017387 210 210 210 0
5.016888 1.848327 23.010609 210 210 210 0
5.103658 1.847876 23.004995 210 210 210 0
5.188347 1.846700 22.990351 211 211 211 0
5.277973 1.847291 22.997705 210 210 210 0
5.363430 1.846427 22.986949 210 210 210 0
5.451290 1.846405 22.986674 210 210 210 0
5.534694 1.844898 22.967916 210 210 210 0
5.620973 1.844382 22.961493 211 211 211 0
5.707986 1.844119 22.958216 211 211 211 0
5.794235 1.843620 22.952009 210 210 210 0
5.882541 1.843782 22.954019 211 211 211 0
5.965556 1.842304 22.935625 211 211 211 0
6.053385 1.842335 22.936006 211 211 211 0
6.138221 1.841466 22.925194 210 210 210 0
6.225279 1.841280 22.922873 211 211 211 0
6.313668 1.841486 22.925445 211 211 211 0
6.400078 1.841118 22.920862 211 211 211 0
6.480021 1.838925 22.893556 211 211 211 0
6.568150 1.839082 22.895514 211 211 211 0
6.654028 1.838613 22.889674 211 211 211 0
6.745250 1.839614 22.902131 211 211 211 0
6.825560 1.837651 22.877695 211 211 211 0
6.908897 1.836542 22.863892 212 212 212 0
-6.353185 2.329501 27.682725 84 84 84 0
-6.121329 2.282529 27.124533 114 114 114 0
-5.933338 2.250576 26.744817 131 131 131 0
-5.777224 2.229806 26.497990 146 146 146 0
-5.605594 2.202198 26.169905 151 151 151 0
-5.461796 2.184718 25.962190 159 159 159 0
-5.315532 2.165587 25.734845 165 165 165 0
-5.207676 2.161677 25.688378 166 166 166 0
-5.089400 2.153208 25.587734 173 173 173 0
-4.965283 2.141887 25.453199 175 175 175 0
-4.839152 2.129227 25.302753 176 176 176 0
-4.719113 2.118785 25.178673 179 179 179 0
-4.601616 2.109074 25.063265 183 183 183 0
-4.488540 2.101019 24.967542 184 184 184 0
-4.394255 2.101600 24.974455 184 184 184 0
-4.286733 2.095736 24.904767 186 186 186 0
-4.171749 2.085874 24.787575 190 190 190 0
-4.063214 2.078854 24.704143 191 191 191 0
-3.952599 2.070409 24.603790 191 191 191 0
-3.852221 2.067045 24.563817 191 191 191 0
-3.754876 2.065182 24.541676 194 194 194 0
-3.654913 2.061746 24.500843 196 196 196 0
-3.549922 2.055218 24.423267 196 196 196 0
-3.443161 2.047285 24.328994 197 197 197 0
-3.334998 2.038055 24.219305 188 188 188 0
-3.199357 2.011024 23.898088 103 103 103 0
-3.074541 1.989409 23.641224 187 187 187 0
-2.973267 1.982178 23.555293 205 205 205 0
-2.886028 1.984144 23.578661 204 204 204 0
-2.791743 1.981237 23.544108 204 204 204 0
-2.700575 1.980422 23.534425 205 205 205 0
-2.609292 1.979463 23.523027 205 205 205 0
-2.519254 1.979414 23.522448 205 205 205 0
-2.431193 1.980972 23.540960 205 205 205 0
-2.342342 1.981982 23.552965 205 205 205 0
-2.245605 1.976132 23.483449 206 206 206 0
-2.155073 1.975484 23.475744 206 206 206 0
-2.068163 1.978243 23.508532 205 205 205 0
-1.976675 1.976675 23.489899 206 206 206 0
-1.887284 1.977154 23.495597 206 206 206 0
-1.795024 1.974527 23.464370 206 206 206 0
-1.705266 1.974518 23.464268 205 205 205 0
-1.615151 1.974074 23.458988 206 206 206 0
-1.526320 1.975238 23.472825 206 206 206 0
-1.434106 1.971896 23.433107 207 207 207 0
-1.344394 1.971778 23.431701 205 205 205 0
-1.253270 1.969424 23.403737 206 206 206 0
-1.164433 1.970578 23.417447 206 206 206 0
-1.074752 1.970379 23.415075 206 206 206 0
-0.985684 1.971368 23.426838 206 206 206 0
-0.894974 1.968944 23.398022 206 206 206 0
-0.805623 1.969302 23.402279 207 207 207 0
-0.715904 1.968736 23.395550 206 206 206 0
-0.626190 1.968025 23.387104 207 207 207 0
-0.537030 1.969110 23.400000 206 206 206 0
-0.447027 1.966921 23.373983 207 207 207 0
-0.357604 1.966821 23.372797 206 206 206 0
-0.268004 1.965365 23.355501 207 207 207 0
-0.178659 1.965246 23.354078 207 207 207 0
-0.089313 1.964890 23.349848 207 207 207 0
0.000000 1.964657 23.347079 207 207 207 0
0.089251 1.963522 23.333593 207 207 207 0
0.178376 1.962134 23.317097 207 207 207 0
0.267382 1.960799 23.301234 207 207 207 0
0.356768 1.962222 23.318143 207 207 207 0
0.445912 1.962014 23.315677 207 207 207 0
0.535036 1.961799 23.313121 208 208 208 0
0.624016 1.961193 23.305922 207 207 207 0
0.712418 1.959150 23.281643 208 208 208 0
0.801538 1.959314 23.283589 208 208 208 0
0.890376 1.958828 23.277813 208 208 208 0
0.979945 1.959889 23.290422 208 208 208 0
1.067774 1.957585 23.263040 208 208 208 0
1.156289 1.956796 23.253666 208 208 208 0
1.244867 1.956220 23.246818 208 208 208 0
1.334630 1.957457 23.261525 208 208 208 0
1.423595 1.957443 23.261351 208 208 208 0
1.510997 1.955407 23.237165 208 208 208 0
1.597902 1.952992 23.208459 208 208 208 0
1.687495 1.953941 23.219744 208 208 208 0
1.776949 1.954644 23.228093 208 208 208 0
1.865803 1.954651 23.228178 208 208 208 0
1.952740 1.952740 23.205468 209 209 209 0
2.039661 1.950980 23.184554 208 208 208 0
2.128153 1.950807 23.182498 209 209 209 0
2.217435 1.951342 23.188859 209 209 209 0
2.307714 1.952681 23.204767 209 209 209 0
2.392521 1.949461 23.166503 209 209 209 0
2.480030 1.948595 23.156206 209 209 209 0
2.568380 1.948426 23.154202 209 209 209 0
2.658604 1.949643 23.168658 209 209 209 0
2.746214 1.948926 23.160145 209 209 209 0
2.832187 1.947128 23.138780 209 209 209 0
2.919309 1.946206 23.127823 209 209 209 0
3.008240 1.946508 23.131408 209 209 209 0
3.095906 1.945998 23.125351 209 209 209 0
3.183918 1.945728 23.122137 210 210 210 0
3.272268 1.945673 23.121484 209 209 209 0
3.355813 1.942839 23.087812 209 209 209 0
3.442283 1.941800 23.075466 210 210 210 0
3.532789 1.943034 23.090122 210 210 210 0
3.622625 1.943847 23.099790 210 210 210 0
3.707633 1.942093 23.078948 210 210 210 0
3.793227 1.940721 23.062637 210 210 210 0
3.878480 1.939240 23.045036 210 210 210 0
3.968112 1.939966 23.053662 209 209 209 0
4.055742 1.939703 23.050535 210 210 210 0
4.146501 1.940915 23.064945 210 210 210 0
4.230483 1.938971 23.041846 210 210 210 0
4.315519 1.937580 23.025314 209 209 209 0
4.403615 1.937590 23.025437 210 210 210 0
4.488744 1.936321 23.010351 210 210 210 0
4.578174 1.936920 23.017466 210 210 210 0
4.666752 1.937142 23.020112 210 210 210 0
4.749333 1.934913 22.993623 210 210 210 0
4.835252 1.934101 22.983966 211 211 211 0
4.923725 1.934320 22.986577 210 210 210 0
5.010153 1.933743 22.979719 211 211 211 0
5.098174 1.933790 22.980276 210 210 210 0
5.180962 1.931884 22.957623 210 210 210 0
5.268131 1.931648 22.954819 210 210 210 0
5.356139 1.931722 22.955701 211 211 211 0
5.444841 1.932040 22.959482 210 210 210 0
5.533409 1.932302 22.962587 211 211 211 0
5.612666 1.929354 22.927557 210 210 210 0
5.699327 1.929003 22.923387 210 210 210 0
5.787935 1.929312 22.927055 211 211 211 0
5.876792 1.929693 22.931585 210 210 210 0
5.962763 1.929129 22.924888 211 211 211 0
6.045543 1.927564 22.906291 210 210 210 0
6.127925 1.925919 22.886742 211 211 211 0
6.219239 1.927088 22.900631 211 211 211 0
6.306767 1.927068 22.900390 211 211 211 0
6.390121 1.925790 22.885203 211 211 211 0
6.473635 1.924594 22.870993 211 211 211 0
6.559976 1.924260 22.867020 211 211 211 0
6.645125 1.923589 22.859049 211 211 211 0
6.736010 1.924574 22.870758 211 211 211 0
6.821754 1.924084 22.864936 211 211 211 0
6.901821 1.922026 22.840476 211 211 211 0
-6.307729 2.417963 27.484659 89 89 89 0
-6.112034 2.382657 27.083344 122 122 122 0
-5.921551 2.348201 26.691689 134 134 134 0
-5.758365 2.323551 26.411490 149 149 149 0
-5.605594 2.302297 26.169905 152 152 152 0
-5.461140 2.283750 25.959074 162 162 162 0
-5.313713 2.263248 25.726039 165 165 165 0
-5.201899 2.257428 25.659878 167 167 167 0
-5.079895 2.246877 25.539944 174 174 174 0
-4.964172 2.238744 25.447506 176 176 176 0
-4.836601 2.224836 25.289415 176 176 176 0
-4.708746 2.210228 25.123360 181 181 181 0
-4.591750 2.200213 25.009531 184 184 184 0
-4.488444 2.196473 24.967011 184 184 184 0
-4.386174 2.193087 24.928523 184 184 184 0
-4.284109 2.189656 24.889522 188 188 188 0
-4.166080 2.177724 24.753894 191 191 191 0
-4.052369 2.167546 24.638208 190 190 190 0
-3.947450 2.161699 24.571739 190 190 190 0
-3.847420 2.158309 24.533208 192 192 192 0
-3.748707 2.155507 24.501353 195 195 195 0
-3.652372 2.153963 24.483805 197 197 197 0
-3.544024 2.145067 24.382689 196 196 196 0
-3.443381 2.140480 24.330550 196 196 196 0
-3.331485 2.128449 24.193791 186 186 186 0
-3.141255 2.064253 23.464089 102 102 102 0
-3.074499 2.079808 23.640902 188 188 188 0
-2.968621 2.069039 23.518486 205 205 205 0
-2.881873 2.071346 23.544716 205 205 205 0
-2.790746 2.070553 23.535700 205 205 205 0
-2.697628 2.068182 23.508741 205 205 205 0
-2.604500 2.065638 23.479829 205 205 205 0
-2.518720 2.068949 23.517460 205 205 205 0
-2.425385 2.066069 23.484723 205 205 205 0
-2.335123 2.065686 23.480371 205 205 205 0
-2.244124 2.064594 23.467966 205 205 205 0
-2.154480 2.064710 23.469284 205 205 205 0
-2.062268 2.062268 23.441521 205 205 205 0
-1.975289 2.065075 23.473433 206 206 206 0
-1.883129 2.062474 23.443870 206 206 206 0
-1.793384 2.062392 23.442927 206 206 206 0
-1.701882 2.060173 23.417710 205 205 205 0
-1.613755 2.062020 23.438707 205 205 205 0
-1.523476 2.061174 23.429084 206 206 206 0
-1.434043 2.061437 23.432082 206 206 206 0
-1.343708 2.060353 23.419752 206 206 206 0
-1.253457 2.059251 23.407227 206 206 206 0
-1.163565 2.058615 23.400000 207 207 207 0
-1.073017 2.056616 23.377274 207 207 207 0
-0.983803 2.057042 23.382125 206 206 206 0
-0.894585 2.057546 23.387844 206 206 206 0
-0.804200 2.055177 23.360921 207 207 207 0
-0.714702 2.054769 23.356280 207 207 207 0
-0.625213 2.054271 23.350619 207 207 207 0
-0.536370 2.056086 23.371257 206 206 206 0
-0.446837 2.055451 23.364038 208 208 208 0
-0.357081 2.053216 23.338632 207 207 207 0
-0.267699 2.052361 23.328910 207 207 207 0
-0.178493 2.052671 23.332430 207 207 207 0
-0.089183 2.051200 23.315709 207 207 207 0
0.000000 2.052690 23.332648 207 207 207 0
0.089125 2.049884 23.300754 208 208 208 0
0.178231 2.049654 23.298137 207 207 207 0
0.267335 2.049567 23.297153 207 207 207 0
0.356406 2.049332 23.294484 208 208 208 0
0.445511 2.049352 23.294710 208 208 208 0
0.534283 2.048085 23.280303 207 207 207 0
0.622622 2.045757 23.253847 208 208 208 0
0.711511 2.045595 23.252003 208 208 208 0
0.800228 2.045027 23.245543 207 207 207 0
0.889635 2.046160 23.258429 208 208 208 0
0.978429 2.045805 23.254396 208 208 208 0
1.066276 2.043697 23.230424 208 208 208 0
1.154211 2.042065 23.211881 208 208 208 0
1.242931 2.041959 23.210670 208 208 208 0
1.332212 2.042726 23.219387 208 208 208 0
1.422132 2.044315 23.237453 209 209 209 0
1.509562 2.042349 23.215109 208 208 208 0
1.596485 2.039953 23.187874 208 208 208 0
1.684668 2.039335 23.180847 208 208 208 0
1.774778 2.040994 23.199706 209 209 209 0
1.863568 2.041050 23.200343 208 208 208 0
1.950042 2.038681 23.173408 208 208 208 0
2.037169 2.037169 23.156221 209 209 209 0
2.125060 2.036516 23.148804 209 209 209 0
2.214409 2.037256 23.157218 209 209 209 0
2.303928 2.038090 23.166695 209 209 209 0
2.389851 2.035799 23.140651 209 209 209 0
2.477593 2.035166 23.133456 209 209 209 0
2.563453 2.033083 23.109784 209 209 209 0
2.654723 2.035287 23.134837 209 209 209 0
2.743229 2.035299 23.134968 209 209 209 0
2.828624 2.033074 23.109676 209 209 209 0
2.913995 2.030966 23.085719 209 209 209 0
3.000841 2.029981 23.074521 209 209 209 0
3.091734 2.031711 23.094184 209 209 209 0
3.178378 2.030630 23.081901 209 209 209 0
3.269867 2.032620 23.104517 209 209 209 0
3.353717 2.029881 23.073386 209 209 209 0
3.440959 2.029283 23.066593 210 210 210 0
3.526182 2.027555 23.046940 209 209 209 0
3.617853 2.029527 23.069366 209 209 209 0
3.703181 2.027932 23.051233 210 210 210 0
3.788596 2.026458 23.034481 210 210 210 0
3.873565 2.024818 23.015837 210 210 210 0
3.962494 2.025275 23.021024 209 209 209 0
4.050281 2.025141 23.019501 209 209 209 0
4.138202 2.025078 23.018787 210 210 210 0
4.223742 2.023876 23.005131 210 210 210 0
4.310062 2.023091 22.996198 210 210 210 0
4.398480 2.023301 22.998590 209 209 209 0
4.485995 2.023096 22.996257 211 211 211 0
4.572963 2.022657 22.991267 211 211 211 0
4.660578 2.022515 22.989658 210 210 210 0
4.743825 2.020518 22.966959 210 210 210 0
4.829077 2.019432 22.954616 211 211 211 0
4.917129 2.019535 22.955782 210 210 210 0
5.006085 2.019999 22.961061 211 211 211 0
5.091093 2.018882 22.948359 210 210 210 0
5.174547 2.017196 22.929201 211 211 211 0
5.262168 2.017165 22.928838 211 211 211 0
5.352367 2.018105 22.939534 211 211 211 0
5.435974 2.016571 22.922093 211 211 211 0
5.522671 2.016213 22.918025 211 211 211 0
5.604252 2.014028 22.893186 211 211 211 0
5.690881 2.013696 22.889416 211 211 211 0
5.779397 2.014032 22.893236 210 210 210 0
5.870688 2.015311 22.907766 211 211 211 0
5.954160 2.013907 22.891811 211 211 211 0
6.034827 2.011609 22.865689 211 211 211 0
6.120980 2.011179 22.860803 211 211 211 0
6.207455 2.010866 22.857240 211 211 211 0
6.296711 2.011449 22.863873 211 211 211 0
6.387029 2.012352 22.874131 210 210 210 0
6.464081 2.009106 22.837242 211 211 211 0
6.549133 2.008401 22.829223 211 211 211 0
6.634464 2.007798 22.822375 211 211 211 0
6.726155 2.009111 22.837296 211 211 211 0
6.811579 2.008543 22.830834 211 211 211 0
6.893196 2.006880 22.811932 211 211 211 0
-6.302682 2.521073 27.462667 93 93 93 0
-6.090903 2.477655 26.989709 124 124 124 0
-5.907733 2.444579 26.629403 136 136 136 0
-5.749008 2.420635 26.368572 149 149 149 0
-5.590986 2.396137 26.101708 153 153 153 0
-5.432221 2.370424 25.821610 163 163 163 0
-5.305368 2.357942 25.685638 164 164 164 0
-5.192493 2.351318 25.613482 169 169 169 0
-5.074867 2.342246 25.514668 174 174 174 0
-4.953352 2.330989 25.392040 176 176 176 0
-4.828831 2.317839 25.248789 177 177 177 0
-4.701285 2.302670 25.083552 183 183 183 0
-4.584910 2.292455 24.972279 183 183 183 0
-4.481759 2.288558 24.929823 184 184 184 0
-4.374726 2.282466 24.863461 185 185 185 0
-4.275154 2.280082 24.837498 190 190 190 0
-4.164648 2.271626 24.745381 190 190 190 0
-4.051843 2.261494 24.635010 191 191 191 0
-3.942111 2.252635 24.538509 191 191 191 0
-3.841725 2.248815 24.496891 194 194 194 0
-3.746077 2.247646 24.484161 196 196 196 0
-3.645137 2.243161 24.435310 195 195 195 0
-3.543135 2.237770 24.376576 196 196 196 0
-3.434708 2.227919 24.269266 196 196 196 0
-3.323860 2.215906 24.138414 184 184 184 0
-3.188169 2.186173 23.814520 104 104 104 0
-3.066920 2.164885 23.582622 190 190 190 0
-2.967305 2.158040 23.508057 204 204 204 0
-2.877065 2.157799 23.505435 204 204 204 0
-2.784829 2.155996 23.485799 205 205 205 0
-2.694855 2.155884 23.484576 205 205 205 0
-2.601609 2.153056 23.453764 205 205 205 0
-2.512600 2.153658 23.460322 205 205 205 0
-2.424908 2.155474 23.480109 205 205 205 0
-2.331523 2.152175 23.444173 205 205 205 0
-2.241882 2.152207 23.444522 205 205 205 0
-2.149430 2.149430 23.414270 205 205 205 0
-2.061029 2.150639 23.427440 206 206 206 0
-1.971717 2.150964 23.430978 206 206 206 0
-1.880232 2.148836 23.407800 205 205 205 0
-1.791689 2.150026 23.420767 206 206 206 0
-1.700972 2.148597 23.405194 206 206 206 0
-1.610151 2.146867 23.386356 206 206 206 0
-1.520893 2.147143 23.389358 206 206 206 0
-1.432448 2.148672 23.406012 205 205 205 0
-1.341374 2.146198 23.379068 206 206 206 0
-1.251549 2.145512 23.371592 206 206 206 0
-1.161467 2.144246 23.357805 207 207 207 0
-1.072973 2.145945 23.376308 206 206 206 0
-0.983413 2.145629 23.372864 206 206 206 0
-0.893069 2.143366 23.348212 207 207 207 0
-0.803218 2.141915 23.332405 206 206 206 0
-0.713355 2.140064 23.312241 207 207 207 0
-0.624591 2.141457 23.327413 207 207 207 0
-0.535874 2.143498 23.349647 207 207 207 0
-0.446116 2.141358 23.326345 207 207 207 0
-0.356661 2.139965 23.311164 207 207 207 0
-0.267222 2.137774 23.287297 206 206 206 0
-0.178310 2.139722 23.308521 207 207 207 0
-0.089154 2.139698 23.308254 207 207 207 0
0.000000 2.138231 23.292276 207 207 207 0
0.089032 2.136776 23.276424 207 207 207 0
0.177977 2.135727 23.265000 207 207 207 0
0.266994 2.135952 23.267449 208 208 208 0
0.356042 2.136250 23.270698 207 207 207 0
0.444636 2.134254 23.248953 207 207 207 0
0.533668 2.134673 23.253517 207 207 207 0
0.622036 2.132693 23.231955 208 208 208 0
0.710238 2.130713 23.210381 208 208 208 0
0.799425 2.131799 23.222213 208 208 208 0
0.888339 2.132014 23.224555 208 208 208 0
0.976832 2.131271 23.216456 208 208 208 0
1.065094 2.130187 23.204656 208 208 208 0
1.153456 2.129457 23.196701 208 208 208 0
1.242303 2.129662 23.198930 208 208 208 0
1.331149 2.129838 23.200855 209 209 209 0
1.420511 2.130767 23.210964 208 208 208 0
1.507296 2.127948 23.180260 209 209 209 0
1.594374 2.125832 23.157208 208 208 208 0
1.682564 2.125343 23.151889 209 209 209 0
1.772041 2.126449 23.163937 209 209 209 0
1.861187 2.127071 23.170707 209 209 209 0
1.948683 2.125836 23.157255 209 209 209 0
2.035197 2.123684 23.133813 209 209 209 0
2.122362 2.122362 23.119417 209 209 209 0
2.210269 2.121859 23.113928 208 208 208 0
2.300805 2.123820 23.135298 209 209 209 0
2.387226 2.121979 23.115238 209 209 209 0
2.474423 2.120934 23.103855 209 209 209 0
2.560823 2.119302 23.086078 209 209 209 0
2.650451 2.120361 23.097613 209 209 209 0
2.737858 2.119632 23.089677 209 209 209 0
2.825914 2.119435 23.087529 209 209 209 0
2.910933 2.117042 23.061458 209 209 209 0
2.998219 2.116390 23.054355 209 209 209 0
3.085810 2.115984 23.049934 209 209 209 0
3.175389 2.116926 23.060194 210 210 210 0
3.263383 2.116789 23.058700 210 210 210 0
3.347962 2.114502 23.033794 210 210 210 0
3.435541 2.114179 23.030271 209 209 209 0
3.523441 2.114064 23.029024 210 210 210 0
3.610048 2.113199 23.019596 210 210 210 0
3.697969 2.113125 23.018790 210 210 210 0
3.782925 2.111400 23.000000 209 209 209 0
3.870208 2.111023 22.995890 210 210 210 0
3.957525 2.110680 22.992158 210 210 210 0
4.046850 2.111400 23.000000 210 210 210 0
4.133118 2.110528 22.990504 210 210 210 0
4.218941 2.109470 22.978979 209 209 209 0
4.305421 2.108778 22.971434 210 210 210 0
4.391290 2.107819 22.960993 210 210 210 0
4.481178 2.108790 22.971566 210 210 210 0
4.567662 2.108152 22.964616 210 210 210 0
4.653713 2.107342 22.955795 210 210 210 0
4.738126 2.105834 22.939368 210 210 210 0
4.823045 2.104601 22.925941 210 210 210 0
4.912081 2.105178 22.932218 211 211 211 0
5.000318 2.105397 22.934607 211 211 211 0
5.086055 2.104574 22.925648 211 211 211 0
5.169432 2.102820 22.906533 211 211 211 0
5.254615 2.101846 22.895927 210 210 210 0
5.342095 2.101808 22.895510 210 210 210 0
5.432754 2.103001 22.908513 211 211 211 0
5.517166 2.101777 22.895180 210 210 210 0
5.599428 2.099785 22.873479 211 211 211 0
5.684287 2.098814 22.862893 211 211 211 0
5.773698 2.099526 22.870659 211 211 211 0
5.861792 2.099746 22.873053 211 211 211 0
5.948719 2.099548 22.870892 211 211 211 0
6.029169 2.097102 22.844249 211 211 211 0
6.110813 2.095136 22.822829 210 210 210 0
6.201488 2.096278 22.835270 211 211 211 0
6.289866 2.096622 22.839019 211 211 211 0
6.375828 2.096163 22.834015 211 211 211 0
6.456860 2.094117 22.811729 211 211 211 0
6.540029 2.092809 22.797488 212 212 212 0
6.626881 2.092699 22.796288 211 211 211 0
6.719950 2.094530 22.816231 211 211 211 0
6.802296 2.093014 22.799719 211 211 211 0
6.885018 2.091651 22.784871 212 212 212 0
-6.270990 2.612912 27.324574 97 97 97 0
-6.073360 2.573458 26.911976 125 125 125 0
-5.903089 2.544435 26.608470 139 139 139 0
-5.738048 2.516688 26.318305 150 150 150 0
-5.584576 2.493114 26.071784 156 156 156 0
-5.427520 2.467055 25.799265 163 163 163 0
-5.294215 2.451026 25.631640 165 165 165 0
-5.185223 2.445860 25.577620 171 171 171 0
-5.057062 2.431280 25.425146 175 175 175 0
-4.945193 2.424114 25.350215 175 175 175 0
-4.823605 2.411803 25.221466 178 178 178 0
-4.700397 2.398162 25.078813 182 182 182 0
-4.584823 2.387929 24.971803 184 184 184 0
-4.475084 2.380364 24.892694 183 183 183 0
-4.374157 2.377259 24.860225 187 187 187 0
-4.266909 2.370505 24.789597 190 190 190 0
-4.158768 2.362936 24.710446 190 190 190 0
-4.046560 2.352651 24.602889 191 191 191 0
-3.935450 2.342530 24.497041 191 191 191 0
-3.841433 2.342337 24.495028 194 194 194 0
-3.743451 2.339657 24.467000 196 196 196 0
-3.640760 2.333821 24.405969 195 195 195 0
-3.535662 2.326093 24.325157 196 196 196 0
-3.433178 2.319715 24.258459 197 197 197 0
-3.319807 2.305421 24.108981 181 181 181 0
