ply
format ascii 1.0
element vertex 1098
property float x
property float y
property float z
property uchar red
property uchar green
property uchar blue
property uchar alpha
end_header
4.785435 -0.939996 22.340968 212 212 212 0
4.878525 -0.941470 22.375988 212 212 212 0
4.976803 -0.943876 22.433187 211 211 211 0
5.073922 -0.945985 22.483315 212 212 212 0
5.171823 -0.948168 22.535178 212 212 212 0
5.266509 -0.949698 22.571557 212 212 212 0
5.361150 -0.951172 22.606578 212 212 212 0
5.461887 -0.953663 22.665782 212 212 212 0
5.557656 -0.955222 22.702842 212 212 212 0
5.655417 -0.957071 22.746775 212 212 212 0
5.753053 -0.958842 22.788881 212 212 212 0
5.856793 -0.961563 22.853549 212 212 212 0
5.959153 -0.963981 22.911009 211 211 211 0
6.050579 -0.964585 22.925373 212 212 212 0
6.152930 -0.966889 22.980131 212 212 212 0
6.254747 -0.969045 23.031380 212 212 212 0
6.354945 -0.970894 23.075326 211 211 211 0
6.455586 -0.972760 23.119656 212 212 212 0
6.557728 -0.974797 23.168089 211 211 211 0
6.666448 -0.977746 23.238161 212 212 212 0
6.766725 -0.979394 23.277349 211 211 211 0
6.865551 -0.980793 23.310588 210 210 210 0
6.970182 -0.982974 23.362434 211 211 211 0
7.078015 -0.985546 23.423561 211 211 211 0
-5.373374 -0.671672 17.560045 213 213 213 0
-5.303515 -0.671331 17.551139 212 212 212 0
-5.241900 -0.672038 17.569633 213 213 213 0
-5.195111 -0.674690 17.638946 213 213 213 0
-5.133293 -0.675433 17.658388 213 213 213 0
-5.054988 -0.673998 17.620874 213 213 213 0
-5.003827 -0.676193 17.678243 213 213 213 0
-4.955652 -0.678856 17.747879 213 213 213 0
-4.890524 -0.679239 17.757893 213 213 213 0
-4.825054 -0.679585 17.766932 213 213 213 0
-4.773819 -0.681974 17.829389 214 214 214 0
-4.714287 -0.683230 17.862221 213 213 213 0
-4.650359 -0.683876 17.879120 213 213 213 0
-4.591775 -0.685340 17.917374 213 213 213 0
-4.534327 -0.687019 17.961287 214 214 214 0
-4.462015 -0.686464 17.946766 213 213 213 0
-4.404300 -0.688172 17.991422 213 213 213 0
-4.343688 -0.689474 18.025471 213 213 213 0
-4.279199 -0.690193 18.044271 213 213 213 0
-4.217786 -0.691440 18.076873 213 213 213 0
-4.158148 -0.693025 18.118294 213 213 213 0
-4.099283 -0.694794 18.164541 213 213 213 0
-4.032725 -0.695297 18.177710 213 213 213 0
-3.964035 -0.695445 18.181562 213 213 213 0
-3.905220 -0.697361 18.231651 213 213 213 0
-3.840697 -0.698309 18.256434 213 213 213 0
-3.771169 -0.698365 18.257900 213 213 213 0
-3.718314 -0.701569 18.341665 214 214 214 0
-3.651336 -0.702180 18.357646 213 213 213 0
-3.582595 -0.702470 18.365218 213 213 213 0
-3.522700 -0.704540 18.419348 212 212 212 0
-3.457507 -0.705614 18.447416 213 213 213 0
-3.386040 -0.705425 18.442485 213 213 213 0
-3.324545 -0.707350 18.492810 213 213 213 0
-3.262313 -0.709199 18.541139 214 214 214 0
-3.198411 -0.710758 18.581907 213 213 213 0
-3.126514 -0.710571 18.577030 214 214 214 0
-3.059913 -0.711608 18.604123 213 213 213 0
-3.001961 -0.714753 18.686345 214 214 214 0
-2.931268 -0.714943 18.691330 214 214 214 0
-2.865036 -0.716259 18.725725 214 214 214 0
-2.797869 -0.717402 18.755615 214 214 214 0
-2.730497 -0.718552 18.785672 213 213 213 0
-2.662857 -0.719691 18.815453 214 214 214 0
-2.594080 -0.720578 18.838634 214 214 214 0
-2.530053 -0.722872 18.898622 214 214 214 0
-2.460865 -0.723784 18.922455 214 214 214 0
-2.391488 -0.724693 18.946229 214 214 214 0
-2.323423 -0.726070 18.982211 214 214 214 0
-2.256419 -0.727877 19.029463 213 213 213 0
-2.183053 -0.727684 19.024423 213 213 213 0
-2.116180 -0.729717 19.077574 213 213 213 0
-2.046870 -0.731025 19.111763 214 214 214 0
-1.975446 -0.731647 19.128016 214 214 214 0
-1.907930 -0.733819 19.184815 214 214 214 0
-1.836340 -0.734536 19.203555 213 213 213 0
-1.767059 -0.736274 19.249005 213 213 213 0
-1.695168 -0.737030 19.268749 213 213 213 0
-1.624930 -0.738604 19.309919 214 214 214 0
-1.553889 -0.739947 19.345020 214 214 214 0
-1.482149 -0.741074 19.374492 214 214 214 0
-1.410313 -0.742270 19.405758 214 214 214 0
-1.339240 -0.744022 19.451560 214 214 214 0
-1.265888 -0.744640 19.467716 213 213 213 0
-1.194315 -0.746447 19.514948 213 213 213 0
-1.121876 -0.747917 19.553391 214 214 214 0
-1.047683 -0.748345 19.564573 213 213 213 0
-0.975668 -0.750513 19.621267 213 213 213 0
-0.902356 -0.751963 19.659176 213 213 213 0
-0.828194 -0.752904 19.683764 213 213 213 0
-0.754248 -0.754248 19.718908 214 214 214 0
-0.679613 -0.755125 19.741842 213 213 213 0
-0.605560 -0.756949 19.789527 213 213 213 0
-0.530950 -0.758500 19.830076 214 214 214 0
-0.455914 -0.759857 19.865532 214 214 214 0
-0.380472 -0.760945 19.893976 213 213 213 0
-0.304746 -0.761864 19.918012 213 213 213 0
-0.229125 -0.763749 19.967303 213 213 213 0
-0.152888 -0.764441 19.985389 213 213 213 0
-0.076631 -0.766313 20.034319 214 214 214 0
0.000000 -0.768380 20.088373 213 213 213 0
0.076896 -0.768956 20.103420 214 214 214 0
0.154237 -0.771183 20.161651 214 214 214 0
0.231711 -0.772371 20.192705 214 214 214 0
0.309328 -0.773320 20.217526 213 213 213 0
0.387721 -0.775441 20.272976 213 213 213 0
0.465656 -0.776093 20.290021 213 213 213 0
0.544165 -0.777378 20.323605 214 214 214 0
0.623499 -0.779374 20.375793 213 213 213 0
0.702643 -0.780715 20.410848 213 213 213 0
0.782619 -0.782619 20.460618 213 213 213 0
0.861637 -0.783307 20.478606 213 213 213 0
0.941826 -0.784855 20.519086 214 214 214 0
1.022103 -0.786233 20.555116 213 213 213 0
1.103130 -0.787950 20.600000 213 213 213 0
1.184263 -0.789509 20.640758 213 213 213 0
1.264826 -0.790516 20.667091 213 213 213 0
1.346576 -0.792104 20.708594 213 213 213 0
1.428603 -0.793668 20.749500 214 214 214 0
1.510382 -0.794938 20.782690 213 213 213 0
1.593664 -0.796832 20.832214 214 214 214 0
1.674736 -0.797493 20.849503 213 213 213 0
1.759295 -0.799680 20.906660 213 213 213 0
1.842320 -0.801009 20.941405 213 213 213 0
1.925916 -0.802465 20.979476 213 213 213 0
2.009258 -0.803703 21.011849 213 213 213 0
2.094791 -0.805689 21.063757 213 213 213 0
2.179525 -0.807232 21.104095 214 214 214 0
2.264187 -0.808638 21.140872 214 214 214 0
2.350103 -0.810381 21.186419 213 213 213 0
2.433043 -0.811014 21.202991 213 213 213 0
2.519674 -0.812798 21.249619 213 213 213 0
2.606419 -0.814506 21.294271 213 213 213 0
2.692778 -0.815993 21.333157 212 212 212 0
2.781715 -0.818152 21.389583 212 212 212 0
2.869010 -0.819717 21.430515 212 212 212 0
2.954919 -0.820811 21.459110 213 213 213 0
3.044690 -0.822889 21.513441 213 213 213 0
3.133098 -0.824500 21.555544 213 213 213 0
3.220119 -0.825672 21.586184 212 212 212 0
3.306872 -0.826718 21.613542 212 212 212 0
3.397985 -0.828777 21.667365 212 212 212 0
3.489612 -0.830860 21.721828 213 213 213 0
3.579788 -0.832509 21.764940 213 213 213 0
3.666723 -0.833346 21.786824 213 213 213 0
3.759202 -0.835378 21.839955 213 213 213 0
3.849974 -0.836951 21.881066 213 213 213 0
3.940876 -0.838484 21.921158 212 212 212 0
4.031047 -0.839801 21.955593 213 213 213 0
4.122681 -0.841364 21.996432 213 213 213 0
4.219356 -0.843871 22.061991 212 212 212 0
4.310638 -0.845223 22.097339 212 212 212 0
4.403703 -0.846866 22.140285 212 212 212 0
4.495784 -0.848261 22.176759 212 212 212 0
4.591304 -0.850241 22.228535 213 213 213 0
4.686543 -0.852099 22.277089 212 212 212 0
4.781129 -0.853773 22.320865 212 212 212 0
4.873873 -0.855066 22.354654 212 212 212 0
4.970737 -0.857024 22.405845 212 212 212 0
5.069228 -0.859191 22.462515 212 212 212 0
5.162897 -0.860483 22.496285 212 212 212 0
5.259112 -0.862150 22.539859 212 212 212 0
5.354428 -0.863617 22.578232 212 212 212 0
5.458566 -0.866439 22.652002 212 212 212 0
5.552557 -0.867587 22.682016 212 212 212 0
5.649225 -0.869112 22.721871 212 212 212 0
5.748123 -0.870928 22.769353 212 212 212 0
5.852142 -0.873454 22.835401 212 212 212 0
5.949304 -0.874898 22.873140 211 211 211 0
6.046268 -0.876271 22.909038 211 211 211 0
6.145617 -0.877945 22.952819 212 212 212 0
6.248891 -0.880125 23.009816 212 212 212 0
6.351713 -0.882182 23.063593 212 212 212 0
6.447864 -0.883269 23.092002 211 211 211 0
6.550818 -0.885246 23.143678 211 211 211 0
6.658785 -0.887838 23.211451 212 212 212 0
6.760087 -0.889485 23.254515 212 212 212 0
6.860041 -0.890914 23.291879 211 211 211 0
6.966110 -0.893091 23.348787 211 211 211 0
7.069208 -0.894836 23.394417 211 211 211 0
-5.354564 -0.602388 17.498574 213 213 213 0
-5.306451 -0.604532 17.560853 213 213 213 0
-5.252956 -0.606110 17.606691 213 213 213 0
-5.192010 -0.606858 17.628420 213 213 213 0
-5.118563 -0.606146 17.607714 213 213 213 0
-5.067706 -0.608125 17.665207 213 213 213 0
-5.006327 -0.608878 17.687078 213 213 213 0
-4.965178 -0.612145 17.781996 213 213 213 0
-4.885598 -0.610700 17.740006 213 213 213 0
-4.833684 -0.612720 17.798706 214 214 214 0
-4.773837 -0.613779 17.829456 213 213 213 0
-4.709267 -0.614252 17.843200 213 213 213 0
-4.652130 -0.615723 17.885930 213 213 213 0
-4.581355 -0.615406 17.876716 213 213 213 0
-4.529113 -0.617606 17.940634 212 212 212 0
-4.468555 -0.618723 17.973072 213 213 213 0
-4.405671 -0.619548 17.997024 213 213 213 0
-4.341634 -0.620233 18.016949 213 213 213 0
-4.283388 -0.621782 18.061936 213 213 213 0
-4.215715 -0.621991 18.067994 212 212 212 0
-4.156212 -0.623432 18.109858 213 213 213 0
-4.088487 -0.623667 18.116703 213 213 213 0
-4.026923 -0.624867 18.151558 213 213 213 0
-3.967817 -0.626497 18.198910 213 213 213 0
-3.899933 -0.626775 18.206970 213 213 213 0
-3.838614 -0.628137 18.246532 213 213 213 0
-3.776101 -0.629350 18.281777 213 213 213 0
-3.712481 -0.630421 18.312890 213 213 213 0
-3.648041 -0.631392 18.341079 213 213 213 0
-3.582782 -0.632256 18.366176 213 213 213 0
-3.519986 -0.633598 18.405157 214 214 214 0
-3.457175 -0.634991 18.445646 213 213 213 0
-3.384873 -0.634664 18.436129 214 214 214 0
-3.320362 -0.635814 18.469542 213 213 213 0
-3.263116 -0.638436 18.545702 214 214 214 0
-3.195881 -0.639176 18.567213 213 213 213 0
-3.127102 -0.639634 18.580520 213 213 213 0
-3.062139 -0.640913 18.617654 214 214 214 0
-2.998642 -0.642566 18.665685 214 214 214 0
-2.928161 -0.642767 18.671517 213 213 213 0
-2.860246 -0.643555 18.694415 213 213 213 0
-2.796325 -0.645306 18.745267 213 213 213 0
-2.728945 -0.646329 18.774992 214 214 214 0
-2.668034 -0.648981 18.852034 213 213 213 0
-2.595181 -0.648795 18.846629 213 213 213 0
-2.527499 -0.649928 18.879545 213 213 213 0
-2.457232 -0.650444 18.894517 214 214 214 0
-2.388852 -0.651505 18.925349 214 214 214 0
-2.321912 -0.653038 18.969868 213 213 213 0
-2.250690 -0.653426 18.981148 214 214 214 0
-2.186263 -0.655879 19.052405 213 213 213 0
-2.115667 -0.656586 19.072954 214 214 214 0
-2.046640 -0.657849 19.109621 214 214 214 0
-1.975023 -0.658341 19.123917 213 213 213 0
-1.905949 -0.659751 19.164894 213 213 213 0
-1.834579 -0.660449 19.185143 214 214 214 0
-1.765268 -0.661976 19.229500 214 214 214 0
-1.692979 -0.662470 19.243863 213 213 213 0
-1.623613 -0.664205 19.294274 213 213 213 0
-1.552604 -0.665402 19.329031 213 213 213 0
-1.482073 -0.666933 19.373498 213 213 213 0
-1.408654 -0.667257 19.382928 213 213 213 0
-1.337444 -0.668722 19.425477 214 214 214 0
-1.265100 -0.669759 19.455593 214 214 214 0
-1.193267 -0.671213 19.497832 214 214 214 0
-1.120552 -0.672331 19.530312 213 213 213 0
-1.047575 -0.673441 19.562558 213 213 213 0
-0.974425 -0.674602 19.596274 214 214 214 0
-0.900351 -0.675263 19.615480 214 214 214 0
-0.827918 -0.677387 19.677193 214 214 214 0
-0.753872 -0.678485 19.709071 214 214 214 0
-0.679245 -0.679245 19.731147 213 213 213 0
-0.604829 -0.680432 19.765642 214 214 214 0
-0.530405 -0.681950 19.809729 213 213 213 0
-0.455586 -0.683379 19.851244 214 214 214 0
-0.380032 -0.684057 19.870928 213 213 213 0
-0.304494 -0.685111 19.901551 213 213 213 0
-0.228733 -0.686199 19.933157 213 213 213 0
-0.152911 -0.688100 19.988379 213 213 213 0
-0.076545 -0.688906 20.011794 213 213 213 0
0.000000 -0.690835 20.067829 213 213 213 0
0.076835 -0.691517 20.087639 213 213 213 0
0.153946 -0.692755 20.123616 213 213 213 0
0.231244 -0.693731 20.151941 213 213 213 0
0.308898 -0.695021 20.189415 214 214 214 0
0.387275 -0.697096 20.249692 214 214 214 0
0.465215 -0.697822 20.270793 213 213 213 0
0.543399 -0.698656 20.295004 213 213 213 0
0.622684 -0.700520 20.349166 213 213 213 0
0.701904 -0.701904 20.389358 213 213 213 0
0.781839 -0.703655 20.440237 213 213 213 0
0.860765 -0.704262 20.457870 213 213 213 0
0.940555 -0.705416 20.491388 213 213 213 0
1.020431 -0.706452 20.521478 214 214 214 0
1.101203 -0.707916 20.564013 213 213 213 0
1.183516 -0.710109 20.627726 213 213 213 0
1.263391 -0.710657 20.643638 213 213 213 0
1.345710 -0.712435 20.695274 213 213 213 0
1.427118 -0.713559 20.727935 214 214 214 0
1.508961 -0.714771 20.763131 213 213 213 0
1.591509 -0.716179 20.804033 213 213 213 0
1.672982 -0.716992 20.827658 214 214 214 0
1.757096 -0.718812 20.880520 214 214 214 0
1.839631 -0.719856 20.910839 213 213 213 0
1.923700 -0.721388 20.955339 213 213 213 0
2.009253 -0.723331 21.011797 213 213 213 0
2.092033 -0.724165 21.036030 214 214 214 0
2.176617 -0.725539 21.075936 213 213 213 0
2.262676 -0.727289 21.126763 213 213 213 0
2.346942 -0.728361 21.157917 213 213 213 0
2.431938 -0.729581 21.193357 213 213 213 0
2.517386 -0.730854 21.230325 213 213 213 0
2.604239 -0.732442 21.276459 213 213 213 0
2.691013 -0.733913 21.319176 213 213 213 0
2.778230 -0.735414 21.362786 212 212 212 0
2.864925 -0.736695 21.400000 213 213 213 0
2.952501 -0.738125 21.441545 213 213 213 0
3.040485 -0.739577 21.483728 213 213 213 0
3.128343 -0.740923 21.522831 212 212 212 0
3.216270 -0.742216 21.560382 213 213 213 0
3.304010 -0.743402 21.594839 213 213 213 0
3.396276 -0.745524 21.656471 213 213 213 0
3.484462 -0.746670 21.689775 213 213 213 0
3.575385 -0.748336 21.738167 213 213 213 0
3.664287 -0.749513 21.772351 213 213 213 0
3.756072 -0.751214 21.821769 212 212 212 0
3.846016 -0.752481 21.858571 213 213 213 0
3.937286 -0.753948 21.901190 213 213 213 0
4.029982 -0.755622 21.949794 213 213 213 0
4.120155 -0.756763 21.982953 212 212 212 0
4.213883 -0.758499 22.033374 212 212 212 0
4.307359 -0.760122 22.080527 213 213 213 0
4.400694 -0.761659 22.125159 213 213 213 0
4.494260 -0.763176 22.169243 213 213 213 0
4.586907 -0.764484 22.207246 213 213 213 0
4.681244 -0.766022 22.251902 212 212 212 0
4.777122 -0.767752 22.302157 213 213 213 0
4.867244 -0.768512 22.324249 212 212 212 0
4.967413 -0.770806 22.390865 213 213 213 0
5.063696 -0.772428 22.438000 212 212 212 0
5.159280 -0.773892 22.480523 212 212 212 0
5.255167 -0.775352 22.522947 212 212 212 0
5.352892 -0.777033 22.571758 212 212 212 0
5.449751 -0.778536 22.615421 212 212 212 0
5.547603 -0.780132 22.661778 212 212 212 0
5.644060 -0.781485 22.701096 212 212 212 0
5.740795 -0.782836 22.740323 212 212 212 0
5.844990 -0.785148 22.807492 212 212 212 0
5.942358 -0.786489 22.846436 212 212 212 0
6.041030 -0.787960 22.889192 212 212 212 0
6.138477 -0.789233 22.926151 212 212 212 0
6.241725 -0.791205 22.983429 212 212 212 0
6.340858 -0.792607 23.024176 211 211 211 0
6.442428 -0.794272 23.072533 211 211 211 0
6.545258 -0.796045 23.124036 211 211 211 0
6.650197 -0.798024 23.181514 211 211 211 0
6.751401 -0.799508 23.224634 211 211 211 0
6.852085 -0.800893 23.264868 212 212 212 0
6.956621 -0.802687 23.316980 211 211 211 0
7.062984 -0.804644 23.373821 211 211 211 0
-5.358961 -0.535896 17.512946 213 213 213 0
-5.305425 -0.537258 17.557457 213 213 213 0
-5.251459 -0.538611 17.601674 213 213 213 0
-5.188039 -0.539017 17.614936 213 213 213 0
-5.120651 -0.539016 17.614900 213 213 213 0
-5.066275 -0.540403 17.660219 213 213 213 0
-5.003773 -0.540948 17.678054 213 213 213 0
-4.948557 -0.542308 17.722473 214 214 214 0
-4.883958 -0.542662 17.734054 214 214 214 0
-4.824132 -0.543564 17.763536 212 212 212 0
-4.769187 -0.545050 17.812091 213 213 213 0
-4.703046 -0.545281 17.819632 213 213 213 0
-4.642497 -0.546176 17.848892 213 213 213 0
-4.584442 -0.547396 17.888760 213 213 213 0
-4.518826 -0.547736 17.899884 213 213 213 0
-4.466738 -0.549752 17.965762 214 214 214 0
-4.396749 -0.549594 17.960574 213 213 213 0
-4.334221 -0.550377 17.986187 213 213 213 0
-4.273540 -0.551425 18.020410 214 214 214 0
-4.217752 -0.553148 18.076725 214 214 214 0
-4.152092 -0.553612 18.091905 213 213 213 0
-4.081255 -0.553391 18.084657 213 213 213 0
-4.022126 -0.554776 18.129933 212 212 212 0
-3.960505 -0.555860 18.165373 213 213 213 0
-3.897339 -0.556763 18.194862 213 213 213 0
-3.839088 -0.558413 18.248784 213 213 213 0
-3.770827 -0.558641 18.256243 213 213 213 0
-3.710681 -0.560103 18.304011 213 213 213 0
-3.651911 -0.561832 18.360537 213 213 213 0
-3.579500 -0.561490 18.349354 213 213 213 0
-3.519501 -0.563120 18.402617 214 214 214 0
-3.453136 -0.563777 18.424097 213 213 213 0
-3.389059 -0.564843 18.458926 213 213 213 0
-3.324241 -0.565828 18.491120 213 213 213 0
-3.259861 -0.566932 18.527199 214 214 214 0
-3.193553 -0.567743 18.553684 214 214 214 0
-3.123253 -0.567864 18.557656 213 213 213 0
-3.056986 -0.568742 18.586328 213 213 213 0
-2.993641 -0.570217 18.634551 213 213 213 0
-2.924138 -0.570564 18.645867 213 213 213 0
-2.859776 -0.571955 18.691347 213 213 213 0
-2.792424 -0.572805 18.719116 214 214 214 0
-2.725286 -0.573744 18.749819 213 213 213 0
-2.661610 -0.575483 18.806644 213 213 213 0
-2.591491 -0.575887 18.819830 213 213 213 0
-2.524970 -0.577136 18.860650 214 214 214 0
-2.453306 -0.577249 18.864331 214 214 214 0
-2.386642 -0.578580 18.907836 214 214 214 0
-2.317851 -0.579463 18.936695 213 213 213 0
-2.250570 -0.580792 18.980139 214 214 214 0
-2.183718 -0.582325 19.030221 214 214 214 0
-2.113195 -0.582950 19.050668 213 213 213 0
-2.045526 -0.584436 19.099216 213 213 213 0
-1.974120 -0.584924 19.115174 213 213 213 0
-1.903489 -0.585689 19.140156 214 214 214 0
-1.832842 -0.586509 19.166971 213 213 213 0
-1.763830 -0.587943 19.213830 214 214 214 0
-1.693356 -0.588993 19.248145 213 213 213 0
-1.622528 -0.590010 19.281384 214 214 214 0
-1.551776 -0.591153 19.318720 213 213 213 0
-1.480035 -0.592014 19.346867 214 214 214 0
-1.408369 -0.592998 19.379006 213 213 213 0
-1.336052 -0.593801 19.405256 214 214 214 0
-1.264504 -0.595061 19.446426 214 214 214 0
-1.191575 -0.595787 19.470172 213 213 213 0
-1.120379 -0.597536 19.527308 213 213 213 0
-1.047459 -0.598548 19.560393 213 213 213 0
-0.972850 -0.598677 19.564601 213 213 213 0
-0.900607 -0.600404 19.621060 213 213 213 0
-0.826740 -0.601265 19.649196 214 214 214 0
-0.753154 -0.602523 19.690293 214 214 214 0
-0.678218 -0.602860 19.701323 214 214 214 0
-0.605019 -0.605019 19.771859 214 214 214 0
-0.529857 -0.605551 19.789234 213 213 213 0
-0.454849 -0.606466 19.819139 214 214 214 0
-0.379984 -0.607974 19.868421 214 214 214 0
-0.304110 -0.608220 19.876458 213 213 213 0
-0.228772 -0.610059 19.936577 213 213 213 0
-0.152784 -0.611137 19.971810 213 213 213 0
-0.076460 -0.611676 19.989426 214 214 214 0
0.000000 -0.613499 20.049002 214 214 214 0
0.076719 -0.613754 20.057333 213 213 213 0
0.153855 -0.615420 20.111775 213 213 213 0
0.231273 -0.616727 20.154481 213 213 213 0
0.308626 -0.617252 20.171640 213 213 213 0
0.386760 -0.618816 20.222741 213 213 213 0
0.464720 -0.619627 20.249242 214 214 214 0
0.543285 -0.620897 20.290763 213 213 213 0
0.622401 -0.622401 20.339910 213 213 213 0
0.701290 -0.623369 20.371541 213 213 213 0
0.780567 -0.624454 20.406993 214 214 214 0
0.860014 -0.625465 20.440030 213 213 213 0
0.940347 -0.626898 20.486859 214 214 214 0
1.019950 -0.627661 20.511806 214 214 214 0
1.100827 -0.629044 20.556995 214 214 214 0
1.182204 -0.630509 20.604871 213 213 213 0
1.262636 -0.631318 20.631314 213 213 213 0
1.343660 -0.632311 20.663744 213 213 213 0
1.425829 -0.633702 20.709214 214 214 214 0
1.508209 -0.635035 20.752794 214 214 214 0
1.591144 -0.636457 20.799264 213 213 213 0
1.671543 -0.636778 20.809748 213 213 213 0
1.754627 -0.638046 20.851182 213 213 213 0
1.838229 -0.639384 20.894899 213 213 213 0
1.923032 -0.641011 20.948057 213 213 213 0
2.005999 -0.641920 20.977762 213 213 213 0
2.089115 -0.642805 21.006686 213 213 213 0
2.174121 -0.644184 21.051762 213 213 213 0
2.261490 -0.646140 21.115687 213 213 213 0
2.346386 -0.647279 21.152908 213 213 213 0
2.429684 -0.647916 21.173719 214 214 214 0
2.514780 -0.648975 21.208345 214 214 214 0
2.603190 -0.650798 21.267895 212 212 212 0
2.688886 -0.651851 21.302326 213 213 213 0
2.776741 -0.653351 21.351337 213 213 213 0
2.863412 -0.654494 21.388702 212 212 212 0
2.950811 -0.655736 21.429275 213 213 213 0
3.038700 -0.657016 21.471115 213 213 213 0
3.125058 -0.657907 21.500224 213 213 213 0
3.213871 -0.659256 21.544302 213 213 213 0
3.300879 -0.660176 21.574370 213 213 213 0
3.391680 -0.661791 21.627163 213 213 213 0
3.481062 -0.663059 21.668608 213 213 213 0
3.572099 -0.664577 21.718187 213 213 213 0
3.660773 -0.665595 21.751474 213 213 213 0
3.753474 -0.667284 21.806673 213 213 213 0
3.844100 -0.668539 21.847684 213 213 213 0
3.935431 -0.669861 21.890871 213 213 213 0
4.024803 -0.670800 21.921585 213 213 213 0
4.117546 -0.672252 21.969031 212 212 212 0
4.211327 -0.673812 22.020009 213 213 213 0
4.302890 -0.674963 22.057618 212 212 212 0
4.395532 -0.676236 22.099206 212 212 212 0
4.486790 -0.677251 22.132394 213 213 213 0
4.582506 -0.678890 22.185942 213 213 213 0
4.675258 -0.680038 22.223451 213 213 213 0
4.772672 -0.681810 22.281380 213 213 213 0
4.865044 -0.682813 22.314157 212 212 212 0
4.962218 -0.684444 22.367448 212 212 212 0
5.058531 -0.685903 22.415117 212 212 212 0
5.156432 -0.687524 22.468115 212 212 212 0
5.248869 -0.688376 22.495957 211 211 211 0
5.346207 -0.689833 22.543569 212 212 212 0
5.443376 -0.691222 22.588965 212 212 212 0
5.541941 -0.692743 22.638646 213 213 213 0
5.638156 -0.693927 22.677350 212 212 212 0
5.737316 -0.695432 22.726543 212 212 212 0
5.838989 -0.697193 22.784074 212 212 212 0
5.936182 -0.698374 22.822693 212 212 212 0
6.034495 -0.699652 22.864429 211 211 211 0
6.133868 -0.701014 22.908939 212 212 212 0
6.234973 -0.702532 22.958568 212 212 212 0
6.336202 -0.704022 23.007268 212 212 212 0
6.436188 -0.705336 23.050185 212 212 212 0
6.538592 -0.706875 23.100485 212 212 212 0
6.644542 -0.708751 23.161803 212 212 212 0
6.744419 -0.709939 23.200616 212 212 212 0
6.845887 -0.711261 23.243823 212 212 212 0
6.945358 -0.712344 23.279230 212 212 212 0
7.053388 -0.714267 23.342065 211 211 211 0
-5.376206 -0.470418 17.569302 213 213 213 0
-5.300712 -0.469683 17.541863 213 213 213 0
-5.232611 -0.469593 17.538498 212 212 212 0
-5.185388 -0.471399 17.605935 213 213 213 0
-5.124689 -0.472011 17.628790 214 214 214 0
-5.063874 -0.472628 17.651848 212 212 212 0
-4.998506 -0.472832 17.659444 214 214 214 0
-4.938891 -0.473592 17.687853 213 213 213 0
-4.890587 -0.475474 17.758123 213 213 213 0
-4.815472 -0.474765 17.731648 213 213 213 0
-4.756684 -0.475668 17.765393 213 213 213 0
-4.702697 -0.477085 17.818309 213 213 213 0
-4.627937 -0.476405 17.792914 213 213 213 0
-4.586481 -0.479185 17.896717 213 213 213 0
-4.522580 -0.479668 17.914756 213 213 213 0
-4.465982 -0.480952 17.962724 213 213 213 0
-4.396846 -0.480905 17.960972 213 213 213 0
-4.337255 -0.481917 17.998776 213 213 213 0
-4.264870 -0.481518 17.983852 213 213 213 0
-4.208850 -0.482983 18.038572 213 213 213 0
-4.153572 -0.484583 18.098352 213 213 213 0
-4.086229 -0.484807 18.106698 213 213 213 0
-4.017204 -0.484835 18.107749 214 214 214 0
-3.960361 -0.486360 18.164712 213 213 213 0
-3.894222 -0.486778 18.180310 213 213 213 0
-3.828145 -0.487218 18.196767 214 214 214 0
-3.780202 -0.490026 18.301630 213 213 213 0
-3.702047 -0.488950 18.261422 213 213 213 0
-3.641457 -0.490196 18.307977 214 214 214 0
-3.577610 -0.491044 18.339663 214 214 214 0
-3.509997 -0.491400 18.352925 214 214 214 0
-3.443296 -0.491899 18.371593 214 214 214 0
-3.383695 -0.493455 18.429709 213 213 213 0
-3.318804 -0.494290 18.460878 213 213 213 0
-3.259208 -0.495966 18.523489 213 213 213 0
-3.187827 -0.495884 18.520420 214 214 214 0
-3.119154 -0.496229 18.533297 214 214 214 0
-3.057798 -0.497781 18.591264 213 213 213 0
-2.989879 -0.498313 18.611137 214 214 214 0
-2.922899 -0.499032 18.637965 214 214 214 0
-2.858931 -0.500313 18.685826 213 213 213 0
-2.788112 -0.500430 18.690211 214 214 214 0
-2.724851 -0.501946 18.746826 213 213 213 0
-2.653226 -0.501962 18.747403 213 213 213 0
-2.590615 -0.503731 18.813471 213 213 213 0
-2.521897 -0.504379 18.837700 214 214 214 0
-2.453633 -0.505160 18.866846 214 214 214 0
-2.385448 -0.506004 18.898382 214 214 214 0
-2.317105 -0.506867 18.930594 214 214 214 0
-2.249507 -0.507953 18.971172 214 214 214 0
-2.181013 -0.508903 19.006653 214 214 214 0
-2.110398 -0.509406 19.025451 213 213 213 0
-2.041623 -0.510406 19.062771 213 213 213 0
-1.972833 -0.511475 19.102712 213 213 213 0
-1.903052 -0.512360 19.135763 213 213 213 0
-1.830677 -0.512590 19.144338 213 213 213 0
-1.762325 -0.514011 19.197441 214 214 214 0
-1.691930 -0.514935 19.231939 214 214 214 0
-1.620630 -0.515655 19.258821 213 213 213 0
-1.549934 -0.516645 19.295782 214 214 214 0
-1.478801 -0.517580 19.330734 213 213 213 0
-1.407159 -0.518427 19.362357 214 214 214 0
-1.335085 -0.519200 19.391214 214 214 214 0
-1.263685 -0.520341 19.433840 213 213 213 0
-1.191385 -0.521231 19.467076 214 214 214 0
-1.118262 -0.521856 19.490407 214 214 214 0
-1.045345 -0.522673 19.520918 214 214 214 0
-0.972331 -0.523563 19.554173 214 214 214 0
-0.899366 -0.524630 19.594033 214 214 214 0
-0.826059 -0.525674 19.633004 213 213 213 0
-0.752514 -0.526760 19.673567 213 213 213 0
-0.677452 -0.526907 19.679067 213 213 213 0
-0.604444 -0.528888 19.753069 213 213 213 0
-0.529362 -0.529362 19.770741 214 214 214 0
-0.454647 -0.530422 19.810334 213 213 213 0
-0.379407 -0.531170 19.838290 213 213 213 0
-0.304240 -0.532420 19.884976 213 213 213 0
-0.228495 -0.533154 19.912392 214 214 214 0
-0.152581 -0.534035 19.945290 213 213 213 0
-0.076433 -0.535032 19.982535 213 213 213 0
0.000000 -0.536273 20.028857 213 213 213 0
0.076771 -0.537399 20.070929 214 214 214 0
0.153785 -0.538246 20.102556 214 214 214 0
0.230996 -0.538990 20.130333 214 214 214 0
0.308508 -0.539889 20.163904 214 214 214 0
0.386249 -0.540749 20.196041 213 213 213 0
0.464389 -0.541787 20.234810 213 213 213 0
0.542605 -0.542605 20.265368 213 213 213 0
0.621332 -0.543666 20.304969 214 214 214 0
0.700745 -0.545024 20.355702 214 214 214 0
0.780064 -0.546045 20.393839 214 214 214 0
0.859933 -0.547230 20.438093 214 214 214 0
0.939090 -0.547802 20.459471 213 213 213 0
1.018733 -0.548549 20.487346 214 214 214 0
1.099579 -0.549789 20.533687 213 213 213 0
1.180867 -0.551071 20.581556 214 214 214 0
1.261086 -0.551725 20.605984 213 213 213 0
1.341844 -0.552524 20.635824 213 213 213 0
1.424645 -0.554029 20.692016 213 213 213 0
1.506799 -0.555136 20.733387 214 214 214 0
1.589719 -0.556401 20.780634 214 214 214 0
1.670755 -0.556918 20.799942 213 213 213 0
1.753294 -0.557866 20.835347 214 214 214 0
1.836204 -0.558845 20.871890 214 214 214 0
1.921711 -0.560499 20.933667 213 213 213 0
2.003809 -0.561066 20.954862 214 214 214 0
2.088198 -0.562207 20.997463 213 213 213 0
2.172298 -0.563188 21.034114 212 212 212 0
2.256802 -0.564201 21.071916 213 213 213 0
2.342805 -0.565505 21.120618 214 214 214 0
2.427506 -0.566418 21.154735 213 213 213 0
2.511837 -0.567189 21.183530 213 213 213 0
2.599904 -0.568729 21.241047 213 213 213 0
2.685075 -0.569561 21.272135 213 213 213 0
2.773902 -0.571097 21.329502 213 213 213 0
2.859816 -0.571963 21.361837 212 212 212 0
2.946451 -0.572921 21.397612 213 213 213 0
3.035286 -0.574243 21.446996 213 213 213 0
3.123164 -0.575320 21.487196 213 213 213 0
3.211689 -0.576457 21.529671 212 212 212 0
3.297863 -0.577126 21.554663 213 213 213 0
3.391302 -0.579003 21.624751 213 213 213 0
3.480657 -0.580109 21.666086 213 213 213 0
3.568861 -0.580977 21.698498 213 213 213 0
3.658221 -0.581990 21.736308 213 213 213 0
3.749818 -0.583305 21.785434 213 213 213 0
3.837049 -0.583899 21.807610 213 213 213 0
3.932007 -0.585618 21.871824 213 213 213 0
4.020686 -0.586350 21.899164 213 213 213 0
4.109990 -0.587141 21.928720 213 213 213 0
4.205566 -0.588779 21.989887 213 213 213 0
4.298870 -0.590041 22.037014 213 213 213 0
4.393470 -0.591429 22.088838 213 213 213 0
4.483389 -0.592146 22.115617 212 212 212 0
4.579484 -0.593637 22.171311 212 212 212 0
4.672736 -0.594712 22.211459 212 212 212 0
4.767170 -0.595896 22.255695 212 212 212 0
4.862042 -0.597093 22.300387 212 212 212 0
4.957541 -0.598324 22.346366 212 212 212 0
5.054024 -0.599630 22.395143 212 212 212 0
5.147816 -0.600579 22.430571 212 212 212 0
5.243206 -0.601679 22.471687 212 212 212 0
5.340081 -0.602912 22.517734 212 212 212 0
5.439634 -0.604404 22.573437 212 212 212 0
5.536328 -0.605536 22.615719 212 212 212 0
5.634060 -0.606745 22.660876 212 212 212 0
5.730586 -0.607789 22.699884 212 212 212 0
5.834378 -0.609562 22.766082 212 212 212 0
5.933810 -0.610833 22.813571 212 212 212 0
6.028179 -0.611554 22.840498 212 212 212 0
6.126595 -0.612659 22.881773 212 212 212 0
6.229862 -0.614212 22.939749 211 211 211 0
6.332803 -0.615689 22.994927 212 212 212 0
6.430662 -0.616639 23.030396 212 212 212 0
6.533589 -0.618042 23.082807 212 212 212 0
6.638651 -0.619607 23.141267 212 212 212 0
6.737890 -0.620595 23.178155 211 211 211 0
6.838017 -0.621638 23.217101 212 212 212 0
6.940136 -0.622833 23.261725 211 211 211 0
7.046032 -0.624332 23.317719 212 212 212 0
-5.351351 -0.401351 17.488075 213 213 213 0
-5.280818 -0.401075 17.476026 214 214 214 0
-5.225972 -0.401998 17.516247 213 213 213 0
-5.181559 -0.403758 17.592935 213 213 213 0
-5.117416 -0.404006 17.603769 212 212 212 0
-5.061655 -0.404932 17.644113 213 213 213 0
-5.002866 -0.405638 17.674848 213 213 213 0
-4.939489 -0.405985 17.689994 214 214 214 0
-4.884923 -0.407077 17.737555 213 213 213 0
-4.830674 -0.408226 17.787624 213 213 213 0
-4.763606 -0.408309 17.791245 214 214 214 0
-4.691101 -0.407922 17.774373 213 213 213 0
-4.638783 -0.409304 17.834613 213 213 213 0
-4.581968 -0.410325 17.879105 214 214 214 0
-4.515221 -0.410475 17.885605 213 213 213 0
-4.456647 -0.411383 17.925177 213 213 213 0
-4.395833 -0.412109 17.956835 214 214 214 0
-4.324436 -0.411851 17.945581 213 213 213 0
-4.264065 -0.412651 17.980455 213 213 213 0
-4.206640 -0.413768 18.029101 213 213 213 0
-4.147253 -0.414725 18.070821 213 213 213 0
-4.082825 -0.415203 18.091614 213 213 213 0
-4.014881 -0.415332 18.097276 213 213 213 0
-3.953361 -0.416143 18.132605 213 213 213 0
-3.891828 -0.416982 18.169132 214 214 214 0
-3.834006 -0.418255 18.224630 213 213 213 0
-3.767549 -0.418617 18.240371 213 213 213 0
-3.703887 -0.419308 18.270498 213 213 213 0
-3.633978 -0.419305 18.270379 213 213 213 0
-3.573895 -0.420458 18.320622 213 213 213 0
-3.513571 -0.421629 18.371615 213 213 213 0
-3.446063 -0.421967 18.386359 213 213 213 0
-3.376694 -0.422087 18.391579 214 214 214 0
-3.317942 -0.423567 18.456083 213 213 213 0
-3.253417 -0.424359 18.490575 213 213 213 0
-3.183531 -0.424471 18.495460 214 214 214 0
-3.121812 -0.425702 18.549093 213 213 213 0
-3.056191 -0.426445 18.581494 213 213 213 0
-2.987802 -0.426829 18.598209 214 214 214 0
-2.916945 -0.426870 18.600000 213 213 213 0
-2.854277 -0.428142 18.655405 214 214 214 0
-2.790017 -0.429233 18.702978 213 213 213 0
-2.721973 -0.429785 18.727022 213 213 213 0
-2.651499 -0.429973 18.735201 213 213 213 0
-2.587901 -0.431317 18.793765 213 213 213 0
-2.520927 -0.432159 18.830452 214 214 214 0
-2.450224 -0.432392 18.840630 213 213 213 0
-2.383430 -0.433351 18.882392 214 214 214 0
-2.315424 -0.434142 18.916864 214 214 214 0
-2.247102 -0.434923 18.950891 213 213 213 0
-2.177483 -0.435497 18.975889 214 214 214 0
-2.108339 -0.436208 19.006890 213 213 213 0
-2.040370 -0.437222 19.051069 213 213 213 0
-1.968766 -0.437504 19.063338 214 214 214 0
-1.901213 -0.438741 19.117275 213 213 213 0
-1.829316 -0.439036 19.130106 214 214 214 0
-1.760749 -0.440187 19.180272 214 214 214 0
-1.690305 -0.440949 19.213466 214 214 214 0
-1.618929 -0.441526 19.238613 213 213 213 0
-1.548817 -0.442519 19.281875 214 214 214 0
-1.477574 -0.443272 19.314687 213 213 213 0
-1.405852 -0.443953 19.344365 214 214 214 0
-1.333826 -0.444609 19.372928 214 214 214 0
-1.262909 -0.445733 19.421901 213 213 213 0
-1.188640 -0.445740 19.422221 213 213 213 0
-1.117751 -0.447100 19.481497 214 214 214 0
-1.044338 -0.447574 19.502116 214 214 214 0
-0.971881 -0.448560 19.545115 214 214 214 0
-0.899186 -0.449593 19.590108 213 213 213 0
-0.825343 -0.450187 19.615994 213 213 213 0
-0.751858 -0.451115 19.656420 213 213 213 0
-0.678165 -0.452110 19.699794 214 214 214 0
-0.603598 -0.452699 19.725438 214 214 214 0
-0.528860 -0.453309 19.752018 213 213 213 0
-0.454197 -0.454197 19.790702 213 213 213 0
-0.379328 -0.455194 19.834141 213 213 213 0
-0.303548 -0.455322 19.839736 214 214 214 0
-0.228157 -0.456313 19.882940 214 214 214 0
-0.152499 -0.457496 19.934478 214 214 214 0
-0.076402 -0.458413 19.974417 213 213 213 0
0.000000 -0.459279 20.012161 214 214 214 0
0.076670 -0.460021 20.044500 214 214 214 0
0.153602 -0.460806 20.078675 213 213 213 0
0.230641 -0.461282 20.099426 213 213 213 0
0.308251 -0.462376 20.147113 213 213 213 0
0.386101 -0.463321 20.188271 214 214 214 0
0.463760 -0.463760 20.207386 213 213 213 0
0.542126 -0.464680 20.247478 213 213 213 0
0.621150 -0.465863 20.299029 213 213 213 0
0.699765 -0.466510 20.327232 213 213 213 0
0.779237 -0.467542 20.372222 213 213 213 0
0.858397 -0.468216 20.401589 213 213 213 0
0.938622 -0.469311 20.449290 214 214 214 0
1.017984 -0.469839 20.472275 213 213 213 0
1.099148 -0.471064 20.525645 213 213 213 0
1.180077 -0.472031 20.567784 213 213 213 0
1.259159 -0.472185 20.574499 213 213 213 0
1.341600 -0.473506 20.632058 213 213 213 0
1.423022 -0.474341 20.668440 213 213 213 0
1.504072 -0.474970 20.695859 214 214 214 0
1.586898 -0.476070 20.743770 213 213 213 0
1.669414 -0.476976 20.783247 213 213 213 0
1.752147 -0.477858 20.821712 213 213 213 0
1.834713 -0.478621 20.854931 213 213 213 0
1.919217 -0.479804 20.906502 213 213 213 0
2.002232 -0.480536 20.938369 213 213 213 0
2.086306 -0.481455 20.978444 213 213 213 0
2.170282 -0.482285 21.014595 213 213 213 0
2.255967 -0.483422 21.064121 213 213 213 0
2.340382 -0.484217 21.098776 213 213 213 0
2.425382 -0.485076 21.136223 213 213 213 0
2.508670 -0.485549 21.156817 214 214 214 0
2.597136 -0.486963 21.218430 213 213 213 0
2.682388 -0.487707 21.250849 213 213 213 0
2.769889 -0.488804 21.298648 213 213 213 0
2.856595 -0.489702 21.337776 213 213 213 0
2.944982 -0.490830 21.386943 213 213 213 0
3.031829 -0.491648 21.422572 214 214 214 0
3.121271 -0.492832 21.474175 213 213 213 0
3.208274 -0.493581 21.506778 213 213 213 0
3.292810 -0.493922 21.521634 213 213 213 0
3.386052 -0.495520 21.591274 213 213 213 0
3.474967 -0.496424 21.630669 212 212 212 0
3.566101 -0.497596 21.681723 213 213 213 0
3.653284 -0.498175 21.706974 212 212 212 0
3.745938 -0.499458 21.762893 213 213 213 0
3.835844 -0.500327 21.800759 213 213 213 0
3.925998 -0.501191 21.838399 213 213 213 0
4.017078 -0.502135 21.879508 212 212 212 0
4.106283 -0.502810 21.908939 213 213 213 0
4.202876 -0.504345 21.975820 213 213 213 0
4.296071 -0.505420 22.022661 213 213 213 0
4.386806 -0.506170 22.055336 212 212 212 0
4.480251 -0.507198 22.100142 212 212 212 0
4.571401 -0.507933 22.132174 212 212 212 0
4.668995 -0.509345 22.193678 213 213 213 0
4.762087 -0.510224 22.231967 213 213 213 0
4.856787 -0.511241 22.276286 212 212 212 0
4.949884 -0.512057 22.311850 212 212 212 0
5.046410 -0.513194 22.361404 212 212 212 0
5.144610 -0.514461 22.416600 212 212 212 0
5.237598 -0.515174 22.447650 212 212 212 0
5.333349 -0.516131 22.489349 212 212 212 0
5.432318 -0.517364 22.543078 212 212 212 0
5.530688 -0.518502 22.592682 212 212 212 0
5.626982 -0.519414 22.632405 212 212 212 0
5.722692 -0.520245 22.668614 212 212 212 0
5.829727 -0.522065 22.747937 211 211 211 0
5.927032 -0.522973 22.787513 211 211 211 0
6.022753 -0.523718 22.819942 212 212 212 0
6.119454 -0.524525 22.855104 212 212 212 0
6.225002 -0.526057 22.921854 211 211 211 0
6.324826 -0.527069 22.965963 212 212 212 0
6.421239 -0.527773 22.996647 211 211 211 0
6.527067 -0.529222 23.059767 211 211 211 0
6.629729 -0.530378 23.110166 211 211 211 0
6.731851 -0.531462 23.157382 212 212 212 0
6.832398 -0.532395 23.198022 211 211 211 0
6.932675 -0.533283 23.236719 211 211 211 0
7.039299 -0.534630 23.295438 211 211 211 0
-5.343534 -0.333971 17.462531 213 213 213 0
-5.290582 -0.334847 17.508338 213 213 213 0
-5.237044 -0.335708 17.553356 214 214 214 0
-5.171958 -0.335841 17.560337 213 213 213 0
-5.109723 -0.336166 17.577306 213 213 213 0
-5.058850 -0.337257 17.634335 213 213 213 0
-4.995211 -0.337514 17.647806 213 213 213 0
-4.927785 -0.337519 17.648078 214 214 214 0
-4.873210 -0.338417 17.695027 214 214 214 0
-4.817209 -0.339240 17.738044 213 213 213 0
-4.761396 -0.340100 17.782993 213 213 213 0
-4.702884 -0.340789 17.819016 213 213 213 0
-4.638371 -0.341057 17.833028 213 213 213 0
-4.578729 -0.341696 17.866469 213 213 213 0
-4.506574 -0.341407 17.851353 212 212 212 0
-4.452720 -0.342517 17.909382 213 213 213 0
-4.384708 -0.342555 17.911388 213 213 213 0
-4.322959 -0.343092 17.939450 213 213 213 0
-4.256630 -0.343277 17.949104 213 213 213 0
-4.199524 -0.344223 17.998604 213 213 213 0
-4.146053 -0.345504 18.065592 214 214 214 0
-4.077665 -0.345565 18.068747 213 213 213 0
-4.019357 -0.346496 18.117451 213 213 213 0
-3.956487 -0.347060 18.146942 214 214 214 0
-3.889354 -0.347264 18.157582 213 213 213 0
-3.826772 -0.347888 18.190240 213 213 213 0
-3.770563 -0.349126 18.254967 214 214 214 0
-3.698975 -0.348960 18.246268 214 214 214 0
-3.635618 -0.349579 18.278621 213 213 213 0
-3.574301 -0.350422 18.322700 214 214 214 0
-3.510911 -0.351091 18.357703 213 213 213 0
-3.444405 -0.351470 18.377509 214 214 214 0
-3.376709 -0.351741 18.391663 214 214 214 0
-3.312989 -0.352446 18.428529 213 213 213 0
-3.250552 -0.353321 18.474293 214 214 214 0
-3.180952 -0.353439 18.480474 214 214 214 0
-3.121064 -0.354666 18.544649 213 213 213 0
-3.050185 -0.354673 18.544979 214 214 214 0
-2.986120 -0.355490 18.587735 214 214 214 0
-2.919933 -0.356089 18.619055 213 213 213 0
-2.851148 -0.356393 18.634954 214 214 214 0
-2.783136 -0.356812 18.656853 214 214 214 0
-2.719205 -0.357790 18.707980 213 213 213 0
-2.654452 -0.358710 18.756064 214 214 214 0
-2.586536 -0.359241 18.783848 213 213 213 0
-2.517037 -0.359577 18.801398 214 214 214 0
-2.449781 -0.360262 18.837222 214 214 214 0
-2.381844 -0.360885 18.869826 214 214 214 0
-2.312876 -0.361387 18.896045 213 213 213 0
-2.245671 -0.362205 18.938827 214 214 214 0
-2.176228 -0.362705 18.964952 213 213 213 0
-2.109234 -0.363661 19.014959 214 214 214 0
-2.037580 -0.363854 19.025023 213 213 213 0
-1.969729 -0.364765 19.072662 213 213 213 0
-1.901309 -0.365636 19.118244 214 214 214 0
-1.829325 -0.365865 19.130196 213 213 213 0
-1.758385 -0.366330 19.154517 214 214 214 0
-1.688474 -0.367060 19.192662 214 214 214 0
-1.618347 -0.367806 19.231691 214 214 214 0
-1.546914 -0.368313 19.258185 214 214 214 0
-1.476890 -0.369223 19.305755 214 214 214 0
-1.406135 -0.370035 19.348260 213 213 213 0
-1.332903 -0.370251 19.359527 214 214 214 0
-1.260766 -0.370813 19.388938 213 213 213 0
-1.188641 -0.371450 19.422243 214 214 214 0
-1.116097 -0.372032 19.452667 214 214 214 0
-1.044409 -0.373003 19.503428 214 214 214 0
-0.971526 -0.373664 19.537987 214 214 214 0
-0.897654 -0.374022 19.556723 214 214 214 0
-0.824497 -0.374771 19.595892 213 213 213 0
-0.750936 -0.375468 19.632317 213 213 213 0
-0.676452 -0.375807 19.650030 213 213 213 0
-0.603089 -0.376931 19.708788 213 213 213 0
-0.528485 -0.377489 19.737989 214 214 214 0
-0.453687 -0.378073 19.768516 214 214 214 0
-0.379039 -0.379039 19.819017 213 213 213 0
-0.303518 -0.379398 19.837810 213 213 213 0
-0.228126 -0.380210 19.880248 213 213 213 0
-0.152367 -0.380917 19.917231 213 213 213 0
-0.076311 -0.381553 19.950507 214 214 214 0
0.000000 -0.382149 19.981671 214 214 214 0
0.076638 -0.383188 20.035949 214 214 214 0
0.153446 -0.383616 20.058334 214 214 214 0
0.230470 -0.384116 20.084494 213 213 213 0
0.307901 -0.384876 20.124257 214 214 214 0
0.385797 -0.385797 20.172367 214 214 214 0
0.463463 -0.386219 20.194478 213 213 213 0
0.541728 -0.386949 20.232603 214 214 214 0
0.620590 -0.387869 20.280709 213 213 213 0
0.699110 -0.388395 20.308214 214 214 214 0
0.778085 -0.389042 20.342088 213 213 213 0
0.857843 -0.389928 20.388417 214 214 214 0
0.937144 -0.390477 20.417077 213 213 213 0
1.016805 -0.391079 20.448572 213 213 213 0
1.097691 -0.392032 20.498425 214 214 214 0
1.177558 -0.392519 20.523894 214 214 214 0
1.258748 -0.393359 20.567782 214 214 214 0
1.340215 -0.394181 20.610770 213 213 213 0
1.421783 -0.394940 20.650450 214 214 214 0
1.502750 -0.395460 20.677669 214 214 214 0
1.585716 -0.396429 20.728307 213 213 213 0
1.667527 -0.397030 20.759746 214 214 214 0
1.750363 -0.397810 20.800509 214 214 214 0
1.833235 -0.398529 20.838133 213 213 213 0
1.917449 -0.399469 20.887248 214 214 214 0
2.001608 -0.400322 20.931854 213 213 213 0
2.084024 -0.400774 20.955497 213 213 213 0
2.168775 -0.401625 21.000000 213 213 213 0
2.254387 -0.402569 21.049364 213 213 213 0
2.338258 -0.403148 21.079633 213 213 213 0
2.423866 -0.403978 21.123013 213 213 213 0
2.507596 -0.404451 21.147760 214 214 214 0
2.594715 -0.405424 21.198648 213 213 213 0
2.680347 -0.406113 21.234680 214 214 214 0
2.769983 -0.407350 21.299371 213 213 213 0
2.853239 -0.407606 21.312713 213 213 213 0
2.942437 -0.408672 21.368459 212 212 212 0
3.029678 -0.409416 21.407373 213 213 213 0
3.117365 -0.410180 21.447302 213 213 213 0
3.204982 -0.410895 21.484715 213 213 213 0
3.291704 -0.411463 21.514406 213 213 213 0
3.382187 -0.412462 21.566631 213 213 213 0
3.470555 -0.413161 21.603205 213 213 213 0
3.563534 -0.414364 21.666111 213 213 213 0
3.650746 -0.414857 21.691895 213 213 213 0
3.740937 -0.415660 21.733841 212 212 212 0
3.831864 -0.416507 21.778144 213 213 213 0
3.922269 -0.417263 21.817654 212 212 212 0
4.013732 -0.418097 21.861287 213 213 213 0
4.103172 -0.418691 21.892342 213 213 213 0
4.199736 -0.419974 21.959403 213 213 213 0
4.291737 -0.420759 22.000446 213 213 213 0
4.384895 -0.421625 22.045726 213 213 213 0
4.473918 -0.422068 22.068903 212 212 212 0
4.569578 -0.423109 22.123349 212 212 212 0
4.660921 -0.423720 22.155298 212 212 212 0
4.755240 -0.424575 22.200000 212 212 212 0
4.851560 -0.425575 22.252313 213 213 213 0
4.944575 -0.426256 22.287918 213 213 213 0
5.044320 -0.427485 22.352144 212 212 212 0
5.140549 -0.428379 22.398905 212 212 212 0
5.235105 -0.429107 22.436965 212 212 212 0
5.329906 -0.429831 22.474828 212 212 212 0
5.426324 -0.430661 22.518201 212 212 212 0
5.522830 -0.431471 22.560580 213 213 213 0
5.622414 -0.432493 22.614032 212 212 212 0
5.720189 -0.433348 22.658701 212 212 212 0
5.820551 -0.434370 22.712131 212 212 212 0
5.918196 -0.435161 22.753542 212 212 212 0
6.015733 -0.435923 22.793342 212 212 212 0
6.113977 -0.436713 22.834649 212 212 212 0
6.219874 -0.438019 22.902972 212 212 212 0
6.317422 -0.438710 22.939077 212 212 212 0
6.418522 -0.439625 22.986917 212 212 212 0
6.520119 -0.440549 23.035218 211 211 211 0
6.621815 -0.441454 23.082578 212 212 212 0
6.727072 -0.442571 23.140943 212 212 212 0
6.824834 -0.443171 23.172342 211 211 211 0
6.926093 -0.443980 23.214657 212 212 212 0
7.032908 -0.445121 23.274288 212 212 212 0
-5.343739 -0.267187 17.463199 213 213 213 0
-5.272736 -0.266974 17.449281 214 214 214 0
-5.215637 -0.267469 17.481607 213 213 213 0
-5.160682 -0.268087 17.522050 213 213 213 0
-5.103125 -0.268586 17.554610 213 213 213 0
-5.051255 -0.269400 17.607862 213 213 213 0
-4.995137 -0.270007 17.647542 213 213 213 0
-4.926469 -0.269944 17.643368 213 213 213 0
-4.878274 -0.271015 17.713413 213 213 213 0
-4.813322 -0.271173 17.723729 213 213 213 0
-4.751246 -0.271500 17.745083 212 212 212 0
-4.691632 -0.271979 17.776383 213 213 213 0
-4.629611 -0.272330 17.799351 213 213 213 0
-4.573699 -0.273057 17.846842 213 213 213 0
-4.497782 -0.272593 17.816527 213 213 213 0
-4.452038 -0.273972 17.906638 214 214 214 0
-4.386440 -0.274153 17.918466 214 214 214 0
-4.322959 -0.274474 17.939449 214 214 214 0
-4.259627 -0.274815 17.961743 214 214 214 0
-4.198498 -0.275311 17.994205 214 214 214 0
-4.132384 -0.275492 18.006029 213 213 213 0
-4.072905 -0.276129 18.047658 214 214 214 0
-4.012959 -0.276756 18.088613 214 214 214 0
-3.949095 -0.277129 18.113038 213 213 213 0
-3.884886 -0.277492 18.136722 213 213 213 0
-3.822814 -0.278023 18.171425 213 213 213 0
-3.759330 -0.278469 18.200582 213 213 213 0
-3.693603 -0.278762 18.219771 213 213 213 0
-3.630682 -0.279283 18.253806 213 213 213 0
-3.569880 -0.279991 18.300038 213 213 213 0
-3.501067 -0.280085 18.306233 214 214 214 0
-3.441478 -0.280937 18.361894 213 213 213 0
-3.374578 -0.281215 18.380054 214 214 214 0
-3.313773 -0.282023 18.432889 214 214 214 0
-3.243597 -0.282052 18.434768 214 214 214 0
-3.180988 -0.282755 18.480688 214 214 214 0
-3.113992 -0.283090 18.502624 213 213 213 0
-3.047371 -0.283476 18.527865 214 214 214 0
-2.981265 -0.283930 18.557519 213 213 213 0
-2.919739 -0.284853 18.617817 214 214 214 0
-2.848873 -0.284887 18.620085 214 214 214 0
-2.785325 -0.285674 18.671527 213 213 213 0
-2.716199 -0.285916 18.687300 214 214 214 0
-2.648947 -0.286373 18.717168 213 213 213 0
-2.582636 -0.286960 18.755530 213 213 213 0
-2.517618 -0.287728 18.805734 213 213 213 0
-2.447778 -0.287974 18.821824 214 214 214 0
-2.381588 -0.288677 18.867796 214 214 214 0
-2.312804 -0.289100 18.895457 213 213 213 0
-2.242301 -0.289329 18.910406 214 214 214 0
-2.174916 -0.289989 18.953512 213 213 213 0
-2.105151 -0.290366 18.978145 213 213 213 0
-2.037560 -0.291080 19.024838 214 214 214 0
-1.966414 -0.291321 19.040561 213 213 213 0
-1.899183 -0.292182 19.096859 213 213 213 0
-1.826698 -0.292272 19.102724 214 214 214 0
-1.757821 -0.292970 19.148378 214 214 214 0
-1.686676 -0.293335 19.172217 214 214 214 0
-1.616077 -0.293832 19.204723 214 214 214 0
-1.546399 -0.294552 19.251772 213 213 213 0
-1.474644 -0.294929 19.276397 214 214 214 0
-1.403323 -0.295436 19.309565 214 214 214 0
-1.332143 -0.296032 19.348478 213 213 213 0
-1.260054 -0.296483 19.377994 214 214 214 0
-1.188429 -0.297107 19.418781 214 214 214 0
-1.115404 -0.297441 19.440588 214 214 214 0
-1.043026 -0.298007 19.477614 214 214 214 0
-0.970397 -0.298584 19.515270 214 214 214 0
-0.897501 -0.299167 19.553408 213 213 213 0
-0.823911 -0.299604 19.581953 214 214 214 0
-0.750407 -0.300163 19.618483 214 214 214 0
-0.675902 -0.300401 19.634033 214 214 214 0
-0.602109 -0.301054 19.676759 213 213 213 0
-0.527909 -0.301662 19.716488 214 214 214 0
-0.453495 -0.302330 19.760149 214 214 214 0
-0.378427 -0.302741 19.787011 214 214 214 0
-0.303186 -0.303186 19.816071 213 213 213 0
-0.227844 -0.303792 19.855689 214 214 214 0
-0.152219 -0.304439 19.897942 213 213 213 0
-0.076289 -0.305155 19.944779 214 214 214 0
0.000000 -0.305380 19.959499 214 214 214 0
0.076568 -0.306272 20.017777 213 213 213 0
0.153406 -0.306812 20.053091 214 214 214 0
0.230470 -0.307294 20.084556 214 214 214 0
0.307511 -0.307511 20.098744 213 213 213 0
0.385107 -0.308086 20.136334 214 214 214 0
0.463293 -0.308862 20.187054 213 213 213 0
0.541384 -0.309362 20.219746 213 213 213 0
0.619813 -0.309907 20.255327 214 214 214 0
0.698831 -0.310591 20.300092 213 213 213 0
0.778486 -0.311394 20.352572 214 214 214 0
0.857307 -0.311748 20.375688 214 214 214 0
0.936858 -0.312286 20.410854 213 213 213 0
1.015751 -0.312539 20.427370 214 214 214 0
1.096509 -0.313288 20.476364 213 213 213 0
1.178098 -0.314160 20.533306 213 213 213 0
1.258773 -0.314693 20.568194 214 214 214 0
1.338760 -0.315002 20.588390 214 214 214 0
1.420586 -0.315686 20.633059 214 214 214 0
1.502796 -0.316378 20.678304 214 214 214 0
1.583422 -0.316684 20.698322 213 213 213 0
1.665744 -0.317284 20.737549 214 214 214 0
1.749286 -0.318052 20.787710 213 213 213 0
1.831015 -0.318437 20.812897 214 214 214 0
1.915212 -0.319202 20.862873 213 213 213 0
1.997996 -0.319679 20.894072 213 213 213 0
2.082171 -0.320334 20.936864 213 213 213 0
2.166014 -0.320891 20.973267 213 213 213 0
2.252507 -0.321787 21.031816 213 213 213 0
2.336192 -0.322233 21.061002 213 213 213 0
2.421759 -0.322901 21.104652 213 213 213 0
2.505434 -0.323282 21.129533 213 213 213 0
2.591967 -0.323996 21.176203 213 213 213 0
2.678911 -0.324717 21.223302 213 213 213 0
